# This PCD file was generated using the MATLABÂ® pcwrite function
# from Computer Vision ToolboxÂ®.
# .PCD v.7 - Point Cloud Data file format
VERSION .7
FIELDS x y z intensity
SIZE 4 4 4 4
TYPE F F F F
COUNT 1 1 1 1
WIDTH 1284
HEIGHT 1
VIEWPOINT 0 0 0 1 0 0 0
POINTS 1284
DATA ascii
nan nan nan 0.000000
nan nan nan 0.000000
nan nan nan 0.000000
nan nan nan 0.000000
294.881927 -40.273479 0.000016 0.337957
284.271698 -27.874336 0.000016 0.242529
279.716309 -22.550911 0.000019 0.242158
277.179260 -19.586071 0.000015 0.216152
275.559540 -17.693274 0.000013 0.258159
274.433777 -16.377703 0.000011 0.256830
273.604370 -15.408449 0.000009 0.259607
nan nan nan 0.000000
nan nan nan 0.000000
nan nan nan 0.000000
nan nan nan 0.000000
nan nan nan 0.000000
nan nan nan 0.000000
nan nan nan 0.000000
nan nan nan 0.000000
nan nan nan 0.000000
294.665283 -40.457470 0.000019 0.337301
284.141937 -27.984596 0.000016 0.228825
279.623840 -22.629496 0.000019 0.209952
277.107513 -19.647018 0.000016 0.206673
275.501068 -17.742958 0.000013 0.215601
274.384521 -16.419563 0.000011 0.196369
273.561890 -15.444544 0.000009 0.220819
nan nan nan 0.000000
nan nan nan 0.000000
nan nan nan 0.000000
nan nan nan 0.000000
nan nan nan 0.000000
nan nan nan 0.000000
nan nan nan 0.000000
nan nan nan 0.000000
nan nan nan 0.000000
294.447388 -40.639942 0.000021 0.338338
284.011383 -28.093945 0.000017 0.233792
279.530792 -22.707436 0.000019 0.226252
277.035370 -19.707466 0.000015 0.224601
275.442230 -17.792238 0.000012 0.227712
274.334961 -16.461079 0.000011 0.233385
273.519165 -15.480339 0.000010 0.238352
nan nan nan 0.000000
nan nan nan 0.000000
nan nan nan 0.000000
nan nan nan 0.000000
nan nan nan 0.000000
nan nan nan 0.000000
nan nan nan 0.000000
nan nan nan 0.000000
nan nan nan 0.000000
294.228271 -40.820938 0.000021 0.337743
283.880096 -28.202375 0.000017 0.225965
279.437225 -22.784721 0.000019 0.219538
276.962799 -19.767408 0.000015 0.203693
275.383057 -17.841103 0.000013 0.271814
274.285095 -16.502247 0.000010 0.217935
273.476166 -15.515835 0.000010 0.242182
nan nan nan 0.000000
nan nan nan 0.000000
nan nan nan 0.000000
nan nan nan 0.000000
nan nan nan 0.000000
nan nan nan 0.000000
nan nan nan 0.000000
nan nan nan 0.000000
nan nan nan 0.000000
294.007843 -41.000366 0.000023 0.337896
283.748047 -28.309896 0.000017 0.239381
279.343109 -22.861359 0.000019 0.217277
276.889801 -19.826839 0.000016 0.251170
275.323578 -17.889553 0.000013 0.225941
274.234985 -16.543064 0.000011 0.205021
273.432953 -15.551031 0.000010 0.235635
nan nan nan 0.000000
nan nan nan 0.000000
nan nan nan 0.000000
nan nan nan 0.000000
nan nan nan 0.000000
nan nan nan 0.000000
nan nan nan 0.000000
nan nan nan 0.000000
nan nan nan 0.000000
293.786194 -41.178261 0.000024 0.338369
283.615265 -28.416487 0.000018 0.228849
279.248444 -22.937332 0.000019 0.222303
276.816376 -19.885761 0.000016 0.216020
275.263733 -17.937590 0.000013 0.226217
274.184570 -16.583532 0.000011 0.220376
273.389496 -15.585924 0.000010 0.208767
nan nan nan 0.000000
nan nan nan 0.000000
nan nan nan 0.000000
nan nan nan 0.000000
nan nan nan 0.000000
nan nan nan 0.000000
nan nan nan 0.000000
nan nan nan 0.000000
nan nan nan 0.000000
293.563293 -41.354584 0.000026 0.339239
283.481720 -28.522154 0.000018 0.233062
279.153259 -23.012644 0.000020 0.230800
276.742584 -19.944172 0.000016 0.203430
275.203552 -17.985207 0.000013 0.251505
274.133881 -16.623648 0.000011 0.217324
273.345764 -15.620513 0.000010 0.236449
nan nan nan 0.000000
nan nan nan 0.000000
nan nan nan 0.000000
nan nan nan 0.000000
nan nan nan 0.000000
nan nan nan 0.000000
nan nan nan 0.000000
nan nan nan 0.000000
nan nan nan 0.000000
293.339203 -41.529377 0.000026 0.338766
283.347443 -28.626883 0.000018 0.227078
279.057587 -23.087292 0.000019 0.235695
276.668365 -20.002060 0.000016 0.213255
275.143036 -18.032402 0.000013 0.197230
274.082886 -16.663410 0.000011 0.210850
273.301819 -15.654797 0.000010 0.238136
nan nan nan 0.000000
nan nan nan 0.000000
nan nan nan 0.000000
nan nan nan 0.000000
nan nan nan 0.000000
nan nan nan 0.000000
nan nan nan 0.000000
nan nan nan 0.000000
nan nan nan 0.000000
293.113861 -41.702583 0.000028 0.337697
283.212463 -28.730667 0.000018 0.230788
278.961334 -23.161261 0.000020 0.247436
276.593719 -20.059429 0.000016 0.242277
275.082214 -18.079170 0.000013 0.217659
274.031647 -16.702812 0.000011 0.223284
273.257629 -15.688770 0.000010 0.202688
nan nan nan 0.000000
nan nan nan 0.000000
nan nan nan 0.000000
nan nan nan 0.000000
nan nan nan 0.000000
nan nan nan 0.000000
nan nan nan 0.000000
nan nan nan 0.000000
nan nan nan 0.000000
292.765625 -41.712456 0.009973 1.000000
283.076721 -28.833511 0.000018 0.230860
278.864624 -23.234566 0.000020 0.237167
276.518707 -20.116280 0.000016 0.228431
275.021057 -18.125515 0.000013 0.246861
273.980103 -16.741856 0.000011 0.215206
273.213196 -15.722437 0.000010 0.299603
nan nan nan 0.000000
nan nan nan 0.000000
nan nan nan 0.000000
nan nan nan 0.000000
nan nan nan 0.000000
nan nan nan 0.000000
nan nan nan 0.000000
nan nan nan 0.000000
nan nan nan 0.000000
292.539032 -41.881672 0.009974 1.000000
282.940308 -28.935406 0.000019 0.221776
278.767365 -23.307194 0.000020 0.231183
276.443298 -20.172606 0.000016 0.225941
274.959564 -18.171436 0.000013 0.221058
273.928314 -16.780540 0.000011 0.215505
273.168549 -15.755793 0.000009 0.198343
nan nan nan 0.000000
nan nan nan 0.000000
nan nan nan 0.000000
nan nan nan 0.000000
nan nan nan 0.000000
nan nan nan 0.000000
nan nan nan 0.000000
nan nan nan 0.000000
nan nan nan 0.000000
292.430695 -42.212727 0.000031 0.339864
282.803162 -29.036348 0.000019 0.229400
278.669617 -23.379139 0.000020 0.217013
276.367493 -20.228401 0.000016 0.234941
274.897766 -18.216923 0.000013 0.233672
273.876251 -16.818863 0.000011 0.225558
273.123657 -15.788835 0.000010 0.207212
nan nan nan 0.000000
nan nan nan 0.000000
nan nan nan 0.000000
nan nan nan 0.000000
nan nan nan 0.000000
nan nan nan 0.000000
nan nan nan 0.000000
nan nan nan 0.000000
nan nan nan 0.000000
292.200958 -42.380070 0.000003 0.228024
282.665314 -29.136326 0.000019 0.222913
278.571381 -23.450397 0.000020 0.219682
276.291290 -20.283667 0.000016 0.221920
274.835663 -18.261974 0.000013 0.183443
273.823914 -16.856817 0.000011 0.234271
273.078522 -15.821562 0.000010 0.286594
nan nan nan 0.000000
nan nan nan 0.000000
nan nan nan 0.000000
nan nan nan 0.000000
nan nan nan 0.000000
nan nan nan 0.000000
nan nan nan 0.000000
nan nan nan 0.000000
nan nan nan 0.000000
291.969727 -42.545326 0.000003 0.227880
282.526764 -29.235331 0.000019 0.239836
278.472626 -23.520967 0.000021 0.233325
276.214722 -20.338402 0.000016 0.244144
274.773224 -18.306595 0.000013 0.206122
273.771332 -16.894409 0.000011 0.205237
273.033173 -15.853974 0.000010 0.216128
nan nan nan 0.000000
nan nan nan 0.000000
nan nan nan 0.000000
nan nan nan 0.000000
nan nan nan 0.000000
nan nan nan 0.000000
nan nan nan 0.000000
nan nan nan 0.000000
nan nan nan 0.000000
291.737366 -42.708969 0.000003 0.224565
282.387543 -29.333384 0.000019 0.229077
278.373413 -23.590851 0.000020 0.224098
276.137756 -20.392593 0.000016 0.235695
274.710480 -18.350777 0.000013 0.247065
273.718475 -16.931633 0.000011 0.215158
272.987610 -15.886070 0.000010 0.208492
nan nan nan 0.000000
nan nan nan 0.000000
nan nan nan 0.000000
nan nan nan 0.000000
nan nan nan 0.000000
nan nan nan 0.000000
nan nan nan 0.000000
nan nan nan 0.000000
nan nan nan 0.000000
291.503845 -42.870972 0.000004 0.235695
282.247650 -29.430452 0.000020 0.228227
278.273682 -23.660042 0.000020 0.210491
276.060425 -20.446255 0.000016 0.213303
274.647430 -18.394524 0.000013 0.247807
273.665344 -16.968487 0.000011 0.250643
272.941803 -15.917845 0.000010 0.209138
nan nan nan 0.000000
nan nan nan 0.000000
nan nan nan 0.000000
284.787354 -33.477249 6.326292 0.623346
284.787354 -33.477249 5.355220 0.668315
284.787354 -33.477249 4.391434 0.642969
284.787354 -33.477249 3.432809 0.698039
284.787354 -33.477249 2.477262 0.608698
284.787354 -33.477249 1.522738 0.695460
284.787354 -33.477253 0.567191 0.618479
282.107056 -29.526543 0.000020 0.219155
278.173492 -23.728529 0.000021 0.232715
275.982697 -20.499371 0.000017 0.215517
274.584076 -18.437824 0.000013 0.208205
273.612000 -17.004967 0.000011 0.192216
272.895782 -15.949301 0.000010 0.294792
nan nan nan 0.000000
nan nan nan 0.000000
nan nan nan 0.000000
284.542450 -33.477253 6.306003 0.655711
284.542450 -33.477253 5.339484 0.714488
284.542450 -33.477253 4.380219 0.600702
284.542450 -33.477253 3.426089 0.690196
284.542450 -33.477249 2.475024 0.662074
284.542450 -33.477249 1.524976 0.654902
284.542480 -33.477257 0.573911 0.620981
281.965820 -29.621645 0.000020 0.236281
278.072815 -23.796316 0.000021 0.236820
275.904633 -20.551941 0.000017 0.229376
274.520447 -18.480684 0.000013 0.223320
273.558350 -17.041075 0.000011 0.201611
272.849548 -15.980433 0.000010 0.186483
nan nan nan 0.000000
nan nan nan 0.000000
nan nan nan 0.000000
284.299835 -33.477249 6.286111 0.634607
284.299835 -33.477249 5.324057 0.619913
284.299835 -33.477249 4.369222 0.613169
284.299835 -33.477249 3.419501 0.691142
284.299835 -33.477249 2.472828 0.652811
284.299835 -33.477249 1.527171 0.689967
284.299835 -33.477249 0.580499 0.644297
281.823883 -29.715763 0.000021 0.221429
277.971649 -23.863401 0.000021 0.233577
275.826202 -20.603970 0.000016 0.201802
274.456482 -18.523098 0.000013 0.218174
273.504486 -17.076805 0.000011 0.245054
272.803101 -16.011244 0.000010 0.204255
nan nan nan 0.000000
nan nan nan 0.000000
284.059448 -33.477257 7.233631 0.703365
284.059448 -33.477257 6.266608 0.678004
284.059448 -33.477249 5.308932 0.634836
284.059448 -33.477253 4.358443 0.665232
284.059448 -33.477257 3.413042 0.647639
284.059448 -33.477257 2.470678 0.670176
284.059448 -33.477257 1.529322 0.683391
284.059448 -33.477257 0.586957 0.617807
281.681335 -29.808893 0.000020 0.221764
277.870056 -23.929779 0.000021 0.232631
275.747375 -20.655449 0.000017 0.239620
274.392242 -18.565063 0.000013 0.228873
273.450378 -17.112164 0.000011 0.255550
272.756439 -16.041729 0.000010 0.256687
nan nan nan 0.000000
nan nan nan 0.000000
283.821198 -33.477249 7.210177 0.648783
283.821198 -33.477249 6.247488 0.649622
283.821198 -33.477249 5.294104 0.669581
283.821198 -33.477249 4.347874 0.646174
283.821198 -33.477253 3.406710 0.647059
283.821198 -33.477249 2.468569 0.672877
283.821198 -33.477249 1.531432 0.653284
283.821228 -33.477257 0.593289 0.651637
281.538116 -29.901016 0.000021 0.230154
277.767975 -23.995443 0.000021 0.226827
275.668213 -20.706371 0.000017 0.270629
274.327698 -18.606579 0.000014 0.201048
273.395996 -17.147137 0.000012 0.264597
272.709564 -16.071886 0.000010 0.283028
nan nan nan 0.000000
nan nan nan 0.000000
283.585083 -33.477257 7.187186 0.640024
283.585083 -33.477257 6.228745 0.650614
283.585083 -33.477257 5.279569 0.669154
283.585083 -33.477253 4.337512 0.613397
283.585083 -33.477257 3.400502 0.655818
283.585083 -33.477253 2.466501 0.670604
283.585083 -33.477253 1.533499 0.648951
283.585083 -33.477257 0.599497 0.679896
281.394287 -29.992147 0.000021 0.228933
277.665466 -24.060390 0.000021 0.221429
275.588715 -20.756744 0.000017 0.217743
274.262878 -18.647644 0.000014 0.201599
273.341370 -17.181736 0.000012 0.215230
272.662476 -16.101717 0.000010 0.231482
nan nan nan 0.000000
nan nan nan 0.000000
283.351044 -33.477257 7.164646 0.670726
283.351044 -33.477257 6.210371 0.642084
283.351044 -33.477257 5.265317 0.578714
283.351044 -33.477257 4.327355 0.624537
283.351044 -33.477257 3.394417 0.632029
283.351044 -33.477257 2.464474 0.611612
283.351044 -33.477257 1.535527 0.663294
283.351044 -33.477257 0.605582 0.673686
281.249786 -30.082270 0.000021 0.231195
277.562469 -24.124626 0.000021 0.252127
275.508850 -20.806562 0.000017 0.205309
274.197784 -18.688255 0.000014 0.211867
273.286530 -17.215950 0.000011 0.195304
272.615173 -16.131218 0.000010 0.199169
nan nan nan 0.000000
283.118988 -33.477264 8.104136 0.394080
283.118988 -33.477257 7.142550 0.558129
283.118988 -33.477257 6.192358 0.658213
283.118988 -33.477257 5.251348 0.619791
283.118988 -33.477257 4.317400 0.667521
283.118988 -33.477257 3.388451 0.642176
283.118988 -33.477257 2.462487 0.637308
283.118988 -33.477257 1.537513 0.670604
283.118988 -33.477257 0.611548 0.668299
281.104675 -30.171373 0.000021 0.221717
277.459045 -24.188139 0.000021 0.220113
275.428650 -20.855818 0.000017 0.224972
274.132385 -18.728413 0.000014 0.209665
273.231445 -17.249779 0.000012 0.242325
272.567657 -16.160387 0.000010 0.217516
nan nan nan 0.000000
282.888916 -33.477264 8.078427 0.664836
282.888916 -33.477257 7.120893 0.637125
282.888916 -33.477261 6.174703 0.665660
282.888916 -33.477257 5.237655 0.668101
282.888916 -33.477257 4.307639 0.662303
282.888916 -33.477257 3.382604 0.619547
282.888916 -33.477257 2.460539 0.610269
282.888916 -33.477257 1.539461 0.687434
282.888916 -33.477261 0.617395 0.613077
280.958954 -30.259462 0.000022 0.227712
277.355194 -24.250927 0.000021 0.246789
275.348083 -20.904514 0.000017 0.258123
274.066711 -18.768108 0.000014 0.245928
273.176117 -17.283224 0.000011 0.187369
272.519958 -16.189224 0.000011 0.208085
nan nan nan 0.000000
282.660767 -33.477261 8.053228 0.670954
282.660767 -33.477264 7.099666 0.663142
282.660767 -33.477264 6.157396 0.686076
282.660767 -33.477257 5.224234 0.606577
282.660767 -33.477264 4.298074 0.661234
282.660767 -33.477264 3.376872 0.646632
282.660767 -33.477257 2.458629 0.595911
282.660767 -33.477257 1.541370 0.675669
282.660767 -33.477264 0.623127 0.676478
280.812622 -30.346542 0.000021 0.227928
277.250885 -24.312986 0.000022 0.246334
275.267181 -20.952648 0.000017 0.215445
274.000763 -18.807350 0.000014 0.220424
273.120575 -17.316282 0.000012 0.245569
272.472076 -16.217730 0.000010 0.206099
282.434479 -33.477268 8.991728 0.699504
282.434479 -33.477257 8.028529 0.616999
282.434479 -33.477264 7.078857 0.678431
282.434479 -33.477257 6.140433 0.714794
282.434479 -33.477257 5.211079 0.671809
282.434479 -33.477257 4.288696 0.647990
282.434479 -33.477261 3.371254 0.668696
282.434479 -33.477261 2.456759 0.580224
282.434479 -33.477264 1.543242 0.673167
282.434479 -33.477264 0.628745 0.647059
280.665680 -30.432590 0.000022 0.227365
277.146149 -24.374325 0.000022 0.230752
275.185974 -21.000214 0.000017 0.230178
273.934570 -18.846127 0.000014 0.239441
273.064789 -17.348951 0.000012 0.269409
272.423950 -16.245897 0.000010 0.248453
282.210022 -33.477268 8.963655 0.637369
282.210022 -33.477264 8.004324 0.697856
282.210022 -33.477264 7.058466 0.656550
282.210022 -33.477261 6.123809 0.685603
282.210022 -33.477261 5.198185 0.632944
282.210022 -33.477264 4.279508 0.642908
282.210022 -33.477261 3.365749 0.652567
282.210022 -33.477264 2.454925 0.603616
282.210022 -33.477264 1.545076 0.684565
282.210022 -33.477261 0.634251 0.652659
280.518127 -30.517607 0.000023 0.227712
277.040985 -24.434929 0.000021 0.230740
275.104401 -21.047211 0.000017 0.220137
273.868073 -18.884441 0.000014 0.203753
273.008759 -17.381231 0.000011 0.209162
272.375671 -16.273731 0.000010 0.217241
281.987335 -33.477264 8.936143 0.646311
281.987335 -33.477264 7.980602 0.648157
281.987335 -33.477264 7.038481 0.636683
281.987335 -33.477261 6.107516 0.689158
281.987335 -33.477257 5.185550 0.678431
281.987335 -33.477261 4.270501 0.649485
281.987335 -33.477257 3.360353 0.665949
281.987335 -33.477257 2.453127 0.640894
281.987335 -33.477257 1.546873 0.654902
281.987335 -33.477257 0.639647 0.671199
280.370026 -30.601599 0.000023 0.232009
276.935425 -24.494789 0.000021 0.220735
275.022522 -21.093639 0.000018 0.231650
273.801331 -18.922293 0.000014 0.218713
272.952515 -17.413116 0.000012 0.202520
272.327179 -16.301224 0.000010 0.210203
281.766418 -33.477272 8.909184 0.664683
281.766418 -33.477264 7.957358 0.645960
281.766418 -33.477264 7.018897 0.657725
281.766418 -33.477261 6.091551 0.689158
281.766418 -33.477264 5.173169 0.654902
281.766418 -33.477264 4.261677 0.644892
281.766418 -33.477264 3.355065 0.693996
281.766418 -33.477264 2.451366 0.665476
281.766418 -33.477264 1.548634 0.693614
281.766418 -33.477264 0.644934 0.641459
280.221313 -30.684549 0.000023 0.222351
276.829407 -24.553913 0.000022 0.229436
274.940338 -21.139496 0.000017 0.211879
273.734314 -18.959675 0.000014 0.250846
272.896057 -17.444611 0.000012 0.239632
272.278503 -16.328379 0.000010 0.269181
281.547180 -33.477264 8.882765 0.629557
281.547180 -33.477264 7.934580 0.694408
281.547180 -33.477264 6.999709 0.666926
281.547180 -33.477261 6.075907 0.656657
281.547180 -33.477264 5.161036 0.654551
281.547180 -33.477264 4.253030 0.657908
281.547180 -33.477261 3.349884 0.667948
281.547180 -33.477261 2.449640 0.661631
281.547180 -33.477261 1.550360 0.665766
281.547180 -33.477261 0.650115 0.690196
276.547638 -24.290018 0.604600 0.491493
276.723022 -24.612301 0.000022 0.243079
274.857819 -21.184776 0.000017 0.194944
273.667023 -18.996588 0.000014 0.210479
272.839386 -17.475712 0.000012 0.220233
272.229614 -16.355194 0.000010 0.271108
281.329620 -33.477264 8.856881 0.658335
281.329620 -33.477264 7.912264 0.678431
281.329620 -33.477264 6.980906 0.665293
281.329620 -33.477264 6.060581 0.666667
281.329620 -33.477268 5.149150 0.612070
281.329620 -33.477264 4.244557 0.637934
281.329620 -33.477264 3.344808 0.661357
281.329620 -33.477264 2.447950 0.642374
281.329620 -33.477264 1.552051 0.655390
281.329620 -33.477264 0.655191 0.678431
279.922150 -30.847338 0.000023 0.236664
276.616211 -24.669937 0.000022 0.225893
274.774963 -21.229473 0.000018 0.230704
273.599518 -19.033028 0.000014 0.202209
272.782501 -17.506413 0.000012 0.223428
272.180573 -16.381666 0.000011 0.218749
281.113678 -33.477261 8.831524 0.654795
281.113678 -33.477264 7.890399 0.647944
281.113678 -33.477264 6.962488 0.707713
281.113678 -33.477264 6.045564 0.695613
281.113678 -33.477264 5.137504 0.644663
281.113678 -33.477268 4.236257 0.627405
281.113678 -33.477264 3.339835 0.655482
281.113678 -33.477264 2.446293 0.637736
281.113678 -33.477264 1.553707 0.649943
281.113678 -33.477264 0.660165 0.665248
279.771759 -30.927164 0.000023 0.230417
276.509003 -24.726830 0.000022 0.244791
274.691833 -21.273602 0.000018 0.238292
273.531708 -19.069000 0.000014 0.242170
272.725403 -17.536718 0.000012 0.220125
272.131348 -16.407795 0.000010 0.241128
280.899292 -33.477261 8.806684 0.615534
280.899292 -33.477264 7.868981 0.686397
280.899292 -33.477272 6.944443 0.640497
280.899292 -33.477264 6.030854 0.676905
280.899292 -33.477264 5.126095 0.635798
280.899292 -33.477272 4.228126 0.617151
280.899292 -33.477264 3.334964 0.626535
280.899292 -33.477272 2.444670 0.643442
275.922211 -23.856733 1.732579 0.508385
280.899292 -33.477264 0.665036 0.661784
276.293762 -24.574902 0.593724 0.507622
276.401398 -24.782974 0.000023 0.234091
274.608368 -21.317142 0.000018 0.236904
273.463684 -19.104500 0.000014 0.205368
272.668091 -17.566622 0.000012 0.216894
272.081909 -16.433582 0.000010 0.193867
280.686462 -33.477264 8.782354 0.699489
280.686462 -33.477268 7.848004 0.698787
280.686462 -33.477268 6.926770 0.671443
280.686462 -33.477272 6.016447 0.647181
280.686462 -33.477272 5.114922 0.628107
280.686462 -33.477272 4.220161 0.683558
280.686462 -33.477268 3.330192 0.645655
280.686462 -33.477272 2.443081 0.611002
275.852386 -23.971111 1.731435 0.515282
280.686462 -33.477268 0.669808 0.625467
276.298431 -24.848270 0.573604 0.534661
276.293396 -24.838369 0.000022 0.231099
274.524628 -21.360104 0.000018 0.264813
273.395416 -19.139523 0.000014 0.270785
272.610565 -17.596127 0.000012 0.208995
272.032318 -16.459023 0.000010 0.187895
280.475159 -33.477261 8.758525 0.609293
280.475159 -33.477264 7.827457 0.680888
280.475159 -33.477272 6.909461 0.670710
280.475159 -33.477272 6.002335 0.617624
280.475159 -33.477264 5.103977 0.654169
280.475159 -33.477272 4.212361 0.654032
280.475159 -33.477272 3.325519 0.603189
280.475159 -33.477268 2.441524 0.642023
275.817505 -24.157633 1.728967 0.424063
275.275726 -23.073574 1.245856 0.473854
279.317200 -31.160290 0.000024 0.236988
276.185028 -24.893005 0.000022 0.206314
274.440582 -21.402475 0.000018 0.245126
273.326904 -19.174065 0.000014 0.241511
272.552826 -17.625227 0.000012 0.213255
271.982544 -16.484114 0.000010 0.210503
280.265289 -33.477257 8.735189 0.666667
280.265289 -33.477268 7.807337 0.709941
280.265289 -33.477272 6.892510 0.599832
280.265289 -33.477272 5.988518 0.666499
280.265289 -33.477268 5.093261 0.619287
280.265289 -33.477268 4.204722 0.624445
280.265289 -33.477272 3.320942 0.619379
280.265289 -33.477264 2.439999 0.588952
275.246826 -23.257818 1.746307 0.459831
275.153748 -23.068264 1.248750 0.492012
279.164612 -31.235880 0.000025 0.219371
276.076263 -24.946882 0.000022 0.212346
274.356232 -21.444260 0.000018 0.200174
273.258118 -19.208128 0.000014 0.215505
272.494904 -17.653927 0.000012 0.231734
271.932587 -16.508860 0.000010 0.247914
280.056885 -33.477261 8.712341 0.621241
280.056885 -33.477264 7.787636 0.680201
280.056885 -33.477264 6.875911 0.621668
280.056885 -33.477272 5.974986 0.673289
280.056885 -33.477264 5.082767 0.614939
280.056885 -33.477264 4.197243 0.654185
280.056885 -33.477268 3.316461 0.678813
280.056885 -33.477268 2.438507 0.640055
275.223267 -23.458084 1.743528 0.482185
275.039124 -23.076414 1.250854 0.504646
279.011505 -31.310410 0.000024 0.226169
275.967133 -25.000002 0.000023 0.221657
274.271606 -21.485455 0.000018 0.230704
273.189148 -19.241711 0.000014 0.237538
272.436768 -17.682219 0.000012 0.191593
271.882477 -16.533255 0.000011 0.280263
279.849854 -33.477264 8.689974 0.646403
279.849854 -33.477264 7.768348 0.625315
279.849854 -33.477272 6.859664 0.626291
279.849854 -33.477268 5.961739 0.672969
279.849854 -33.477272 5.072495 0.614923
279.849854 -33.477268 4.189920 0.724758
279.849854 -33.477272 3.312073 0.646876
279.849854 -33.477272 2.437045 0.652186
275.132019 -23.521057 1.743243 0.498924
274.961823 -23.161846 1.248706 0.492027
278.857880 -31.383856 0.000025 0.228586
275.857635 -25.052349 0.000023 0.225139
274.186676 -21.526058 0.000018 0.217085
273.119904 -19.274813 0.000014 0.197565
272.378448 -17.710106 0.000012 0.206362
271.832184 -16.557299 0.000010 0.232548
279.644196 -33.477257 8.668076 0.650431
279.644196 -33.477268 7.749469 0.651423
279.644196 -33.477272 6.843757 0.623529
279.644196 -33.477272 5.948774 0.683268
279.644196 -33.477272 5.062438 0.583978
279.644196 -33.477272 4.182753 0.716182
279.644196 -33.477272 3.307779 0.703182
275.309998 -24.163120 2.267505 0.531243
275.068787 -23.644775 1.741850 0.490211
275.429535 -24.420017 1.182991 0.506889
275.313721 -24.171143 0.658876 0.480110
275.747772 -25.103943 0.000023 0.225247
274.101471 -21.566071 0.000017 0.228000
273.050446 -19.307430 0.000014 0.232165
272.319946 -17.737587 0.000012 0.180116
271.781738 -16.580992 0.000011 0.258925
279.439880 -33.477257 8.646646 0.659007
279.439880 -33.477264 7.730990 0.705150
279.439880 -33.477268 6.828189 0.657954
279.439880 -33.477264 5.936081 0.612680
279.439880 -33.477268 5.052596 0.637293
279.439880 -33.477268 4.175738 0.734844
279.439880 -33.477268 3.303576 0.738766
279.439880 -33.477268 2.434215 0.654490
275.073914 -23.921074 1.737709 0.476112
274.774414 -23.265511 1.247973 0.490227
275.131195 -24.046432 0.674429 0.495109
275.637573 -25.154758 0.000023 0.226408
274.015991 -21.605480 0.000018 0.242301
272.980774 -19.339561 0.000014 0.209126
272.261230 -17.764656 0.000012 0.223141
271.731110 -16.604332 0.000010 0.206817
279.236847 -33.477264 8.625675 0.467704
279.236877 -33.477268 7.712908 0.651576
279.236877 -33.477272 6.812955 0.567163
279.236877 -33.477272 5.923663 0.651423
279.236877 -33.477272 5.042964 0.665660
274.907532 -23.823494 3.301354 0.462974
279.236877 -33.477272 3.299463 0.731991
279.236877 -33.477272 2.432845 0.666423
275.154816 -24.374922 1.730397 0.469337
274.598083 -23.133446 1.257456 0.471473
275.462982 -25.062038 0.587345 0.481621
275.527008 -25.204809 0.000023 0.225869
273.930237 -21.644295 0.000018 0.217887
272.910858 -19.371204 0.000014 0.259080
272.202332 -17.791315 0.000012 0.259762
271.680328 -16.627319 0.000010 0.251337
279.246704 -33.958023 8.736727 0.532036
279.035095 -33.477264 7.695216 0.698253
279.035095 -33.477264 6.798050 0.682597
279.035095 -33.477264 5.911511 0.719692
279.035095 -33.477268 5.033540 0.639826
274.841705 -23.948959 3.308564 0.517678
275.166687 -24.687412 2.823652 0.520714
275.152100 -24.654285 2.273762 0.500648
274.877319 -24.029894 1.737401 0.479591
274.614105 -23.431858 1.243739 0.483665
275.144379 -24.636707 0.629823 0.500481
274.452972 -23.065712 0.275077 0.503960
273.844238 -21.682510 0.000018 0.202795
272.840729 -19.402359 0.000015 0.198631
272.143250 -17.817562 0.000012 0.195519
271.629395 -16.649952 0.000010 0.212094
279.316528 -34.593433 8.889621 0.452064
278.834595 -33.477272 7.677910 0.644343
278.834595 -33.477272 6.783470 0.636301
278.834595 -33.477268 5.899625 0.725002
274.859161 -24.270504 3.870649 0.454414
274.994965 -24.584999 3.361394 0.494926
274.649048 -23.783873 2.772799 0.490883
274.355164 -23.103233 2.245284 0.523384
274.741943 -23.998978 1.738750 0.462043
274.528625 -23.504961 1.242125 0.478080
274.746216 -24.008879 0.690060 0.526604
274.321259 -23.024761 0.285451 0.515328
273.757935 -21.720125 0.000018 0.211436
272.770386 -19.433025 0.000015 0.227856
272.083984 -17.843395 0.000012 0.252055
271.578308 -16.672228 0.000010 0.192730
279.393616 -35.267738 9.052511 0.547845
278.635284 -33.477268 7.660983 0.649485
278.635284 -33.477272 6.769211 0.566598
274.628723 -24.017487 4.364105 0.469490
274.774078 -24.360662 3.876337 0.471122
274.769989 -24.350994 3.336498 0.465019
274.964996 -24.811428 2.825317 0.488426
274.804260 -24.431923 2.268165 0.476036
274.683655 -24.147171 1.736895 0.510124
274.761353 -24.330624 1.200334 0.465278
274.939453 -24.751160 0.627868 0.511604
274.253723 -23.132076 0.277155 0.470665
273.671387 -21.757137 0.000018 0.216977
272.699829 -19.463198 0.000014 0.223955
272.024567 -17.868814 0.000012 0.266189
271.527039 -16.694145 0.000010 0.257716
279.466370 -35.955433 9.218414 0.539849
278.407135 -33.405060 7.627543 0.471458
278.437134 -33.477272 6.755266 0.625147
274.549835 -24.117626 4.373278 0.515373
274.670258 -24.407572 3.876694 0.494118
274.705872 -24.493267 3.345222 0.492744
274.769806 -24.647224 2.814169 0.497444
274.346252 -23.627407 2.253125 0.490974
275.073425 -25.378244 1.715851 0.434150
274.332489 -23.594280 1.241843 0.490227
274.444977 -23.865152 0.710545 0.482628
275.081299 -25.397251 0.000024 0.221609
273.584595 -21.793547 0.000018 0.241452
272.629059 -19.492878 0.000014 0.206410
271.964935 -17.893820 0.000012 0.262347
271.475647 -16.715706 0.000011 0.222040
279.551361 -36.697666 9.398462 0.491844
278.566864 -34.279678 7.815368 0.457099
278.240143 -33.477268 6.741632 0.634745
274.623566 -24.594868 4.442909 0.456672
274.550537 -24.415539 3.872303 0.495445
274.640900 -24.637430 3.354129 0.501534
274.625977 -24.600840 2.809374 0.492012
274.282593 -23.757450 2.254698 0.502495
274.517487 -24.334373 1.735109 0.490105
274.232635 -23.634716 1.241871 0.492210
274.477417 -24.235962 0.681413 0.465507
274.074860 -23.247242 0.272812 0.518212
273.497528 -21.829342 0.000018 0.239980
272.558105 -19.522064 0.000014 0.215254
271.905151 -17.918409 0.000012 0.251768
271.424072 -16.736904 0.000011 0.207583
279.640289 -37.476860 9.587814 0.493675
278.723328 -35.178963 8.008144 0.497017
278.044281 -33.477272 6.728309 0.666880
274.756317 -25.237759 4.538720 0.485985
274.430420 -24.421112 3.867732 0.522042
274.557526 -24.739616 3.359345 0.482353
274.548920 -24.718033 2.813299 0.470283
274.211884 -23.873447 2.256025 0.467521
274.464539 -24.506573 1.732820 0.474083
278.044281 -33.477272 0.723391 0.666667
275.105194 -26.112009 0.519496 0.520363
274.080750 -23.544838 0.240805 0.491936
273.410248 -21.864534 0.000018 0.237933
272.486938 -19.550751 0.000015 0.228718
271.845184 -17.942577 0.000012 0.198846
271.372375 -16.757744 0.000011 0.235528
279.732178 -38.292610 9.786316 0.502190
278.879883 -36.112740 8.208143 0.491234
274.465088 -24.821007 5.024122 0.466300
274.345551 -24.515310 4.416664 0.494591
274.190857 -24.119625 3.825348 0.508370
274.695007 -25.409105 3.414543 0.464027
274.751923 -25.554688 2.855191 0.490837
274.463684 -24.817436 2.271907 0.469093
274.139038 -23.987083 1.742683 0.486564
274.073151 -23.818592 1.236385 0.458991
274.242767 -24.252396 0.687293 0.468284
273.903229 -23.383923 0.265527 0.483482
273.322693 -21.899117 0.000018 0.232751
272.415558 -19.578943 0.000014 0.242972
271.785065 -17.966328 0.000012 0.189212
271.320557 -16.778225 0.000010 0.195184
279.830536 -39.156273 9.996964 0.503319
279.056030 -37.133812 8.427542 0.502464
274.341766 -24.823467 5.016442 0.489967
274.168823 -24.371817 4.387352 0.506706
274.327576 -24.786346 3.902555 0.469688
274.121826 -24.249123 3.308878 0.438529
274.115967 -24.233788 2.783397 0.469963
274.154633 -24.334743 2.262715 0.506493
274.052612 -24.068335 1.741953 0.473976
273.989532 -23.903648 1.233970 0.500557
274.097870 -24.186527 0.696618 0.445731
273.757813 -23.298523 0.280726 0.466636
273.234924 -21.933083 0.000019 0.222255
272.343994 -19.606636 0.000014 0.230585
271.724762 -17.989658 0.000012 0.234043
271.268555 -16.798340 0.000011 0.223237
279.957092 -40.128593 10.235950 0.625132
279.196014 -38.098892 8.633169 0.498970
274.205688 -24.790161 5.002000 0.481331
274.005371 -24.255932 4.362685 0.493507
274.018463 -24.290810 3.836646 0.474388
273.981506 -24.192291 3.300443 0.473854
274.147644 -24.635344 2.802396 0.496452
274.110626 -24.536636 2.265549 0.471275
273.977448 -24.181477 1.740658 0.478782
273.930237 -24.055563 1.228024 0.497307
276.976807 -32.180504 0.000028 0.234726
273.646515 -23.298862 0.285227 0.480613
273.146881 -21.966436 0.000019 0.214799
272.272247 -19.633823 0.000015 0.220675
271.664337 -18.012566 0.000012 0.199696
271.216431 -16.818090 0.000010 0.255693
279.712555 -40.128593 10.214645 0.655680
279.281708 -38.954651 8.812893 0.534981
274.098114 -24.831356 5.002220 0.504662
273.909119 -24.316433 4.366134 0.496223
274.023621 -24.628416 3.873267 0.500557
274.252991 -25.253330 3.389754 0.475471
274.176849 -25.045887 2.821804 0.479164
273.821350 -24.077238 2.256854 0.494972
273.829254 -24.098787 1.742770 0.494881
273.938843 -24.397396 1.212132 0.489128
274.646149 -26.324518 0.516684 0.477913
273.535706 -23.299042 0.289640 0.466499
273.058655 -21.999180 0.000018 0.245975
272.200287 -19.660517 0.000015 0.241751
271.603699 -18.035049 0.000013 0.194143
271.164185 -16.837479 0.000011 0.199301
279.469299 -40.128609 10.193855 0.658122
279.364868 -39.837769 8.998308 0.496620
277.080658 -33.477264 6.666167 0.654902
273.979645 -24.842304 4.443027 0.513054
273.769470 -24.256989 3.823124 0.478859
273.949493 -24.758282 3.343106 0.473304
274.071289 -25.097469 2.822416 0.492164
273.729767 -24.146488 2.257409 0.450217
273.594269 -23.769180 1.749152 0.517449
273.846161 -24.470562 1.210307 0.470466
276.657104 -32.297844 0.000028 0.215110
273.444580 -23.352390 0.287449 0.498924
272.970154 -22.031303 0.000018 0.229663
272.128174 -19.686703 0.000015 0.232176
271.542938 -18.057114 0.000012 0.235180
271.111786 -16.856503 0.000011 0.238615
nan nan nan 0.000000
279.227264 -40.128601 9.047553 0.626032
277.002563 -33.795181 6.715921 0.634546
273.973358 -25.171280 4.488699 0.494942
273.679962 -24.336016 3.828244 0.462684
273.898956 -24.959534 3.357270 0.472419
273.977966 -25.184467 2.824909 0.492958
277.002563 -33.795177 2.424119 0.706889
273.730469 -24.479813 1.737448 0.477150
273.809143 -24.703846 1.200116 0.503838
273.488373 -23.790615 0.744317 0.493278
274.174683 -25.744446 0.000024 0.240757
272.881470 -22.062805 0.000018 0.241882
272.055847 -19.712387 0.000015 0.242086
271.482025 -18.078753 0.000012 0.210000
271.059265 -16.875160 0.000010 0.242134
nan nan nan 0.000000
nan nan nan 0.000000
277.002563 -34.352226 6.811667 0.475608
273.771088 -24.942947 4.446859 0.512993
273.556946 -24.319443 3.821801 0.452384
273.610596 -24.475630 3.312030 0.527306
273.799530 -25.025749 2.814667 0.503548
277.002563 -34.352234 2.432730 0.638132
273.462006 -24.042992 1.745642 0.488457
273.884857 -25.274223 1.172426 0.480415
276.335785 -32.410698 0.000030 0.224433
274.060028 -25.784267 0.000024 0.226252
272.792542 -22.093691 0.000018 0.241140
271.983368 -19.737564 0.000015 0.208205
271.420959 -18.099964 0.000012 0.236365
271.006592 -16.893452 0.000011 0.240638
nan nan nan 0.000000
nan nan nan 0.000000
278.576385 -39.621269 7.811576 0.486427
277.002594 -34.932411 6.004107 0.673884
273.636993 -24.905384 3.888591 0.502083
273.668610 -24.999557 3.354239 0.479545
273.688690 -25.059380 2.814481 0.474372
273.669067 -25.000885 2.270290 0.477455
273.492706 -24.475447 1.738780 0.482658
273.913635 -25.729572 1.150789 0.499947
273.177673 -23.536850 0.772272 0.528466
273.945099 -25.823282 0.000024 0.244061
272.703430 -22.123951 0.000019 0.228933
271.910706 -19.762238 0.000015 0.212322
271.359741 -18.120747 0.000013 0.247830
270.953827 -16.911369 0.000011 0.189834
nan nan nan 0.000000
nan nan nan 0.000000
278.508087 -40.128609 7.895279 0.627085
277.002563 -35.537228 6.089260 0.731716
273.707672 -25.488752 3.954848 0.515099
273.540527 -24.979012 3.349332 0.559564
273.519806 -24.915802 2.805173 0.493111
273.575592 -25.085938 2.271130 0.501854
273.159088 -23.815666 1.750746 0.511345
273.837921 -25.885908 1.144671 0.506889
273.143799 -23.769100 0.755071 0.482780
273.829895 -25.861504 0.000024 0.224349
272.614075 -22.153589 0.000019 0.230704
271.837891 -19.786400 0.000015 0.202257
271.298370 -18.141106 0.000012 0.228658
270.900909 -16.928921 0.000011 0.209713
nan nan nan 0.000000
nan nan nan 0.000000
281.752899 -51.004471 9.959854 0.980392
277.002563 -36.168358 6.178319 0.704128
277.002563 -36.168358 5.240461 0.669474
277.002594 -36.168365 4.309640 0.624338
273.335266 -24.714678 2.792980 0.516411
273.367279 -24.814682 2.265856 0.519036
273.435730 -25.028442 1.730471 0.489723
277.002563 -36.168365 0.616197 0.632746
272.894135 -23.336967 0.795089 0.493690
273.714447 -25.898920 0.000024 0.220711
272.524536 -22.182606 0.000019 0.224972
271.764893 -19.810055 0.000015 0.281999
271.236877 -18.161032 0.000013 0.206242
270.847870 -16.946108 0.000010 0.198619
nan nan nan 0.000000
nan nan nan 0.000000
281.432922 -51.004471 9.942293 0.968627
277.002594 -36.827637 6.271562 0.672068
277.002594 -36.827644 5.312775 0.723507
277.002594 -36.827644 4.361181 0.602914
273.217041 -24.714127 2.791202 0.535958
273.276001 -24.902836 2.266781 0.452262
273.077087 -24.266319 1.744132 0.466972
273.102905 -24.348869 1.227597 0.502754
272.946686 -23.849018 0.753759 0.489143
273.598724 -25.935524 0.000024 0.208995
272.434784 -22.210995 0.000019 0.212573
271.691711 -19.833200 0.000015 0.225798
271.175262 -18.180531 0.000012 0.200821
270.794739 -16.962919 0.000011 0.214141
nan nan nan 0.000000
nan nan nan 0.000000
281.114349 -51.004452 9.925194 0.980392
277.002594 -37.517048 6.369277 0.655787
277.002594 -37.517052 5.388556 0.669520
277.002594 -37.517052 4.415195 0.610864
273.150909 -24.882809 2.798162 0.494530
273.113281 -24.759346 2.263752 0.490105
272.944855 -24.206871 1.745700 0.481300
273.058380 -24.579233 1.217429 0.474189
272.834503 -23.844887 0.756796 0.473136
273.482758 -25.971321 0.000024 0.215242
272.344849 -22.238758 0.000019 0.216068
271.618408 -19.855831 0.000015 0.211987
271.113464 -18.199600 0.000012 0.205452
270.741486 -16.979361 0.000010 0.266776
nan nan nan 0.000000
nan nan nan 0.000000
280.797119 -51.004444 9.908553 0.980392
277.002594 -38.238762 6.471789 0.633310
277.002563 -38.238762 5.468059 0.668742
277.002594 -38.238762 4.471860 0.642863
273.056671 -24.963842 2.800639 0.459800
277.002594 -38.238766 2.493313 0.648234
277.002594 -38.238766 1.506688 0.636866
272.975647 -24.691303 1.213328 0.464042
275.362823 -32.722214 0.000031 0.240674
273.366547 -26.006308 0.000024 0.221250
272.254730 -22.265894 0.000019 0.204698
271.544922 -19.877953 0.000015 0.238699
271.051575 -18.218235 0.000012 0.236808
270.688110 -16.995428 0.000011 0.195351
nan nan nan 0.000000
280.675079 -51.673767 11.518627 0.223529
280.481201 -51.004440 9.892366 0.968261
277.002594 -38.995209 6.579457 0.703731
277.002594 -38.995209 5.551560 0.665721
277.002594 -38.995209 4.531375 0.641611
277.002594 -38.995216 3.516654 0.673762
277.002594 -38.995209 2.505190 0.646036
277.002594 -38.995209 1.494810 0.670008
272.873779 -24.741396 1.212376 0.475898
275.199432 -32.770157 0.000031 0.245628
273.250092 -26.040483 0.000024 0.230429
272.164398 -22.292398 0.000019 0.208755
271.471283 -19.899557 0.000015 0.201838
270.989532 -18.236437 0.000012 0.210455
270.634613 -17.011124 0.000011 0.203130
nan nan nan 0.000000
280.355408 -51.673763 11.499648 0.223529
280.166565 -51.004433 9.876629 0.980392
277.002594 -39.789009 6.692671 0.665812
277.002594 -39.789017 5.639364 0.664576
277.002594 -39.789009 4.593957 0.626001
277.002594 -39.789009 3.554149 0.656489
277.002594 -39.789017 2.517680 0.653025
277.002594 -39.789017 1.482321 0.623621
272.683807 -24.480169 1.227281 0.516960
272.946136 -25.410051 0.631068 0.474495
273.133392 -26.073841 0.000024 0.212836
272.073914 -22.318270 0.000019 0.233421
271.397491 -19.920650 0.000015 0.208277
270.927399 -18.254208 0.000012 0.234343
270.581024 -17.026445 0.000011 0.272077
nan nan nan 0.000000
280.036957 -51.673763 11.481206 0.223529
279.853180 -51.004429 9.861336 0.978515
279.930908 -51.287518 8.452338 0.968627
279.930908 -51.287529 7.004059 0.968627
279.930908 -51.287537 5.566644 0.968627
279.930908 -51.287525 4.136926 0.968627
279.910919 -51.214657 2.710564 0.223529
279.930908 -51.287514 1.288200 0.968627
272.669250 -24.841957 1.210350 0.466651
272.945343 -25.847412 0.596537 0.479103
273.016449 -26.106384 0.000024 0.232117
271.983215 -22.343508 0.000019 0.231159
271.323578 -19.941227 0.000015 0.209366
270.865112 -18.271542 0.000013 0.205919
270.527313 -17.041393 0.000011 0.232954
nan nan nan 0.000000
279.719757 -51.673767 11.463294 0.223529
279.540985 -51.004414 9.846484 0.971115
279.582001 -51.158012 8.420265 0.223529
279.582001 -51.158016 6.979183 0.223529
279.582001 -51.158009 5.548914 0.223529
279.582001 -51.158012 4.126304 0.223529
279.582001 -51.158009 2.708261 0.223529
279.582001 -51.158009 1.291738 0.223529
278.918457 -48.673649 0.000024 0.229735
272.805786 -25.787991 0.604231 0.494926
272.899323 -26.138113 0.000025 0.227784
271.892365 -22.368118 0.000019 0.269456
271.249512 -19.961287 0.000015 0.219096
270.802704 -18.288443 0.000012 0.215505
270.473511 -17.055964 0.000011 0.231016
nan nan nan 0.000000
279.389038 -51.617146 11.433278 0.223529
279.229950 -51.004398 9.832067 0.968627
279.303436 -51.287502 8.428318 0.968627
279.303436 -51.287506 6.985428 0.968627
279.303436 -51.287521 5.553365 0.968627
279.303436 -51.287510 4.128971 0.968627
279.284546 -51.214653 2.707919 0.223529
279.303436 -51.287495 1.290850 0.968627
278.643616 -48.746021 0.000024 0.227880
274.542633 -32.950500 0.000032 0.236341
272.781952 -26.169020 0.000025 0.208755
271.801331 -22.392092 0.000018 0.229436
271.175293 -19.980827 0.000015 0.228155
270.740173 -18.304905 0.000013 0.249207
270.419617 -17.070160 0.000011 0.240351
nan nan nan 0.000000
279.088837 -51.673771 11.429052 0.223529
278.920044 -51.004391 9.818085 0.980392
278.991425 -51.287483 8.416840 0.968627
278.991425 -51.287498 6.976527 0.968627
278.991425 -51.287506 5.547023 0.968627
278.991425 -51.287498 4.125170 0.968627
278.973053 -51.214661 2.706655 0.223529
278.991425 -51.287491 1.292116 0.968627
278.368256 -48.816452 0.000025 0.231506
274.377655 -32.992706 0.000033 0.230692
272.664368 -26.199112 0.000025 0.230848
271.710144 -22.415428 0.000018 0.217755
271.100952 -19.999851 0.000015 0.200151
270.677551 -18.320934 0.000012 0.219239
270.365601 -17.083979 0.000011 0.222435
nan nan nan 0.000000
278.775055 -51.673771 11.412709 0.223529
278.611206 -51.004383 9.804535 0.980392
278.680511 -51.287479 8.405717 0.968627
278.680511 -51.287483 6.967901 0.968627
278.680511 -51.287498 5.540874 0.968627
278.680511 -51.287491 4.121486 0.968627
278.662689 -51.214657 2.705430 0.223529
278.680511 -51.287483 1.293343 0.968627
278.092438 -48.884995 0.000025 0.226432
274.212402 -33.033768 0.000033 0.231650
272.546570 -26.228378 0.000025 0.237323
271.618805 -22.438128 0.000018 0.213016
271.026489 -20.018356 0.000015 0.256914
270.614807 -18.336523 0.000012 0.233649
270.311523 -17.097422 0.000011 0.225056
nan nan nan 0.000000
278.462341 -51.673763 11.396877 0.223529
278.303436 -51.004372 9.791407 0.979706
278.370667 -51.287476 8.394943 0.968627
278.370667 -51.287476 6.959545 0.968627
278.370667 -51.287483 5.534919 0.968627
278.370667 -51.287483 4.117918 0.968627
278.353363 -51.214657 2.704243 0.223529
278.370667 -51.287468 1.294531 0.968627
277.816132 -48.951588 0.000025 0.231626
274.046844 -33.073669 0.000033 0.235145
272.428589 -26.256824 0.000025 0.217061
271.527313 -22.460190 0.000018 0.213291
270.951904 -20.036343 0.000015 0.194238
270.551971 -18.351677 0.000013 0.232440
270.257324 -17.110485 0.000011 0.204926
nan nan nan 0.000000
278.150665 -51.673759 11.381557 0.223529
277.996704 -51.004368 9.778705 0.980392
278.061829 -51.287464 8.384517 0.968627
278.061829 -51.287468 6.951458 0.968627
278.061829 -51.287472 5.529154 0.968627
278.061829 -51.287464 4.114465 0.968627
278.045074 -51.214661 2.703096 0.223529
278.061829 -51.287464 1.295682 0.968627
277.539368 -49.016251 0.000026 0.229388
273.881042 -33.112419 0.000033 0.227748
272.310394 -26.284443 0.000025 0.223404
271.435638 -22.481609 0.000018 0.231985
270.877167 -20.053806 0.000015 0.198930
270.489014 -18.366386 0.000013 0.200677
270.203033 -17.123171 0.000011 0.248620
nan nan nan 0.000000
277.839996 -51.673767 11.366746 0.223529
277.690918 -51.004356 9.766418 0.975982
277.753967 -51.287445 8.374433 0.968627
277.753967 -51.287460 6.943641 0.968627
277.753967 -51.287468 5.523582 0.968627
277.753967 -51.287468 4.111126 0.968627
277.737762 -51.214661 2.701986 0.223529
277.753967 -51.287460 1.296795 0.968627
277.262177 -49.078995 0.000026 0.230453
273.714966 -33.150024 0.000033 0.235085
272.192017 -26.311239 0.000025 0.222806
271.343842 -22.502388 0.000019 0.221836
270.802338 -20.070747 0.000015 0.245341
270.425964 -18.380661 0.000013 0.236688
270.148682 -17.135477 0.000011 0.205680
nan nan nan 0.000000
277.530304 -51.673767 11.352434 0.223529
277.386108 -51.004349 9.754551 0.954360
277.447083 -51.287437 8.364693 0.968627
277.447083 -51.287453 6.936086 0.968627
277.447083 -51.287457 5.518196 0.968627
277.447083 -51.287449 4.107900 0.968627
277.431396 -51.214653 2.700912 0.223529
277.447083 -51.287445 1.297869 0.968627
276.984528 -49.139790 0.000027 0.231602
273.548615 -33.186443 0.000033 0.238388
272.073456 -26.337208 0.000025 0.223033
271.251892 -22.522526 0.000019 0.231805
270.727386 -20.087166 0.000015 0.246059
270.362823 -18.394489 0.000013 0.233493
270.094238 -17.147402 0.000011 0.215374
nan nan nan 0.000000
277.221497 -51.673767 11.338621 0.223529
277.082214 -51.004337 9.743095 0.949767
277.141113 -51.287437 8.355291 0.968627
277.141113 -51.287437 6.928794 0.968627
277.141113 -51.287449 5.513000 0.968627
277.141113 -51.287445 4.104785 0.968627
277.125977 -51.214653 2.699877 0.223529
277.141113 -51.287434 1.298906 0.968627
276.706482 -49.198650 0.000028 0.226528
273.382019 -33.221714 0.000033 0.243019
271.954742 -26.362347 0.000025 0.246299
271.159790 -22.542023 0.000018 0.203837
270.652313 -20.103058 0.000015 0.222100
270.299561 -18.407883 0.000012 0.221776
270.039703 -17.158951 0.000011 0.233900
nan nan nan 0.000000
276.913635 -51.673771 11.325301 0.223529
276.779205 -51.004326 9.732050 0.967712
276.836060 -51.287426 8.346227 0.968627
276.836060 -51.287437 6.921763 0.968627
276.836060 -51.287437 5.507987 0.968627
276.836060 -51.287426 4.101783 0.968627
276.821442 -51.214657 2.698879 0.223529
276.836060 -51.287426 1.299906 0.968627
276.428040 -49.255577 0.000028 0.230501
273.215179 -33.255817 0.000034 0.242589
271.835815 -26.386658 0.000025 0.225092
271.067596 -22.560875 0.000018 0.236126
270.577118 -20.118431 0.000015 0.250894
270.236237 -18.420830 0.000012 0.232153
269.985077 -17.170115 0.000011 0.264478
nan nan nan 0.000000
276.606598 -51.673763 11.312473 0.223529
276.477020 -51.004322 9.721413 0.976211
276.531830 -51.287415 8.337492 0.968627
276.531830 -51.287430 6.914991 0.968627
276.531830 -51.287434 5.503162 0.968627
276.531830 -51.287426 4.098891 0.968627
276.517731 -51.214661 2.697918 0.223529
276.531830 -51.287422 1.300869 0.968627
276.149200 -49.310574 0.000028 0.228706
273.048126 -33.288761 0.000034 0.235001
271.716736 -26.410137 0.000025 0.223679
270.975220 -22.579086 0.000019 0.223296
270.501831 -20.133274 0.000015 0.247136
270.172821 -18.433336 0.000012 0.231865
269.930389 -17.180899 0.000011 0.190337
nan nan nan 0.000000
276.300415 -51.673763 11.300134 0.223529
276.175690 -51.004314 9.711179 0.980392
276.228424 -51.287403 8.329093 0.968627
276.228424 -51.287415 6.908477 0.968627
276.228424 -51.287418 5.498518 0.968627
276.228424 -51.287422 4.096108 0.968627
276.214874 -51.214664 2.696993 0.223529
276.228424 -51.287411 1.301795 0.968627
275.869965 -49.363583 0.000028 0.229364
272.880829 -33.320526 0.000035 0.236724
271.597504 -26.432783 0.000025 0.214536
270.882751 -22.596649 0.000019 0.236126
270.426453 -20.147591 0.000015 0.200881
270.109283 -18.445400 0.000013 0.205117
269.875641 -17.191298 0.000011 0.212968
nan nan nan 0.000000
275.984863 -51.617138 11.275851 0.223529
275.875092 -51.004303 9.701347 0.968627
275.902649 -51.158009 8.301526 0.223529
275.902649 -51.158005 6.887097 0.223529
275.902649 -51.158016 5.483280 0.223529
275.902649 -51.158012 4.086979 0.223529
275.902649 -51.158020 2.695163 0.223529
275.902649 -51.158024 1.304837 0.223529
275.590393 -49.414654 0.000029 0.225343
272.713318 -33.351135 0.000035 0.241380
271.478119 -26.454594 0.000025 0.216714
270.790161 -22.613567 0.000019 0.254389
270.350952 -20.161385 0.000015 0.219036
270.045715 -18.457020 0.000012 0.227808
269.820801 -17.201317 0.000011 0.215290
nan nan nan 0.000000
275.690369 -51.673771 11.276905 0.223529
275.575287 -51.004295 9.691916 0.970886
275.623962 -51.287395 8.313286 0.968627
275.623962 -51.287399 6.896215 0.968627
275.623962 -51.287411 5.489779 0.968627
275.623962 -51.287399 4.090873 0.968627
275.611450 -51.214657 2.695251 0.223529
275.623962 -51.287395 1.303540 0.968627
275.310455 -49.463764 0.000029 0.230609
272.545593 -33.380554 0.000036 0.227868
271.358582 -26.475576 0.000025 0.226025
270.697449 -22.629837 0.000019 0.239597
270.275391 -20.174648 0.000015 0.205416
269.982025 -18.468191 0.000013 0.205321
269.765900 -17.210953 0.000011 0.265854
nan nan nan 0.000000
275.386475 -51.673767 11.266010 0.223529
275.276184 -51.004288 9.682881 0.980392
275.322815 -51.287380 8.305868 0.968627
275.322815 -51.287388 6.890463 0.968627
275.322815 -51.287392 5.485680 0.968627
275.322815 -51.287395 4.088417 0.968627
275.310852 -51.214664 2.694436 0.223529
275.322815 -51.287388 1.304358 0.968627
275.030182 -49.510933 0.000030 0.229089
272.377686 -33.408817 0.000036 0.231973
271.238892 -26.495722 0.000025 0.224050
270.604645 -22.645462 0.000019 0.211927
270.199707 -20.187386 0.000015 0.229125
269.918274 -18.478924 0.000013 0.230716
269.710938 -17.220205 0.000011 0.278181
nan nan nan 0.000000
275.083252 -51.673767 11.255591 0.223529
274.988342 -51.071335 9.686592 0.976074
275.022369 -51.287369 8.298775 0.968627
275.022369 -51.287384 6.884964 0.968627
275.022369 -51.287380 5.481760 0.968627
275.022369 -51.287380 4.086068 0.968627
275.010925 -51.214661 2.693655 0.223529
275.022369 -51.287373 1.305140 0.968627
274.749603 -49.556149 0.000030 0.233457
272.209564 -33.435913 0.000036 0.225822
271.119049 -26.515030 0.000025 0.211089
270.511719 -22.660435 0.000019 0.226312
270.123962 -20.199593 0.000015 0.211089
269.854462 -18.489208 0.000013 0.213937
269.655884 -17.229074 0.000011 0.243259
nan nan nan 0.000000
274.780731 -51.673767 11.245647 0.223529
274.696442 -51.113457 9.686085 0.978790
274.722595 -51.287365 8.292006 0.968627
274.722595 -51.287369 6.879714 0.968627
274.722595 -51.287380 5.478017 0.968627
274.722595 -51.287369 4.083825 0.968627
274.711670 -51.214657 2.692909 0.223529
274.722595 -51.287365 1.305888 0.968627
