# This PCD file was generated using the MATLABÂ® pcwrite function
# from Computer Vision ToolboxÂ®.
# .PCD v.7 - Point Cloud Data file format
VERSION .7
FIELDS x y z intensity
SIZE 4 4 4 4
TYPE F F F F
COUNT 1 1 1 1
WIDTH 1245
HEIGHT 1
VIEWPOINT 0 0 0 1 0 0 0
POINTS 1245
DATA ascii
285.006470 -36.625683 3.011915 0.707759
285.006439 -36.625687 2.337065 0.624079
285.006439 -36.625687 1.662935 0.612009
285.006470 -36.625683 0.988084 0.671336
285.006439 -36.625687 0.311059 0.641413
286.595398 -33.833187 0.000005 0.238795
288.525269 -30.441580 0.000003 0.222854
289.757294 -28.276321 0.000003 0.207918
290.613617 -26.771385 0.000002 0.245569
291.244507 -25.662617 0.000002 0.219287
283.359558 -39.186333 7.921175 0.515206
285.006439 -36.338436 6.394931 0.650263
285.006439 -36.338432 5.702600 0.647120
285.006439 -36.338432 5.018467 0.623026
285.006470 -36.338428 4.340946 0.669963
285.006439 -36.338432 3.668510 0.651865
285.006439 -36.338432 2.999674 0.639673
285.006439 -36.338432 2.332987 0.570199
285.006439 -36.338432 1.667013 0.652415
285.006439 -36.338432 1.000325 0.681697
285.006439 -36.338432 0.331490 0.618372
286.490112 -33.772797 0.000005 0.229208
288.443604 -30.394741 0.000003 0.225570
289.690735 -28.238140 0.000003 0.258470
290.557556 -26.739220 0.000003 0.213004
291.196167 -25.634882 0.000002 0.275309
283.455048 -38.698090 7.803470 0.461906
285.006439 -36.058037 6.342611 0.668376
285.006439 -36.058033 5.658520 0.673426
285.006470 -36.058029 4.982532 0.622156
285.006470 -36.058029 4.313078 0.673289
285.006439 -36.058029 3.648647 0.648188
285.006470 -36.058022 2.987773 0.625025
285.006470 -36.058029 2.329023 0.641398
285.006439 -36.058029 1.670977 0.628031
285.006470 -36.058022 1.012226 0.681666
285.006439 -36.058029 0.351353 0.599359
286.385284 -33.711670 0.000005 0.244096
288.362274 -30.347332 0.000004 0.247639
289.624451 -28.199490 0.000003 0.216271
290.501678 -26.706659 0.000002 0.221166
291.148010 -25.606808 0.000002 0.261905
283.531067 -38.255260 7.698328 0.457649
285.006439 -35.784222 6.291729 0.608042
285.006470 -35.784214 5.615653 0.652766
285.006470 -35.784210 4.947585 0.676493
285.006470 -35.784210 4.285975 0.605707
285.006470 -35.784214 3.629330 0.654047
285.006470 -35.784218 2.976200 0.677455
285.006470 -35.784210 2.325168 0.613031
285.006470 -35.784210 1.674832 0.676890
285.006470 -35.784214 1.023800 0.663386
285.006470 -35.784210 0.370670 0.669108
286.280853 -33.649811 0.000005 0.220065
288.281311 -30.299362 0.000004 0.224816
289.558411 -28.160381 0.000003 0.235587
290.446075 -26.673710 0.000003 0.216834
291.100037 -25.578400 0.000002 0.239549
283.621429 -37.800083 7.588968 0.418555
285.006439 -35.516731 6.242229 0.661936
285.006470 -35.516731 5.573952 0.647105
285.006470 -35.516731 4.913589 0.674708
285.006470 -35.516731 4.259610 0.619669
285.006470 -35.516731 3.610538 0.631662
285.006470 -35.516731 2.964941 0.668498
285.006470 -35.516731 2.321417 0.653269
285.006470 -35.516731 1.678583 0.622568
285.006470 -35.516731 1.035059 0.639277
285.006470 -35.516731 0.389462 0.703548
286.176849 -33.587227 0.000005 0.241823
288.200653 -30.250828 0.000004 0.258841
289.492676 -28.120815 0.000003 0.218701
290.390686 -26.640377 0.000002 0.257405
291.052277 -25.549658 0.000002 0.223619
285.006470 -35.255333 6.864158 0.538918
285.006470 -35.255333 6.194061 0.663493
285.006439 -35.255333 5.533372 0.651560
285.006470 -35.255329 4.880507 0.646555
285.006470 -35.255325 4.233953 0.662974
285.006470 -35.255325 3.592251 0.656245
285.006470 -35.255329 2.953984 0.701686
285.006470 -35.255333 2.317768 0.670115
285.006470 -35.255333 1.682232 0.620554
285.006470 -35.255325 1.046016 0.643168
285.006470 -35.255329 0.407749 0.666926
286.073303 -33.523922 0.000005 0.239609
288.120331 -30.201729 0.000004 0.215062
289.427216 -28.080791 0.000003 0.245233
290.335510 -26.606657 0.000002 0.225893
291.004730 -25.520582 0.000002 0.242816
285.006470 -34.999794 6.809780 0.519783
285.006439 -34.999794 6.147175 0.654765
285.006470 -34.999794 5.493871 0.673762
285.006470 -34.999794 4.848305 0.666606
285.006470 -34.999790 4.208979 0.624521
285.006470 -34.999790 3.574450 0.699748
285.006470 -34.999794 2.943320 0.646845
285.006470 -34.999790 2.314216 0.629175
285.006470 -34.999786 1.685785 0.666423
285.006470 -34.999790 1.056680 0.651331
285.006470 -34.999794 0.425548 0.676265
285.970184 -33.459892 0.000005 0.227760
288.040375 -30.152073 0.000004 0.274196
289.362030 -28.040306 0.000003 0.251409
290.280609 -26.572552 0.000002 0.244324
290.957367 -25.491175 0.000002 0.239321
285.006470 -34.749886 6.756833 0.622309
285.006470 -34.749886 6.101520 0.658457
285.006470 -34.749886 5.455409 0.608423
285.006470 -34.749886 4.816951 0.665324
285.006470 -34.749882 4.184662 0.647639
285.006470 -34.749886 3.557118 0.669383
285.006470 -34.749886 2.932935 0.622812
285.006470 -34.749886 2.310756 0.613550
285.006470 -34.749886 1.689244 0.732082
285.006470 -34.749886 1.067065 0.676951
285.006470 -34.749882 0.442881 0.582055
285.867523 -33.395142 0.000005 0.227449
287.960754 -30.101856 0.000004 0.254030
289.297119 -27.999372 0.000003 0.214201
290.225922 -26.538063 0.000002 0.265435
290.910217 -25.461437 0.000002 0.269133
285.006470 -34.505417 6.705266 0.630137
285.006470 -34.505413 6.057057 0.689525
285.006470 -34.505413 5.417951 0.655909
285.006470 -34.505413 4.786413 0.656413
285.006470 -34.505413 4.160979 0.628901
285.006470 -34.505413 3.540239 0.630732
285.006470 -34.505413 2.922822 0.637766
285.006470 -34.505413 2.307387 0.661128
285.006470 -34.505409 1.692612 0.687694
285.006470 -34.505413 1.077178 0.615824
285.006470 -34.505413 0.459761 0.584283
285.765320 -33.329681 0.000005 0.244791
287.881500 -30.051086 0.000004 0.205141
289.232483 -27.957983 0.000003 0.219730
290.171478 -26.503193 0.000002 0.207798
290.863281 -25.431372 0.000002 0.197111
285.006470 -34.266178 6.655031 0.602411
285.006470 -34.266174 6.013742 0.673381
285.006470 -34.266174 5.381459 0.663203
285.006470 -34.266174 4.756664 0.565942
285.006470 -34.266174 4.137908 0.692760
285.006470 -34.266174 3.523794 0.598398
285.006470 -34.266174 2.912969 0.788418
285.006470 -34.266171 2.304106 0.553643
285.006470 -34.266171 1.695894 0.710430
285.006470 -34.266171 1.087031 0.606485
285.006470 -34.266171 0.476205 0.761120
285.663605 -33.263504 0.000005 0.214668
287.802582 -29.999765 0.000004 0.232176
289.168152 -27.916143 0.000003 0.226599
290.117279 -26.467947 0.000003 0.205404
290.816559 -25.400980 0.000002 0.203837
285.006470 -34.031979 6.606077 0.600183
285.006470 -34.031975 5.971533 0.623468
285.006470 -34.031979 5.345899 0.670329
285.006470 -34.031979 4.727675 0.607858
285.006470 -34.031975 4.115425 0.726833
285.006470 -34.031979 3.507770 0.636286
285.006470 -34.031975 2.903368 0.698848
285.006470 -34.031975 2.300908 0.617899
285.006470 -34.031975 1.699092 0.708415
285.006470 -34.031979 1.096631 0.626764
285.006470 -34.031975 0.492229 0.648814
285.562317 -33.196625 0.000005 0.208516
287.724060 -29.947897 0.000003 0.227892
289.104126 -27.873857 0.000003 0.193520
290.063354 -26.432323 0.000002 0.213973
290.770050 -25.370262 0.000002 0.209019
285.006470 -33.802643 6.558363 0.650080
285.006470 -33.802643 5.930393 0.619898
285.006470 -33.802643 5.311239 0.573541
285.006470 -33.802639 4.699418 0.669505
285.006470 -33.802643 4.093513 0.697429
285.006470 -33.802643 3.492151 0.621927
285.006470 -33.802643 2.894011 0.568704
285.006470 -33.802643 2.297791 0.706035
285.006470 -33.802643 1.702209 0.708186
285.006470 -33.802639 1.105990 0.677226
285.006470 -33.802643 0.507849 0.590799
285.461517 -33.129032 0.000005 0.203298
287.645874 -29.895477 0.000004 0.252977
289.040405 -27.831123 0.000003 0.230716
290.009644 -26.396322 0.000002 0.241511
290.723755 -25.339222 0.000002 0.275309
285.006470 -33.577999 6.511845 0.615579
285.006470 -33.577999 5.890283 0.635142
285.006470 -33.577999 5.277448 0.686503
285.006470 -33.577999 4.671872 0.591424
285.006470 -33.577999 4.072147 0.622202
285.006470 -33.577999 3.476924 0.682795
285.006470 -33.577999 2.884887 0.577157
285.006470 -33.577995 2.294751 0.729976
285.006470 -33.577995 1.705248 0.633951
285.006470 -33.577995 1.115113 0.608026
285.006470 -33.577995 0.523076 0.642756
285.361176 -33.060741 0.000005 0.234690
287.568054 -29.842514 0.000004 0.255083
288.976959 -27.787947 0.000003 0.235827
289.956207 -26.359947 0.000002 0.282992
290.677673 -25.307858 0.000002 0.206637
284.923370 -33.477276 6.502919 0.625498
284.923370 -33.477280 5.882587 0.686641
284.923370 -33.477280 5.270965 0.655726
284.923370 -33.477280 4.666587 0.668482
284.923370 -33.477280 4.068048 0.629496
284.923370 -33.477280 3.474002 0.690715
284.923340 -33.477280 2.883137 0.627543
284.923370 -33.477276 2.294168 0.568246
284.923370 -33.477276 1.705832 0.684016
284.923370 -33.477280 1.116863 0.619944
284.923370 -33.477276 0.525997 0.666407
285.261322 -32.991753 0.000005 0.236174
287.490601 -29.789009 0.000004 0.226240
288.913818 -27.744331 0.000003 0.212286
289.903015 -26.323200 0.000003 0.224960
290.631805 -25.276175 0.000002 0.242074
284.769684 -33.477280 6.525019 0.680949
284.769684 -33.477280 5.901643 0.675731
284.769684 -33.477280 5.287018 0.606165
284.769684 -33.477280 4.679673 0.659632
284.769684 -33.477280 4.078198 0.652705
284.769684 -33.477280 3.481236 0.650217
284.769684 -33.477280 2.887471 0.631647
284.769684 -33.477280 2.295612 0.630854
284.769684 -33.477276 1.704388 0.681926
284.769684 -33.477280 1.112529 0.670497
284.769684 -33.477276 0.518763 0.709224
285.161926 -32.922070 0.000005 0.203645
287.413544 -29.734966 0.000004 0.216822
288.851013 -27.700272 0.000003 0.201252
289.850098 -26.286081 0.000002 0.218401
290.586182 -25.244171 0.000002 0.272771
284.614502 -33.477280 6.547559 0.614542
284.614502 -33.477276 5.921077 0.698146
284.614502 -33.477280 5.303391 0.674693
284.614502 -33.477276 4.693021 0.663172
284.614502 -33.477280 4.088550 0.668055
284.614502 -33.477276 3.488614 0.643961
284.614502 -33.477280 2.891891 0.631678
284.614502 -33.477276 2.297085 0.656596
284.614502 -33.477276 1.702915 0.626032
284.614502 -33.477276 1.108109 0.684916
284.614502 -33.477272 0.511385 0.680827
285.063049 -32.851692 0.000005 0.245748
287.336853 -29.680386 0.000004 0.198547
288.788483 -27.655777 0.000003 0.218796
289.797424 -26.248594 0.000003 0.236772
290.540771 -25.211849 0.000002 0.196883
284.457764 -33.477280 6.570548 0.713375
284.457764 -33.477280 5.940899 0.612222
284.457764 -33.477280 5.320091 0.667033
284.457764 -33.477280 4.706635 0.569100
284.457764 -33.477276 4.099108 0.700404
284.457764 -33.477276 3.496140 0.627070
284.457764 -33.477276 2.896400 0.674510
284.457764 -33.477280 2.298586 0.637781
284.457764 -33.477276 1.701413 0.706615
284.457764 -33.477276 1.103600 0.635416
284.457764 -33.477276 0.503860 0.674418
284.964661 -32.780624 0.000005 0.222195
287.260559 -29.625273 0.000004 0.230537
288.726288 -27.610844 0.000003 0.236832
289.745026 -26.210741 0.000003 0.218677
290.495575 -25.179209 0.000002 0.247567
284.299438 -33.477280 6.593996 0.592721
284.299438 -33.477280 5.961117 0.654398
284.299438 -33.477280 5.337124 0.704250
284.299438 -33.477280 4.720521 0.596338
284.299438 -33.477276 4.109877 0.602731
284.299438 -33.477280 3.503815 0.695583
284.299438 -33.477276 2.900999 0.686839
284.299438 -33.477276 2.300118 0.639963
284.299438 -33.477272 1.699882 0.656275
284.299438 -33.477276 1.099001 0.625330
284.299438 -33.477276 0.496184 0.684611
284.866791 -32.708870 0.000005 0.232751
287.184631 -29.569622 0.000004 0.263113
288.664398 -27.565481 0.000003 0.234283
289.692871 -26.172525 0.000002 0.202197
290.450623 -25.146255 0.000002 0.183910
284.139435 -33.477280 6.617913 0.713146
284.139435 -33.477280 5.981739 0.657618
284.139435 -33.477280 5.354496 0.684199
284.139435 -33.477280 4.734684 0.679240
284.139435 -33.477280 4.120861 0.642557
284.139435 -33.477280 3.511644 0.692714
284.139435 -33.477280 2.905690 0.680415
284.139435 -33.477280 2.301681 0.699672
284.139435 -33.477280 1.698319 0.647227
284.139435 -33.477280 1.094310 0.711620
284.139435 -33.477276 0.488355 0.689128
284.769379 -32.636440 0.000005 0.212202
287.109100 -29.513449 0.000004 0.213255
288.602814 -27.519686 0.000003 0.197494
289.640991 -26.133942 0.000003 0.227306
290.405884 -25.112989 0.000002 0.220867
283.977783 -33.477280 6.642306 0.674769
283.977783 -33.477280 6.002771 0.705165
283.977783 -33.477280 5.372216 0.613275
283.977783 -33.477280 4.749129 0.620722
283.977783 -33.477280 4.132064 0.707973
283.977783 -33.477280 3.519630 0.681041
283.977783 -33.477280 2.910473 0.617227
283.977783 -33.477280 2.303275 0.656657
283.977783 -33.477280 1.696725 0.707225
283.977783 -33.477280 1.089526 0.682017
283.977783 -33.477276 0.480370 0.616678
284.672516 -32.563332 0.000005 0.241835
287.033966 -29.456749 0.000004 0.226336
288.541565 -27.473461 0.000003 0.246717
289.589386 -26.095001 0.000002 0.232859
290.361389 -25.079411 0.000002 0.206099
283.814392 -33.477280 6.667186 0.619928
283.814392 -33.477276 6.024225 0.637995
283.814392 -33.477280 5.390290 0.678401
283.814392 -33.477280 4.763864 0.634318
283.814392 -33.477280 4.143491 0.718318
283.814392 -33.477276 3.527774 0.635248
283.814392 -33.477280 2.915353 0.722850
283.814392 -33.477276 2.304900 0.625742
283.814392 -33.477276 1.695100 0.725414
283.814392 -33.477276 1.084646 0.631235
283.814392 -33.477272 0.472226 0.723491
284.576141 -32.489544 0.000006 0.227557
286.959229 -29.399525 0.000004 0.206434
288.480621 -27.426813 0.000003 0.224074
289.538055 -26.055698 0.000002 0.210838
290.317139 -25.045525 0.000002 0.229675
283.649231 -33.477280 6.692567 0.635218
283.649231 -33.477280 6.046110 0.630045
283.649231 -33.477280 5.408726 0.652720
283.649231 -33.477280 4.778893 0.633036
283.649231 -33.477280 4.155148 0.599786
283.649231 -33.477280 3.536082 0.642527
283.649231 -33.477280 2.920332 0.649805
283.649231 -33.477280 2.306558 0.662913
283.649231 -33.477280 1.693442 0.650675
283.649231 -33.477280 1.079669 0.725093
283.649231 -33.477276 0.463918 0.610254
284.480286 -32.415092 0.000005 0.215781
286.884888 -29.341780 0.000005 0.250810
288.420044 -27.379734 0.000003 0.241476
289.487000 -26.016041 0.000003 0.244324
290.273102 -25.011330 0.000002 0.277224
283.482239 -33.477280 6.718455 0.670848
283.482239 -33.477280 6.068430 0.676249
283.482239 -33.477280 5.427532 0.685893
283.482239 -33.477280 4.794224 0.662745
283.482239 -33.477280 4.167038 0.656611
283.482239 -33.477280 3.544557 0.667674
283.482239 -33.477283 2.925409 0.697658
283.482239 -33.477280 2.308249 0.717159
283.482239 -33.477280 1.691751 0.677165
283.482239 -33.477280 1.074591 0.673030
283.482239 -33.477276 0.455443 0.669703
284.384979 -32.339966 0.000005 0.235994
286.810974 -29.283522 0.000004 0.247591
288.359772 -27.332241 0.000003 0.266895
289.436249 -25.976025 0.000003 0.241751
290.229340 -24.976828 0.000002 0.251457
283.313416 -33.477280 6.744864 0.646891
283.313416 -33.477283 6.091202 0.627420
283.313416 -33.477280 5.446715 0.716793
283.313416 -33.477280 4.809863 0.633051
283.313416 -33.477280 4.179166 0.679820
283.313416 -33.477280 3.553202 0.626902
283.313416 -33.477280 2.930588 0.665187
283.313416 -33.477280 2.309975 0.672160
283.313416 -33.477280 1.690026 0.687816
283.313416 -33.477280 1.069412 0.635157
283.313416 -33.477280 0.446798 0.624842
284.290161 -32.264179 0.000005 0.251792
286.737457 -29.224745 0.000004 0.226767
288.299835 -27.284325 0.000003 0.189834
289.385742 -25.935658 0.000002 0.218976
290.185791 -24.942020 0.000002 0.225032
283.142639 -33.477283 6.771803 0.645335
283.142670 -33.477280 6.114429 0.609476
283.142670 -33.477280 5.466285 0.660624
283.142639 -33.477280 4.825817 0.656397
283.142670 -33.477280 4.191538 0.674266
283.142670 -33.477280 3.562020 0.650202
283.142670 -33.477280 2.935871 0.673884
283.142670 -33.477280 2.311734 0.632334
283.142670 -33.477280 1.688266 0.706218
283.142670 -33.477276 1.064128 0.575387
283.142670 -33.477280 0.437980 0.637812
284.195892 -32.187733 0.000005 0.253348
286.664337 -29.165455 0.000004 0.247136
288.240234 -27.235991 0.000003 0.220424
289.335541 -25.894938 0.000003 0.228478
290.142487 -24.906912 0.000002 0.248094
282.969940 -33.477280 6.799285 0.640406
282.969940 -33.477280 6.138125 0.695811
282.969940 -33.477280 5.486247 0.633127
282.969940 -33.477280 4.842091 0.704585
282.969940 -33.477280 4.204160 0.657664
282.969940 -33.477280 3.571016 0.634256
282.969940 -33.477280 2.941261 0.698146
282.969940 -33.477280 2.313530 0.590173
282.969940 -33.477280 1.686470 0.642603
282.969940 -33.477280 1.058738 0.620172
282.969971 -33.477276 0.428985 0.689265
284.102173 -32.110630 0.000005 0.205739
286.591644 -29.105659 0.000004 0.229903
288.180969 -27.187243 0.000003 0.202400
289.285614 -25.853868 0.000003 0.228622
290.099457 -24.871502 0.000002 0.187489
282.795227 -33.477280 6.827323 0.632303
282.795227 -33.477280 6.162300 0.645014
282.795227 -33.477280 5.506615 0.595911
282.795227 -33.477280 4.858695 0.723796
282.795227 -33.477280 4.217037 0.618830
282.795227 -33.477280 3.580194 0.653819
282.795227 -33.477280 2.946760 0.686137
282.795227 -33.477280 2.315361 0.689372
282.795227 -33.477280 1.684639 0.666865
282.795227 -33.477280 1.053239 0.672892
282.795227 -33.477280 0.419806 0.684733
284.008972 -32.032867 0.000006 0.229986
286.519379 -29.045357 0.000004 0.216558
288.122040 -27.138083 0.000003 0.188649
289.235962 -25.812452 0.000003 0.263078
290.056641 -24.835789 0.000002 0.216666
282.618469 -33.477280 6.855928 0.639017
282.618469 -33.477280 6.186965 0.656596
282.618469 -33.477280 5.527392 0.601709
282.618469 -33.477280 4.875634 0.637125
282.618469 -33.477283 4.230175 0.612238
282.618469 -33.477280 3.589557 0.634852
282.618469 -33.477280 2.952370 0.676402
282.618469 -33.477280 2.317230 0.666819
282.618469 -33.477280 1.682770 0.613458
282.618469 -33.477280 1.047629 0.590158
282.618469 -33.477280 0.410443 0.675776
283.916321 -31.954468 0.000005 0.224349
286.447510 -28.984547 0.000004 0.218198
288.063477 -27.088511 0.000003 0.271527
289.186615 -25.770691 0.000002 0.220077
290.014099 -24.799778 0.000002 0.250834
282.439575 -33.477283 6.885113 0.666758
282.439575 -33.477280 6.212128 0.640711
282.439575 -33.477280 5.548594 0.615732
282.439575 -33.477280 4.892916 0.575845
282.439575 -33.477280 4.243577 0.616709
282.439575 -33.477280 3.599111 0.667796
282.439575 -33.477276 2.958094 0.678523
282.439575 -33.477276 2.319136 0.603250
282.439575 -33.477276 1.680863 0.669490
282.439575 -33.477276 1.041906 0.683589
282.439575 -33.477280 0.400889 0.649119
283.824219 -31.875418 0.000005 0.244635
286.376099 -28.923244 0.000005 0.223919
288.005249 -27.038532 0.000003 0.189475
289.137573 -25.728584 0.000003 0.218210
289.971802 -24.763475 0.000002 0.191294
282.258514 -33.477280 6.914892 0.646204
282.258514 -33.477283 6.237806 0.670665
282.258514 -33.477283 5.570226 0.670954
282.258514 -33.477280 4.910552 0.636316
282.258514 -33.477280 4.257255 0.637186
282.258514 -33.477280 3.608859 0.659052
282.258514 -33.477280 2.963935 0.668467
282.258514 -33.477280 2.321083 0.627909
282.258514 -33.477280 1.678918 0.649271
282.258514 -33.477280 1.036065 0.715846
282.258514 -33.477276 0.391141 0.627955
283.732666 -31.795727 0.000005 0.219933
286.305084 -28.861439 0.000004 0.242301
287.947357 -26.988148 0.000003 0.217755
289.088806 -25.686138 0.000003 0.192264
289.929749 -24.726875 0.000002 0.209521
282.075195 -33.477283 6.945281 0.676036
282.075195 -33.477280 6.264006 0.668528
282.075195 -33.477280 5.592299 0.655268
282.075195 -33.477280 4.928547 0.642603
282.075226 -33.477280 4.271210 0.627726
282.075195 -33.477280 3.618806 0.649866
282.075195 -33.477280 2.969894 0.643320
282.075226 -33.477280 2.323067 0.621546
282.075226 -33.477280 1.676933 0.706706
282.075195 -33.477280 1.030105 0.688029
282.075226 -33.477280 0.381194 0.658610
283.641693 -31.715397 0.000005 0.210132
286.234528 -28.799141 0.000004 0.218533
287.889832 -26.937359 0.000004 0.256340
289.040344 -25.643353 0.000003 0.230932
289.887970 -24.689983 0.000002 0.245473
281.889618 -33.477283 6.976289 0.635676
281.889618 -33.477280 6.290743 0.651270
281.889618 -33.477283 5.614825 0.633158
281.889618 -33.477280 4.946911 0.643854
281.889618 -33.477280 4.285452 0.656870
281.889618 -33.477280 3.628956 0.663523
281.889618 -33.477280 2.975976 0.678614
281.889618 -33.477280 2.325094 0.607904
281.889618 -33.477280 1.674907 0.667506
281.889618 -33.477280 1.024024 0.656001
281.889618 -33.477280 0.371043 0.687480
283.551270 -31.634434 0.000006 0.244491
286.164398 -28.736355 0.000004 0.253240
287.832672 -26.886173 0.000003 0.271970
288.992157 -25.600227 0.000002 0.248201
289.846436 -24.652800 0.000002 0.259607
281.701691 -33.477280 7.007934 0.673762
281.701691 -33.477280 6.318030 0.654810
281.701691 -33.477280 5.637813 0.649851
281.701691 -33.477280 4.965651 0.705425
281.701691 -33.477280 4.299986 0.626520
281.701691 -33.477280 3.639315 0.672923
281.701691 -33.477280 2.982183 0.689860
281.701691 -33.477276 2.327161 0.563027
281.701691 -33.477276 1.672839 0.633188
281.701691 -33.477280 1.017817 0.689021
281.701691 -33.477280 0.360684 0.658778
283.461426 -31.552849 0.000005 0.238663
286.094727 -28.673079 0.000004 0.198272
287.775848 -26.834587 0.000003 0.243486
288.944305 -25.556767 0.000003 0.245114
289.805176 -24.615328 0.000002 0.265208
281.511353 -33.477283 7.040234 0.658061
281.511353 -33.477283 6.345881 0.668467
281.511353 -33.477280 5.661275 0.668238
281.511353 -33.477280 4.984777 0.640208
281.511353 -33.477280 4.314820 0.645441
281.511353 -33.477280 3.649888 0.674372
281.511353 -33.477280 2.988518 0.669474
281.511353 -33.477280 2.329271 0.623484
281.511353 -33.477280 1.670730 0.652262
281.511353 -33.477280 1.011482 0.674266
281.511353 -33.477280 0.350111 0.623529
283.372131 -31.470631 0.000006 0.225534
286.025482 -28.609314 0.000004 0.236892
287.719421 -26.782608 0.000003 0.214739
288.896759 -25.512978 0.000002 0.205345
289.764160 -24.577570 0.000002 0.252271
281.318512 -33.477283 7.073200 0.624887
281.318512 -33.477280 6.374304 0.624796
281.318512 -33.477280 5.685222 0.634836
281.318512 -33.477280 5.004301 0.597055
281.318512 -33.477280 4.329960 0.581796
281.318512 -33.477280 3.660679 0.638743
281.318512 -33.477280 2.994983 0.611688
281.318512 -33.477280 2.331424 0.609567
281.318512 -33.477280 1.668576 0.667216
281.318512 -33.477280 1.005017 0.665507
281.318512 -33.477280 0.339320 0.660075
283.283417 -31.387793 0.000006 0.226013
285.956665 -28.545071 0.000004 0.225391
287.663330 -26.730236 0.000003 0.263652
288.849518 -25.468853 0.000003 0.245916
289.723419 -24.539524 0.000003 0.238926
281.123138 -33.477287 7.106853 0.679957
281.123138 -33.477280 6.403319 0.651286
281.123138 -33.477283 5.709667 0.608103
281.123138 -33.477283 5.024229 0.625559
281.123138 -33.477283 4.345415 0.706035
281.123138 -33.477280 3.671695 0.637049
281.123138 -33.477283 3.001583 0.666773
281.123138 -33.477283 2.333622 0.578561
281.123138 -33.477283 1.666377 0.637873
281.123138 -33.477283 0.998417 0.648493
281.123138 -33.477283 0.328304 0.647608
283.195313 -31.304340 0.000006 0.224074
285.888336 -28.480350 0.000004 0.232284
287.607605 -26.677471 0.000003 0.226480
288.802551 -25.424402 0.000003 0.210215
289.682953 -24.501198 0.000002 0.194310
280.925140 -33.477283 7.141204 0.599390
280.925140 -33.477280 6.432940 0.639048
280.925140 -33.477280 5.734620 0.724346
280.925140 -33.477280 5.044572 0.624613
280.925140 -33.477280 4.361192 0.652750
280.925140 -33.477280 3.682940 0.657588
280.925140 -33.477280 3.008320 0.686549
280.925140 -33.477280 2.335867 0.657481
280.925140 -33.477280 1.664133 0.631067
280.925140 -33.477280 0.991680 0.644846
280.925140 -33.477283 0.317059 0.669871
283.107758 -31.220272 0.000006 0.237945
285.820435 -28.415152 0.000004 0.223045
287.552246 -26.624321 0.000004 0.293859
288.755951 -25.379623 0.000003 0.239034
289.642761 -24.462589 0.000002 0.185885
280.724426 -33.477280 7.176277 0.724834
280.724426 -33.477280 6.463181 0.651957
280.724457 -33.477276 5.760096 0.653269
280.724457 -33.477276 5.065341 0.622263
280.724457 -33.477280 4.377299 0.619684
280.724457 -33.477276 3.694421 0.698039
280.724457 -33.477280 3.015199 0.689250
280.724457 -33.477280 2.338158 0.589685
280.724457 -33.477280 1.661842 0.665751
280.724457 -33.477280 0.984801 0.666667
280.724457 -33.477280 0.305579 0.694179
283.020813 -31.135595 0.000006 0.254927
285.752991 -28.349482 0.000004 0.262395
287.497284 -26.570782 0.000004 0.222758
288.709625 -25.334520 0.000003 0.252677
289.602814 -24.423698 0.000002 0.251696
280.520996 -33.477283 7.212086 0.618128
280.520996 -33.477280 6.494056 0.669306
280.520996 -33.477276 5.786109 0.661311
280.520996 -33.477276 5.086546 0.638025
280.520996 -33.477276 4.393745 0.640604
280.520996 -33.477276 3.706142 0.654261
280.520996 -33.477276 3.022222 0.650202
280.520996 -33.477276 2.340497 0.530190
280.520996 -33.477276 1.659503 0.677470
280.520996 -33.477280 0.977778 0.660136
280.520996 -33.477276 0.293857 0.697810
282.934448 -31.050312 0.000006 0.222483
285.686035 -28.283344 0.000004 0.213949
287.442688 -26.516865 0.000004 0.214416
288.663635 -25.289097 0.000003 0.196895
289.563141 -24.384533 0.000002 0.220843
280.314697 -33.477283 7.248652 0.675578
280.314697 -33.477276 6.525583 0.669764
280.314697 -33.477276 5.812670 0.639857
280.314697 -33.477272 5.108199 0.590509
280.314697 -33.477272 4.410538 0.616632
280.314697 -33.477276 3.718112 0.586877
280.314697 -33.477276 3.029393 0.662013
280.314697 -33.477276 2.342886 0.608606
280.314697 -33.477276 1.657114 0.639002
280.314697 -33.477276 0.970606 0.630488
280.314697 -33.477276 0.281887 0.596155
282.848694 -30.964432 0.000006 0.232859
285.619507 -28.216740 0.000004 0.209402
287.388458 -26.462566 0.000004 0.245030
288.617950 -25.243353 0.000003 0.208660
289.523773 -24.345089 0.000003 0.228095
280.105438 -33.477283 7.285996 0.671672
280.105469 -33.477272 6.557781 0.597543
280.105469 -33.477272 5.839796 0.647974
280.105469 -33.477272 5.130314 0.629038
280.105469 -33.477272 4.427688 0.633555
280.105469 -33.477272 3.730335 0.679316
280.105469 -33.477272 3.036717 0.651865
280.105469 -33.477272 2.345325 0.637720
280.105469 -33.477272 1.654674 0.628748
280.105469 -33.477272 0.963283 0.647059
280.105469 -33.477272 0.269663 0.633844
282.763519 -30.877953 0.000006 0.226312
285.553467 -28.149670 0.000004 0.235037
287.334625 -26.407890 0.000003 0.205548
288.572571 -25.197289 0.000003 0.199528
289.484650 -24.305370 0.000002 0.245221
279.893219 -33.477280 7.324133 0.619745
279.893219 -33.477268 6.590665 0.629831
279.893219 -33.477268 5.867499 0.657420
279.893219 -33.477268 5.152898 0.636606
279.893219 -33.477272 4.445205 0.639780
279.893219 -33.477268 3.742820 0.668589
279.893219 -33.477272 3.044197 0.640589
279.893219 -33.477272 2.347817 0.648859
279.893219 -33.477272 1.652183 0.678813
279.893219 -33.477272 0.955803 0.665492
279.893219 -33.477272 0.257179 0.659327
282.678986 -30.790882 0.000005 0.213172
285.487885 -28.082142 0.000004 0.240494
287.281158 -26.352840 0.000003 0.222100
288.527527 -25.150911 0.000003 0.234367
289.445831 -24.265383 0.000002 0.200474
279.677887 -33.477287 7.363092 0.641459
279.677887 -33.477268 6.624254 0.656901
279.677917 -33.477264 5.895797 0.652110
279.677887 -33.477268 5.175968 0.645701
279.677887 -33.477268 4.463096 0.644663
279.677887 -33.477268 3.755572 0.669657
279.677887 -33.477268 3.051837 0.629740
279.677887 -33.477268 2.350362 0.656153
279.677887 -33.477268 1.649638 0.655787
279.677887 -33.477272 0.948163 0.665492
279.677887 -33.477272 0.244427 0.643748
282.595032 -30.703224 0.000006 0.212717
285.422791 -28.014156 0.000004 0.231099
287.228088 -26.297419 0.000003 0.221681
288.482819 -25.104218 0.000003 0.251684
289.407257 -24.225122 0.000002 0.218007
279.459351 -33.477283 7.402887 0.653681
279.459381 -33.477264 6.658568 0.666667
279.459381 -33.477264 5.924706 0.697902
279.459381 -33.477268 5.199534 0.693385
279.459381 -33.477264 4.481372 0.654505
279.459381 -33.477268 3.768599 0.670115
279.459381 -33.477264 3.059642 0.695338
279.459381 -33.477264 2.352962 0.706889
279.459381 -33.477264 1.647038 0.647013
279.459381 -33.477268 0.940358 0.651194
279.459381 -33.477268 0.231400 0.628672
282.511688 -30.614979 0.000006 0.235731
285.358154 -27.945721 0.000004 0.213734
287.175415 -26.241627 0.000004 0.204220
288.438446 -25.057217 0.000003 0.251205
289.368988 -24.184595 0.000002 0.211221
279.237579 -33.477280 7.443544 0.669902
279.237610 -33.477257 6.693623 0.634897
279.237579 -33.477264 5.954239 0.651148
279.237579 -33.477264 5.223612 0.668879
279.237610 -33.477261 4.500045 0.659449
279.237610 -33.477261 3.781907 0.678996
279.237579 -33.477264 3.067616 0.635294
279.237579 -33.477264 2.355618 0.737682
279.237579 -33.477264 1.644382 0.694286
279.237579 -33.477264 0.932384 0.657969
279.237579 -33.477264 0.218092 0.671397
282.428986 -30.526157 0.000006 0.209844
285.294037 -27.876835 0.000004 0.224026
287.123108 -26.185471 0.000003 0.243043
288.394379 -25.009905 0.000003 0.210335
289.331024 -24.143803 0.000003 0.254520
279.012390 -33.477283 7.485089 0.612436
279.012421 -33.477261 6.729444 0.640467
279.012421 -33.477261 5.984416 0.669062
279.012421 -33.477261 5.248213 0.697337
279.012421 -33.477261 4.519124 0.674510
279.012421 -33.477261 3.795506 0.647913
279.012421 -33.477261 3.075763 0.678431
279.012421 -33.477261 2.358332 0.702922
279.012421 -33.477261 1.641668 0.697566
279.012421 -33.477261 0.924237 0.650050
279.012421 -33.477261 0.204493 0.618173
282.346893 -30.436758 0.000006 0.219766
285.230347 -27.807503 0.000005 0.222399
287.071198 -26.128948 0.000003 0.238783
288.350677 -24.962288 0.000003 0.244252
289.293304 -24.102745 0.000002 0.243510
278.783752 -33.477283 7.527544 0.625971
278.783783 -33.477257 6.766050 0.598993
278.783783 -33.477257 6.015255 0.688426
278.783783 -33.477257 5.273353 0.659770
278.783783 -33.477257 4.538622 0.620508
278.783783 -33.477261 3.809403 0.633829
278.783783 -33.477261 3.084089 0.615702
278.783783 -33.477261 2.361105 0.664988
278.783783 -33.477261 1.638895 0.713970
278.783783 -33.477261 0.915910 0.758083
278.783783 -33.477264 0.190595 0.613550
282.265442 -30.346790 0.000006 0.237574
285.167175 -27.737728 0.000005 0.259044
287.019714 -26.072063 0.000004 0.250176
288.307281 -24.914364 0.000003 0.211376
289.255890 -24.061424 0.000003 0.210455
278.551544 -33.477283 7.570935 0.667231
278.551575 -33.477253 6.803461 0.609842
278.551575 -33.477257 6.046774 0.665858
278.551575 -33.477257 5.299049 0.733089
278.551575 -33.477257 4.558550 0.645304
278.551575 -33.477257 3.823607 0.643275
278.551575 -33.477257 3.092600 0.655192
278.551575 -33.477257 2.363940 0.646967
278.551575 -33.477257 1.636060 0.660349
278.551575 -33.477257 0.907400 0.678798
278.551575 -33.477261 0.176392 0.636301
282.184601 -30.256252 0.000006 0.230776
285.104492 -27.667515 0.000005 0.209701
286.968597 -26.014824 0.000004 0.197182
288.264221 -24.866142 0.000003 0.229197
289.218781 -24.019844 0.000002 0.212394
nan nan nan 0.000000
278.315674 -33.477249 6.841704 0.647059
278.315674 -33.477249 6.078992 0.732845
278.315674 -33.477249 5.325314 0.617838
278.315674 -33.477253 4.578919 0.709712
278.315674 -33.477253 3.838125 0.675959
278.315674 -33.477253 3.101298 0.636393
278.315674 -33.477253 2.366837 0.657725
278.315674 -33.477253 1.633163 0.688731
278.315674 -33.477253 0.898701 0.654032
278.315643 -33.477257 0.161873 0.627359
282.104401 -30.165154 0.000006 0.208420
285.042297 -27.596863 0.000004 0.252294
286.917877 -25.957228 0.000003 0.235922
288.221497 -24.817616 0.000003 0.216140
289.181946 -23.978004 0.000002 0.204423
nan nan nan 0.000000
278.075958 -33.477253 6.880801 0.647089
278.075958 -33.477253 6.111930 0.662989
278.075958 -33.477249 5.352164 0.675502
278.075958 -33.477249 4.599743 0.636576
278.075958 -33.477249 3.852968 0.640314
278.075958 -33.477253 3.110191 0.697459
278.075958 -33.477253 2.369799 0.636103
278.075958 -33.477253 1.630201 0.649027
278.075958 -33.477253 0.889808 0.626978
278.075958 -33.477253 0.147031 0.644663
282.024841 -30.073500 0.000006 0.231315
284.980591 -27.525780 0.000005 0.226276
286.867584 -25.899281 0.000003 0.266500
288.179108 -24.768799 0.000003 0.217277
289.145386 -23.935911 0.000002 0.201551
nan nan nan 0.000000
277.832336 -33.477249 6.920775 0.646265
277.832336 -33.477245 6.145605 0.635752
277.832336 -33.477249 5.379619 0.621927
277.832336 -33.477249 4.621036 0.606516
277.832336 -33.477249 3.868144 0.688365
277.832336 -33.477249 3.119284 0.657649
277.832336 -33.477249 2.372828 0.680995
277.832336 -33.477249 1.627172 0.690196
277.832336 -33.477249 0.880716 0.615915
277.832336 -33.477253 0.131855 0.629480
281.945923 -29.981291 0.000006 0.232942
284.919373 -27.454269 0.000005 0.237251
286.817688 -25.840981 0.000004 0.185693
288.137085 -24.719683 0.000003 0.183036
289.109161 -23.893562 0.000002 0.228119
nan nan nan 0.000000
277.584686 -33.477249 6.961654 0.600916
277.584686 -33.477242 6.180044 0.704112
277.584686 -33.477245 5.407694 0.660487
277.584686 -33.477245 4.642809 0.613474
277.584686 -33.477249 3.883662 0.619425
277.584686 -33.477245 3.128581 0.661723
277.584686 -33.477245 2.375925 0.626505
277.584686 -33.477249 1.624075 0.647059
277.584686 -33.477249 0.871418 0.726696
277.584686 -33.477249 0.116336 0.628153
281.867645 -29.888535 0.000006 0.211640
284.858673 -27.382334 0.000004 0.235037
286.768188 -25.782335 0.000003 0.202532
288.095398 -24.670275 0.000003 0.180751
289.073212 -23.850962 0.000002 0.271611
nan nan nan 0.000000
277.332855 -33.477253 7.003465 0.412131
277.332886 -33.477242 6.215266 0.670481
277.332886 -33.477242 5.436409 0.668803
277.332886 -33.477242 4.665078 0.634302
277.332855 -33.477245 3.899535 0.612818
277.332855 -33.477245 3.138091 0.667750
277.332855 -33.477245 2.379093 0.630610
277.332855 -33.477245 1.620907 0.664134
277.332855 -33.477245 0.861908 0.659373
277.332855 -33.477249 0.100464 0.619120
281.790009 -29.795231 0.000006 0.250260
284.798462 -27.309975 0.000004 0.231267
286.719116 -25.723347 0.000003 0.232907
288.054047 -24.620581 0.000003 0.267147
289.037567 -23.808111 0.000002 0.262048
nan nan nan 0.000000
nan nan nan 0.000000
277.076752 -33.477238 6.251297 0.683024
277.076752 -33.477238 5.465782 0.660639
277.076752 -33.477242 4.687859 0.667414
277.076752 -33.477242 3.915772 0.698528
277.076752 -33.477242 3.147820 0.652399
277.076752 -33.477242 2.382333 0.681071
277.076752 -33.477242 1.617667 0.638346
277.076752 -33.477242 0.852180 0.615183
277.076752 -33.477242 0.084227 0.635340
281.713043 -29.701391 0.000006 0.235145
284.738770 -27.237196 0.000004 0.223919
286.670441 -25.664017 0.000003 0.232188
288.013031 -24.570595 0.000003 0.229268
289.002197 -23.765013 0.000003 0.201910
nan nan nan 0.000000
nan nan nan 0.000000
nan nan nan 0.000000
254.986313 -51.003731 9.648508 0.968627
254.633774 -51.286766 7.983746 0.968627
254.633820 -51.286736 6.264912 0.968627
254.633713 -51.286819 4.555294 0.968627
254.633743 -51.286789 2.851157 0.968627
254.633774 -51.286766 1.148845 0.968627
263.447998 -44.210133 0.000014 0.228622
276.173279 -33.993435 0.000009 0.218832
281.636719 -29.607012 0.000006 0.231698
284.679596 -27.164003 0.000004 0.235575
286.622192 -25.604345 0.000003 0.219347
287.972382 -24.520325 0.000003 0.215170
288.967163 -23.721668 0.000002 0.201694
nan nan nan 0.000000
nan nan nan 0.000000
253.472046 -51.743118 11.681347 0.223529
254.406281 -51.003723 9.715784 0.968627
254.048691 -51.286743 8.036377 0.968627
254.048721 -51.286720 6.302425 0.968627
254.406357 -51.003670 4.555359 0.978225
254.048645 -51.286781 2.858642 0.968627
254.048676 -51.286758 1.141358 0.968627
263.270844 -43.987892 0.000014 0.229639
276.067139 -33.860283 0.000008 0.237514
281.561066 -29.512108 0.000006 0.220077
284.620911 -27.090399 0.000004 0.230333
286.574371 -25.544342 0.000004 0.250056
287.932098 -24.469774 0.000003 0.208037
288.932404 -23.678080 0.000002 0.194933
nan nan nan 0.000000
nan nan nan 0.000000
252.957092 -51.673744 11.747225 0.223529
253.815948 -51.003708 9.784638 0.972305
253.453171 -51.286736 8.090245 0.968627
253.453217 -51.286705 6.340819 0.968627
253.816010 -51.003662 4.578160 0.980392
253.453140 -51.286758 2.866304 0.968627
253.453171 -51.286736 1.133696 0.968627
263.095245 -43.764420 0.000014 0.228993
275.961914 -33.726387 0.000009 0.227976
281.486084 -29.416672 0.000006 0.228562
284.562775 -27.016386 0.000004 0.237813
286.526978 -25.484005 0.000003 0.217097
287.892151 -24.418941 0.000003 0.207834
288.897980 -23.634251 0.000002 0.271826
nan nan nan 0.000000
nan nan nan 0.000000
252.343597 -51.673752 11.835478 0.223529
253.214951 -51.003693 9.855118 0.965820
252.846893 -51.286720 8.145384 0.968627
252.846939 -51.286690 6.380121 0.968627
253.215012 -51.003647 4.601503 0.976074
252.846863 -51.286751 2.874149 0.968627
252.846893 -51.286728 1.125852 0.968627
262.921173 -43.539726 0.000014 0.227282
275.857635 -33.591766 0.000008 0.219359
281.411774 -29.320721 0.000006 0.227389
284.505127 -26.941971 0.000004 0.222913
286.479980 -25.423340 0.000003 0.223452
287.852570 -24.367834 0.000003 0.254808
288.863831 -23.590183 0.000002 0.210790
nan nan nan 0.000000
nan nan nan 0.000000
nan nan nan 0.000000
252.602936 -51.003677 9.927277 0.980392
252.229523 -51.286705 8.201835 0.968627
252.229568 -51.286674 6.420355 0.968627
252.603012 -51.003624 4.625399 0.968627
252.229492 -51.286728 2.882177 0.968627
252.229523 -51.286697 1.117823 0.968627
262.748718 -43.313820 0.000014 0.229244
275.754303 -33.456417 0.000008 0.240279
281.338104 -29.224251 0.000006 0.220280
284.447998 -26.867153 0.000004 0.258949
286.433411 -25.362347 0.000004 0.262108
287.813324 -24.316448 0.000003 0.229089
288.830017 -23.545877 0.000003 0.213112
nan nan nan 0.000000
nan nan nan 0.000000
nan nan nan 0.000000
251.979553 -51.003662 10.001164 0.980392
251.772858 -51.158058 8.234916 0.223529
251.772888 -51.158043 6.443935 0.223529
251.979630 -51.003601 4.649870 0.980392
251.772919 -51.158012 2.886881 0.223529
251.772949 -51.157997 1.113118 0.223529
262.577850 -43.086720 0.000014 0.230441
275.651917 -33.320351 0.000008 0.222471
281.265137 -29.127266 0.000006 0.237143
284.391418 -26.791939 0.000004 0.245365
286.387268 -25.301029 0.000004 0.241990
287.774475 -24.264791 0.000003 0.247986
288.796478 -23.501335 0.000003 0.202412
nan nan nan 0.000000
nan nan nan 0.000000
nan nan nan 0.000000
251.812744 -50.658855 9.990573 0.971191
250.959946 -51.286667 8.318847 0.968627
250.959991 -51.286636 6.503755 0.968627
251.344482 -51.003586 4.674932 0.968627
250.959915 -51.286690 2.898822 0.968627
250.959946 -51.286667 1.101179 0.968627
262.408569 -42.858418 0.000014 0.231698
275.550507 -33.183571 0.000008 0.228945
281.192841 -29.029778 0.000006 0.217277
284.335358 -26.716331 0.000004 0.207822
286.341553 -25.239393 0.000003 0.201551
287.735962 -24.212864 0.000003 0.209426
288.763275 -23.456562 0.000002 0.231135
nan nan nan 0.000000
nan nan nan 0.000000
nan nan nan 0.000000
251.761795 -50.231213 9.959246 0.969604
250.306946 -51.286659 8.379498 0.968627
250.307007 -51.286621 6.546983 0.968627
250.697159 -51.003578 4.700610 0.977493
250.306931 -51.286674 2.907449 0.968627
250.306961 -51.286644 1.092552 0.968627
262.240845 -42.628960 0.000014 0.229125
275.450043 -33.046082 0.000009 0.236365
281.121246 -28.931787 0.000006 0.222135
284.279816 -26.640337 0.000004 0.228024
286.296295 -25.177437 0.000004 0.234163
287.697815 -24.160667 0.000003 0.207331
288.730408 -23.411558 0.000002 0.222901
nan nan nan 0.000000
nan nan nan 0.000000
nan nan nan 0.000000
251.716614 -49.803055 9.927569 0.974670
249.641281 -51.286636 8.441637 0.968627
249.641327 -51.286598 6.591273 0.968627
250.037277 -51.003548 4.726915 0.980392
249.641266 -51.286652 2.916289 0.968627
249.641296 -51.286636 1.083712 0.968627
262.074768 -42.398327 0.000014 0.227581
275.350525 -32.907902 0.000009 0.228335
281.050293 -28.833298 0.000006 0.223619
284.224792 -26.563953 0.000004 0.252965
286.251434 -25.115168 0.000004 0.181947
287.660034 -24.108208 0.000003 0.218521
288.697815 -23.366325 0.000002 0.189475
nan nan nan 0.000000
nan nan nan 0.000000
nan nan nan 0.000000
251.677017 -49.374573 9.895576 0.973617
248.962479 -51.286621 8.505322 0.968627
248.962540 -51.286575 6.636664 0.968627
249.364380 -51.003540 4.753875 0.980392
248.962448 -51.286636 2.925348 0.968627
248.962494 -51.286606 1.074654 0.968627
261.910278 -42.166534 0.000015 0.228694
275.251953 -32.769032 0.000009 0.218425
280.980072 -28.734318 0.000006 0.210539
284.170319 -26.487190 0.000004 0.209497
286.207031 -25.052589 0.000003 0.288007
287.622620 -24.055485 0.000003 0.209725
288.665558 -23.320866 0.000002 0.209198
nan nan nan 0.000000
nan nan nan 0.000000
nan nan nan 0.000000
251.236496 -49.227966 9.936668 0.966110
248.270081 -51.286598 8.570603 0.968627
248.270126 -51.286568 6.683192 0.968627
248.677994 -51.003517 4.781508 0.968124
248.270050 -51.286621 2.934632 0.968627
251.980606 -48.711575 1.139275 0.290364
261.747437 -41.933609 0.000015 0.230489
275.154388 -32.629475 0.000009 0.220316
280.910522 -28.634848 0.000005 0.230489
284.116394 -26.410046 0.000005 0.221717
286.163055 -24.989700 0.000003 0.202891
287.585571 -24.002502 0.000003 0.268379
288.633636 -23.275183 0.000002 0.256854
nan nan nan 0.000000
nan nan nan 0.000000
nan nan nan 0.000000
251.208908 -48.794350 9.903552 0.966262
247.563614 -51.286583 8.637533 0.968627
247.563675 -51.286537 6.730896 0.968627
253.490509 -47.234459 4.481767 0.223529
253.402588 -47.294563 2.828408 0.223529
253.314423 -47.354843 1.169844 0.223529
261.586212 -41.699547 0.000014 0.228873
275.057800 -32.489235 0.000009 0.226683
280.841675 -28.534893 0.000006 0.248884
284.062988 -26.332527 0.000005 0.235970
286.119537 -24.926502 0.000004 0.231626
287.548920 -23.949265 0.000003 0.210227
288.601990 -23.229279 0.000002 0.194155
nan nan nan 0.000000
nan nan nan 0.000000
nan nan nan 0.000000
251.185104 -48.361908 9.870456 0.963577
246.842560 -51.286568 8.706169 0.968627
246.842621 -51.286530 6.779819 0.968627
247.262878 -51.003487 4.838899 0.978607
247.438461 -50.885239 2.942159 0.223529
251.059052 -48.446815 1.129272 0.297932
261.426636 -41.464371 0.000014 0.230130
274.962189 -32.348328 0.000009 0.237718
280.773529 -28.434464 0.000006 0.228048
284.010132 -26.254639 0.000005 0.225343
286.076447 -24.863007 0.000003 0.227318
287.512604 -23.895769 0.000003 0.255382
288.570709 -23.183151 0.000002 0.191809
nan nan nan 0.000000
nan nan nan 0.000000
nan nan nan 0.000000
251.165100 -47.930679 9.837374 0.964111
246.106415 -51.286537 8.776575 0.968627
248.858932 -49.460556 6.559166 0.223529
246.533127 -51.003464 4.868704 0.980392
246.662750 -50.917473 2.953006 0.223529
250.596008 -48.308208 1.124233 0.300206
261.268677 -41.228088 0.000014 0.230393
274.867554 -32.206760 0.000009 0.222913
280.706085 -28.333561 0.000006 0.243845
283.957825 -26.176384 0.000005 0.232368
286.033813 -24.799212 0.000003 0.227653
287.476685 -23.842022 0.000003 0.225451
288.539734 -23.136810 0.000002 0.243797
nan nan nan 0.000000
nan nan nan 0.000000
nan nan nan 0.000000
251.144531 -47.503502 9.805077 0.969314
245.437454 -51.232384 8.837428 0.223529
252.598572 -46.553459 6.171977 0.223529
nan nan nan 0.000000
235.547134 -57.694527 3.165915 0.461418
250.228851 -48.101791 1.121071 0.289937
261.112366 -40.990707 0.000014 0.228634
274.773926 -32.064529 0.000009 0.234474
280.639343 -28.232185 0.000006 0.247603
283.906067 -26.097765 0.000005 0.249338
285.991608 -24.735119 0.000004 0.237550
287.441132 -23.788025 0.000003 0.229029
288.509064 -23.090252 0.000002 0.251696
nan nan nan 0.000000
nan nan nan 0.000000
nan nan nan 0.000000
251.124405 -47.079643 9.773376 0.976516
nan nan nan 0.000000
nan nan nan 0.000000
nan nan nan 0.000000
234.493439 -57.781059 3.181152 0.458686
249.859283 -47.893700 1.117850 0.305974
260.957764 -40.752228 0.000014 0.227880
274.681274 -31.921658 0.000009 0.223177
280.573303 -28.130348 0.000006 0.224912
283.854858 -26.018785 0.000005 0.231794
285.949860 -24.670734 0.000003 0.235085
287.405975 -23.733784 0.000003 0.202197
288.478760 -23.043482 0.000002 0.218078
nan nan nan 0.000000
nan nan nan 0.000000
nan nan nan 0.000000
251.792664 -46.223099 9.621449 0.972488
nan nan nan 0.000000
252.229111 -45.946548 6.170524 0.223529
244.063538 -51.120552 4.973636 0.223529
244.119461 -51.085114 2.989422 0.223529
249.456024 -47.703674 1.113962 0.300038
260.804810 -40.512688 0.000014 0.230369
274.589630 -31.778133 0.000009 0.231949
280.507965 -28.028057 0.000006 0.216750
283.804199 -25.939451 0.000005 0.210957
285.908569 -24.606058 0.000004 0.232823
287.371155 -23.679296 0.000003 0.229232
288.448761 -22.996502 0.000002 0.202137
nan nan nan 0.000000
nan nan nan 0.000000
nan nan nan 0.000000
252.011124 -45.664024 9.549873 0.974441
nan nan nan 0.000000
nan nan nan 0.000000
nan nan nan 0.000000
nan nan nan 0.000000
249.022278 -47.528748 1.109476 0.294347
260.653534 -40.272079 0.000014 0.231111
274.498993 -31.633980 0.000009 0.237825
280.443390 -27.925304 0.000006 0.214273
283.754089 -25.859768 0.000004 0.228586
285.867706 -24.541094 0.000003 0.239142
287.336761 -23.624569 0.000003 0.243534
288.419067 -22.949312 0.000002 0.260277
nan nan nan 0.000000
nan nan nan 0.000000
nan nan nan 0.000000
252.001053 -45.253204 9.519068 0.978408
nan nan nan 0.000000
252.819366 -44.750568 6.077552 0.223529
nan nan nan 0.000000
nan nan nan 0.000000
249.112839 -47.027260 1.115056 0.223529
260.503937 -40.030426 0.000014 0.228538
274.409363 -31.489191 0.000009 0.230573
280.379486 -27.822109 0.000006 0.237622
283.704559 -25.779732 0.000004 0.222794
285.827332 -24.475849 0.000003 0.246287
287.302734 -23.569599 0.000003 0.256639
288.389740 -22.901917 0.000002 0.221908
nan nan nan 0.000000
nan nan nan 0.000000
nan nan nan 0.000000
252.000946 -44.839741 9.487164 0.979980
nan nan nan 0.000000
nan nan nan 0.000000
nan nan nan 0.000000
nan nan nan 0.000000
247.460602 -47.585114 1.087218 0.980392
260.356018 -39.787731 0.000014 0.227832
274.320740 -31.343784 0.000009 0.224026
280.316345 -27.718468 0.000006 0.214021
283.655579 -25.699356 0.000004 0.203286
285.787384 -24.410324 0.000003 0.278085
287.269073 -23.514397 0.000003 0.231291
288.360718 -22.854319 0.000002 0.241105
nan nan nan 0.000000
nan nan nan 0.000000
nan nan nan 0.000000
252.000824 -44.429741 9.455892 0.980392
nan nan nan 0.000000
nan nan nan 0.000000
nan nan nan 0.000000
nan nan nan 0.000000
250.219589 -45.489880 1.143572 0.223529
260.209808 -39.544006 0.000014 0.230728
274.233124 -31.197758 0.000009 0.234379
280.253906 -27.614389 0.000006 0.221334
283.607147 -25.618637 0.000004 0.226001
285.747925 -24.344521 0.000003 0.267733
287.235840 -23.458960 0.000003 0.226145
288.332062 -22.806519 0.000002 0.213614
nan nan nan 0.000000
nan nan nan 0.000000
nan nan nan 0.000000
252.000504 -44.023262 9.425276 0.976349
nan nan nan 0.000000
nan nan nan 0.000000
nan nan nan 0.000000
nan nan nan 0.000000
nan nan nan 0.000000
260.065308 -39.299278 0.000014 0.230250
274.146545 -31.051128 0.000009 0.228766
280.192200 -27.509876 0.000006 0.226695
283.559296 -25.537586 0.000004 0.232153
285.708893 -24.278444 0.000003 0.203418
287.202972 -23.403292 0.000003 0.213710
288.303711 -22.758518 0.000002 0.249578
nan nan nan 0.000000
nan nan nan 0.000000
nan nan nan 0.000000
252.000153 -43.620102 9.395275 0.980392
nan nan nan 0.000000
nan nan nan 0.000000
253.044525 -43.018112 4.389995 0.979751
nan nan nan 0.000000
nan nan nan 0.000000
259.922516 -39.053532 0.000014 0.227796
274.061005 -30.903893 0.000009 0.220245
280.131195 -27.404938 0.000006 0.236018
283.511993 -25.456200 0.000004 0.217468
285.670349 -24.212095 0.000003 0.231794
287.170471 -23.347395 0.000003 0.219682
288.275696 -22.710323 0.000002 0.235252
nan nan nan 0.000000
nan nan nan 0.000000
nan nan nan 0.000000
251.999786 -43.220184 9.365875 0.980392
nan nan nan 0.000000
nan nan nan 0.000000
253.023651 -42.639500 4.381650 0.980087
nan nan nan 0.000000
250.891800 -43.848579 1.166578 0.223529
259.781433 -38.806808 0.000014 0.229807
273.976471 -30.756071 0.000009 0.223320
280.070953 -27.299574 0.000006 0.224421
283.465271 -25.374485 0.000005 0.253527
285.632263 -24.145481 0.000003 0.216690
287.138397 -23.291273 0.000003 0.227509
288.248047 -22.661934 0.000002 0.251397
nan nan nan 0.000000
nan nan nan 0.000000
nan nan nan 0.000000
