# This PCD file was generated using the MATLABÂ® pcwrite function
# from Computer Vision ToolboxÂ®.
# .PCD v.7 - Point Cloud Data file format
VERSION .7
FIELDS x y z intensity
SIZE 4 4 4 4
TYPE F F F F
COUNT 1 1 1 1
WIDTH 1185
HEIGHT 1
VIEWPOINT 0 0 0 1 0 0 0
POINTS 1185
DATA ascii
246.366364 -55.507889 3.785779 0.968627
246.469818 -55.303047 3.081209 0.968627
246.575134 -55.094521 2.363968 0.968627
246.682587 -54.881752 1.632131 0.968627
246.792496 -54.664139 0.883627 0.968627
246.007538 -56.218376 0.279486 0.978363
244.385590 -59.429916 -0.000005 0.224146
242.626404 -62.913155 -0.000004 0.258853
241.503326 -65.136902 -0.000004 0.240997
240.722733 -66.682487 -0.000003 0.232404
240.147644 -67.821205 -0.000002 0.192862
245.290619 -57.934135 6.791522 0.223529
246.039047 -56.477589 6.485115 0.968627
246.150803 -56.260078 5.823072 0.968627
245.864120 -56.818016 5.023632 0.968627
246.269287 -56.029503 4.446939 0.968627
246.369843 -55.833805 3.762096 0.968627
246.471954 -55.635094 3.066721 0.968627
246.575851 -55.432873 2.359040 0.968627
246.681854 -55.226593 1.637165 0.968627
246.790222 -55.015675 0.899066 0.968627
246.007507 -56.538979 0.302911 0.962570
244.493729 -59.485016 -0.000005 0.224218
242.710281 -62.955883 -0.000005 0.201994
241.571701 -65.171738 -0.000004 0.241212
240.780350 -66.711838 -0.000003 0.221669
240.197311 -67.846512 -0.000002 0.193125
245.299179 -58.206055 6.732034 0.223529
245.387024 -58.037991 6.121097 0.223529
246.158905 -56.561234 5.775098 0.968627
245.864197 -57.125076 4.983197 0.980392
246.273926 -56.341187 4.415348 0.968627
246.373215 -56.151222 3.739115 0.968627
246.474014 -55.958389 3.052666 0.968627
246.576553 -55.762196 2.354261 0.968627
246.681137 -55.562130 1.642045 0.968627
246.788025 -55.357613 0.914030 0.968627
246.007462 -56.850983 0.325626 0.968627
244.601486 -59.540859 -0.000005 0.228072
242.793854 -62.999191 -0.000005 0.222112
241.639832 -65.207039 -0.000004 0.196991
240.837738 -66.741577 -0.000003 0.197350
240.246796 -67.872162 -0.000002 0.215242
245.385727 -58.324203 6.715964 0.223529
245.394333 -58.308025 6.070240 0.223529
245.481659 -58.143753 5.462907 0.223529
245.569672 -57.978210 4.850874 0.223529
246.278427 -56.644974 4.384674 0.968627
246.376495 -56.460510 3.716807 0.968627
246.476013 -56.273308 3.039027 0.968627
246.577240 -56.082893 2.349624 0.968627
246.680435 -55.888771 1.646779 0.968627
246.785904 -55.690392 0.928541 0.968627
246.007431 -57.154755 0.347661 0.968627
244.708862 -59.597458 -0.000006 0.230142
242.877121 -63.043087 -0.000004 0.234319
241.707718 -65.242828 -0.000004 0.251947
240.894928 -66.771729 -0.000003 0.231016
240.296112 -67.898148 -0.000003 0.270881
245.535156 -58.324188 6.733653 0.223529
245.534958 -58.324539 6.081447 0.223529
245.534775 -58.324890 5.438425 0.223529
245.574738 -58.250969 4.815571 0.223529
245.662552 -58.088520 4.204837 0.223529
245.751419 -57.924133 3.586820 0.223529
246.477951 -56.580196 3.025784 0.968627
246.577896 -56.395325 2.345123 0.968627
246.679764 -56.206894 1.651372 0.968627
246.783829 -56.014389 0.942618 0.968627
246.007385 -57.450657 0.369047 0.980392
244.815826 -59.654804 -0.000006 0.234929
242.960083 -63.087563 -0.000005 0.262718
241.775345 -65.279083 -0.000004 0.221944
240.951904 -66.802269 -0.000004 0.230465
240.345245 -67.924492 -0.000003 0.210383
245.685699 -58.324181 6.751703 0.223529
245.685516 -58.324532 6.097011 0.223529
245.685318 -58.324875 5.451539 0.223529
245.685135 -58.325226 4.813737 0.223529
245.684937 -58.325569 4.182124 0.223529
245.754257 -58.199471 3.567108 0.223529
245.843277 -58.037502 2.948000 0.223529
246.578537 -56.699821 2.340753 0.968627
246.679108 -56.516861 1.655831 0.968627
246.781830 -56.329979 0.956278 0.968627
246.007355 -57.739002 0.389807 0.980392
244.922394 -59.712894 -0.000005 0.207834
243.042725 -63.132614 -0.000004 0.282585
241.842712 -65.315811 -0.000004 0.210706
241.008667 -66.833214 -0.000003 0.255286
240.394180 -67.951164 -0.000003 0.246717
245.978699 -58.071342 6.842672 0.968627
246.083481 -57.883816 6.221932 0.968627
245.837021 -58.324867 5.464920 0.223529
245.836838 -58.325214 4.824646 0.223529
245.836639 -58.325558 4.190585 0.223529
245.836456 -58.325890 3.561309 0.223529
245.844955 -58.310684 2.936302 0.223529
245.934311 -58.150772 2.314875 0.223529
246.025299 -57.987926 1.682072 0.223529
246.779877 -56.637527 0.969540 0.968627
246.007309 -58.020130 0.409971 0.980392
245.028549 -59.771721 -0.000006 0.238113
243.125061 -63.178242 -0.000005 0.223057
241.909836 -65.353012 -0.000004 0.265040
241.065216 -66.864555 -0.000003 0.263831
240.442932 -67.978188 -0.000003 0.199600
245.987961 -58.328300 6.787735 0.968627
246.091644 -58.145748 6.173510 0.968627
246.196136 -57.961784 5.554554 0.968627
245.864517 -58.545658 4.798172 0.980392
245.989532 -58.325550 4.199220 0.223529
245.989334 -58.325890 3.567462 0.223529
245.989136 -58.326229 2.939113 0.223529
245.988953 -58.326565 2.312808 0.223529
246.024734 -58.263577 1.686007 0.223529
246.116440 -58.102108 1.048224 0.223529
246.007263 -58.294319 0.429561 0.966049
245.134293 -59.831299 -0.000006 0.210718
243.207062 -63.224442 -0.000005 0.259200
241.976700 -65.390671 -0.000004 0.204997
241.121536 -66.896286 -0.000003 0.226121
240.491501 -68.005547 -0.000003 0.208564
245.996994 -58.579567 6.734240 0.968627
246.099609 -58.401802 6.126372 0.968627
246.202988 -58.222710 5.513973 0.968627
245.864563 -58.808975 4.764279 0.968627
246.299103 -58.056198 4.243807 0.968627
246.143433 -58.325886 3.573741 0.223529
246.143234 -58.326225 2.942875 0.223529
246.143036 -58.326561 2.314060 0.223529
246.142853 -58.326900 1.685946 0.223529
246.142654 -58.327244 1.057183 0.223529
246.007233 -58.561848 0.448598 0.961273
245.239624 -59.891613 -0.000005 0.232595
243.288757 -63.271217 -0.000005 0.237191
242.043289 -65.428802 -0.000004 0.239788
241.177643 -66.928406 -0.000003 0.263233
240.539871 -68.033249 -0.000003 0.228299
246.005798 -58.825356 6.682136 0.968627
246.107361 -58.652203 6.080470 0.968627
246.209656 -58.477806 5.474464 0.968627
245.864624 -59.066006 4.731330 0.977630
246.302902 -58.318840 4.217912 0.968627
246.394287 -58.163071 3.595624 0.968627
246.486877 -58.005219 2.964996 0.968627
246.298386 -58.326561 2.315339 0.223529
246.298187 -58.326900 1.684667 0.223529
246.297989 -58.327240 1.053344 0.223529
246.007187 -58.822968 0.467105 0.966323
245.344513 -59.952660 -0.000005 0.216774
243.370102 -63.318558 -0.000004 0.253551
242.109604 -65.467400 -0.000004 0.196883
241.233521 -66.960922 -0.000004 0.241045
240.588058 -68.061279 -0.000003 0.214548
246.014359 -59.065861 6.631371 0.968627
246.114914 -58.897160 6.035759 0.968627
246.216156 -58.727287 5.435991 0.968627
245.864685 -59.316998 4.699286 0.966140
246.306610 -58.575523 4.192710 0.968627
246.396973 -58.423927 3.577326 0.968627
246.488510 -58.270317 2.953827 0.968627
246.581482 -58.114342 2.320686 0.968627
246.454803 -58.326897 1.683362 0.223529
246.454590 -58.327236 1.049428 0.223529
246.007172 -59.077934 0.485102 0.968902
245.449005 -60.014431 -0.000006 0.220915
243.451126 -63.366470 -0.000004 0.254449
242.175659 -65.506454 -0.000004 0.216044
241.289169 -66.993828 -0.000003 0.201587
240.636032 -68.089653 -0.000003 0.216427
246.022705 -59.301273 6.581901 0.968627
246.122269 -59.136868 5.992198 0.968627
246.222488 -58.971355 5.398516 0.968627
245.864731 -59.562172 4.668115 0.980392
246.310211 -58.826477 4.168176 0.968627
246.399582 -58.678879 3.559516 0.968627
246.490112 -58.529373 2.942957 0.968627
246.582031 -58.377583 2.316998 0.968627
246.675552 -58.223129 1.680047 0.968627
246.770935 -58.065594 1.030407 0.968627
246.007141 -59.327000 0.502609 0.980392
245.553040 -60.076931 -0.000006 0.253372
243.531815 -63.414944 -0.000005 0.227126
242.241440 -65.545975 -0.000004 0.246765
241.344574 -67.027115 -0.000003 0.221693
240.683823 -68.118362 -0.000003 0.203729
246.030853 -59.531776 6.533677 0.968627
246.129425 -59.371521 5.949744 0.968627
246.228653 -59.210213 5.362000 0.968627
245.864792 -59.801762 4.637782 0.980392
246.313721 -59.071911 4.144284 0.968627
246.402130 -58.928177 3.542176 0.968627
246.491669 -58.782616 2.932378 0.968627
246.582550 -58.634857 2.313409 0.968627
246.675018 -58.484535 1.683703 0.968627
246.769302 -58.331253 1.041589 0.968627
246.007111 -59.570385 0.519645 0.964355
245.656647 -60.140160 -0.000005 0.237574
243.612167 -63.463978 -0.000004 0.204579
242.306946 -65.585945 -0.000004 0.249099
241.399765 -67.060799 -0.000003 0.205512
240.731400 -68.147400 -0.000003 0.251660
246.038788 -59.757549 6.486659 0.968627
246.136414 -59.601288 5.908361 0.968627
245.863785 -60.037659 5.199055 0.971847
245.864838 -60.035980 4.608257 0.980392
246.317139 -59.312027 4.121014 0.968627
246.404602 -59.172024 3.525289 0.968627
246.493179 -59.030258 2.922077 0.968627
246.583054 -58.886391 2.309916 0.968627
246.674484 -58.740051 1.687261 0.968627
246.767700 -58.590858 1.052470 0.968627
246.007080 -59.808308 0.536228 0.980392
245.759796 -60.204109 -0.000006 0.226994
243.692169 -63.513573 -0.000004 0.227449
242.372162 -65.626381 -0.000004 0.256328
241.454712 -67.094856 -0.000003 0.273549
240.778778 -68.176765 -0.000003 0.218976
246.046539 -59.978752 6.440803 0.968627
246.143234 -59.826355 5.868010 0.968627
245.863846 -60.266655 5.163801 0.980392
245.864883 -60.265026 4.579509 0.968627
246.320465 -59.547028 4.098340 0.968627
246.407028 -59.410614 3.508840 0.968627
246.494644 -59.272514 2.912044 0.968627
246.583557 -59.132385 2.306513 0.968627
246.673981 -58.989883 1.690725 0.968627
246.766144 -58.844635 1.063061 0.968627
246.007050 -60.040962 0.552372 0.968811
245.862503 -60.268780 -0.000006 0.209414
243.771820 -63.563725 -0.000005 0.253395
242.437103 -65.667267 -0.000004 0.207511
241.509415 -67.129303 -0.000003 0.229867
240.825943 -68.206467 -0.000002 0.197302
246.054077 -60.195534 6.396074 0.968627
246.149872 -60.046875 5.828655 0.968627
245.863907 -60.490677 5.129465 0.980392
245.864944 -60.489082 4.551512 0.968627
246.323700 -59.777092 4.076243 0.968627
246.409378 -59.644142 3.492812 0.968627
246.496078 -59.509571 2.902270 0.968627
246.584045 -59.373058 2.303200 0.968627
246.673477 -59.234253 1.694098 0.968627
246.764633 -59.092800 1.073372 0.968627
246.007034 -60.268555 0.568095 0.966094
246.008041 -60.266991 -0.009199 0.968627
243.851120 -63.614433 -0.000005 0.236629
242.501755 -65.708603 -0.000003 0.225522
241.563889 -67.164131 -0.000003 0.244276
240.872910 -68.236496 -0.000003 0.268427
246.061447 -60.408058 6.352430 0.968627
246.156357 -60.263008 5.790267 0.968627
245.863968 -60.709892 5.096016 0.980392
245.964264 -60.556599 4.551137 0.978363
246.326874 -60.002388 4.054703 0.968627
246.411667 -59.872784 3.477190 0.968627
246.497482 -59.741623 2.892746 0.968627
246.584518 -59.608597 2.299971 0.968627
246.673004 -59.473358 1.697384 0.968627
246.763153 -59.335567 1.083415 0.968627
246.007004 -60.491272 0.583413 0.979568
246.008011 -60.489746 0.012297 0.973083
243.930069 -63.665695 -0.000004 0.200677
242.566116 -65.750389 -0.000004 0.232954
241.618103 -67.199333 -0.000003 0.228203
240.919662 -68.266853 -0.000003 0.223129
245.403168 -61.618248 6.008582 0.223529
246.162674 -60.474907 5.752809 0.968627
245.864029 -60.924484 5.063422 0.980392
246.065170 -60.621689 4.551314 0.980392
246.329956 -60.223091 4.033700 0.968627
246.413910 -60.096718 3.461961 0.968627
246.498840 -59.968849 2.883463 0.968627
246.584976 -59.839180 2.296825 0.968627
246.672531 -59.707390 1.700586 0.968627
246.761719 -59.573128 1.093197 0.968627
246.108704 -60.556149 0.583264 0.975296
246.007965 -60.707798 0.033243 0.964401
244.008652 -63.717503 -0.000005 0.215769
242.630173 -65.792633 -0.000004 0.230884
241.672073 -67.234917 -0.000003 0.263831
240.966202 -68.297531 -0.000003 0.245437
245.408783 -61.809742 5.969503 0.223529
245.483276 -61.699284 5.451430 0.223529
245.557953 -61.588539 4.932033 0.223529
246.165634 -60.687477 4.551493 0.980392
246.332962 -60.439362 4.013217 0.968627
246.416077 -60.316109 3.447111 0.968627
246.500168 -60.191418 2.874413 0.968627
246.585434 -60.064995 2.293758 0.968627
246.672073 -59.936523 1.703706 0.968627
246.760315 -59.805672 1.102729 0.968627
246.207779 -60.624981 0.583436 0.976028
246.007935 -60.921314 0.053657 0.980392
244.086884 -63.769859 -0.000005 0.218796
242.693939 -65.835312 -0.000004 0.210910
241.725800 -67.270882 -0.000003 0.223237
241.012512 -68.328537 -0.000003 0.259487
245.447479 -61.949059 5.946088 0.223529
245.488083 -61.889748 5.417989 0.223529
245.562073 -61.781670 4.903387 0.223529
245.636398 -61.673096 4.386444 0.223529
245.711243 -61.563782 3.866027 0.223529
246.418213 -60.531113 3.432627 0.968627
246.501465 -60.409492 2.865587 0.968627
246.585876 -60.286209 2.290768 0.968627
246.671631 -60.160942 1.706748 0.968627
246.758957 -60.033382 1.112020 0.968627
246.306366 -60.694485 0.583607 0.966354
246.007904 -61.130451 0.073560 0.964981
244.164734 -63.822765 -0.000004 0.214775
242.757416 -65.878441 -0.000004 0.235659
241.779282 -67.307213 -0.000004 0.242038
241.058624 -68.359871 -0.000002 0.242983
245.581406 -61.949055 5.965135 0.223529
245.581207 -61.949348 5.418812 0.223529
245.581009 -61.949631 4.880185 0.223529
245.639740 -61.865120 4.363276 0.223529
245.713867 -61.758450 3.847763 0.223529
245.788635 -61.650852 3.327737 0.223529
245.864227 -61.542061 2.802011 0.223529
246.586304 -60.502968 2.287852 0.968627
246.671188 -60.380810 1.709713 0.968627
246.757629 -60.256428 1.121077 0.968627
246.404449 -60.764652 0.583777 0.962753
246.007874 -61.335358 0.092967 0.974090
244.242218 -63.876205 -0.000004 0.217324
242.820587 -65.922005 -0.000004 0.216343
241.832489 -67.343918 -0.000003 0.207870
241.104507 -68.391518 -0.000003 0.215577
245.716644 -61.949047 5.984565 0.223529
245.716446 -61.949341 5.435565 0.223529
245.716232 -61.949631 4.894297 0.223529
245.716034 -61.949917 4.359464 0.223529
245.716431 -61.949364 3.829940 0.223529
245.790497 -61.844353 3.314827 0.223529
245.865356 -61.738205 2.794149 0.223529
245.941193 -61.630676 2.266681 0.223529
246.018204 -61.521492 1.731133 0.223529
246.756332 -60.474968 1.129909 0.968627
246.502045 -60.835503 0.583946 0.970214
246.007828 -61.536201 0.111896 0.980392
244.319336 -63.930191 -0.000004 0.221190
242.883453 -65.966019 -0.000004 0.231949
241.885452 -67.380997 -0.000003 0.256555
241.150177 -68.423485 -0.000003 0.189284
246.102127 -61.601318 6.111497 0.968627
245.853027 -61.949326 5.452653 0.223529
245.852814 -61.949623 4.908692 0.223529
245.852600 -61.949913 4.371198 0.223529
245.852402 -61.950199 3.838922 0.223529
245.852188 -61.950481 3.310664 0.223529
245.866455 -61.930553 2.786478 0.223529
245.941574 -61.825619 2.264084 0.223529
246.017822 -61.719097 1.733773 0.223529
246.095413 -61.610710 1.194198 0.223529
246.599182 -60.906929 0.584107 0.969039
246.007797 -61.733093 0.130363 0.980117
244.396057 -63.984711 -0.000005 0.241260
242.945999 -66.010468 -0.000004 0.214488
241.938156 -67.418442 -0.000003 0.197649
241.195618 -68.455772 -0.000003 0.201012
246.108368 -61.787704 6.074543 0.968627
246.197586 -61.664879 5.546012 0.968627
245.864349 -62.123627 4.884239 0.977081
245.990540 -61.949902 4.383167 0.223529
245.990326 -61.950191 3.848204 0.223529
245.990128 -61.950478 3.317279 0.223529
245.989914 -61.950764 2.789220 0.223529
245.989716 -61.951046 2.262880 0.223529
246.017456 -61.912853 1.736348 0.223529
246.094269 -61.807098 1.202057 0.223529
246.172607 -61.699261 0.657261 0.223529
246.007767 -61.926186 0.148383 0.980392
244.472412 -64.039764 -0.000005 0.228072
243.008240 -66.055351 -0.000004 0.236138
241.990585 -67.456253 -0.000003 0.193915
241.240829 -68.488373 -0.000003 0.260792
246.114471 -61.970818 6.038428 0.968627
246.202942 -61.850788 5.514292 0.968627
245.864395 -62.310066 4.856867 0.968627
246.271652 -61.757591 4.430813 0.968627
246.129684 -61.950180 3.857672 0.223529
246.129471 -61.950470 3.324027 0.223529
246.129257 -61.950756 2.793262 0.223529
246.129044 -61.951042 2.264226 0.223529
246.128830 -61.951332 1.735780 0.223529
246.128616 -61.951614 1.206790 0.223529
246.170746 -61.894474 0.670269 0.223529
246.007736 -62.115601 0.165970 0.980392
244.548370 -64.095352 -0.000005 0.259332
243.070160 -66.100662 -0.000004 0.206649
242.042755 -67.494431 -0.000003 0.234259
241.285812 -68.521294 -0.000002 0.212370
246.120422 -62.150764 6.003129 0.968627
246.208176 -62.033447 5.483292 0.968627
245.864441 -62.493008 4.830147 0.968627
246.274872 -61.944286 4.408863 0.968627
246.352081 -61.841057 3.883004 0.968627
246.429932 -61.736973 3.352769 0.968627
246.270035 -61.950748 2.797386 0.223529
246.269821 -61.951038 2.265600 0.223529
246.269608 -61.951324 1.734406 0.223529
246.269394 -61.951614 1.202667 0.223529
246.269165 -61.951900 0.669238 0.223529
246.007706 -62.301460 0.183138 0.979934
244.623947 -64.151474 -0.000005 0.221609
243.131775 -66.146408 -0.000004 0.230238
242.094666 -67.532967 -0.000004 0.230381
241.330566 -68.554527 -0.000003 0.241835
246.126251 -62.327644 5.968621 0.968627
246.213287 -62.212948 5.452993 0.968627
245.864487 -62.672565 4.804057 0.953185
246.278015 -62.127670 4.387418 0.968627
246.354553 -62.026810 3.866108 0.968627
246.431732 -61.925129 3.340536 0.968627
246.509705 -61.822388 2.809508 0.968627
246.588654 -61.718349 2.271780 0.968627
246.411850 -61.951321 1.733005 0.223529
246.411636 -61.951611 1.198462 0.223529
246.411407 -61.951900 0.662219 0.223529
246.007675 -62.483879 0.199901 0.980392
244.699127 -64.208115 -0.000004 0.240398
243.193069 -66.192589 -0.000004 0.269181
242.146301 -67.571877 -0.000003 0.203130
241.375076 -68.588066 -0.000003 0.213554
246.131943 -62.501549 5.934881 0.968627
246.218292 -62.389404 5.423371 0.968627
245.864532 -62.848854 4.778579 0.980392
246.281097 -62.307846 4.366462 0.968627
246.356979 -62.209282 3.849601 0.968627
246.433487 -62.109932 3.328585 0.968627
246.510773 -62.009560 2.802234 0.968627
246.589020 -61.907928 2.269319 0.968627
246.668427 -61.804810 1.728551 0.968627
246.749176 -61.699924 1.178568 0.968627
246.555161 -61.951900 0.655061 0.223529
246.007660 -62.662964 0.216270 0.975067
244.773911 -64.265274 -0.000005 0.214464
243.254028 -66.239197 -0.000004 0.239333
242.197647 -67.611137 -0.000003 0.215027
241.419373 -68.621918 -0.000003 0.242229
246.137512 -62.672562 5.901886 0.968627
246.223190 -62.562897 5.394409 0.968627
245.864563 -63.021973 4.753691 0.969497
246.284103 -62.484913 4.345981 0.968627
246.359344 -62.388580 3.833468 0.968627
246.435196 -62.291489 3.316907 0.968627
246.511810 -62.193409 2.795129 0.968627
246.589371 -62.094124 2.266915 0.968627
246.668060 -61.993385 1.730993 0.968627
246.748093 -61.890945 1.186016 0.968627
246.829651 -61.786533 0.630553 0.968627
246.007629 -62.838844 0.232261 0.980392
244.848282 -64.322968 -0.000005 0.204291
243.314667 -66.286217 -0.000004 0.223883
242.248734 -67.650757 -0.000003 0.222578
241.463409 -68.656082 -0.000002 0.222698
246.142960 -62.840782 5.869614 0.968627
246.227966 -62.733521 5.366086 0.968627
245.864609 -63.192032 4.729377 0.973404
246.287033 -62.658981 4.325957 0.968627
246.361664 -62.564808 3.817699 0.968627
246.436874 -62.469906 3.305495 0.968627
246.512833 -62.374054 2.788185 0.968627
246.589722 -62.277031 2.264566 0.968627
246.667709 -62.178608 1.733379 0.968627
246.747025 -62.078537 1.193291 0.968627
246.827835 -61.976555 0.642890 0.968627
246.007599 -63.011608 0.247883 0.980392
244.922256 -64.381172 -0.000005 0.228766
243.374969 -66.333672 -0.000004 0.251517
242.299545 -67.690727 -0.000003 0.217025
241.507217 -68.690552 -0.000003 0.257129
246.148300 -63.006287 5.838045 0.968627
245.863754 -63.360245 5.211220 0.953643
245.864655 -63.359123 4.705620 0.980392
246.289917 -62.830124 4.306382 0.968627
246.363922 -62.738049 3.802286 0.968627
246.438507 -62.645271 3.294340 0.968627
246.513824 -62.551582 2.781399 0.968627
246.590057 -62.456760 2.262271 0.968627
246.667374 -62.360580 1.735709 0.968627
246.745972 -62.262806 1.200398 0.968627
246.826065 -62.163170 0.654940 0.968627
246.007568 -63.181351 0.263147 0.980392
244.995834 -64.439888 -0.000005 0.249374
243.434937 -66.381538 -0.000004 0.249901
242.350067 -67.731056 -0.000003 0.226947
241.550797 -68.725319 -0.000003 0.192683
246.153503 -63.169155 5.807159 0.968627
245.863800 -63.524429 5.183666 0.980392
245.864685 -63.523335 4.682402 0.980392
246.292725 -62.998436 4.287239 0.968627
246.366135 -62.908398 3.787214 0.968627
246.440109 -62.817688 3.283435 0.968627
246.514801 -62.726097 2.774766 0.968627
246.590378 -62.633408 2.260028 0.968627
246.667038 -62.539406 1.737987 0.968627
246.744949 -62.443855 1.207342 0.968627
246.824341 -62.346504 0.666712 0.968627
246.007538 -63.348167 0.278065 0.980392
245.068985 -64.499115 -0.000005 0.208851
243.494583 -66.429825 -0.000003 0.213566
242.400314 -67.771736 -0.000003 0.222207
241.594116 -68.760399 -0.000002 0.251588
246.158615 -63.329468 5.776939 0.968627
245.863846 -63.685833 5.156734 0.980392
245.864731 -63.684761 4.659708 0.980392
246.295471 -63.164005 4.268519 0.968627
246.368301 -63.075951 3.772477 0.968627
246.441681 -62.987247 3.272772 0.968627
246.515747 -62.897690 2.768281 0.968627
246.590698 -62.807072 2.257835 0.968627
246.666718 -62.715183 1.740213 0.968627
246.743958 -62.621792 1.214129 0.968627
246.822647 -62.526657 0.678216 0.968627
246.007492 -63.512161 0.292646 0.980392
245.141724 -64.558861 -0.000005 0.201347
243.553879 -66.478531 -0.000004 0.189583
242.450272 -67.812767 -0.000003 0.245114
241.637192 -68.795776 -0.000003 0.214368
246.163605 -63.487297 5.747363 0.968627
245.863892 -63.844536 5.130405 0.980392
245.864761 -63.843487 4.637522 0.980392
246.298157 -63.326916 4.250207 0.968627
246.370422 -63.240780 3.758064 0.968627
246.443207 -63.154026 3.262346 0.968627
246.516693 -63.066444 2.761941 0.968627
246.591019 -62.977840 2.255692 0.968627
246.666397 -62.888004 1.742390 0.968627
246.742981 -62.796707 1.220762 0.968627
246.820999 -62.703720 0.689458 0.968627
246.007477 -63.673393 0.306900 0.968627
245.214050 -64.619110 -0.000004 0.232320
243.612839 -66.527641 -0.000004 0.199205
242.499954 -67.854149 -0.000003 0.231805
241.680023 -68.831451 -0.000003 0.198164
246.168488 -63.642712 5.718417 0.968627
245.863937 -64.000618 5.104661 0.972854
245.864807 -63.999596 4.615829 0.973175
246.300781 -63.487240 4.232293 0.968627
246.372498 -63.402977 3.743965 0.968627
246.444702 -63.318111 3.252148 0.968627
246.517593 -63.232452 2.755740 0.968627
246.591324 -63.145805 2.253595 0.968627
246.666077 -63.057957 1.744517 0.968627
246.742035 -62.968697 1.227246 0.968627
246.819382 -62.877792 0.700445 0.968627
246.007446 -63.831974 0.320837 0.980392
245.285950 -64.679855 -0.000004 0.231985
243.671463 -66.577171 -0.000004 0.251840
242.549332 -67.895874 -0.000003 0.220699
241.722595 -68.867432 -0.000003 0.248010
246.173279 -63.795788 5.690082 0.968627
245.863983 -64.154167 5.079486 0.968627
245.864838 -64.153168 4.594616 0.968627
246.303360 -63.645054 4.214766 0.968627
246.374512 -63.562614 3.730172 0.968627
246.446167 -63.479588 3.242172 0.968627
246.518494 -63.395794 2.749675 0.968627
246.591629 -63.311047 2.251545 0.968627
246.665771 -63.225136 1.746598 0.968627
246.741104 -63.137852 1.233586 0.968627
246.817810 -63.048973 0.711187 0.968627
246.007416 -63.987968 0.334466 0.980392
245.357422 -64.741112 -0.000004 0.242972
243.729721 -66.627106 -0.000004 0.194167
242.598419 -67.937935 -0.000003 0.215098
241.764923 -68.903702 -0.000003 0.225175
246.177948 -63.946590 5.662340 0.968627
245.864029 -64.305244 5.054863 0.980392
245.864883 -64.304268 4.573868 0.980392
246.305878 -63.800438 4.197615 0.968627
246.376495 -63.719765 3.716676 0.968627
246.447601 -63.638527 3.232413 0.968627
246.519363 -63.556549 2.743743 0.968627
246.591919 -63.473644 2.249540 0.968627
246.665466 -63.389614 1.748632 0.968627
246.740189 -63.304256 1.239785 0.968627
246.816269 -63.217339 0.721690 0.968627
246.007385 -64.141457 0.347795 0.980392
245.428467 -64.802856 -0.000004 0.246897
243.787643 -66.677437 -0.000004 0.226133
242.647217 -67.980347 -0.000003 0.232512
241.806992 -68.940269 -0.000003 0.203657
246.182541 -64.095177 5.635180 0.968627
245.864059 -64.453941 5.030778 0.980392
245.864914 -64.452980 4.553574 0.977768
246.308350 -63.953461 4.180828 0.968627
246.378433 -63.874504 3.703469 0.968627
246.449005 -63.795006 3.222864 0.968627
246.520203 -63.714794 2.737938 0.968627
246.592209 -63.633682 2.247579 0.968627
246.665176 -63.551483 1.750623 0.968627
246.739304 -63.467987 1.245848 0.968627
246.814758 -63.382984 0.731961 0.968627
246.007355 -64.292519 0.360834 0.967437
245.499084 -64.865097 -0.000004 0.233278
243.845215 -66.728180 -0.000004 0.203490
242.695709 -68.023094 -0.000003 0.234414
241.848816 -68.977127 -0.000003 0.205428
246.187027 -64.241615 5.608582 0.968627
245.864105 -64.600311 5.007215 0.977035
245.928787 -64.528473 4.551078 0.980392
246.310760 -64.104179 4.164398 0.968627
246.380325 -64.026901 3.690544 0.968627
246.450378 -63.949097 3.213519 0.968627
246.521042 -63.870598 2.732259 0.968627
246.592499 -63.791237 2.245659 0.968627
246.664902 -63.710812 1.752569 0.968627
246.738434 -63.629131 1.251779 0.968627
246.813278 -63.545982 0.742006 0.968627
246.007339 -64.441216 0.373589 0.976623
245.569244 -64.927834 -0.000004 0.219538
243.902420 -66.779327 -0.000004 0.228395
242.743896 -68.066185 -0.000003 0.212836
241.890366 -69.014282 -0.000003 0.212322
246.191437 -64.385963 5.582536 0.968627
245.864151 -64.744438 4.984159 0.968627
246.001770 -64.593697 4.551207 0.980392
246.313110 -64.252678 4.148315 0.968627
246.382187 -64.177017 3.677894 0.968627
246.451721 -64.100861 3.204374 0.968627
246.521851 -64.024040 2.726702 0.968627
246.592773 -63.946373 2.243782 0.968627
246.664612 -63.867676 1.754474 0.968627
246.737579 -63.787762 1.257581 0.968627
246.811844 -63.706421 0.751831 0.968627
246.007324 -64.587624 0.386068 0.957137
245.638992 -64.991058 -0.000004 0.216092
243.959259 -66.830872 -0.000004 0.229352
242.791794 -68.109604 -0.000003 0.270079
241.931656 -69.051720 -0.000003 0.259870
246.195740 -64.528275 5.557024 0.968627
245.864182 -64.886375 4.961598 0.977996
246.074310 -64.659424 4.551336 0.980392
246.315430 -64.399002 4.132569 0.968627
246.384003 -64.324936 3.665508 0.968627
246.453033 -64.250381 3.195422 0.968627
246.522659 -64.175186 2.721262 0.968627
246.593033 -64.099167 2.241944 0.968627
246.664337 -64.022156 1.756338 0.968627
246.736740 -63.943954 1.263257 0.968627
246.810425 -63.864368 0.761443 0.968627
246.007294 -64.731804 0.398281 0.980392
245.708282 -65.054764 -0.000004 0.260971
244.015762 -66.882805 -0.000004 0.227485
242.839386 -68.153358 -0.000003 0.224302
241.972702 -69.089447 -0.000002 0.272400
245.508118 -65.405472 5.278854 0.223529
245.570236 -65.339310 4.846752 0.223529
246.146393 -64.725662 4.551465 0.980392
246.317688 -64.543221 4.117150 0.968627
246.385788 -64.470695 3.653383 0.968627
246.454315 -64.397705 3.186658 0.968627
246.523438 -64.324089 2.715938 0.968627
246.593307 -64.249680 2.240146 0.968627
246.664078 -64.174309 1.758162 0.968627
246.735931 -64.097778 1.268811 0.968627
246.809052 -64.019905 0.770848 0.968627
246.007278 -64.873833 0.410232 0.969909
245.777130 -65.118958 -0.000004 0.233613
244.071884 -66.935135 -0.000004 0.213806
242.886673 -68.197449 -0.000003 0.220400
242.013458 -69.127457 -0.000003 0.232105
245.511429 -65.534508 5.255939 0.223529
245.573135 -65.469704 4.826720 0.223529
245.634811 -65.404930 4.397701 0.223529
245.696579 -65.340050 3.967965 0.223529
246.387527 -64.614372 3.641511 0.968627
246.455582 -64.542908 3.178079 0.968627
246.524200 -64.470833 2.710725 0.968627
246.593567 -64.397987 2.238385 0.968627
246.663818 -64.324203 1.759948 0.968627
246.735138 -64.249298 1.274247 0.968627
246.807693 -64.173088 0.780051 0.968627
246.007263 -65.013756 0.421930 0.980392
245.845520 -65.183624 -0.000004 0.230262
244.127640 -66.987854 -0.000003 0.222435
242.933655 -68.241859 -0.000003 0.252893
242.053970 -69.165756 -0.000003 0.227545
245.514664 -65.661804 5.233482 0.223529
245.575974 -65.598305 4.807096 0.223529
245.637238 -65.534851 4.380945 0.223529
245.698593 -65.471306 3.954119 0.223529
245.760193 -65.407516 3.525701 0.223529
245.822128 -65.343361 3.094756 0.223529
246.524948 -64.615456 2.705622 0.968627
246.593811 -64.544144 2.236661 0.968627
246.663559 -64.471909 1.761695 0.968627
246.734344 -64.398590 1.279567 0.968627
246.806381 -64.323990 0.789058 0.968627
246.007248 -65.151642 0.433382 0.980392
245.913467 -65.248772 -0.000004 0.219778
244.183029 -67.040962 -0.000004 0.259487
242.980316 -68.286606 -0.000003 0.252917
242.094208 -69.204330 -0.000003 0.211364
245.582138 -65.721710 5.234507 0.223529
245.578735 -65.725174 4.787866 0.223529
245.639618 -65.663010 4.364526 0.223529
245.700577 -65.600739 3.940557 0.223529
245.761749 -65.538269 3.515041 0.223529
245.823273 -65.475433 3.087057 0.223529
245.885284 -65.412094 2.655656 0.223529
245.947937 -65.348114 2.219861 0.223529
246.663300 -64.617485 1.763406 0.968627
246.733582 -64.545708 1.284776 0.968627
246.805084 -64.472687 0.797873 0.968627
246.007217 -65.287552 0.444593 0.968627
246.008041 -65.286720 -0.005747 0.962722
244.238052 -67.094452 -0.000004 0.229627
243.026657 -68.331665 -0.000003 0.251014
242.134171 -69.243195 -0.000003 0.220891
245.709167 -65.721710 5.256847 0.223529
245.709167 -65.721710 4.808177 0.223529
245.709167 -65.721710 4.365806 0.223529
245.709167 -65.721710 3.928675 0.223529
245.763260 -65.667229 3.504600 0.223529
245.824371 -65.605675 3.079516 0.223529
245.885971 -65.543640 2.651078 0.223529
245.948181 -65.480988 2.218316 0.223529
246.011154 -65.417557 1.780222 0.223529
246.075058 -65.353203 1.335738 0.223529
246.803818 -64.619232 0.806502 0.968627
246.007202 -65.421539 0.455570 0.963165
246.008011 -65.420723 0.008409 0.970138
244.292694 -67.148331 -0.000004 0.214859
243.072693 -68.377060 -0.000003 0.226779
242.173859 -69.282326 -0.000002 0.192324
245.837982 -65.721710 5.279661 0.223529
245.837982 -65.721710 4.827847 0.223529
245.837982 -65.721710 4.382378 0.223529
245.837982 -65.721710 3.942184 0.223529
245.837982 -65.721710 3.506245 0.223529
245.837982 -65.721710 3.073576 0.223529
245.886627 -65.673386 2.646593 0.223529
245.948425 -65.612015 2.216803 0.223529
246.010971 -65.549896 1.781755 0.223529
246.074417 -65.486885 1.340405 0.223529
246.138931 -65.422813 0.891644 0.223529
246.007187 -65.553650 0.466320 0.980392
246.007996 -65.552856 0.022272 0.975616
244.346954 -67.202591 -0.000004 0.200617
243.118408 -68.422768 -0.000003 0.232871
242.213287 -69.321739 -0.000002 0.222530
246.223541 -65.472031 5.392340 0.968627
245.864441 -65.823738 4.816444 0.960296
245.968613 -65.721710 4.399301 0.223529
245.968613 -65.721710 3.955980 0.223529
245.968613 -65.721710 3.516944 0.223529
245.968613 -65.721710 3.081203 0.223529
245.968613 -65.721710 2.647794 0.223529
245.968613 -65.721710 2.215777 0.223529
246.010773 -65.680412 1.783257 0.223529
246.073776 -65.618706 1.344974 0.223529
246.137848 -65.555962 0.899374 0.223529
246.007172 -65.683945 0.476847 0.971664
246.007965 -65.683167 0.035848 0.980392
244.400833 -67.257225 -0.000004 0.218844
243.163803 -68.468796 -0.000003 0.209019
242.252426 -69.361427 -0.000003 0.252438
246.227203 -65.599937 5.370659 0.968627
245.864471 -65.950272 4.797394 0.980392
246.267548 -65.560974 4.458685 0.968627
246.101120 -65.721710 3.970071 0.223529
246.101120 -65.721710 3.527873 0.223529
246.101120 -65.721710 3.088991 0.223529
246.101120 -65.721710 2.652460 0.223529
246.101120 -65.721710 2.217331 0.223529
246.101120 -65.721710 1.782668 0.223529
246.101120 -65.721710 1.347539 0.223529
246.136780 -65.687271 0.906943 0.223529
246.007156 -65.812462 0.487156 0.980392
246.007935 -65.811707 0.049145 0.968719
244.454346 -67.312233 -0.000004 0.241559
243.208878 -68.515137 -0.000003 0.238136
242.291290 -69.401390 -0.000003 0.286271
246.230789 -65.726257 5.349405 0.968627
245.864502 -66.075111 4.778735 0.962493
246.269867 -65.689041 4.442860 0.968627
246.334213 -65.627754 4.004671 0.968627
246.398773 -65.566261 3.564963 0.968627
246.235565 -65.721710 3.096947 0.223529
246.235565 -65.721710 2.657227 0.223529
246.235565 -65.721710 2.218919 0.223529
246.235565 -65.721710 1.781081 0.223529
246.235565 -65.721710 1.342773 0.223529
246.235565 -65.721710 0.903052 0.223529
246.007141 -65.939270 0.497255 0.980392
246.007919 -65.938522 0.062169 0.968627
244.507462 -67.367615 -0.000004 0.233158
243.253632 -68.561798 -0.000003 0.255873
242.329880 -69.441612 -0.000003 0.208815
245.863754 -66.199051 5.201232 0.980392
245.864532 -66.198303 4.760457 0.971206
246.272141 -65.815483 4.427351 0.968627
246.336090 -65.755424 3.991861 0.968627
246.400253 -65.695168 3.554897 0.968627
246.464767 -65.634567 3.115511 0.968627
246.529785 -65.573502 2.672731 0.968627
246.371979 -65.721710 2.220541 0.223529
246.371979 -65.721710 1.779459 0.223529
246.371979 -65.721710 1.337903 0.223529
246.371979 -65.721710 0.894926 0.223529
246.007126 -66.064392 0.507148 0.980392
246.007904 -66.063660 0.074926 0.973678
244.560181 -67.423363 -0.000004 0.238472
243.298050 -68.608765 -0.000003 0.270893
242.368179 -69.482117 -0.000003 0.202053
245.863785 -66.320625 5.180469 0.980392
245.864563 -66.319893 4.742551 0.974884
246.274368 -65.940353 4.412151 0.968627
246.337936 -65.881493 3.979306 0.968627
246.401703 -65.822433 3.545033 0.968627
246.465805 -65.763054 3.108388 0.968627
246.530411 -65.703217 2.668408 0.968627
246.595657 -65.642799 2.224098 0.968627
246.661682 -65.581650 1.774429 0.968627
246.510452 -65.721718 1.332929 0.223529
246.510452 -65.721710 0.886622 0.223529
246.007111 -66.187881 0.516838 0.969726
246.007874 -66.187172 0.087425 0.979934
244.612518 -67.479477 -0.000004 0.215098
243.342148 -68.656044 -0.000003 0.250451
242.406189 -69.522881 -0.000003 0.237981
245.863815 -66.440636 5.160125 0.972534
245.864594 -66.439926 4.725007 0.978515
246.276566 -66.063690 4.397253 0.968627
246.339737 -66.005997 3.967001 0.968627
246.403122 -65.948120 3.535366 0.968627
246.466843 -65.889923 3.101408 0.968627
246.531036 -65.831291 2.664171 0.968627
246.595871 -65.772087 2.222669 0.968627
246.661469 -65.712173 1.775877 0.968627
246.728012 -65.651405 1.322724 0.968627
246.795654 -65.589630 0.862079 0.968627
246.007095 -66.309792 0.526333 0.980392
246.007858 -66.309090 0.099668 0.976257
244.664474 -67.535965 -0.000004 0.204363
243.385910 -68.703629 -0.000003 0.223871
242.443924 -69.563911 -0.000002 0.238783
245.863861 -66.559128 5.140192 0.980392
245.864624 -66.558434 4.707818 0.980392
246.278702 -66.185539 4.382648 0.968627
246.341507 -66.128983 3.954940 0.968627
246.404510 -66.072250 3.525891 0.968627
246.467834 -66.015213 3.094568 0.968627
246.531647 -65.957756 2.660020 0.968627
246.596069 -65.899734 2.221268 0.968627
246.661270 -65.841026 1.777296 0.968627
246.727371 -65.781494 1.327040 0.968627
246.794586 -65.720978 0.869378 0.968627
246.007080 -66.430145 0.535636 0.980026
246.007843 -66.429466 0.111666 0.980392
244.716019 -67.592804 -0.000004 0.208911
243.429337 -68.751511 -0.000003 0.230369
242.481369 -69.605194 -0.000003 0.269875
245.863892 -66.676140 5.120661 0.961913
245.864655 -66.675461 4.690974 0.965042
246.280807 -66.305923 4.368331 0.968627
246.343246 -66.250488 3.943118 0.968627
246.405869 -66.194878 3.516604 0.968627
246.468826 -66.138977 3.087863 0.968627
246.532242 -66.082657 2.655951 0.968627
246.596268 -66.025803 2.219896 0.968627
246.661057 -65.968277 1.778687 0.968627
246.726761 -65.909935 1.331269 0.968627
246.793518 -65.850647 0.876531 0.968627
246.007065 -66.549004 0.544752 0.977630
246.007813 -66.548340 0.123423 0.977630
244.767166 -67.650009 -0.000004 0.225127
243.472427 -68.799706 -0.000003 0.229950
242.518524 -69.646751 -0.000003 0.228610
245.863922 -66.791718 5.101521 0.968353
245.864685 -66.791046 4.674468 0.980392
246.282867 -66.424896 4.354295 0.968627
246.344940 -66.370544 3.931529 0.968627
246.407211 -66.316032 3.507501 0.968627
246.469788 -66.261238 3.081292 0.968627
246.532837 -66.206039 2.651964 0.968627
246.596466 -66.150322 2.218550 0.968627
246.660858 -66.093948 1.780049 0.968627
246.726151 -66.036781 1.335413 0.968627
246.792496 -65.978683 0.883538 0.968627
246.007050 -66.666397 0.553685 0.980392
246.007797 -66.665749 0.134944 0.967437
244.817917 -67.707565 -0.000004 0.212238
243.515182 -68.848198 -0.000003 0.253395
242.555389 -69.688560 -0.000003 0.233840
245.863953 -66.905884 5.082763 0.977996
245.864716 -66.905228 4.658292 0.968627
246.284897 -66.542488 4.340534 0.968627
246.346619 -66.489204 3.920167 0.968627
246.408524 -66.435760 3.498578 0.968627
246.470734 -66.382050 3.074851 0.968627
246.533401 -66.327942 2.648056 0.968627
246.596664 -66.273331 2.217232 0.968627
246.660660 -66.218079 1.781384 0.968627
246.725555 -66.162064 1.339473 0.968627
246.791489 -66.105133 0.890403 0.968627
246.007034 -66.782364 0.562439 0.980392
246.007767 -66.781731 0.146235 0.971298
244.868271 -67.765472 -0.000004 0.206972
243.557602 -68.896980 -0.000003 0.205548
242.591965 -69.730621 -0.000003 0.199768
245.863983 -67.018684 5.064379 0.972854
245.864746 -67.018044 4.642439 0.968627
246.286865 -66.658730 4.327041 0.968627
246.348251 -66.606491 3.909029 0.968627
246.409805 -66.554092 3.489831 0.968627
246.471664 -66.501434 3.068538 0.968627
246.533966 -66.448402 2.644225 0.968627
246.596863 -66.394875 2.215940 0.968627
246.660477 -66.340721 1.782693 0.968627
246.724960 -66.285828 1.343452 0.968627
246.790497 -66.230042 0.897130 0.968627
246.007019 -66.896935 0.571019 0.969360
246.007751 -66.896324 0.157301 0.980392
244.918213 -67.823730 -0.000003 0.233002
243.599686 -68.946060 -0.000003 0.228873
242.628250 -69.772942 -0.000003 0.199420
245.864029 -67.130157 5.046363 0.968627
245.864777 -67.129524 4.626900 0.968627
246.288818 -66.773659 4.313812 0.968627
246.349854 -66.722435 3.898108 0.968627
246.411057 -66.671066 3.481254 0.968627
246.472565 -66.619446 3.062349 0.968627
246.534515 -66.567459 2.640471 0.968627
246.597046 -66.514984 2.214673 0.968627
246.660278 -66.461914 1.783976 0.968627
246.724396 -66.408112 1.347351 0.968627
246.789536 -66.353439 0.903722 0.968627
246.007004 -67.010162 0.579428 0.968627
246.007721 -67.009560 0.168146 0.963943
244.967743 -67.882339 -0.000004 0.248752
243.641418 -68.995438 -0.000003 0.218066
242.664230 -69.815521 -0.000002 0.213746
245.864059 -67.240334 5.028701 0.968627
245.864807 -67.239716 4.611669 0.968627
246.290710 -66.887306 4.300840 0.968627
246.351425 -66.837082 3.887400 0.968627
246.412292 -66.786713 3.472847 0.968627
246.473465 -66.736107 3.056281 0.968627
246.535065 -66.685143 2.636790 0.968627
246.597229 -66.633705 2.213432 0.968627
246.660095 -66.581680 1.785233 0.968627
246.723831 -66.528946 1.351173 0.968627
246.788589 -66.475372 0.910182 0.968627
246.037415 -67.096893 0.583128 0.964691
246.007706 -67.121475 0.178776 0.980392
245.016876 -67.941292 -0.000004 0.208384
243.682800 -69.045105 -0.000002 0.240542
242.699921 -69.858337 -0.000003 0.240793
245.864090 -67.349243 5.011389 0.980392
245.864822 -67.348633 4.596740 0.980392
246.292587 -66.999710 4.288120 0.968627
246.352966 -66.950455 3.876901 0.968627
246.413513 -66.901077 3.464603 0.968627
246.474335 -66.851456 3.050333 0.968627
246.535583 -66.801491 2.633182 0.968627
246.597397 -66.751068 2.212215 0.968627
246.659912 -66.700073 1.786465 0.968627
246.723282 -66.648384 1.354919 0.968627
246.787659 -66.595879 0.916513 0.968627
246.091370 -67.163849 0.583222 0.956878
246.007675 -67.232109 0.189196 0.980392
245.065582 -68.000587 -0.000003 0.196488
243.723831 -69.095055 -0.000002 0.234678
242.735306 -69.901413 -0.000003 0.229280
245.864105 -67.456917 4.994420 0.977905
245.864853 -67.456322 4.582107 0.980392
246.294418 -67.110893 4.275647 0.968627
246.354477 -67.062592 3.866606 0.968627
246.414688 -67.014168 3.456521 0.968627
246.475189 -66.965523 3.044501 0.968627
246.536102 -66.916534 2.629644 0.968627
246.597580 -66.867104 2.211022 0.968627
246.659744 -66.817116 1.787672 0.968627
246.722748 -66.766449 1.358590 0.968627
246.786743 -66.714989 0.922718 0.968627
246.144852 -67.231163 0.583315 0.961730
246.007660 -67.341484 0.199410 0.972992
245.113876 -68.060211 -0.000004 0.200653
243.764526 -69.145294 -0.000003 0.225139
242.770386 -69.944725 -0.000003 0.255310
245.864136 -67.563393 4.977784 0.965011
245.864868 -67.562813 4.567760 0.980392
246.296204 -67.220886 4.263414 0.968627
246.355957 -67.173523 3.856512 0.968627
246.415863 -67.126038 3.448595 0.968627
246.476028 -67.078339 3.038783 0.968627
246.536621 -67.030312 2.626177 0.968627
246.597748 -66.981850 2.209853 0.968627
246.659561 -66.932846 1.788856 0.968627
246.722214 -66.883186 1.362188 0.968627
246.785858 -66.832741 0.928800 0.968627
246.197861 -67.298843 0.583407 0.963500
246.007629 -67.449638 0.209422 0.965759
245.161758 -68.120186 -0.000003 0.222674
243.804855 -69.195816 -0.000003 0.226408
242.805161 -69.988289 -0.000003 0.235300
245.864166 -67.668694 4.961476 0.972992
245.864899 -67.668129 4.553696 0.980392
246.297974 -67.329720 4.251418 0.968627
246.357407 -67.283272 3.846612 0.968627
246.416992 -67.236710 3.440824 0.968627
246.476852 -67.189941 3.033176 0.968627
246.537109 -67.142853 2.622776 0.968627
246.597916 -67.095345 2.208706 0.968627
246.659393 -67.047302 1.790017 0.968627
246.721695 -66.998619 1.365716 0.968627
246.784973 -66.949173 0.934761 0.968627
246.250412 -67.366882 0.583498 0.973587
246.007614 -67.556602 0.219238 0.974884
245.209213 -68.180481 -0.000004 0.211460
243.844849 -69.246613 -0.000003 0.197039
242.839630 -70.032089 -0.000003 0.211173
245.864197 -67.772858 4.945489 0.980392
245.905746 -67.740852 4.551039 0.980392
246.299698 -67.437424 4.239655 0.968627
246.358841 -67.391876 3.836905 0.968627
246.418121 -67.346214 3.433203 0.968627
246.477661 -67.300354 3.027679 0.968627
246.537613 -67.254181 2.619442 0.968627
246.598083 -67.207603 2.207583 0.968627
246.659225 -67.160507 1.791154 0.968627
246.721191 -67.112778 1.369173 0.968627
246.784119 -67.064308 0.940603 0.968627
246.302475 -67.435280 0.583588 0.980392
246.007599 -67.662407 0.228860 0.980392
245.256256 -68.241112 -0.000003 0.220101
243.884476 -69.297691 -0.000003 0.251636
242.873810 -70.076134 -0.000003 0.198248
245.864227 -67.875900 4.929815 0.964858
245.956177 -67.806107 4.551129 0.962463
246.301392 -67.544022 4.228117 0.968627
246.360229 -67.499352 3.827385 0.968627
246.419220 -67.454582 3.425731 0.968627
246.478455 -67.409607 3.022289 0.968627
246.538086 -67.364334 2.616174 0.968627
246.598236 -67.318665 2.206481 0.968627
246.659058 -67.272491 1.792270 0.968627
246.720688 -67.225708 1.372562 0.968627
246.783279 -67.178192 0.946330 0.968627
246.354080 -67.504028 0.583677 0.969680
246.007584 -67.767075 0.238294 0.977081
245.302856 -68.302071 -0.000004 0.252869
243.923737 -69.349052 -0.000003 0.276350
242.907669 -70.120415 -0.000003 0.210012
245.864258 -67.977867 4.914448 0.980392
246.006134 -67.871712 4.551219 0.975708
246.303055 -67.649551 4.216802 0.968627
246.361603 -67.605743 3.818049 0.968627
246.420288 -67.561836 3.418404 0.968627
246.479233 -67.517738 3.017004 0.968627
246.538559 -67.473343 2.612969 0.968627
246.598404 -67.428566 2.205400 0.968627
246.658905 -67.383301 1.793363 0.968627
246.720200 -67.337433 1.375885 0.968627
246.782455 -67.290855 0.951944 0.968627
246.405182 -67.573135 0.583766 0.968627
246.007553 -67.870644 0.247543 0.978744
245.349045 -68.363350 -0.000003 0.264968
243.962646 -69.400673 -0.000003 0.193054
242.941208 -70.164932 -0.000003 0.207451
245.864273 -68.078773 4.899382 0.959777
246.055634 -67.937668 4.551308 0.980392
246.304688 -67.754028 4.205704 0.968627
246.362946 -67.711060 3.808893 0.968627
246.421341 -67.667999 3.411219 0.968627
246.479996 -67.624756 3.011821 0.968627
246.539017 -67.581230 2.609827 0.968627
246.598557 -67.537331 2.204341 0.968627
246.658752 -67.492950 1.794435 0.968627
246.719727 -67.447983 1.379143 0.968627
246.781647 -67.402321 0.957448 0.968627
246.455826 -67.642578 0.583853 0.968841
246.007538 -67.973137 0.256610 0.968627
245.394806 -68.424950 -0.000003 0.241906
244.001190 -69.452576 -0.000003 0.211759
242.974457 -70.209679 -0.000003 0.222518
245.864304 -68.178642 4.884611 0.968627
246.104675 -68.003975 4.551396 0.980392
246.306290 -67.857475 4.194820 0.968627
246.364273 -67.815338 3.799914 0.968627
246.422379 -67.773117 3.404172 0.968627
246.480743 -67.730705 3.006739 0.968627
246.539474 -67.688026 2.606746 0.968627
246.598709 -67.644981 2.203303 0.968627
246.658585 -67.601471 1.795486 0.968627
246.719254 -67.557388 1.382335 0.968627
246.780853 -67.512627 0.962842 0.968627
246.505981 -67.712372 0.583940 0.966049
246.007523 -68.074570 0.265500 0.968627
245.440125 -68.486870 -0.000003 0.234618
244.039383 -69.504738 -0.000003 0.256399
243.007370 -70.254654 -0.000003 0.223344
245.864334 -68.277504 4.870129 0.959625
246.153259 -68.070625 4.551483 0.980392
246.307846 -67.959923 4.184146 0.968627
246.365555 -67.918602 3.791109 0.968627
246.423401 -67.877190 3.397262 0.968627
246.481476 -67.835609 3.001756 0.968627
246.539917 -67.793755 2.603725 0.968627
246.598862 -67.751549 2.202284 0.968627
246.658447 -67.708885 1.796516 0.968627
246.718796 -67.665672 1.385466 0.968627
246.780075 -67.621788 0.968130 0.968627
246.555634 -67.782501 0.584026 0.965911
246.007507 -68.174988 0.274216 0.968627
245.485016 -68.549103 -0.000003 0.204040
244.077209 -69.557167 -0.000003 0.244683
243.039993 -70.299866 -0.000002 0.226276
245.864349 -68.375389 4.855929 0.980392
246.201355 -68.137619 4.551569 0.965743
246.309387 -68.061401 4.173677 0.968627
246.366837 -68.020874 3.782473 0.968627
246.424393 -67.980263 3.390486 0.968627
246.482178 -67.939484 2.996869 0.968627
246.540344 -67.898453 2.600763 0.968627
246.598999 -67.857063 2.201286 0.968627
246.658295 -67.815239 1.797527 0.968627
246.718338 -67.772865 1.388535 0.968627
246.779312 -67.729851 0.973314 0.968627
246.604813 -67.852966 0.584111 0.969070
246.007492 -68.274399 0.282762 0.968627
245.529480 -68.611656 -0.000003 0.236449
244.114655 -69.609863 -0.000002 0.205021
243.072281 -70.345299 -0.000002 0.269504
245.864380 -68.472305 4.842008 0.980392
246.249008 -68.204941 4.551655 0.922179
246.310898 -68.161919 4.163409 0.968627
246.368073 -68.122177 3.774004 0.968627
246.425369 -68.082352 3.383841 0.968627
246.482895 -68.042358 2.992077 0.968627
246.540771 -68.002129 2.597858 0.968627
246.599152 -67.961548 2.200307 0.968627
246.658142 -67.920540 1.798517 0.968627
246.717911 -67.878998 1.391544 0.968627
246.778564 -67.836830 0.978396 0.968627
246.653503 -67.923759 0.584196 0.975677
246.007477 -68.372841 0.291140 0.968627
245.573502 -68.674507 -0.000003 0.220867
244.151733 -69.662819 -0.000002 0.184832
243.104263 -70.390953 -0.000003 0.230525
245.864410 -68.568291 4.828359 0.979294
246.255447 -68.300499 4.541080 0.968627
246.312378 -68.261513 4.153339 0.968627
246.369293 -68.222534 3.765699 0.968627
246.426315 -68.183479 3.377324 0.968627
246.483582 -68.144264 2.987379 0.968627
246.541199 -68.104813 2.595011 0.968627
246.599289 -68.065025 2.199347 0.968627
246.658005 -68.024818 1.799488 0.968627
246.717468 -67.984093 1.394493 0.968627
246.777832 -67.942749 0.983378 0.968627
246.701706 -67.994888 0.584279 0.980392
246.007446 -68.470329 0.299355 0.968627
245.617081 -68.737671 -0.000003 0.214991
244.188461 -69.716026 -0.000003 0.296839
243.135910 -70.436836 -0.000002 0.200139
245.864426 -68.663368 4.814975 0.962005
246.257141 -68.398438 4.529493 0.968627
246.313828 -68.360191 4.143464 0.968627
246.370483 -68.321968 3.757554 0.968627
246.427261 -68.283669 3.370935 0.968627
246.484253 -68.245216 2.982771 0.968627
246.541595 -68.206535 2.592218 0.968627
246.599426 -68.167519 2.198406 0.968627
246.657867 -68.128098 1.800440 0.968627
246.717041 -68.088173 1.397385 0.968627
246.777115 -68.047646 0.988261 0.968627
246.749405 -68.066345 0.584362 0.980392
246.007446 -68.566887 0.307408 0.976349
245.660217 -68.801132 -0.000003 0.211999
244.224792 -69.769493 -0.000003 0.190217
243.167252 -70.482941 -0.000003 0.204387
245.864456 -68.757553 4.801855 0.966323
246.258804 -68.495499 4.518129 0.968627
246.315247 -68.457993 4.133779 0.968627
246.371658 -68.420502 3.749566 0.968627
246.428177 -68.382950 3.364668 0.968627
246.484924 -68.345245 2.978253 0.968627
