# This PCD file was generated using the MATLABÂ® pcwrite function
# from Computer Vision ToolboxÂ®.
# .PCD v.7 - Point Cloud Data file format
VERSION .7
FIELDS x y z intensity
SIZE 4 4 4 4
TYPE F F F F
COUNT 1 1 1 1
WIDTH 1276
HEIGHT 1
VIEWPOINT 0 0 0 1 0 0 0
POINTS 1276
DATA ascii
nan nan nan 0.000000
nan nan nan 0.000000
nan nan nan 0.000000
122.762451 -114.817177 -0.000041 0.229843
132.956818 -102.073082 -0.000024 0.238005
137.333588 -96.601631 -0.000017 0.223703
139.771194 -93.554337 -0.000013 0.277343
141.327408 -91.608910 -0.000010 0.225379
142.409027 -90.256760 -0.000008 0.212154
143.205902 -89.260567 -0.000007 0.239525
nan nan nan 0.000000
nan nan nan 0.000000
nan nan nan 0.000000
nan nan nan 0.000000
nan nan nan 0.000000
nan nan nan 0.000000
nan nan nan 0.000000
nan nan nan 0.000000
nan nan nan 0.000000
122.541115 -114.638870 -0.000041 0.232069
132.824219 -101.966240 -0.000024 0.232380
137.239075 -96.525482 -0.000017 0.238998
139.697906 -93.495277 -0.000012 0.205428
141.267639 -91.560760 -0.000010 0.298634
142.358673 -90.216202 -0.000008 0.200198
143.162506 -89.225594 -0.000007 0.278468
nan nan nan 0.000000
nan nan nan 0.000000
nan nan nan 0.000000
nan nan nan 0.000000
nan nan nan 0.000000
nan nan nan 0.000000
nan nan nan 0.000000
nan nan nan 0.000000
nan nan nan 0.000000
122.321053 -114.459007 -0.000041 0.230716
132.692352 -101.858482 -0.000024 0.221741
137.145096 -96.448677 -0.000016 0.211305
139.625015 -93.435715 -0.000012 0.205392
141.208237 -91.512199 -0.000010 0.246466
142.308624 -90.175293 -0.000008 0.272867
143.119339 -89.190323 -0.000006 0.266189
nan nan nan 0.000000
nan nan nan 0.000000
nan nan nan 0.000000
nan nan nan 0.000000
nan nan nan 0.000000
nan nan nan 0.000000
nan nan nan 0.000000
nan nan nan 0.000000
nan nan nan 0.000000
122.102234 -114.277618 -0.000041 0.228036
132.561249 -101.749802 -0.000024 0.231099
137.051651 -96.371216 -0.000017 0.258769
139.552551 -93.375641 -0.000013 0.260133
141.149155 -91.463234 -0.000010 0.221573
142.258850 -90.134033 -0.000008 0.225283
143.076431 -89.154747 -0.000007 0.244623
nan nan nan 0.000000
nan nan nan 0.000000
nan nan nan 0.000000
nan nan nan 0.000000
nan nan nan 0.000000
nan nan nan 0.000000
nan nan nan 0.000000
nan nan nan 0.000000
nan nan nan 0.000000
121.884705 -114.094688 -0.000039 0.229089
132.430923 -101.640213 -0.000023 0.230369
136.958755 -96.293106 -0.000016 0.229041
139.480499 -93.315063 -0.000012 0.236401
141.090424 -91.413849 -0.000010 0.216690
142.209366 -90.092430 -0.000008 0.235994
143.033752 -89.118874 -0.000006 0.248369
nan nan nan 0.000000
nan nan nan 0.000000
nan nan nan 0.000000
nan nan nan 0.000000
nan nan nan 0.000000
nan nan nan 0.000000
nan nan nan 0.000000
nan nan nan 0.000000
nan nan nan 0.000000
121.668442 -113.910263 -0.000039 0.226707
132.301346 -101.529716 -0.000023 0.235025
136.866409 -96.214348 -0.000016 0.215086
139.408875 -93.253983 -0.000012 0.222530
141.032028 -91.364052 -0.000010 0.216965
142.160172 -90.050484 -0.000008 0.178716
142.991348 -89.082703 -0.000007 0.214069
nan nan nan 0.000000
nan nan nan 0.000000
nan nan nan 0.000000
nan nan nan 0.000000
nan nan nan 0.000000
nan nan nan 0.000000
nan nan nan 0.000000
nan nan nan 0.000000
nan nan nan 0.000000
121.453476 -113.724327 -0.000039 0.226791
132.172546 -101.418320 -0.000024 0.217360
136.774597 -96.134949 -0.000016 0.229197
139.337692 -93.192413 -0.000012 0.205237
140.973999 -91.313850 -0.000010 0.244958
142.111282 -90.008186 -0.000008 0.187477
142.949188 -89.046234 -0.000007 0.242517
nan nan nan 0.000000
nan nan nan 0.000000
nan nan nan 0.000000
nan nan nan 0.000000
nan nan nan 0.000000
nan nan nan 0.000000
nan nan nan 0.000000
nan nan nan 0.000000
nan nan nan 0.000000
121.239815 -113.536903 -0.000039 0.233002
132.044556 -101.306015 -0.000023 0.235408
136.683365 -96.054909 -0.000016 0.246143
139.266922 -93.130341 -0.000012 0.229579
140.916306 -91.263245 -0.000009 0.214404
142.062683 -89.965561 -0.000008 0.198535
142.907288 -89.009476 -0.000006 0.206864
nan nan nan 0.000000
nan nan nan 0.000000
nan nan nan 0.000000
nan nan nan 0.000000
nan nan nan 0.000000
nan nan nan 0.000000
nan nan nan 0.000000
nan nan nan 0.000000
nan nan nan 0.000000
121.027466 -113.347977 -0.000039 0.230728
131.917328 -101.192825 -0.000022 0.223057
136.592682 -95.974236 -0.000016 0.222351
139.196594 -93.067764 -0.000012 0.238448
140.858978 -91.212242 -0.000010 0.210539
142.014389 -89.922585 -0.000008 0.250763
142.865631 -88.972427 -0.000006 0.247136
nan nan nan 0.000000
nan nan nan 0.000000
nan nan nan 0.000000
nan nan nan 0.000000
nan nan nan 0.000000
nan nan nan 0.000000
nan nan nan 0.000000
nan nan nan 0.000000
nan nan nan 0.000000
120.816452 -113.157578 -0.000039 0.229268
131.790894 -101.078758 -0.000022 0.235599
136.502563 -95.892929 -0.000016 0.227485
139.126709 -93.004715 -0.000012 0.208851
140.802002 -91.160843 -0.000009 0.227222
141.966385 -89.879280 -0.000007 0.237789
142.824249 -88.935089 -0.000006 0.221992
nan nan nan 0.000000
nan nan nan 0.000000
nan nan nan 0.000000
nan nan nan 0.000000
nan nan nan 0.000000
nan nan nan 0.000000
nan nan nan 0.000000
nan nan nan 0.000000
nan nan nan 0.000000
120.606750 -112.965721 -0.000039 0.227593
131.665253 -100.963806 -0.000022 0.222674
136.413025 -95.811005 -0.000016 0.220221
139.057266 -92.941170 -0.000012 0.213854
140.745392 -91.109039 -0.000009 0.223416
141.918686 -89.835640 -0.000007 0.241440
142.783127 -88.897461 -0.000006 0.305875
nan nan nan 0.000000
nan nan nan 0.000000
nan nan nan 0.000000
nan nan nan 0.000000
nan nan nan 0.000000
nan nan nan 0.000000
nan nan nan 0.000000
nan nan nan 0.000000
nan nan nan 0.000000
120.398415 -112.772392 -0.000038 0.229855
131.540421 -100.847984 -0.000022 0.222399
136.324051 -95.728447 -0.000016 0.206733
138.988266 -92.877151 -0.000011 0.206817
140.689133 -91.056847 -0.000009 0.245664
141.871292 -89.791672 -0.000008 0.240279
142.742264 -88.859543 -0.000006 0.222542
nan nan nan 0.000000
nan nan nan 0.000000
nan nan nan 0.000000
nan nan nan 0.000000
nan nan nan 0.000000
nan nan nan 0.000000
nan nan nan 0.000000
nan nan nan 0.000000
nan nan nan 0.000000
120.191414 -112.577629 -0.000038 0.231135
131.416397 -100.731293 -0.000023 0.223488
136.235657 -95.645271 -0.000015 0.215206
138.919708 -92.812645 -0.000012 0.241499
140.633255 -91.004257 -0.000009 0.205357
141.824219 -89.747368 -0.000007 0.193640
142.701660 -88.821342 -0.000006 0.223560
nan nan nan 0.000000
nan nan nan 0.000000
nan nan nan 0.000000
nan nan nan 0.000000
nan nan nan 0.000000
nan nan nan 0.000000
nan nan nan 0.000000
nan nan nan 0.000000
nan nan nan 0.000000
119.985802 -112.381409 -0.000037 0.228443
131.293213 -100.613731 -0.000022 0.236425
136.147858 -95.561478 -0.000015 0.198714
138.851608 -92.747665 -0.000011 0.260157
140.577728 -90.951286 -0.000009 0.184628
141.777451 -89.702736 -0.000007 0.214596
142.661331 -88.782867 -0.000006 0.189523
nan nan nan 0.000000
nan nan nan 0.000000
nan nan nan 0.000000
nan nan nan 0.000000
nan nan nan 0.000000
nan nan nan 0.000000
nan nan nan 0.000000
nan nan nan 0.000000
nan nan nan 0.000000
119.781555 -112.183762 -0.000037 0.228957
131.170837 -100.495316 -0.000022 0.216929
136.060623 -95.477081 -0.000015 0.233529
138.783966 -92.682205 -0.000011 0.227796
140.522583 -90.897926 -0.000009 0.267601
141.730988 -89.657784 -0.000007 0.270210
142.621277 -88.744102 -0.000006 0.213100
nan nan nan 0.000000
nan nan nan 0.000000
nan nan nan 0.000000
nan nan nan 0.000000
nan nan nan 0.000000
nan nan nan 0.000000
nan nan nan 0.000000
nan nan nan 0.000000
nan nan nan 0.000000
119.578674 -111.984703 -0.000037 0.226097
131.049286 -100.376053 -0.000022 0.243414
135.973999 -95.392075 -0.000015 0.224242
138.716782 -92.616280 -0.000012 0.252271
140.467819 -90.844177 -0.000009 0.264310
141.684845 -89.612503 -0.000007 0.239094
142.581497 -88.705063 -0.000006 0.183826
nan nan nan 0.000000
nan nan nan 0.000000
nan nan nan 0.000000
nan nan nan 0.000000
nan nan nan 0.000000
nan nan nan 0.000000
nan nan nan 0.000000
nan nan nan 0.000000
nan nan nan 0.000000
119.377213 -111.784218 -0.000037 0.224780
130.928574 -100.255936 -0.000022 0.225857
135.887955 -95.306465 -0.000015 0.245904
138.650055 -92.549889 -0.000011 0.195411
140.413422 -90.790054 -0.000009 0.219096
141.639023 -89.566902 -0.000007 0.185035
142.541977 -88.665741 -0.000006 0.260062
157.594345 -73.773552 5.303910 0.836957
157.594086 -73.773796 4.848681 0.646616
157.593857 -73.774040 4.399867 0.618814
157.593613 -73.774277 3.956392 0.452232
157.593369 -73.774506 3.517225 0.920439
157.593124 -73.774750 3.081375 0.749081
157.592896 -73.774979 2.647881 0.702480
157.592667 -73.775208 2.215801 0.651377
157.592438 -73.775436 1.784205 0.818494
157.592255 -73.775604 1.352163 0.542275
157.592255 -73.775604 0.918726 0.577127
157.592163 -73.775703 0.482971 0.570352
157.591858 -73.776001 0.043974 0.706416
156.027512 -75.315567 0.000012 0.256292
154.793427 -76.530113 0.000010 0.208157
153.884216 -77.424927 0.000008 0.213112
157.646118 -73.851624 5.299519 0.773754
157.645874 -73.851860 4.844894 0.715465
157.645630 -73.852097 4.396677 0.893248
157.645386 -73.852333 3.953791 0.570962
157.645142 -73.852562 3.515208 0.590005
157.644913 -73.852798 3.079938 0.932219
157.644669 -73.853027 2.647020 0.726497
157.644440 -73.853256 2.215514 0.843854
157.644394 -73.853294 1.784487 0.541634
157.644394 -73.853294 1.352999 0.937255
157.644394 -73.853294 0.920120 0.553887
157.644302 -73.853378 0.484926 0.486030
157.644073 -73.853615 0.046481 0.478996
156.081146 -75.370453 0.000012 0.219503
154.838608 -76.576347 0.000010 0.200713
153.923172 -77.464790 0.000009 0.244228
157.697815 -73.929436 5.295317 0.639094
157.697571 -73.929672 4.841272 0.564599
157.697327 -73.929909 4.393626 0.644770
157.697083 -73.930138 3.951303 0.635599
157.696838 -73.930374 3.513279 0.485283
157.696609 -73.930595 3.078563 0.685008
157.696472 -73.930725 2.646203 0.609354
157.696472 -73.930725 2.215247 0.866529
157.696472 -73.930725 1.784753 0.523659
157.696472 -73.930725 1.353797 0.553689
157.696472 -73.930725 0.921452 0.437171
157.696243 -73.930939 0.486815 0.677684
157.696075 -73.931099 0.048903 0.683742
156.134399 -75.425705 0.000012 0.205608
154.883469 -76.622894 0.000010 0.229185
153.961853 -77.504929 0.000009 0.223560
157.748978 -74.007431 5.291148 0.590524
157.748734 -74.007668 4.837677 0.496559
157.748489 -74.007904 4.390596 0.695277
157.748245 -74.008133 3.948835 0.678050
157.748001 -74.008362 3.511364 0.420768
157.747986 -74.008377 3.077223 0.835538
157.747986 -74.008377 2.645410 0.671351
157.747986 -74.008377 2.214983 0.804456
157.747986 -74.008377 1.785017 0.512795
157.747986 -74.008377 1.354590 0.409384
157.747986 -74.008377 0.922776 0.415656
157.747940 -74.008415 0.488645 0.614542
157.747833 -74.008514 0.051249 0.631159
156.187256 -75.481323 0.000012 0.207750
154.928009 -76.669754 0.000010 0.183288
154.000259 -77.545334 0.000009 0.197817
157.800156 -74.085106 5.287195 0.857893
157.799911 -74.085342 4.834270 0.579904
157.799652 -74.085571 4.387727 0.858869
157.799515 -74.085701 3.946516 0.601801
157.799515 -74.085701 3.509604 0.481865
157.799515 -74.085701 3.075971 0.840040
157.799515 -74.085701 2.644660 0.550103
157.799515 -74.085709 2.214733 0.576776
157.799515 -74.085709 1.785267 0.476875
157.799515 -74.085701 1.355340 0.534844
157.799515 -74.085709 0.924029 0.802731
157.799606 -74.085617 0.490381 0.658473
157.799576 -74.085655 0.053473 0.581857
156.239731 -75.537315 0.000013 0.233026
154.972214 -76.716927 0.000010 0.201060
154.038376 -77.586006 0.000009 0.233278
157.851273 -74.162544 5.283435 0.540475
157.851028 -74.162773 4.831029 0.531838
157.851013 -74.162788 4.385053 0.674586
157.851013 -74.162788 3.944365 0.531731
157.851013 -74.162788 3.507936 0.502037
157.851013 -74.162788 3.074782 0.933852
157.851013 -74.162788 2.643947 0.563836
157.851013 -74.162788 2.214496 0.585641
157.851013 -74.162788 1.785504 0.810040
157.851013 -74.162788 1.356053 0.438209
157.851013 -74.162788 0.925218 0.776577
157.851151 -74.162659 0.492042 0.616739
157.851151 -74.162659 0.055607 0.489647
156.291809 -75.593674 0.000012 0.233481
155.016098 -76.764404 0.000010 0.201754
154.076202 -77.626945 0.000009 0.257883
157.902390 -74.239708 5.279879 0.564874
157.902390 -74.239708 4.828035 0.774197
157.902390 -74.239708 4.382536 0.881239
157.902390 -74.239708 3.942313 0.402182
157.902390 -74.239708 3.506345 0.425299
157.902390 -74.239708 3.073647 0.607233
157.902390 -74.239708 2.643267 0.450660
157.902390 -74.239708 2.214269 0.609506
157.902390 -74.239708 1.785731 0.637095
157.902390 -74.239708 1.356732 0.504967
157.902390 -74.239708 0.926352 0.351934
157.902435 -74.239670 0.493649 0.703502
157.902435 -74.239670 0.057679 0.862013
156.343491 -75.650391 0.000012 0.261617
155.059631 -76.812187 0.000010 0.195734
154.113754 -77.668144 0.000009 0.208731
157.977097 -74.295555 5.284448 0.660517
157.976929 -74.295715 4.831923 0.320607
157.976913 -74.295723 4.385810 0.755673
157.976913 -74.295723 3.944983 0.608972
157.976913 -74.295723 3.508415 0.557733
157.976913 -74.295723 3.075123 0.876341
157.976913 -74.295723 2.644151 0.641764
157.976913 -74.295723 2.214564 0.592981
157.976913 -74.295723 1.785436 0.649973
157.976913 -74.295723 1.355848 0.412329
157.976913 -74.295723 0.924876 0.629419
157.977173 -74.295502 0.491547 0.798718
157.977173 -74.295502 0.054968 0.792691
156.394791 -75.707466 0.000012 0.258123
155.102844 -76.860268 0.000010 0.218270
154.151001 -77.709602 0.000009 0.214715
158.056412 -74.347702 5.290654 0.612802
158.056152 -74.347939 4.837251 0.590158
158.055893 -74.348167 4.390237 0.780972
158.055847 -74.348198 3.948584 0.405585
158.055847 -74.348198 3.511208 0.379980
158.055847 -74.348198 3.077113 0.841108
158.055847 -74.348198 2.645344 0.669657
158.055847 -74.348198 2.214961 0.659495
158.055847 -74.348198 1.785039 0.588098
158.055847 -74.348198 1.354656 0.582361
158.055847 -74.348198 0.922886 0.705013
158.055695 -74.348335 0.488816 0.717815
158.055679 -74.348358 0.051452 0.849912
156.445679 -75.764900 0.000012 0.184856
155.145721 -76.908653 0.000010 0.238831
154.187973 -77.751328 0.000009 0.254509
158.136063 -74.400024 5.297057 0.808194
158.135803 -74.400253 4.842772 0.665995
158.135544 -74.400475 4.394889 0.590417
158.135284 -74.400696 3.952334 0.463416
158.135117 -74.400841 3.514091 0.809720
158.135117 -74.400848 3.079168 0.459068
158.135117 -74.400848 2.646575 0.633158
158.135117 -74.400848 2.215371 0.736049
158.135117 -74.400848 1.784629 0.526101
158.135117 -74.400848 1.353425 0.666133
158.135117 -74.400848 0.920832 0.689464
158.134811 -74.401108 0.485957 0.474083
158.134720 -74.401192 0.047779 0.775799
156.496155 -75.822685 0.000013 0.220556
155.188248 -76.957344 0.000010 0.211699
154.224640 -77.793304 0.000009 0.227868
158.215988 -74.452576 5.303636 0.847898
158.215729 -74.452797 4.848445 0.796521
158.215469 -74.453018 4.399669 0.500023
158.215225 -74.453232 3.956231 0.547555
158.214966 -74.453453 3.517100 0.840421
158.214722 -74.453667 3.081286 0.548806
158.214645 -74.453720 2.647840 0.570336
158.214645 -74.453720 2.215792 0.580911
158.214661 -74.453720 1.784207 0.492042
158.214645 -74.453720 1.352160 0.853773
158.214645 -74.453720 0.918720 0.882063
158.214340 -74.453987 0.482995 0.620966
158.214172 -74.454124 0.043973 0.843473
156.546249 -75.880829 0.000012 0.262407
155.230453 -77.006325 0.000010 0.247543
154.261032 -77.835533 0.000009 0.268702
158.296158 -74.505409 5.310374 0.808347
158.295898 -74.505630 4.854255 0.512535
158.295639 -74.505859 4.404562 0.720058
158.295380 -74.506073 3.960219 0.616526
158.295120 -74.506294 3.520193 0.847684
158.294861 -74.506508 3.083490 0.744472
158.294601 -74.506721 2.649148 0.587839
158.294388 -74.506905 2.216223 0.507622
158.294388 -74.506905 1.783776 0.693049
158.294388 -74.506905 1.350866 0.628840
158.294388 -74.506905 0.916560 0.475914
158.294159 -74.507103 0.479952 0.849607
158.293915 -74.507301 0.040064 0.692760
156.595917 -75.939316 0.000013 0.206529
155.272293 -77.055595 0.000010 0.310351
154.297104 -77.878021 0.000009 0.207271
158.376511 -74.558594 5.317250 0.636133
158.376236 -74.558823 4.860180 0.556344
158.375961 -74.559052 4.409554 0.732250
158.375687 -74.559273 3.964286 0.574716
158.375427 -74.559494 3.523345 0.818402
158.375168 -74.559715 3.085737 0.832303
158.374893 -74.559929 2.650494 0.623896
158.374634 -74.560150 2.216671 0.718700
158.374374 -74.560371 1.783335 0.488182
158.374252 -74.560471 1.349547 0.605951
158.374252 -74.560471 0.914360 0.580591
158.374100 -74.560600 0.476853 0.527565
158.373779 -74.560867 0.036083 0.655314
156.645187 -75.998146 0.000012 0.201910
155.313797 -77.105164 0.000010 0.219993
154.332901 -77.920761 0.000009 0.198188
158.457886 -74.611435 5.324543 0.572869
158.457611 -74.611656 4.866471 0.803571
158.457352 -74.611870 4.414856 0.590021
158.457092 -74.612083 3.968611 0.500526
158.456833 -74.612289 3.526702 0.805554
158.456589 -74.612503 3.088130 0.826490
158.456329 -74.612701 2.651929 0.557046
158.456085 -74.612915 2.217149 0.433326
158.455826 -74.613113 1.782856 0.623346
158.455582 -74.613319 1.348119 0.757595
158.455322 -74.613525 0.912002 0.585565
158.455109 -74.613701 0.473554 0.543084
158.454727 -74.614021 0.031843 0.661097
156.694046 -76.057320 0.000012 0.270162
155.354965 -77.155014 0.000010 0.291190
154.368378 -77.963745 0.000009 0.252941
158.568954 -74.640800 5.341478 0.529046
158.568954 -74.640800 4.881148 0.617807
158.568634 -74.641068 4.427207 0.602365
158.568298 -74.641342 3.978664 0.586648
158.567947 -74.641617 3.534486 0.837568
158.567612 -74.641891 3.093670 0.611765
158.567276 -74.642159 2.655242 0.629999
158.566940 -74.642433 2.218251 0.846662
158.566620 -74.642700 1.781756 0.595972
158.566269 -74.642975 1.344821 0.632120
158.565948 -74.643242 0.906506 0.605493
158.565689 -74.643440 0.465848 0.725475
158.565201 -74.643837 0.021925 0.480980
156.742477 -76.116837 0.000013 0.178572
155.395767 -77.205154 0.000010 0.258111
154.403564 -78.006973 0.000009 0.212537
158.687515 -74.665428 5.360780 0.937163
158.687515 -74.665428 4.897792 0.549538
158.687515 -74.665428 4.441303 0.549386
158.687500 -74.665436 3.990221 0.598871
158.687164 -74.665703 3.543448 0.723278
158.686829 -74.665970 3.100059 0.626291
158.686493 -74.666237 2.659070 0.585000
158.686157 -74.666504 2.219526 0.635615
158.685837 -74.666763 1.780481 0.754910
158.685501 -74.667030 1.340992 0.666606
158.685150 -74.667305 0.900117 0.581933
158.684998 -74.667427 0.456869 0.694606
158.684540 -74.667793 0.010342 0.713878
156.790497 -76.176689 0.000013 0.238914
155.436234 -77.255577 0.000011 0.219167
154.438461 -78.050453 0.000009 0.257596
158.807800 -74.690063 5.380582 0.672068
158.807785 -74.690071 4.914865 0.609628
158.807800 -74.690071 4.455687 0.543297
158.807785 -74.690071 4.001947 0.633631
158.807800 -74.690071 3.552594 0.702327
158.807770 -74.690086 3.106610 0.608454
158.807434 -74.690346 2.662995 0.881086
158.807098 -74.690613 2.220834 0.487449
158.806763 -74.690872 1.779173 0.832135
158.806427 -74.691139 1.337067 0.791913
158.806091 -74.691399 0.893565 0.515221
158.805954 -74.691513 0.447675 0.601389
158.797379 -74.698242 0.000016 0.233481
156.838104 -76.236870 0.000013 0.220364
155.476334 -77.306282 0.000011 0.249303
154.473038 -78.094170 0.000009 0.229244
158.929581 -74.714951 5.400806 0.582559
158.929565 -74.714951 4.932302 0.554177
158.929565 -74.714951 4.470378 0.870481
158.929565 -74.714951 4.013925 0.463279
158.929581 -74.714951 3.561882 0.699626
158.929565 -74.714951 3.113232 0.599939
158.929581 -74.714951 2.666985 0.701503
158.929565 -74.714958 2.222169 0.566979
158.929214 -74.715225 1.777838 0.808209
158.928879 -74.715485 1.333059 0.533822
158.928543 -74.715752 0.886875 0.561517
158.928406 -74.715851 0.438287 0.450980
158.855255 -74.772476 0.000016 0.188973
156.885284 -76.297386 0.000013 0.272795
155.516083 -77.357262 0.000010 0.239525
154.507309 -78.138130 0.000009 0.267889
159.052505 -74.740372 5.421341 0.671107
159.052505 -74.740372 4.950010 0.727474
159.052505 -74.740372 4.485296 0.652140
159.052505 -74.740372 4.026086 0.563424
159.052505 -74.740372 3.571314 0.824659
159.052505 -74.740379 3.119954 0.672236
159.052505 -74.740372 2.671012 0.728313
159.052505 -74.740372 2.223511 0.794430
159.052505 -74.740372 1.776489 0.625910
159.052505 -74.740372 1.328988 0.504631
159.052155 -74.740646 0.880082 0.509590
159.052048 -74.740723 0.428753 0.678904
158.912613 -74.847115 0.000016 0.265304
156.932053 -76.358231 0.000013 0.261187
155.555481 -77.408524 0.000011 0.248010
154.541275 -78.182327 0.000009 0.226815
159.213257 -74.738800 5.453677 0.554589
159.213257 -74.738800 4.977889 0.521981
159.213257 -74.738800 4.508784 0.519326
159.213257 -74.738800 4.045234 0.653925
159.213257 -74.738800 3.586164 0.636179
159.213257 -74.738800 3.130539 0.740383
159.213257 -74.738800 2.677353 0.565927
159.213257 -74.738800 2.225623 0.735958
159.213257 -74.738800 1.774377 0.880339
159.213165 -74.738876 1.322652 0.799496
159.212555 -74.739334 0.869533 0.794644
159.212372 -74.739471 0.413963 0.709865
158.969452 -74.922142 0.000016 0.204543
156.978378 -76.419403 0.000013 0.205943
155.594513 -77.460052 0.000011 0.232919
154.574936 -78.226761 0.000009 0.223811
159.435547 -74.693871 5.505029 0.809934
159.435547 -74.693863 5.022169 0.724727
159.435547 -74.693871 4.546086 0.685374
159.435547 -74.693871 4.075644 0.562280
159.435547 -74.693871 3.609748 0.583001
159.435547 -74.693871 3.147349 0.419791
159.435165 -74.694153 2.687402 0.825864
159.434525 -74.694626 2.228957 0.411383
159.433884 -74.695099 1.771056 0.605371
159.433243 -74.695572 1.312715 0.581964
159.432602 -74.696053 0.852952 0.592828
159.432388 -74.696213 0.390704 0.594324
159.025757 -74.997574 0.000016 0.234223
157.024292 -76.480888 0.000013 0.212777
155.633179 -77.511856 0.000011 0.190552
154.608276 -78.271431 0.000009 0.223895
159.663864 -74.648087 5.557891 0.615351
159.663864 -74.648087 5.067749 0.806500
159.663666 -74.648224 4.584444 0.719676
159.663010 -74.648712 4.106791 0.837705
159.662354 -74.649185 3.633812 0.674968
159.661697 -74.649658 3.164434 0.775082
159.661041 -74.650139 2.697621 0.768383
159.660400 -74.650620 2.232361 0.652979
159.659760 -74.651085 1.767652 0.710536
159.659103 -74.651558 1.302497 0.861433
159.658447 -74.652039 0.835896 0.610895
159.657867 -74.652466 0.366828 0.735821
159.081543 -75.073395 0.000016 0.212262
157.069763 -76.542702 0.000013 0.260181
155.671494 -77.563934 0.000011 0.245401
154.641312 -78.316330 0.000009 0.222854
162.089127 -73.024780 6.288402 0.730587
161.939880 -73.132202 5.657907 0.537804
161.939880 -73.132195 5.081678 0.560754
162.089111 -73.024803 4.539546 0.897185
162.089142 -73.024780 3.969529 0.559014
162.019424 -73.074951 3.396740 0.385977
164.744553 -71.113670 3.001790 0.653986
165.110275 -70.850456 2.341065 0.521080
165.325027 -70.695900 1.654606 0.538125
165.481674 -70.583153 0.953594 0.662898
165.559097 -70.527435 0.245671 0.595590
162.303970 -72.870163 0.000022 0.231734
159.136780 -75.149597 0.000016 0.200964
157.114807 -76.604828 0.000013 0.202305
155.709442 -77.616272 0.000011 0.247998
154.674026 -78.361458 0.000009 0.227138
162.029343 -73.213715 6.248705 0.431861
162.455414 -72.911560 5.776207 0.517647
162.455414 -72.911560 5.181343 0.517647
162.295731 -73.024803 4.564486 0.639338
162.295746 -73.024788 3.988868 0.588205
162.225037 -73.074928 3.410458 0.673228
164.748123 -71.285660 2.997021 0.581750
165.110977 -71.028336 2.339382 0.583017
165.324600 -70.876846 1.656332 0.546151
165.477951 -70.768097 0.959025 0.640406
165.555878 -70.712830 0.254722 0.498756
162.374527 -72.968918 0.000022 0.229687
159.191498 -75.226189 0.000016 0.256627
157.159409 -76.667267 0.000013 0.208025
155.747025 -77.668869 0.000011 0.221932
154.706436 -78.406815 0.000010 0.242696
162.506470 -73.024780 6.373678 0.418936
162.436920 -73.073380 5.752825 0.270466
162.436920 -73.073380 5.161643 0.303075
162.409271 -73.092705 4.572460 0.492164
162.506454 -73.024796 4.008689 0.768719
162.434677 -73.074951 3.424514 0.688655
164.751450 -71.456177 2.992332 0.736080
165.111679 -71.204475 2.337732 0.597925
165.324188 -71.055992 1.658026 0.557748
165.474594 -70.950905 0.964329 0.683772
165.553329 -70.895889 0.263533 0.603174
162.444382 -73.068161 0.000021 0.239094
159.245682 -75.303154 0.000016 0.231052
157.203583 -76.730011 0.000013 0.245042
155.784225 -77.721733 0.000011 0.182019
154.738525 -78.452393 0.000009 0.207403
162.591827 -73.114014 6.378509 0.604227
162.761108 -72.997482 5.819701 0.575738
162.837906 -72.944618 5.234951 0.514519
162.620987 -73.093941 4.598162 0.509163
162.721420 -73.024803 4.029009 0.736675
164.206955 -72.002190 3.594054 0.676371
164.754700 -71.625137 2.987733 0.518013
165.112366 -71.378929 2.336114 0.472648
165.323792 -71.233391 1.659685 0.616068
165.471252 -71.131874 0.969530 0.620584
165.551834 -71.076408 0.272070 0.766247
162.513550 -73.167892 0.000021 0.241057
159.299332 -75.380501 0.000016 0.246969
157.247314 -76.793068 0.000013 0.200366
155.821075 -77.774857 0.000010 0.182211
154.770294 -78.498199 0.000009 0.202783
162.591827 -73.261459 6.357673 0.541894
162.815994 -73.109451 5.815846 0.434043
162.815979 -73.109451 5.214736 0.319051
162.838837 -73.093956 4.624843 0.484535
162.940796 -73.024811 4.049848 0.766278
164.214737 -72.160904 3.587240 0.633738
164.758163 -71.792381 2.983239 0.558373
165.113037 -71.551727 2.334529 0.625650
165.323395 -71.409081 1.661312 0.651637
165.467590 -71.311295 0.974651 0.569726
165.551193 -71.254608 0.280357 0.483314
162.582031 -73.268112 0.000022 0.236114
159.352432 -75.458221 0.000016 0.245569
157.290604 -76.856430 0.000013 0.217288
155.857544 -77.828239 0.000011 0.212238
154.801727 -78.544220 0.000009 0.228622
163.154343 -73.031761 6.506691 0.585184
163.164780 -73.024780 5.888552 0.684504
163.001389 -73.133934 5.240234 0.302174
162.983887 -73.145622 4.638412 0.428977
163.164749 -73.024811 4.071221 0.574380
164.225494 -72.316231 3.580860 0.567941
164.761261 -71.958351 2.978812 0.559426
165.113693 -71.722923 2.332973 0.558602
165.323013 -71.583099 1.662907 0.466316
165.464279 -71.488731 0.979654 0.612818
165.549728 -71.431656 0.288562 0.616510
162.649796 -73.368797 0.000022 0.227078
159.404984 -75.536308 0.000017 0.213004
157.333450 -76.920090 0.000013 0.204603
155.893646 -77.881866 0.000011 0.241918
154.832855 -78.590462 0.000009 0.205333
162.914612 -73.339844 6.414001 0.484657
163.393463 -73.024780 5.929718 0.758282
163.212555 -73.143806 5.271269 0.389075
163.212555 -73.143806 4.666834 0.502785
163.393433 -73.024811 4.093147 0.533455
164.232925 -72.472466 3.574289 0.594690
164.764297 -72.122856 2.974471 0.677958
165.114349 -71.892540 2.331448 0.655299
165.322632 -71.755501 1.664472 0.465187
165.461197 -71.664330 0.984546 0.642298
165.549088 -71.606499 0.296527 0.439139
162.716858 -73.469955 0.000022 0.237502
159.457001 -75.614761 0.000017 0.255741
157.375854 -76.984039 0.000013 0.225570
155.929367 -77.935753 0.000011 0.201718
154.863663 -78.636925 0.000009 0.285134
163.119019 -73.353981 6.454935 0.645533
163.627045 -73.024796 5.971957 0.924544
163.447556 -73.141098 5.307341 0.311025
163.468933 -73.127243 4.700020 0.550332
163.627014 -73.024811 4.115648 0.732692
163.795532 -72.915611 3.524393 0.603845
164.767654 -72.285690 2.970235 0.719676
165.113434 -72.061623 2.329923 0.470344
165.322357 -71.926254 1.666003 0.536583
165.457611 -71.838608 0.989375 0.849195
165.547668 -71.780251 0.304414 0.571420
162.783218 -73.571579 0.000022 0.240877
159.508453 -75.693573 0.000017 0.221501
157.417801 -77.048294 0.000013 0.229603
155.964706 -77.989883 0.000011 0.205859
154.894135 -78.683594 0.000009 0.230669
163.383820 -73.332291 6.513666 0.582330
163.865707 -73.024788 6.015315 0.591394
164.043152 -72.911560 5.421085 0.517647
164.043152 -72.911560 4.788968 0.517647
163.865677 -73.024811 4.138741 0.616358
163.808533 -73.061279 3.518830 0.500603
164.770538 -72.447403 2.966058 0.605692
165.114059 -72.228195 2.328458 0.678843
165.321991 -72.095512 1.667506 0.667872
165.454544 -72.010925 0.994080 0.654627
165.547043 -71.951904 0.312069 0.656870
162.848862 -73.673660 0.000022 0.223727
159.559372 -75.772751 0.000017 0.244456
157.459305 -77.112839 0.000014 0.247842
155.999664 -78.044258 0.000011 0.198678
154.924286 -78.730484 0.000009 0.187393
163.814865 -73.210030 6.621269 0.594034
164.109665 -73.024788 6.059832 0.705318
164.053223 -73.060257 5.408157 0.343740
164.053223 -73.060257 4.778430 0.407752
164.109634 -73.024811 4.162453 0.651972
164.029816 -73.074959 3.533559 0.706996
164.773376 -72.607758 2.961961 0.674861
165.114655 -72.393318 2.327020 0.621866
165.321625 -72.263268 1.668980 0.562707
165.451492 -72.181664 0.998694 0.519020
165.545654 -72.122505 0.319650 0.650904
162.913788 -73.776207 0.000022 0.213698
159.609726 -75.852272 0.000017 0.213207
157.500351 -77.177673 0.000013 0.257285
156.034256 -78.098877 0.000011 0.261019
154.954102 -78.777573 0.000009 0.197326
164.206787 -73.119011 6.716640 0.543114
164.359100 -73.024780 6.105549 0.611261
164.487427 -72.945404 5.486259 0.534203
164.487427 -72.945404 4.842100 0.501198
164.359070 -73.024811 4.186802 0.701747
164.278015 -73.074951 3.550829 0.714855
164.509033 -72.932037 2.942512 0.574289
165.115250 -72.557007 2.325612 0.554772
165.321274 -72.429550 1.670424 0.627710
165.448181 -72.351036 1.003234 0.803754
165.545044 -72.291115 0.327007 0.789883
162.977997 -73.879196 0.000022 0.235109
159.659531 -75.932144 0.000017 0.205249
157.540955 -77.242790 0.000014 0.241128
156.068466 -78.153732 0.000011 0.221764
154.983597 -78.824875 0.000009 0.206745
164.615952 -73.023743 6.816470 0.466026
164.614243 -73.024780 6.152513 0.676295
164.464981 -73.115685 5.466569 0.298802
164.464996 -73.115685 4.826049 0.373144
164.614197 -73.024811 4.211816 0.577676
164.614227 -73.024796 3.576475 0.806165
164.531876 -73.074944 2.939796 0.649439
164.829086 -72.893929 2.318737 0.596048
165.320938 -72.594383 1.671840 0.581765
165.445160 -72.518723 1.007671 0.606043
165.543686 -72.458725 0.334291 0.743938
163.041489 -73.982635 0.000022 0.217947
159.708771 -76.012367 0.000017 0.211137
157.581100 -77.308182 0.000013 0.220053
156.102280 -78.208832 0.000011 0.214428
155.012756 -78.872383 0.000010 0.265387
165.043533 -72.923920 6.921070 0.402487
164.875290 -73.024780 6.200769 0.493477
164.704697 -73.127052 5.502830 0.550713
164.704727 -73.127037 4.855615 0.553231
164.875244 -73.024811 4.237520 0.537194
164.875259 -73.024796 3.594794 0.508202
164.791611 -73.074944 2.950717 0.660853
164.829575 -73.052185 2.317404 0.520851
165.007767 -72.945366 1.679197 0.703319
165.165222 -72.850967 1.027883 0.697536
165.543091 -72.624435 0.341360 0.644404
163.104248 -74.086517 0.000022 0.212812
159.757446 -76.092934 0.000017 0.235456
157.620773 -77.373863 0.000014 0.182737
156.135712 -78.264160 0.000011 0.243402
155.041580 -78.920090 0.000010 0.236485
165.486130 -72.822021 7.029404 0.545235
165.142502 -73.024773 6.250369 0.676371
165.142471 -73.024788 5.580805 0.741314
165.142456 -73.024803 4.919173 0.751339
165.099121 -73.050369 4.258152 0.465339
165.142456 -73.024803 3.613624 0.686183
165.142456 -73.024803 2.966790 0.459892
165.057449 -73.074959 2.320418 0.730022
165.057449 -73.074959 1.679582 0.645075
165.164444 -73.011818 1.031955 0.517082
165.244110 -72.964813 0.376696 0.526726
163.166290 -74.190826 0.000022 0.208325
159.805557 -76.173828 0.000017 0.261103
157.660004 -77.439812 0.000014 0.240291
156.168762 -78.319717 0.000011 0.223512
155.070068 -78.968002 0.000009 0.193305
165.625549 -72.903152 7.049276 0.637995
165.416092 -73.024773 6.301367 0.784131
165.416077 -73.024788 5.623768 0.582391
165.416046 -73.024796 4.954199 0.754086
165.416031 -73.024811 4.291101 0.800565
165.416046 -73.024803 3.632984 0.758968
165.416046 -73.024803 2.978389 0.779110
165.416046 -73.024803 2.325897 0.752102
165.329712 -73.074936 1.675737 0.573922
165.329666 -73.074966 1.026517 0.453178
165.329666 -73.074959 0.375205 0.665919
163.227615 -74.295578 0.000023 0.220101
159.853119 -76.255066 0.000017 0.252558
157.698761 -77.506035 0.000014 0.221633
156.201416 -78.375511 0.000011 0.202125
155.098236 -79.016106 0.000010 0.210323
165.608719 -73.074844 7.024158 0.564813
165.459106 -73.160332 6.294802 0.756283
165.608856 -73.074760 5.649629 0.705074
165.608963 -73.074707 4.975299 0.825528
165.608948 -73.074707 4.307468 0.794324
165.608948 -73.074715 3.644648 0.817838
165.608948 -73.074707 2.985378 0.743389
165.608948 -73.074715 2.328225 0.788266
165.608948 -73.074715 1.671775 0.690990
165.608887 -73.074753 1.014626 0.759106
165.608704 -73.074852 0.355375 0.568200
163.288193 -74.400742 0.000022 0.256890
159.900085 -76.336632 0.000017 0.244731
157.737076 -77.572533 0.000013 0.201910
156.233688 -78.431534 0.000011 0.236796
155.126053 -79.064407 0.000009 0.227569
165.638962 -73.218483 7.013009 0.569497
165.528824 -73.280396 6.295117 0.721294
165.637970 -73.219032 5.641292 0.647868
165.637604 -73.219246 4.968424 0.846967
165.637604 -73.219246 4.302136 0.497139
165.637604 -73.219246 3.640848 0.624781
165.637589 -73.219246 2.983101 0.505028
165.637589 -73.219254 2.327466 0.763302
165.637299 -73.219414 1.672539 0.490883
165.636841 -73.219666 1.016941 0.735302
165.636658 -73.219772 0.359239 0.634165
163.348038 -74.506332 0.000022 0.229412
159.946503 -76.418518 0.000017 0.220292
157.774902 -77.639290 0.000014 0.234151
156.265564 -78.487778 0.000011 0.223476
155.153549 -79.112900 0.000009 0.240662
165.668427 -73.361847 7.001966 0.684718
165.667969 -73.362091 6.312774 0.568780
165.667709 -73.362236 5.633328 0.724956
165.667664 -73.362267 4.961987 0.640055
165.667648 -73.362267 4.297143 0.600473
165.667648 -73.362274 3.637289 0.668971
165.667511 -73.362343 2.980961 0.671458
165.667053 -73.362602 2.326745 0.728374
165.666611 -73.362846 1.673263 0.638651
165.666153 -73.363098 1.019115 0.576974
165.665955 -73.363213 0.362870 0.665476
163.407135 -74.612343 0.000023 0.248513
159.992340 -76.500732 0.000017 0.202616
157.812271 -77.706314 0.000014 0.203992
156.297043 -78.544235 0.000011 0.289814
155.180679 -79.161591 0.000010 0.211652
165.698639 -73.504105 6.991467 0.676493
165.698135 -73.504379 6.303708 0.623209
165.697601 -73.504669 5.625634 0.796979
165.697449 -73.504753 4.955697 0.658869
165.697433 -73.504761 4.292266 0.747326
165.697052 -73.504967 3.633777 0.707790
165.696609 -73.505211 2.978839 0.696284
165.696152 -73.505455 2.326038 0.630503
165.695709 -73.505692 1.673970 0.666804
165.695267 -73.505943 1.021236 0.589181
165.694977 -73.506104 0.366417 0.736171
163.465500 -74.718758 0.000023 0.213255
160.037613 -76.583260 0.000017 0.233278
157.849182 -77.773590 0.000013 0.196177
156.328125 -78.600922 0.000011 0.232332
155.207489 -79.210464 0.000009 0.300333
165.726868 -73.646774 6.980722 0.774670
165.726425 -73.647011 6.294459 0.570733
165.725922 -73.647278 5.617851 0.586984
165.725662 -73.647415 4.949335 0.591363
165.725204 -73.647659 4.287272 0.585443
165.724762 -73.647903 3.630212 0.585534
165.724304 -73.648148 2.976703 0.589441
165.723846 -73.648384 2.325327 0.579477
165.723419 -73.648621 1.674681 0.673976
165.722961 -73.648865 1.023371 0.573358
165.722488 -73.649117 0.369999 0.669429
163.523117 -74.825577 0.000023 0.238292
160.082291 -76.666107 0.000018 0.207930
157.885605 -77.841133 0.000014 0.257022
156.358826 -78.657822 0.000011 0.206374
155.233948 -79.259521 0.000010 0.209402
165.789474 -73.770691 6.980034 0.648600
165.789139 -73.770866 6.293890 0.691279
165.788727 -73.771088 5.617391 0.567376
165.788315 -73.771301 4.948934 0.660655
165.787872 -73.771538 4.286963 0.577447
165.787430 -73.771767 3.629993 0.557641
165.787018 -73.771988 2.976574 0.539788
165.786575 -73.772217 2.325284 0.670909
165.786148 -73.772438 1.674724 0.538140
165.786011 -73.772522 1.023482 0.476936
165.785767 -73.772644 0.370162 0.505180
163.579987 -74.932800 0.000023 0.238950
160.126404 -76.749260 0.000018 0.238807
157.921555 -77.908920 0.000014 0.238268
156.389114 -78.714928 0.000011 0.225738
155.260071 -79.308762 0.000010 0.245293
165.865662 -73.887550 6.983418 0.621286
165.865509 -73.887627 6.296854 0.592309
165.865204 -73.887787 5.619910 0.659571
165.864792 -73.888000 4.950988 0.564034
165.864349 -73.888229 4.288557 0.625574
165.863922 -73.888451 3.631129 0.586206
165.863495 -73.888672 2.977255 0.773129
165.863129 -73.888863 2.325512 0.508492
165.863129 -73.888863 1.674488 0.787671
165.863113 -73.888863 1.022766 0.499687
165.863159 -73.888847 0.368940 0.826459
163.636108 -75.040413 0.000023 0.216846
160.169922 -76.832718 0.000017 0.206350
157.957047 -77.976959 0.000014 0.212489
156.419006 -78.772247 0.000011 0.213830
155.285843 -79.358185 0.000010 0.193161
165.943375 -74.003853 6.987452 0.579995
165.943314 -74.003883 6.300354 0.642512
165.943130 -74.003975 5.622884 0.651148
165.942719 -74.004189 4.953411 0.515282
165.942276 -74.004410 4.290437 0.763806
165.941849 -74.004631 3.632470 0.521462
165.941757 -74.004677 2.978076 0.820935
165.941772 -74.004669 2.325793 0.540215
165.941772 -74.004669 1.674207 0.736065
165.941757 -74.004677 1.021923 0.746365
165.940796 -74.005165 0.367626 0.865690
163.691483 -75.148415 0.000023 0.220999
160.212860 -76.916481 0.000018 0.237299
157.992050 -78.045242 0.000014 0.206218
156.448502 -78.829781 0.000011 0.227509
155.311279 -79.407791 0.000009 0.217731
166.019989 -74.120964 6.991388 0.572702
166.019928 -74.120995 6.303750 0.647501
166.019867 -74.121033 5.625767 0.738201
166.019455 -74.121231 4.955764 0.593286
166.019150 -74.121384 4.292278 0.755199
166.019150 -74.121384 3.633822 0.641047
166.019150 -74.121384 2.978891 0.770764
166.019135 -74.121384 2.326064 0.606806
166.019135 -74.121384 1.673936 0.764370
166.019150 -74.121384 1.021108 0.653529
166.018204 -74.121857 0.366263 0.626764
163.746094 -75.256798 0.000023 0.222566
160.255219 -77.000542 0.000017 0.226169
158.026581 -78.113770 0.000014 0.221238
156.477585 -78.887512 0.000011 0.222088
155.336365 -79.457573 0.000010 0.226947
166.096802 -74.238235 6.995596 0.635645
166.096786 -74.238235 6.307389 0.658442
166.096786 -74.238235 5.628847 0.638926
166.096741 -74.238258 4.958336 0.579858
166.096741 -74.238258 4.294312 0.577249
166.096741 -74.238266 3.635271 0.587732
166.096741 -74.238258 2.979760 0.597025
166.096741 -74.238266 2.326353 0.552346
166.096741 -74.238266 1.673647 0.629114
166.096741 -74.238258 1.020240 0.577066
166.095718 -74.238762 0.364821 0.654505
163.799957 -75.365570 0.000023 0.233924
160.296982 -77.084892 0.000018 0.221405
158.060638 -78.182541 0.000014 0.227653
156.506271 -78.945450 0.000011 0.216331
155.361099 -79.507523 0.000010 0.201575
166.226013 -74.330505 7.014588 0.820630
166.225967 -74.330521 6.323759 0.712184
166.225876 -74.330566 5.642619 0.642374
166.225403 -74.330795 4.969491 0.630945
166.225021 -74.330978 4.302916 0.484901
166.225021 -74.330978 3.641404 0.624140
166.225021 -74.330978 2.983434 0.487480
166.225021 -74.330978 2.327577 0.632715
166.225021 -74.330978 1.672423 0.488655
166.225021 -74.330978 1.016566 0.637263
166.226013 -74.330505 0.358506 0.527413
163.853058 -75.474709 0.000023 0.227724
160.338165 -77.169533 0.000018 0.207977
158.094208 -78.251541 0.000014 0.229388
156.534561 -79.003578 0.000011 0.272448
155.385483 -79.557648 0.000010 0.195256
166.363708 -74.419930 7.036052 0.751842
166.363678 -74.419945 6.342266 0.675029
166.363403 -74.420067 5.658177 0.666941
166.362946 -74.420288 4.982177 0.629206
166.362411 -74.420540 4.312735 0.655528
166.361893 -74.420792 3.648354 0.698726
166.361710 -74.420876 2.987588 0.694255
166.361710 -74.420876 2.328961 0.643046
166.361710 -74.420876 1.671039 0.688807
166.361710 -74.420876 1.012411 0.617182
166.360474 -74.421463 0.351774 0.603449
163.905380 -75.584221 0.000024 0.232416
160.378754 -77.254463 0.000018 0.215685
158.127289 -78.320778 0.000014 0.217648
156.562439 -79.061913 0.000012 0.222231
155.409515 -79.607941 0.000010 0.251971
166.501678 -74.510551 7.057693 0.604562
166.501450 -74.510666 6.360878 0.587976
166.501007 -74.510872 5.673820 0.748745
166.500549 -74.511086 4.994932 0.583307
166.500000 -74.511337 4.322626 0.802502
166.499481 -74.511581 3.655404 0.561181
166.498947 -74.511826 2.991793 0.737469
166.498428 -74.512070 2.330352 0.555276
166.498337 -74.512108 1.669649 0.734112
166.498337 -74.512108 1.008239 0.557824
166.497650 -74.512436 0.344761 0.561471
163.956940 -75.694084 0.000024 0.242098
160.418747 -77.339668 0.000017 0.229603
158.159897 -78.390244 0.000014 0.261378
156.589905 -79.120430 0.000012 0.249350
155.433197 -79.658401 0.000010 0.213148
166.640305 -74.602219 7.079618 0.628275
166.639771 -74.602463 6.379712 0.827070
166.639191 -74.602722 5.689662 0.634058
166.638672 -74.602959 5.007836 0.661830
166.638138 -74.603210 4.332634 0.630152
166.637619 -74.603447 3.662538 0.602564
166.637070 -74.603699 2.996067 0.621103
166.636551 -74.603935 2.331776 0.550774
166.636002 -74.604187 1.668234 0.589258
166.635468 -74.604424 1.004019 0.524254
166.635056 -74.604614 0.337692 0.570855
164.007736 -75.804314 0.000024 0.236712
160.458145 -77.425156 0.000018 0.221896
158.192001 -78.459930 0.000014 0.200091
156.616959 -79.179146 0.000011 0.256974
155.456528 -79.709030 0.000010 0.225331
166.860550 -74.658646 7.124057 0.737408
166.859695 -74.659027 6.417952 0.573434
166.858734 -74.659462 5.721801 0.583627
166.858322 -74.659637 5.034056 0.593088
166.858322 -74.659637 4.353037 0.524666
166.857819 -74.659866 3.677082 0.560128
166.857040 -74.660217 3.004768 0.743236
166.856262 -74.660561 2.334669 0.523125
166.855469 -74.660919 1.665344 0.661418
166.854706 -74.661270 0.995358 0.591272
166.854156 -74.661514 0.323247 0.617578
164.057770 -75.914894 0.000024 0.223596
160.496933 -77.510918 0.000018 0.247232
158.223633 -78.529846 0.000014 0.222195
156.643600 -79.238045 0.000011 0.205273
155.479507 -79.759811 0.000010 0.193580
167.099258 -74.709663 7.173518 0.565515
167.098755 -74.709885 6.460682 0.590127
167.099426 -74.709587 5.758128 0.810575
167.099777 -74.709435 5.063793 0.655482
167.099777 -74.709435 4.376098 0.585855
167.099777 -74.709435 3.693565 0.549157
167.099777 -74.709427 3.014686 0.585580
167.099640 -74.709496 2.337985 0.738064
167.098816 -74.709854 1.662030 0.664408
167.098022 -74.710205 0.985408 0.678492
167.097702 -74.710350 0.306621 0.643839
164.107025 -76.025818 0.000024 0.203119
160.535126 -77.596947 0.000018 0.267733
158.254776 -78.599976 0.000014 0.225642
156.669846 -79.297127 0.000012 0.203454
155.502121 -79.810760 0.000010 0.237777
167.380249 -74.745438 7.234466 0.565148
167.380249 -74.745438 6.513355 0.599054
167.384613 -74.743561 5.803229 0.539681
167.386505 -74.742744 5.100811 0.732540
167.386505 -74.742744 4.404808 0.574945
167.386505 -74.742744 3.714028 0.634897
167.386505 -74.742737 3.026946 0.628748
167.386520 -74.742737 2.342071 0.648753
167.386505 -74.742737 1.657929 0.495506
167.385666 -74.743103 0.973099 0.628321
167.384933 -74.743423 0.286112 0.572503
164.155502 -76.137085 0.000024 0.214919
160.572739 -77.683243 0.000018 0.258721
158.285431 -78.670326 0.000015 0.234809
156.695663 -79.356392 0.000011 0.234774
155.524399 -79.861855 0.000008 0.341619
nan nan nan 0.000000
nan nan nan 0.000000
167.971130 -74.653748 5.907786 0.500282
177.996948 -70.409866 6.800681 0.484855
177.818787 -70.485283 5.700871 0.485634
177.907578 -70.447693 4.645703 0.479362
177.885040 -70.457237 3.583950 0.472038
178.418945 -70.231239 2.537094 0.471046
nan nan nan 0.000000
185.682892 -67.156448 0.000059 0.225750
170.655243 -73.517578 0.000035 0.218246
164.203201 -76.248688 0.000024 0.224864
160.609726 -77.769791 0.000018 0.253647
158.315582 -78.740891 0.000014 0.201766
156.721069 -79.415840 0.000012 0.239776
155.546310 -79.913109 0.000008 0.335927
nan nan nan 0.000000
nan nan nan 0.000000
nan nan nan 0.000000
nan nan nan 0.000000
nan nan nan 0.000000
178.623734 -70.394325 4.701551 0.489860
178.426300 -70.476280 3.608111 0.448890
178.476639 -70.455383 2.536546 0.494438
nan nan nan 0.000000
185.792755 -67.418556 0.000060 0.229101
170.721069 -73.674622 0.000034 0.221334
164.250122 -76.360626 0.000024 0.219311
160.646118 -77.856598 0.000018 0.187285
158.345245 -78.811661 0.000015 0.227078
156.746063 -79.475464 0.000012 0.262347
155.567856 -79.964523 0.000008 0.338323
nan nan nan 0.000000
nan nan nan 0.000000
nan nan nan 0.000000
nan nan nan 0.000000
nan nan nan 0.000000
nan nan nan 0.000000
178.575394 -70.662323 3.611411 0.490410
nan nan nan 0.000000
nan nan nan 0.000000
185.900803 -67.681427 0.000059 0.230920
170.785797 -73.832115 0.000034 0.234917
164.296265 -76.472885 0.000024 0.227820
160.681900 -77.943665 0.000018 0.230633
158.374420 -78.882629 0.000015 0.238603
156.770645 -79.535255 0.000011 0.272975
155.552094 -80.031113 0.010000 1.000000
nan nan nan 0.000000
nan nan nan 0.000000
nan nan nan 0.000000
190.734940 -66.059494 8.793757 0.369665
190.663681 -66.087906 7.260015 0.811063
190.663681 -66.087906 5.749078 0.837995
190.663696 -66.087906 4.246231 0.793378
190.663696 -66.087906 2.748208 0.836179
190.663696 -66.087906 1.251791 0.814282
186.007019 -67.945045 0.000059 0.229556
170.849426 -73.990067 0.000034 0.228311
164.341614 -76.585464 0.000024 0.211328
160.717072 -78.030975 0.000018 0.216439
158.403091 -78.953812 0.000015 0.245018
156.794800 -79.595222 0.000012 0.233313
155.572830 -80.082558 0.009998 1.000000
nan nan nan 0.000000
nan nan nan 0.000000
nan nan nan 0.000000
190.710098 -66.412476 8.771102 0.329381
190.663681 -66.430618 7.245539 0.845411
190.663696 -66.430611 5.738760 0.752804
190.663696 -66.430611 4.240047 0.810269
190.663696 -66.430611 2.746150 0.833829
190.663696 -66.430611 1.253850 0.814282
186.111359 -68.209396 0.000059 0.227856
170.911957 -74.148453 0.000034 0.232595
164.386185 -76.698349 0.000024 0.209844
160.751633 -78.118523 0.000018 0.194573
158.431274 -79.025185 0.000015 0.207786
156.818527 -79.655350 0.000012 0.255107
155.593201 -80.134140 0.009996 1.000000
nan nan nan 0.000000
nan nan nan 0.000000
nan nan nan 0.000000
190.685852 -66.762970 8.748993 0.365408
190.663681 -66.771454 7.231394 0.839216
190.663681 -66.771454 5.728679 0.681132
190.663696 -66.771454 4.234007 0.748898
190.663696 -66.771454 2.744137 0.830457
190.663696 -66.771454 1.255862 0.758099
186.213852 -68.474480 0.000060 0.229280
170.973389 -74.307266 0.000034 0.236676
164.429962 -76.811554 0.000024 0.232978
160.785583 -78.206314 0.000019 0.220268
158.458954 -79.096756 0.000014 0.261139
156.841858 -79.715645 0.000012 0.200904
155.613220 -80.185867 0.009994 1.000000
nan nan nan 0.000000
nan nan nan 0.000000
nan nan nan 0.000000
190.662186 -67.111038 8.727427 0.371191
190.663666 -67.110489 7.217581 0.903120
190.663681 -67.110481 5.718832 0.902449
190.663681 -67.110481 4.228110 0.821576
190.663681 -67.110489 2.742173 0.834806
190.663681 -67.110489 1.257828 0.816114
186.314529 -68.740265 0.000060 0.231267
171.033691 -74.466515 0.000035 0.225056
164.472946 -76.925049 0.000024 0.226899
160.818924 -78.294342 0.000019 0.207379
158.486130 -79.168518 0.000015 0.248872
156.864746 -79.776108 0.000012 0.201694
155.670197 -80.223747 0.000007 0.342947
nan nan nan 0.000000
nan nan nan 0.000000
nan nan nan 0.000000
190.663666 -67.447746 8.710269 0.837232
190.663681 -67.447746 7.204094 0.806973
190.663681 -67.447739 5.709220 0.770474
190.663681 -67.447739 4.222350 0.791135
190.663696 -67.447739 2.740254 0.820829
190.663696 -67.447739 1.259746 0.821195
186.413330 -69.006737 0.000059 0.229879
171.092880 -74.626183 0.000035 0.241535
164.515137 -77.038857 0.000024 0.224613
160.851639 -78.382599 0.000018 0.257010
158.512802 -79.240463 0.000015 0.222483
156.887222 -79.836723 0.000012 0.233529
155.689575 -80.276009 0.000006 0.332479
nan nan nan 0.000000
nan nan nan 0.000000
nan nan nan 0.000000
190.663666 -67.783279 8.693293 0.837491
190.663681 -67.783279 7.190927 0.820340
190.663681 -67.783279 5.699836 0.780636
190.663681 -67.783279 4.216727 0.803677
190.663681 -67.783279 2.738382 0.834806
190.663681 -67.783279 1.261619 0.814450
186.510284 -69.273903 0.000059 0.228371
171.150955 -74.786255 0.000035 0.230944
164.556519 -77.152946 0.000025 0.222506
160.883743 -78.471077 0.000018 0.252402
158.538971 -79.312599 0.000015 0.237383
156.909317 -79.897476 0.000002 0.340398
155.671005 -80.341896 0.010008 1.000000
nan nan nan 0.000000
nan nan nan 0.000000
