# This PCD file was generated using the MATLABÂ® pcwrite function
# from Computer Vision ToolboxÂ®.
# .PCD v.7 - Point Cloud Data file format
VERSION .7
FIELDS x y z intensity
SIZE 4 4 4 4
TYPE F F F F
COUNT 1 1 1 1
WIDTH 1189
HEIGHT 1
VIEWPOINT 0 0 0 1 0 0 0
POINTS 1189
DATA ascii
170.934830 -134.772690 0.793468 0.560784
170.792709 -134.861557 -0.000021 0.223799
164.851852 -138.576248 -0.000014 0.229891
161.543137 -140.645142 -0.000011 0.238412
159.430801 -141.965942 -0.000008 0.230956
157.962662 -142.883942 -0.000006 0.241631
156.880997 -143.560287 -0.000005 0.195387
170.933807 -134.974655 8.124947 0.520241
170.934494 -134.974228 7.281336 0.579583
170.934326 -134.974335 6.449332 0.604486
170.934738 -134.974075 5.627298 0.565682
170.934662 -134.974136 4.813110 0.551232
170.934830 -134.974030 4.005061 0.591241
170.934830 -134.974030 3.201316 0.519097
170.934830 -134.974030 2.400152 0.528359
170.934830 -134.974030 1.599847 0.556481
170.934830 -134.974030 0.798683 0.558694
170.934830 -134.974030 -0.005063 0.551125
164.915833 -138.679398 -0.000014 0.211376
161.592758 -140.725128 -0.000010 0.216307
159.471268 -142.031143 -0.000008 0.244922
157.996750 -142.938873 -0.000006 0.228718
156.910385 -143.607651 -0.000005 0.216678
170.935730 -135.173096 8.099445 0.565423
170.934189 -135.174042 7.258783 0.561593
170.935471 -135.173248 6.430644 0.553674
170.934647 -135.173752 5.611846 0.563043
170.934998 -135.173553 4.801184 0.560327
170.934830 -135.173645 3.996530 0.570031
170.934830 -135.173645 3.196204 0.546059
170.934830 -135.173645 2.398450 0.527077
170.934830 -135.173645 1.601550 0.564477
170.934830 -135.173645 0.803795 0.567285
170.934830 -135.173645 0.003470 0.551965
164.979111 -138.782974 -0.000014 0.221657
161.641830 -140.805450 -0.000010 0.238867
159.511261 -142.096634 -0.000008 0.231135
158.030441 -142.994049 -0.000006 0.252139
156.939438 -143.655212 -0.000005 0.211017
170.935287 -135.371307 8.073767 0.517647
170.933899 -135.372131 7.236685 0.518944
170.935287 -135.371307 6.412045 0.573648
170.934555 -135.371735 5.596702 0.529015
170.934967 -135.371506 4.789447 0.563760
170.934845 -135.371582 3.988167 0.523629
170.934830 -135.371582 3.191195 0.561822
170.934830 -135.371582 2.396781 0.558145
170.934830 -135.371582 1.603219 0.592294
170.934830 -135.371582 0.808805 0.566247
170.934830 -135.371582 0.011832 0.561944
165.041656 -138.886978 -0.000015 0.247675
161.690338 -140.886124 -0.000011 0.213554
159.550797 -142.162399 -0.000008 0.220795
158.063751 -143.049454 -0.000006 0.231662
156.968170 -143.702988 -0.000005 0.245772
170.934891 -135.567841 8.048611 0.559380
170.935455 -135.567505 7.215484 0.566110
170.935135 -135.567688 6.393821 0.608759
170.934479 -135.568085 5.581859 0.553841
170.934937 -135.567810 4.777941 0.517647
170.934830 -135.567871 3.979969 0.549020
170.934830 -135.567871 3.186283 0.574426
170.934830 -135.567871 2.395145 0.519356
170.934830 -135.567871 1.604855 0.602213
170.934830 -135.567871 0.813717 0.549020
170.934830 -135.567871 0.020030 0.578927
165.103470 -138.991440 -0.000015 0.216858
161.738266 -140.967133 -0.000011 0.231219
159.589890 -142.228424 -0.000008 0.199839
158.096680 -143.105087 -0.000006 0.207224
156.996552 -143.750961 -0.000005 0.209940
170.934540 -135.762726 8.023966 0.549386
170.935211 -135.762344 7.194260 0.537301
170.934982 -135.762482 6.375960 0.546624
170.934418 -135.762802 5.567313 0.597604
170.934906 -135.762512 4.766665 0.573327
170.934830 -135.762558 3.971935 0.570886
170.934845 -135.762558 3.181469 0.583581
170.934830 -135.762558 2.393542 0.531533
170.934830 -135.762558 1.606458 0.603800
170.934845 -135.762558 0.818530 0.590692
170.934830 -135.762558 0.028065 0.582330
165.164551 -139.096313 -0.000015 0.251552
161.785645 -141.048462 -0.000011 0.244479
159.628510 -142.294739 -0.000008 0.239273
158.129211 -143.160950 -0.000006 0.214297
157.024612 -143.799133 -0.000005 0.256411
170.934219 -135.956039 7.999821 0.558633
170.934998 -135.955597 7.173467 0.536095
170.934860 -135.955673 6.358460 0.565606
170.935150 -135.955505 5.553195 0.553552
170.934891 -135.955658 4.755616 0.582361
170.934845 -135.955688 3.964061 0.527886
170.934845 -135.955688 3.176751 0.530709
170.934845 -135.955688 2.391970 0.536355
170.934845 -135.955688 1.608029 0.594644
170.934845 -135.955688 0.823248 0.550774
170.934845 -135.955688 0.035938 0.559930
165.224899 -139.201614 -0.000015 0.227581
161.832443 -141.130127 -0.000011 0.236042
159.666656 -142.361313 -0.000008 0.220807
158.161362 -143.217041 -0.000006 0.257153
157.052322 -143.847488 -0.000005 0.199779
170.933960 -136.147781 7.976171 0.555901
170.934814 -136.147293 7.153095 0.573678
170.934738 -136.147339 6.341313 0.559686
170.935089 -136.147156 5.539225 0.530022
170.934875 -136.147263 4.744788 0.596429
170.934830 -136.147293 3.956345 0.526223
170.934830 -136.147293 3.172128 0.535180
170.934845 -136.147293 2.390431 0.547433
170.934845 -136.147278 1.609569 0.558511
170.934830 -136.147293 0.827871 0.518929
170.934830 -136.147293 0.043655 0.538399
165.284515 -139.307343 -0.000015 0.223404
161.878677 -141.212128 -0.000011 0.208588
159.704346 -142.428162 -0.000008 0.245485
158.193115 -143.273346 -0.000006 0.216594
157.079697 -143.896042 -0.000005 0.199037
170.933716 -136.338013 7.953008 0.577813
170.934662 -136.337494 7.133139 0.587671
170.934647 -136.337509 6.324513 0.578622
170.935028 -136.337296 5.525537 0.566400
170.934860 -136.337387 4.734176 0.560784
170.934845 -136.337402 3.948783 0.568872
170.934845 -136.337402 3.167598 0.553735
170.934845 -136.337402 2.388921 0.533822
170.934845 -136.337402 1.611079 0.568597
170.934845 -136.337402 0.832401 0.539467
170.934845 -136.337402 0.051216 0.564385
165.343384 -139.413483 -0.000015 0.230752
161.924332 -141.294434 -0.000011 0.204172
159.741577 -142.495270 -0.000008 0.258470
158.224472 -143.329880 -0.000006 0.255634
157.106735 -143.944794 -0.000005 0.236808
170.935745 -136.525558 7.930952 0.530739
170.934525 -136.526230 7.113589 0.525307
170.934570 -136.526199 6.308056 0.565103
170.934998 -136.525970 5.512125 0.565560
170.934845 -136.526047 4.723780 0.542519
170.934845 -136.526047 3.941375 0.565774
170.934845 -136.526047 3.163159 0.522423
170.934845 -136.526047 2.387443 0.518929
170.934845 -136.526047 1.612557 0.591928
170.934845 -136.526047 0.836841 0.566171
170.934845 -136.526047 0.058624 0.543206
165.401520 -139.520020 -0.000015 0.236042
161.969421 -141.377075 -0.000011 0.252833
159.778320 -142.562622 -0.000008 0.286870
158.255432 -143.386642 -0.000006 0.223476
157.133438 -143.993729 -0.000006 0.228646
170.935562 -136.712906 7.908725 0.547555
170.934418 -136.713516 7.094442 0.565530
170.934494 -136.713470 6.291934 0.562310
170.934952 -136.713226 5.498987 0.576226
170.934830 -136.713287 4.713594 0.549554
170.934845 -136.713287 3.934116 0.577447
170.934845 -136.713287 3.158810 0.518990
170.934845 -136.713287 2.385994 0.526253
170.934845 -136.713287 1.614006 0.589395
170.934845 -136.713287 0.841190 0.571054
170.934845 -136.713287 0.065883 0.526894
165.458908 -139.626968 -0.000015 0.236892
162.013931 -141.460007 -0.000011 0.227629
159.814606 -142.630249 -0.000008 0.225319
158.285995 -143.443604 -0.000006 0.234821
157.159790 -144.042847 -0.000006 0.182199
170.935425 -136.898834 7.886960 0.544854
170.934326 -136.899414 7.075690 0.620447
170.934448 -136.899338 6.276144 0.559442
170.934921 -136.899094 5.486118 0.583825
170.934814 -136.899155 4.703616 0.520348
170.934845 -136.899139 3.927005 0.572061
170.934845 -136.899139 3.154549 0.553872
170.934845 -136.899139 2.384575 0.531502
170.934845 -136.899139 1.615425 0.628717
170.934845 -136.899139 0.845450 0.576349
170.934845 -136.899139 0.072995 0.524697
165.515549 -139.734314 -0.000015 0.220747
162.057846 -141.543259 -0.000011 0.223452
159.850418 -142.698120 -0.000008 0.229879
158.316162 -143.500778 -0.000006 0.224002
157.185806 -144.092148 -0.000005 0.215338
170.935303 -137.083389 7.865646 0.601358
170.934250 -137.083939 7.057327 0.573663
170.934418 -137.083862 6.260679 0.529961
170.934906 -137.083603 5.473513 0.541543
170.934814 -137.083649 4.693842 0.576898
170.934845 -137.083633 3.920039 0.581735
170.934845 -137.083633 3.150377 0.549325
170.934845 -137.083633 2.383185 0.593622
170.934845 -137.083633 1.616815 0.556359
170.934845 -137.083633 0.849624 0.601236
170.934845 -137.083633 0.079960 0.582788
165.571442 -139.842056 -0.000015 0.242900
162.101196 -141.626816 -0.000011 0.231973
159.885757 -142.766235 -0.000008 0.203621
158.345932 -143.558167 -0.000007 0.256555
157.211472 -144.141617 -0.000006 0.237969
170.935226 -137.266617 7.844780 0.567681
170.934204 -137.267136 7.039344 0.570336
170.934387 -137.267044 6.245533 0.570153
170.934891 -137.266785 5.461167 0.531868
170.934814 -137.266815 4.684270 0.578302
170.934845 -137.266815 3.913217 0.522789
170.934845 -137.266815 3.146288 0.540230
170.934845 -137.266815 2.381823 0.555993
170.934845 -137.266815 1.618177 0.604501
170.934845 -137.266815 0.853711 0.577325
170.934845 -137.266815 0.086784 0.546746
165.626572 -139.950180 -0.000015 0.213926
162.143951 -141.710678 -0.000011 0.207032
159.920609 -142.834595 -0.000008 0.247029
158.375305 -143.615753 -0.000007 0.250858
157.236801 -144.191284 -0.000005 0.190756
170.935181 -137.448532 7.824356 0.560281
170.934189 -137.449020 7.021740 0.548165
170.934372 -137.448929 6.230703 0.534951
170.934891 -137.448669 5.449079 0.532723
170.934814 -137.448715 4.674894 0.570901
170.934845 -137.448700 3.906535 0.522240
170.934845 -137.448700 3.142284 0.527825
170.934845 -137.448700 2.380490 0.517647
170.934845 -137.448700 1.619510 0.586038
170.934845 -137.448700 0.857715 0.561669
170.934845 -137.448700 0.093465 0.560113
165.680954 -140.058685 -0.000015 0.231877
162.186127 -141.794830 -0.000011 0.218593
159.954987 -142.903198 -0.000008 0.224948
158.404266 -143.673553 -0.000007 0.241093
157.261765 -144.241119 -0.000006 0.231614
170.935425 -137.629044 7.804433 0.557977
170.934357 -137.629562 7.004545 0.633799
170.934479 -137.629501 6.216206 0.579034
170.934937 -137.629288 5.437249 0.589395
170.934830 -137.629333 4.665716 0.552544
170.934845 -137.629333 3.899992 0.574075
170.934845 -137.629333 3.138365 0.567895
170.934845 -137.629333 2.379184 0.561151
170.934845 -137.629333 1.620816 0.570306
170.934845 -137.629333 0.861635 0.606867
170.934845 -137.629333 0.100008 0.568994
165.734558 -140.167572 -0.000015 0.222231
162.227707 -141.879272 -0.000011 0.226958
159.988892 -142.972046 -0.000008 0.203765
158.432831 -143.731552 -0.000006 0.224541
157.286392 -144.291122 -0.000005 0.199528
170.935425 -137.808456 7.784864 0.604746
170.934372 -137.808960 6.987675 0.603555
170.934479 -137.808899 6.201991 0.544793
170.934937 -137.808685 5.425660 0.578302
170.934830 -137.808746 4.656728 0.574166
170.934845 -137.808731 3.893585 0.551980
170.934845 -137.808731 3.134526 0.575616
170.934845 -137.808731 2.377905 0.517647
170.934845 -137.808731 1.622095 0.596674
170.934845 -137.808731 0.865473 0.565988
170.934845 -137.808731 0.106414 0.573846
165.787430 -140.276840 -0.000015 0.223081
162.268707 -141.964005 -0.000011 0.225415
160.022308 -143.041122 -0.000008 0.209186
158.460983 -143.789749 -0.000007 0.237765
157.310669 -144.341309 -0.000006 0.181648
170.935471 -137.986649 7.765715 0.578363
170.934402 -137.987152 6.971162 0.529778
170.934494 -137.987106 6.188076 0.565591
170.934937 -137.986893 5.414315 0.546822
170.934830 -137.986938 4.647930 0.535760
170.934845 -137.986938 3.887314 0.542763
170.934845 -137.986938 3.130769 0.564584
170.934845 -137.986938 2.376653 0.548531
170.934845 -137.986938 1.623346 0.572915
170.934845 -137.986938 0.869231 0.579004
170.934845 -137.986938 0.112686 0.562493
165.839523 -140.386459 -0.000016 0.242744
162.309097 -142.049026 -0.000011 0.246083
160.055237 -143.110428 -0.000009 0.299316
158.488724 -143.848145 -0.000007 0.251995
157.334595 -144.391647 -0.000005 0.231674
170.935532 -138.163666 7.746979 0.556191
170.934464 -138.164154 6.955007 0.568154
170.934540 -138.164124 6.174462 0.561028
170.934952 -138.163925 5.403212 0.549020
170.934845 -138.163986 4.639318 0.542443
170.934845 -138.163971 3.881175 0.547280
170.934845 -138.163971 3.127091 0.557656
170.934845 -138.163971 2.375429 0.519081
170.934845 -138.163971 1.624571 0.549355
170.934845 -138.163971 0.872909 0.522042
170.934845 -138.163971 0.118824 0.556344
165.890839 -140.496445 -0.000015 0.225690
162.348907 -142.134323 -0.000011 0.256998
160.087692 -143.179962 -0.000009 0.226827
158.516068 -143.906723 -0.000007 0.278193
157.358170 -144.442169 -0.000006 0.233649
170.935623 -138.339523 7.728652 0.551598
170.934525 -138.340027 6.939198 0.538186
170.934586 -138.339996 6.161139 0.538964
170.934967 -138.339813 5.392345 0.520409
170.934845 -138.339874 4.630890 0.534188
170.934845 -138.339874 3.875167 0.547967
170.934845 -138.339874 3.123491 0.554833
170.934845 -138.339874 2.374229 0.530434
170.934845 -138.339874 1.625770 0.556435
170.934845 -138.339874 0.876508 0.539590
170.934845 -138.339874 0.124833 0.552987
165.941406 -140.606781 -0.000015 0.246538
162.388123 -142.219894 -0.000011 0.244037
160.119659 -143.249725 -0.000009 0.249267
158.542999 -143.965500 -0.000007 0.224409
157.381393 -144.492844 -0.000006 0.245916
170.935745 -138.514267 7.710722 0.605951
170.934601 -138.514771 6.923732 0.553552
170.934631 -138.514755 6.148103 0.570962
170.934998 -138.514603 5.381713 0.561761
170.934845 -138.514664 4.622642 0.560235
170.934845 -138.514664 3.869288 0.603326
170.934845 -138.514664 3.119969 0.584070
170.934845 -138.514664 2.373056 0.536400
170.934845 -138.514664 1.626944 0.565164
170.934845 -138.514664 0.880031 0.554757
170.934845 -138.514664 0.130711 0.558053
165.991196 -140.717484 -0.000015 0.225127
162.426727 -142.305740 -0.000011 0.242505
160.151138 -143.319702 -0.000008 0.216307
158.569519 -144.024445 -0.000007 0.213985
157.404251 -144.543671 -0.000006 0.197230
170.935883 -138.687912 7.693191 0.571679
170.934708 -138.688431 6.908607 0.533455
170.934692 -138.688431 6.135353 0.548043
170.935013 -138.688293 5.371312 0.603922
170.934860 -138.688354 4.614573 0.573983
170.934845 -138.688370 3.863537 0.572213
170.934845 -138.688370 3.116523 0.543191
170.934845 -138.688370 2.371908 0.525994
170.934845 -138.688370 1.628092 0.569268
170.934845 -138.688370 0.883477 0.530999
170.934845 -138.688370 0.136462 0.528450
166.040207 -140.828506 -0.000015 0.240829
162.464737 -142.391846 -0.000011 0.225307
160.182129 -143.389908 -0.000009 0.201192
158.595627 -144.083588 -0.000007 0.236652
157.426758 -144.594666 -0.000006 0.255191
170.934082 -138.861343 7.675512 0.556558
170.934830 -138.861023 6.893817 0.526146
170.934769 -138.861053 6.122881 0.554467
170.935043 -138.860931 5.361140 0.546014
170.934875 -138.861008 4.606681 0.567880
170.934845 -138.861023 3.857910 0.546883
170.934845 -138.861023 3.113153 0.558206
170.934845 -138.861023 2.370786 0.535363
170.934845 -138.861023 1.629214 0.517647
170.934845 -138.861023 0.886847 0.560113
170.934845 -138.861023 0.142089 0.530129
166.088440 -140.939896 -0.000015 0.210946
162.502151 -142.478226 -0.000011 0.212262
160.212616 -143.460327 -0.000009 0.217935
158.621323 -144.142914 -0.000007 0.220017
157.448914 -144.645828 -0.000006 0.211735
170.934296 -139.032867 7.658759 0.517647
170.934967 -139.032578 6.879355 0.563272
170.934845 -139.032623 6.110688 0.579721
170.935089 -139.032532 5.351192 0.526833
170.934875 -139.032623 4.598964 0.536507
170.934845 -139.032623 3.852408 0.572488
170.934845 -139.032623 3.109855 0.597589
170.934845 -139.032623 2.369688 0.519234
170.934845 -139.032623 1.630312 0.560784
170.934845 -139.032623 0.890144 0.550698
170.934845 -139.032623 0.147591 0.521691
166.135895 -141.051590 -0.000015 0.221190
162.538956 -142.564865 -0.000011 0.229855
160.242630 -143.530960 -0.000009 0.236688
158.646591 -144.202423 -0.000007 0.192659
157.470703 -144.697128 -0.000006 0.229268
170.934509 -139.203369 7.642387 0.555032
170.935120 -139.203125 6.865218 0.580179
170.934937 -139.203201 6.098766 0.552926
170.935135 -139.203125 5.341466 0.549783
170.934891 -139.203217 4.591417 0.537255
170.934845 -139.203247 3.847028 0.533700
170.934845 -139.203247 3.106632 0.578103
170.934845 -139.203247 2.368614 0.536187
170.934845 -139.203247 1.631386 0.539223
170.934845 -139.203247 0.893367 0.534798
170.934845 -139.203247 0.152971 0.551965
166.182571 -141.163635 -0.000015 0.218186
162.575150 -142.651749 -0.000011 0.219538
160.272141 -143.601791 -0.000009 0.222399
158.671448 -144.262100 -0.000007 0.224924
157.492142 -144.748581 -0.000006 0.196728
170.934769 -139.372910 7.626389 0.560189
170.935272 -139.372696 6.851404 0.546441
170.935028 -139.372803 6.087115 0.551965
170.934555 -139.372986 5.331859 0.518380
170.934906 -139.372849 4.584039 0.537621
170.934845 -139.372879 3.841769 0.532204
170.934845 -139.372864 3.103482 0.591455
170.934845 -139.372879 2.367565 0.537621
170.934845 -139.372879 1.632436 0.555001
170.934845 -139.372864 0.896518 0.551019
170.934845 -139.372864 0.158229 0.573648
166.228470 -141.276001 -0.000016 0.224565
162.610748 -142.738892 -0.000012 0.246825
160.301147 -143.672821 -0.000009 0.267494
158.695892 -144.321945 -0.000007 0.242206
157.513229 -144.800186 -0.000006 0.239070
170.935043 -139.541473 7.610760 0.571847
170.935455 -139.541306 6.837904 0.539956
170.935135 -139.541428 6.075729 0.545953
170.934616 -139.541641 5.322570 0.544060
170.934906 -139.541519 4.576828 0.520256
170.934845 -139.541550 3.836629 0.519417
170.934845 -139.541550 3.100402 0.548730
170.934845 -139.541550 2.366539 0.529442
170.934845 -139.541550 1.633461 0.536797
170.934845 -139.541550 0.899598 0.567285
170.934845 -139.541550 0.163370 0.575143
166.273560 -141.388672 -0.000015 0.249733
162.645721 -142.826279 -0.000011 0.230477
160.329666 -143.744064 -0.000009 0.230298
158.719925 -144.381958 -0.000007 0.225857
157.533936 -144.851929 -0.000006 0.203035
170.935333 -139.709106 7.595494 0.552377
170.934189 -139.709549 6.824382 0.534035
170.935242 -139.709137 6.064606 0.554086
170.934662 -139.709366 5.313493 0.517891
170.934921 -139.709259 4.569784 0.554589
170.934845 -139.709290 3.831607 0.517830
170.934845 -139.709290 3.097393 0.568017
170.934845 -139.709290 2.365536 0.539117
170.934845 -139.709290 1.634464 0.549020
170.934845 -139.709290 0.902607 0.522301
170.934845 -139.709290 0.168391 0.593133
166.317886 -141.501663 -0.000015 0.223380
162.680099 -142.913910 -0.000012 0.214727
160.357697 -143.815506 -0.000009 0.272293
158.743530 -144.442139 -0.000007 0.191570
157.554291 -144.903824 -0.000006 0.211640
170.935638 -139.875824 7.580590 0.519051
170.934402 -139.876297 6.811509 0.568627
170.935364 -139.875931 6.053741 0.600977
170.934723 -139.876175 5.304627 0.559121
170.934937 -139.876099 4.562902 0.582895
170.934845 -139.876129 3.826701 0.549661
170.934845 -139.876129 3.094453 0.585519
170.934845 -139.876129 2.364557 0.547555
170.934845 -139.876129 1.635443 0.549493
170.934845 -139.876129 0.905546 0.562127
170.934845 -139.876129 0.173298 0.580911
166.361420 -141.614960 -0.000015 0.245377
162.713867 -143.001770 -0.000012 0.224385
160.385208 -143.887131 -0.000009 0.255143
158.766724 -144.502487 -0.000007 0.214213
157.574280 -144.955856 -0.000005 0.220077
170.934113 -140.042358 7.565545 0.556252
170.934631 -140.042160 6.798941 0.575006
170.934494 -140.042221 6.042939 0.576028
170.934799 -140.042114 5.295969 0.608026
170.934769 -140.042114 4.556158 0.550927
170.934845 -140.042084 3.821909 0.557977
170.934845 -140.042084 3.091582 0.581277
170.934845 -140.042084 2.363601 0.544350
170.934845 -140.042084 1.636399 0.558434
170.934845 -140.042084 0.908417 0.555642
170.934845 -140.042084 0.178089 0.553170
166.404144 -141.728561 -0.000015 0.228311
162.747009 -143.089874 -0.000012 0.238101
160.412231 -143.958954 -0.000009 0.237442
158.789490 -144.563004 -0.000007 0.278887
157.593918 -145.008026 -0.000005 0.266393
170.934479 -140.207306 7.551351 0.562234
170.934875 -140.207169 6.786673 0.574762
170.934631 -140.207260 6.032585 0.572137
170.934860 -140.207169 5.287518 0.550988
170.934784 -140.207199 4.549596 0.560052
170.934845 -140.207184 3.817231 0.604532
170.934845 -140.207184 3.088779 0.567987
170.934845 -140.207184 2.362667 0.537438
170.934845 -140.207184 1.637333 0.554040
170.934845 -140.207184 0.911220 0.588083
170.934845 -140.207184 0.182768 0.568383
166.446091 -141.842453 -0.000015 0.259667
162.779526 -143.178207 -0.000012 0.240817
160.438751 -144.030960 -0.000009 0.210886
158.811829 -144.623672 -0.000007 0.230082
157.613174 -145.060333 -0.000006 0.210287
170.934875 -140.371429 7.537506 0.581735
170.935120 -140.371338 6.774704 0.569909
170.934784 -140.371460 6.022482 0.545586
170.934937 -140.371399 5.279268 0.556985
170.934799 -140.371460 4.543192 0.590051
170.934845 -140.371429 3.812666 0.538079
170.934845 -140.371429 3.086044 0.599954
170.934845 -140.371429 2.361756 0.563058
170.934845 -140.371429 1.638244 0.557931
170.934845 -140.371429 0.913956 0.600366
170.934845 -140.371429 0.187334 0.602457
166.487244 -141.956635 -0.000015 0.223990
162.811447 -143.266754 -0.000012 0.220149
160.464767 -144.103165 -0.000009 0.258410
158.833740 -144.684479 -0.000007 0.197685
157.632080 -145.112778 -0.000006 0.238926
170.935272 -140.534729 7.524002 0.591974
170.935394 -140.534683 6.763030 0.532357
170.934952 -140.534836 6.012627 0.533257
170.935013 -140.534821 5.271220 0.555413
170.934814 -140.534882 4.536944 0.547097
170.934845 -140.534882 3.808210 0.560906
170.934845 -140.534882 3.083375 0.579736
170.934845 -140.534882 2.360867 0.570932
170.934845 -140.534882 1.639133 0.581521
170.934845 -140.534882 0.916625 0.583062
170.934845 -140.534882 0.191789 0.549874
166.527588 -142.071106 -0.000015 0.235970
162.842743 -143.355530 -0.000012 0.239752
160.490280 -144.175537 -0.000009 0.249231
158.855225 -144.745453 -0.000007 0.264382
157.650604 -145.165344 -0.000006 0.184173
170.935684 -140.697235 7.510836 0.568154
170.934280 -140.697723 6.751331 0.547372
170.935104 -140.697433 6.003014 0.541573
170.935089 -140.697449 5.263370 0.560784
170.934845 -140.697525 4.530849 0.555611
170.934845 -140.697525 3.803864 0.532433
170.934845 -140.697525 3.080771 0.577356
170.934845 -140.697525 2.360000 0.570596
170.934845 -140.697525 1.640000 0.549859
170.934845 -140.697525 0.919229 0.575006
170.934845 -140.697525 0.196135 0.568627
166.567139 -142.185852 -0.000015 0.219826
162.873413 -143.444534 -0.000012 0.241116
160.515274 -144.248077 -0.000009 0.238998
158.876297 -144.806580 -0.000007 0.220855
157.668777 -145.218048 -0.000006 0.286295
170.971329 -140.847260 7.507299 0.563821
170.971329 -140.847260 6.748602 0.547250
170.971329 -140.847260 6.000556 0.554330
170.971329 -140.847260 5.261371 0.545190
170.971329 -140.847260 4.529329 0.542687
170.934845 -140.859406 3.799627 0.726864
170.934845 -140.859406 3.078232 0.560784
170.934845 -140.859406 2.359155 0.545617
170.934845 -140.859406 1.640846 0.568627
170.934845 -140.859406 0.921767 0.577691
170.934845 -140.859406 0.200372 0.532692
166.605881 -142.300873 -0.000015 0.215362
162.903458 -143.533737 -0.000012 0.238735
160.539780 -144.320801 -0.000009 0.218497
158.896942 -144.867844 -0.000007 0.272652
157.686569 -145.270874 -0.000006 0.227126
171.358200 -140.882828 7.596566 0.693721
171.358200 -140.882828 6.825569 0.692256
171.358200 -140.882828 6.065399 0.689464
171.467667 -140.847229 5.331306 0.528893
171.467667 -140.847229 4.583568 0.518959
171.158691 -140.947723 3.814797 0.819974
170.992905 -141.001648 3.078757 0.690974
170.992905 -141.001648 2.359329 0.690822
171.176300 -140.941986 1.637516 0.839216
171.176300 -140.941986 0.911769 0.839216
171.176300 -140.941986 0.183683 0.839216
166.643829 -142.416168 -0.000015 0.211759
162.932892 -143.623138 -0.000012 0.247400
160.563766 -144.393692 -0.000010 0.219514
158.917145 -144.929245 -0.000007 0.219191
157.703995 -145.323822 -0.000006 0.232117
171.772064 -140.915070 7.692789 0.781628
171.883240 -140.879761 6.933733 0.714870
171.883240 -140.879761 6.156523 0.689311
171.883240 -140.879761 5.388519 0.691722
171.883240 -140.879761 4.627937 0.687251
171.671021 -140.947144 3.854806 0.826032
171.623093 -140.962372 3.108821 0.678431
171.670807 -140.947220 2.370162 0.824628
171.622940 -140.962418 1.630659 0.678431
171.622925 -140.962418 0.891186 0.678431
171.533203 -140.990921 0.157050 0.716167
166.680969 -142.531723 -0.000015 0.231147
162.961685 -143.712753 -0.000012 0.215948
160.587250 -144.466751 -0.000009 0.225893
158.936935 -144.990799 -0.000008 0.224170
157.721039 -145.376892 -0.000006 0.218773
172.220062 -140.942352 7.797816 0.690288
172.646790 -140.810120 7.095587 0.709239
172.646805 -140.810120 6.292881 0.710414
172.576538 -140.831894 5.488770 0.678431
172.576538 -140.831894 4.705687 0.686946
172.125366 -140.971695 3.889749 0.823774
172.155441 -140.962372 3.133774 0.678431
172.204315 -140.947235 2.378492 0.828931
172.155273 -140.962433 1.622348 0.678431
172.155289 -140.962418 0.866232 0.678431
172.204315 -140.947235 0.103472 0.824567
166.717300 -142.647522 -0.000015 0.234953
162.989868 -143.802567 -0.000012 0.245162
160.610214 -144.539963 -0.000009 0.214739
158.956268 -145.052490 -0.000007 0.247100
157.737732 -145.430084 -0.000006 0.218713
173.093231 -140.847244 8.013933 0.537453
173.139420 -140.833282 7.195861 0.671290
173.201050 -140.814667 6.389072 0.722927
173.144135 -140.831863 5.569282 0.680323
173.144135 -140.831863 4.768127 0.680323
172.584015 -141.001160 3.925004 0.824063
172.712311 -140.962372 3.159935 0.678431
172.762405 -140.947235 2.387226 0.824552
172.712158 -140.962418 1.613633 0.678431
172.712158 -140.962418 0.840072 0.678431
172.762405 -140.947235 0.059715 0.827451
166.752823 -142.763580 -0.000015 0.209378
163.017410 -143.892578 -0.000012 0.242517
160.632675 -144.613342 -0.000009 0.250439
158.975189 -145.114304 -0.000007 0.225654
157.754044 -145.483383 -0.000006 0.256076
173.686295 -140.847244 8.156284 0.555062
173.469238 -140.911209 7.259307 0.690486
173.754791 -140.827072 6.484977 0.696605
173.556168 -140.885590 5.625570 0.686244
173.738556 -140.831848 4.833655 0.678676
173.169250 -140.999588 3.971024 0.824125
173.295532 -140.962387 3.187390 0.678431
173.346893 -140.947250 2.396390 0.825299
173.295395 -140.962433 1.604488 0.678431
173.295380 -140.962433 0.812617 0.678431
173.346893 -140.947250 0.013791 0.823957
166.787521 -142.879883 -0.000015 0.229232
163.044327 -143.982773 -0.000012 0.221573
160.654617 -144.686874 -0.000009 0.238902
158.993683 -145.176254 -0.000007 0.242828
157.769989 -145.536789 -0.000006 0.277606
174.308212 -140.847229 8.305870 0.552926
173.959793 -140.947250 7.358868 0.722774
174.324646 -140.842514 6.583756 0.690105
174.324661 -140.842514 5.736814 0.690105
174.324661 -140.842514 4.898055 0.695811
173.964294 -140.945953 4.034847 0.823102
173.934601 -140.954483 3.217645 0.821668
173.934601 -140.954483 2.405591 0.827451
173.934601 -140.954483 1.594408 0.839216
173.934601 -140.954483 0.782354 0.839216
173.556046 -141.063156 -0.000022 0.225822
166.821426 -142.996429 -0.000015 0.223428
163.070618 -144.073166 -0.000012 0.252689
160.676056 -144.760559 -0.000009 0.227485
159.011734 -145.238327 -0.000007 0.239501
157.785553 -145.590317 -0.000006 0.240853
174.782501 -140.897141 8.416768 0.720333
174.813080 -140.888596 7.539638 0.793683
174.830566 -140.883698 6.670283 0.678431
174.960999 -140.847244 5.827440 0.593118
174.960999 -140.847244 4.968340 0.571008
174.606567 -140.946320 4.085509 0.825437
174.548965 -140.962418 3.246578 0.678431
174.447083 -140.990891 2.413498 0.693339
174.740173 -140.908966 1.581522 0.678431
174.740158 -140.908966 0.743669 0.678431
173.602463 -141.226990 -0.000022 0.225881
166.854507 -143.113205 -0.000015 0.239369
163.096268 -144.163727 -0.000012 0.202161
160.696960 -144.834381 -0.000009 0.227940
159.029358 -145.300522 -0.000007 0.230908
157.800751 -145.643951 -0.000006 0.226205
175.089233 -140.999039 8.484049 0.694606
175.349960 -140.928116 7.649152 0.735683
175.279724 -140.947235 6.745997 0.680858
175.279709 -140.947235 5.869074 0.697978
175.279709 -140.947235 5.000628 0.693019
175.268646 -140.950241 4.137758 0.824872
175.223862 -140.962418 3.278541 0.678431
175.119232 -140.990875 2.424101 0.714824
175.420303 -140.908981 1.570793 0.565423
175.420303 -140.908981 0.711458 0.463661
173.647736 -141.391144 -0.000022 0.224780
166.886765 -143.230209 -0.000015 0.237526
163.121292 -144.254471 -0.000012 0.238400
160.717361 -144.908356 -0.000009 0.223033
159.046539 -145.362839 -0.000007 0.245257
157.815567 -145.697693 -0.000006 0.225630
175.971924 -140.952484 8.700626 0.709331
176.010315 -140.942322 7.786109 0.594293
176.584961 -140.790314 6.982782 0.730358
176.427750 -140.831894 6.037987 0.678431
176.223175 -140.886017 5.107283 0.688106
175.797928 -140.998505 4.178649 0.830060
175.991852 -140.947205 3.315175 0.820554
175.991791 -140.947220 2.438077 0.832624
175.991791 -140.947220 1.561923 0.822522
175.991791 -140.947220 0.684828 0.823514
173.691849 -141.555618 -0.000022 0.233696
166.918213 -143.347443 -0.000015 0.231794
163.145691 -144.345383 -0.000012 0.212705
160.737244 -144.982483 -0.000009 0.252474
159.063293 -145.425293 -0.000008 0.222937
157.830002 -145.751526 -0.000006 0.197123
177.131439 -140.847214 8.988325 0.555947
177.131363 -140.847244 8.025579 0.553048
177.499710 -140.752548 7.145574 0.685542
177.166534 -140.838196 6.143795 0.695079
177.138702 -140.845352 5.210379 0.675776
177.131378 -140.847229 4.287579 0.522393
176.730392 -140.950317 3.350245 0.696681
176.651245 -140.970657 2.448422 0.688045
176.683380 -140.962402 1.551034 0.678431
176.683365 -140.962402 0.652140 0.678431
173.734833 -141.720398 -0.000022 0.227270
166.948853 -143.464874 -0.000015 0.225798
163.169434 -144.436462 -0.000012 0.225702
160.756607 -145.056732 -0.000010 0.257477
159.079605 -145.487839 -0.000007 0.187644
157.844070 -145.805466 -0.000006 0.205380
177.935623 -140.847214 9.183596 0.546273
177.935501 -140.847244 8.193939 0.552941
177.708572 -140.903885 7.175652 0.698543
177.708588 -140.903885 6.219344 0.693065
177.708588 -140.903885 5.272277 0.730175
177.935547 -140.847229 4.351497 0.573236
177.360031 -140.990906 3.379740 0.701396
177.474319 -140.962372 2.461513 0.684459
177.474289 -140.962372 1.538488 0.678431
177.474289 -140.962372 0.614475 0.678431
173.776642 -141.885468 -0.000022 0.238843
166.978653 -143.582535 -0.000015 0.245042
163.192551 -144.527710 -0.000012 0.220544
160.775452 -145.131119 -0.000010 0.251277
159.095490 -145.550507 -0.000008 0.218246
157.857773 -145.859497 -0.000006 0.217480
nan nan nan 0.000000
178.785934 -140.847229 8.372300 0.571389
178.393387 -140.942322 7.294982 0.689265
178.393402 -140.942322 6.316627 0.677195
178.785919 -140.847244 5.394186 0.533730
178.785934 -140.847229 4.419207 0.569070
178.373245 -140.947205 3.428589 0.819013
178.215134 -140.985504 2.473193 0.678431
178.215729 -140.985367 1.526796 0.695766
178.215729 -140.985367 0.579373 0.695933
173.817307 -142.050827 -0.000022 0.232739
167.007645 -143.700394 -0.000015 0.234247
163.215042 -144.619110 -0.000012 0.222387
160.793793 -145.205627 -0.000010 0.217312
159.110931 -145.613281 -0.000007 0.226779
157.871078 -145.913635 -0.000006 0.216463
nan nan nan 0.000000
nan nan nan 0.000000
nan nan nan 0.000000
nan nan nan 0.000000
186.991516 -139.131653 6.358200 0.522240
242.322449 -126.136612 9.766632 0.349752
178.805344 -141.054260 3.448017 0.679881
178.807693 -141.053711 2.482368 0.681056
233.280334 -128.260239 0.601992 0.502861
189.744293 -138.485138 -0.000036 0.228275
173.856827 -142.216461 -0.000022 0.231710
167.035797 -143.818451 -0.000015 0.233062
163.236877 -144.710678 -0.000012 0.219359
160.811584 -145.280273 -0.000010 0.198798
159.125931 -145.676178 -0.000008 0.245772
157.884018 -145.967850 -0.000006 0.249745
nan nan nan 0.000000
nan nan nan 0.000000
nan nan nan 0.000000
nan nan nan 0.000000
188.282578 -139.109161 6.503490 0.510948
242.303680 -126.819046 9.752527 0.357168
188.292114 -139.106995 3.923646 0.526711
234.911377 -128.500839 3.423125 0.642802
233.280334 -128.871918 0.604248 0.585138
189.808304 -138.762054 -0.000036 0.229412
173.895172 -142.382385 -0.000021 0.239609
167.063141 -143.936707 -0.000015 0.221956
163.258087 -144.802383 -0.000012 0.222686
160.828873 -145.355042 -0.000010 0.207942
159.140488 -145.739151 -0.000007 0.235623
157.896561 -146.022156 -0.000006 0.225474
nan nan nan 0.000000
nan nan nan 0.000000
nan nan nan 0.000000
nan nan nan 0.000000
187.108185 -139.647568 6.358122 0.512367
188.515854 -139.337631 5.224440 0.515648
187.022324 -139.666473 3.856767 0.511772
189.100830 -139.208847 2.653307 0.506264
233.398590 -129.455597 0.604445 0.623621
189.870392 -139.039398 -0.000036 0.228670
173.932373 -142.548553 -0.000021 0.228574
167.089645 -144.055145 -0.000015 0.228945
163.278641 -144.894241 -0.000012 0.266058
160.845642 -145.429916 -0.000009 0.218856
159.154617 -145.802246 -0.000008 0.209737
157.908737 -146.076553 -0.000006 0.219311
nan nan nan 0.000000
nan nan nan 0.000000
nan nan nan 0.000000
nan nan nan 0.000000
187.505417 -139.833420 6.398261 0.512123
188.529007 -139.615524 5.220671 0.519905
187.143753 -139.910400 3.860061 0.540597
189.892212 -139.325348 2.665561 0.511986
234.084930 -129.918213 0.595070 0.503380
189.930542 -139.317184 -0.000036 0.229795
173.968399 -142.714996 -0.000021 0.228921
167.115326 -144.173767 -0.000015 0.208887
163.298553 -144.986237 -0.000012 0.235228
160.861877 -145.504929 -0.000010 0.216451
159.168289 -145.865433 -0.000008 0.229651
157.920532 -146.131027 -0.000006 0.220723
nan nan nan 0.000000
nan nan nan 0.000000
nan nan nan 0.000000
188.353241 -139.931610 7.791325 0.509957
187.888275 -140.027191 6.436805 0.510826
188.542786 -139.892639 5.217124 0.507027
187.531601 -140.100525 3.876799 0.524605
189.603241 -139.674637 2.659762 0.513817
234.911438 -130.360214 0.583314 0.602014
189.988739 -139.595383 -0.000035 0.231099
174.003281 -142.881668 -0.000021 0.227389
167.140198 -144.292572 -0.000015 0.217899
163.317841 -145.078369 -0.000012 0.226193
160.877594 -145.580032 -0.000010 0.218761
159.181534 -145.928711 -0.000008 0.256172
157.931946 -146.185593 -0.000006 0.216116
nan nan nan 0.000000
nan nan nan 0.000000
188.473587 -140.185623 9.116241 0.522667
187.681335 -140.342728 7.681559 0.517342
187.867035 -140.305908 6.428065 0.515145
189.422150 -139.997513 5.286099 0.510292
187.484177 -140.381836 3.871780 0.504189
189.388412 -140.004196 2.655249 0.517647
235.114197 -130.936172 0.581926 0.662974
190.045013 -139.873978 -0.000036 0.228909
174.036987 -143.048584 -0.000021 0.219754
167.164215 -144.411545 -0.000015 0.216403
163.336472 -145.170639 -0.000012 0.235719
160.892776 -145.655258 -0.000010 0.242708
159.194321 -145.992081 -0.000007 0.226588
157.942993 -146.240234 -0.000006 0.211879
nan nan nan 0.000000
nan nan nan 0.000000
188.957153 -140.371201 9.196156 0.515496
187.272720 -140.693039 7.612132 0.496941
187.772736 -140.597504 6.411005 0.509789
189.063721 -140.350830 5.251715 0.496437
186.519348 -140.836975 3.820981 0.506142
186.739517 -140.794907 2.610228 0.512093
234.823395 -131.607666 0.588697 0.632410
190.099335 -140.152969 -0.000036 0.229807
174.069519 -143.215729 -0.000021 0.221118
167.187408 -144.530685 -0.000015 0.219143
163.354462 -145.263031 -0.000012 0.206577
160.907440 -145.730576 -0.000010 0.200928
159.206680 -146.055527 -0.000007 0.286654
157.953644 -146.294952 -0.000006 0.219754
nan nan nan 0.000000
nan nan nan 0.000000
189.087570 -140.627945 9.210869 0.505882
187.708664 -140.881439 7.670543 0.507408
187.929352 -140.840881 6.423556 0.505882
242.204254 -130.862946 9.677756 0.326390
186.392944 -141.123322 3.812285 0.509667
190.446793 -140.378067 2.671113 0.518364
234.911438 -132.203659 0.589078 0.561120
190.151688 -140.432312 -0.000036 0.229627
174.100891 -143.383102 -0.000021 0.225187
167.209778 -144.649979 -0.000015 0.234809
163.371796 -145.355545 -0.000012 0.235384
160.921585 -145.806000 -0.000010 0.279485
159.218597 -146.119080 -0.000008 0.226336
157.963913 -146.349731 -0.000006 0.275632
nan nan nan 0.000000
nan nan nan 0.000000
nan nan nan 0.000000
187.144714 -141.252060 7.578464 0.511955
189.580063 -140.821899 6.610832 0.510781
187.607788 -141.170273 5.122151 0.516075
187.475433 -141.193649 3.864009 0.510781
234.911423 -132.814911 3.409149 0.647593
234.911438 -132.814911 0.590853 0.618509
190.202103 -140.712036 -0.000035 0.227832
174.131104 -143.550690 -0.000021 0.224804
167.231293 -144.769424 -0.000015 0.219862
163.388489 -145.448181 -0.000012 0.241775
160.935196 -145.881516 -0.000010 0.266464
159.230057 -146.182693 -0.000008 0.236533
157.973801 -146.404587 -0.000006 0.194693
nan nan nan 0.000000
nan nan nan 0.000000
189.037598 -141.197617 9.183886 0.503853
187.314331 -141.489609 7.597245 0.513909
188.597931 -141.272110 6.490669 0.514824
189.922516 -141.047668 5.310884 0.609049
186.516418 -141.624802 3.813974 0.522683
188.920105 -141.217529 2.644121 0.564462
188.852310 -141.229019 1.357004 0.564584
188.797607 -141.238281 0.072361 0.581140
174.160141 -143.718491 -0.000021 0.235528
167.251999 -144.889008 -0.000015 0.215625
163.404541 -145.540939 -0.000012 0.219108
160.948273 -145.957123 -0.000010 0.224996
159.241089 -146.246399 -0.000008 0.239333
157.983307 -146.459518 -0.000006 0.204626
nan nan nan 0.000000
nan nan nan 0.000000
nan nan nan 0.000000
188.403778 -141.579697 7.754489 0.507485
189.488983 -141.403610 6.589321 0.509606
187.770432 -141.682465 5.128284 0.512901
186.207458 -141.936096 3.796498 0.509941
190.579300 -141.226685 2.670882 0.513054
234.911423 -134.032959 0.594183 0.590005
190.297058 -141.272476 -0.000035 0.228239
174.188004 -143.886475 -0.000021 0.226851
167.271851 -145.008743 -0.000015 0.221166
163.419937 -145.633789 -0.000012 0.265435
160.960831 -146.032837 -0.000010 0.228119
159.251663 -146.310181 -0.000008 0.281053
157.992416 -146.514511 -0.000006 0.227030
nan nan nan 0.000000
nan nan nan 0.000000
nan nan nan 0.000000
189.040039 -141.755081 7.843625 0.514153
189.391876 -141.700500 6.572934 0.504891
187.481659 -141.996796 5.100858 0.506691
189.511612 -141.681931 3.958772 0.587182
190.748520 -141.490082 2.672940 0.517220
234.911407 -134.639908 0.595739 0.660685
190.341599 -141.553192 -0.000035 0.229053
174.214691 -144.054657 -0.000021 0.239321
167.290878 -145.128616 -0.000015 0.234199
163.434692 -145.726761 -0.000012 0.211759
160.972855 -146.108612 -0.000010 0.255945
159.261795 -146.374023 -0.000008 0.241188
158.001160 -146.569565 -0.000006 0.223572
nan nan nan 0.000000
nan nan nan 0.000000
nan nan nan 0.000000
188.558655 -142.104324 7.765264 0.511864
188.738770 -142.077667 6.492147 0.498939
187.623291 -142.242737 5.109319 0.511299
187.336914 -142.285110 3.848702 0.519417
190.913864 -141.755829 2.674965 0.512245
199.568542 -140.475189 1.181870 0.661433
190.384186 -141.834198 -0.000035 0.230154
174.240204 -144.223022 -0.000021 0.240530
167.309067 -145.248627 -0.000015 0.227330
163.448792 -145.819824 -0.000012 0.215852
160.984360 -146.184494 -0.000010 0.262563
159.271484 -146.437943 -0.000007 0.238998
158.009506 -146.624680 -0.000006 0.229029
nan nan nan 0.000000
nan nan nan 0.000000
nan nan nan 0.000000
188.896362 -142.330780 7.810040 0.512428
188.307999 -142.413635 6.437576 0.510109
187.603775 -142.512817 5.104570 0.506050
187.688049 -142.500961 3.864259 0.515053
191.077744 -142.023544 2.676991 0.519783
199.568558 -140.827667 1.182693 0.688151
190.424805 -142.115509 -0.000035 0.233373
174.264542 -144.391556 -0.000021 0.233888
167.326401 -145.368744 -0.000015 0.242589
163.462250 -145.912994 -0.000011 0.212406
160.995331 -146.260437 -0.000010 0.241547
159.280716 -146.501923 -0.000007 0.215350
158.017471 -146.679840 -0.000006 0.211616
nan nan nan 0.000000
nan nan nan 0.000000
nan nan nan 0.000000
188.595398 -142.646912 7.759435 0.507240
189.749374 -142.492584 6.600618 0.522286
187.584381 -142.782104 5.099991 0.510628
187.578094 -142.782944 3.857024 0.509117
188.123291 -142.710037 2.627567 0.541405
199.568542 -141.179474 1.183477 0.629313
190.463455 -142.397095 -0.000035 0.231566
174.287704 -144.560272 -0.000021 0.241523
167.342911 -145.488998 -0.000015 0.218054
163.475052 -146.006241 -0.000011 0.220699
161.005753 -146.336456 -0.000010 0.231698
159.289520 -146.565979 -0.000008 0.272424
158.025055 -146.735077 -0.000006 0.258566
nan nan nan 0.000000
nan nan nan 0.000000
nan nan nan 0.000000
199.568573 -141.530594 9.394917 0.641871
188.877380 -142.884415 6.495323 0.511254
188.094086 -142.983612 5.139304 0.505882
187.024155 -143.119095 3.827905 0.518303
199.568573 -141.530594 2.815783 0.633310
199.568573 -141.530594 1.184219 0.624338
190.500137 -142.678925 -0.000035 0.229125
174.309677 -144.729126 -0.000021 0.223727
167.358582 -145.609344 -0.000015 0.242397
163.487213 -146.099579 -0.000012 0.253683
161.015671 -146.412552 -0.000010 0.244300
159.297852 -146.630081 -0.000008 0.233289
158.032257 -146.790344 -0.000006 0.253395
nan nan nan 0.000000
nan nan nan 0.000000
nan nan nan 0.000000
199.568573 -141.881104 9.388565 0.628382
199.568573 -141.881104 7.730141 0.660182
188.685760 -143.182068 5.185467 0.505882
188.351196 -143.222061 3.891993 0.517006
188.289215 -143.229477 2.629193 0.527459
199.568558 -141.881104 1.184919 0.662531
190.534866 -142.961029 -0.000035 0.226300
174.330475 -144.898148 -0.000020 0.230178
167.373413 -145.729813 -0.000015 0.226396
163.498703 -146.193008 -0.000012 0.238029
161.025040 -146.488724 -0.000010 0.233900
159.305756 -146.694244 -0.000007 0.245509
158.039063 -146.845673 -0.000007 0.199349
nan nan nan 0.000000
nan nan nan 0.000000
200.539703 -142.121811 11.233658 0.662715
199.568573 -142.231033 9.382584 0.653101
199.568558 -142.231033 7.725501 0.650614
199.568558 -142.231033 6.080853 0.657465
187.902161 -143.543121 3.868263 0.512398
188.829376 -143.438843 2.637578 0.506706
199.568542 -142.231033 1.185579 0.658427
190.567627 -143.243347 -0.000035 0.227916
174.350098 -145.067291 -0.000021 0.232464
167.387390 -145.850372 -0.000015 0.256244
163.509552 -146.286514 -0.000012 0.242170
161.033890 -146.564941 -0.000010 0.236976
159.313202 -146.758469 -0.000008 0.216834
158.045486 -146.901047 -0.000007 0.233074
nan nan nan 0.000000
nan nan nan 0.000000
200.534348 -142.478607 11.225657 0.579965
199.568573 -142.580414 9.376972 0.651682
199.568558 -142.580414 7.721148 0.647547
189.730453 -143.617386 5.266603 0.510796
188.394730 -143.758179 3.891175 0.513909
199.568558 -142.580414 2.813803 0.638605
199.568558 -142.580414 1.186198 0.651133
190.598389 -143.525894 -0.000035 0.230453
174.368546 -145.236588 -0.000021 0.223177
167.400543 -145.971039 -0.000015 0.220975
163.519745 -146.380081 -0.000012 0.249590
161.042191 -146.641235 -0.000009 0.225331
159.320206 -146.822739 -0.000008 0.226001
158.051529 -146.956451 -0.000006 0.192347
nan nan nan 0.000000
nan nan nan 0.000000
200.529358 -142.834778 11.218184 0.653651
199.568573 -142.929276 9.371726 0.672755
199.568558 -142.929276 7.717081 0.656596
199.568558 -142.929276 6.074851 0.647974
199.568558 -142.929276 4.441415 0.669657
199.568558 -142.929276 2.813223 0.663645
199.568558 -142.929276 1.186777 0.649134
190.627197 -143.808655 -0.000035 0.229747
174.385803 -145.405991 -0.000021 0.225822
167.412842 -146.091782 -0.000015 0.248166
163.529282 -146.473724 -0.000012 0.212872
161.049973 -146.717575 -0.000009 0.203358
159.326752 -146.887039 -0.000008 0.260863
158.057175 -147.011902 -0.000006 0.271730
nan nan nan 0.000000
nan nan nan 0.000000
200.524719 -143.190353 11.211235 0.669810
199.568573 -143.277649 9.366847 0.661128
199.568558 -143.277649 7.713296 0.670359
199.568573 -143.277649 6.072153 0.661433
199.568558 -143.277649 4.439799 0.677333
199.568558 -143.277664 2.812686 0.643717
199.568558 -143.277664 1.187315 0.632258
190.654037 -144.091599 -0.000035 0.229831
174.401871 -145.575516 -0.000021 0.230034
167.424301 -146.212616 -0.000015 0.228299
163.538162 -146.567444 -0.000011 0.234929
161.057220 -146.793961 -0.000009 0.193137
159.332855 -146.951401 -0.000008 0.210730
158.062439 -147.067398 -0.000006 0.246179
nan nan nan 0.000000
nan nan nan 0.000000
200.520416 -143.545380 11.204809 0.653223
199.568573 -143.625595 9.362335 0.674723
199.568558 -143.625595 7.709795 0.635294
199.568558 -143.625595 6.069659 0.626276
199.568558 -143.625595 4.438302 0.644617
199.568558 -143.625595 2.812186 0.666117
199.568558 -143.625595 1.187813 0.654475
190.678894 -144.374741 -0.000035 0.231853
174.416779 -145.745148 -0.000021 0.221346
167.434906 -146.333511 -0.000015 0.234821
163.546402 -146.661209 -0.000011 0.214356
161.063934 -146.870407 -0.000010 0.229041
159.338516 -147.015808 -0.000008 0.202831
158.067307 -147.122925 -0.000006 0.278935
nan nan nan 0.000000
nan nan nan 0.000000
200.516479 -143.899918 11.198902 0.647059
199.568558 -143.973129 9.358183 0.664012
199.568542 -143.973129 7.706576 0.651759
199.568558 -143.973129 6.067365 0.648066
199.568558 -143.973129 4.436928 0.658854
199.568558 -143.973129 2.811729 0.659220
199.568558 -143.973129 1.188270 0.665873
190.701736 -144.658035 -0.000034 0.229304
174.430481 -145.914886 -0.000021 0.225127
167.444672 -146.454498 -0.000015 0.230740
163.553970 -146.755035 -0.000011 0.277104
161.070099 -146.946899 -0.000009 0.207666
159.343719 -147.080246 -0.000008 0.219155
158.071793 -147.178497 -0.000006 0.199851
nan nan nan 0.000000
nan nan nan 0.000000
200.512894 -144.253967 11.193514 0.712718
199.568558 -144.320282 9.354398 0.663172
199.568542 -144.320282 7.703640 0.672923
199.568542 -144.320282 6.065271 0.657710
199.568558 -144.320282 4.435675 0.674952
199.568558 -144.320282 2.811311 0.665492
199.568558 -144.320282 1.188688 0.678569
190.722656 -144.941483 -0.000033 0.225774
174.442993 -146.084717 -0.000021 0.239680
167.453598 -146.575546 -0.000015 0.236736
163.560898 -146.848907 -0.000011 0.243714
161.075745 -147.023422 -0.000009 0.220161
159.348480 -147.144714 -0.000008 0.273633
158.075897 -147.234085 -0.000006 0.214620
nan nan nan 0.000000
nan nan nan 0.000000
200.509644 -144.607620 11.188637 0.648264
199.568573 -144.667099 9.350973 0.662593
199.568558 -144.667099 7.700985 0.657801
199.568558 -144.667099 6.063378 0.650111
199.568558 -144.667099 4.434542 0.651972
199.568542 -144.667099 2.810934 0.640497
199.568542 -144.667099 1.189066 0.638926
190.741562 -145.225082 -0.000034 0.228155
174.454330 -146.254623 -0.000021 0.216750
167.461670 -146.696640 -0.000014 0.226037
163.567169 -146.942825 -0.000011 0.216080
161.080856 -147.099991 -0.000010 0.258769
159.352783 -147.209229 -0.000008 0.224445
158.079605 -147.289703 -0.000006 0.181505
nan nan nan 0.000000
nan nan nan 0.000000
200.506714 -144.960876 11.184278 0.743389
199.568558 -145.013611 9.347908 0.669642
199.568542 -145.013611 7.698608 0.670420
199.568542 -145.013611 6.061685 0.654566
199.568558 -145.013611 4.433527 0.672923
199.568542 -145.013611 2.810595 0.665187
199.568542 -145.013611 1.189404 0.623133
190.758514 -145.508789 -0.000034 0.224721
174.464478 -146.424606 -0.000021 0.222949
167.468918 -146.817795 -0.000015 0.235575
163.572769 -147.036789 -0.000012 0.216678
161.085419 -147.176590 -0.000009 0.208803
159.356628 -147.273758 -0.000008 0.188231
158.082932 -147.345337 -0.000006 0.275464
nan nan nan 0.000000
nan nan nan 0.000000
200.504166 -145.313812 11.180433 0.785122
199.568558 -145.359848 9.345203 0.666300
199.568558 -145.359848 7.696512 0.655756
199.568542 -145.359863 6.060189 0.650294
199.568542 -145.359863 4.432631 0.664759
199.568542 -145.359848 2.810298 0.656641
199.568542 -145.359848 1.189703 0.663966
190.773468 -145.792618 -0.000034 0.227449
174.473450 -146.594666 -0.000021 0.242361
167.475296 -146.939011 -0.000015 0.223943
163.577728 -147.130783 -0.000011 0.231028
161.089462 -147.253220 -0.000010 0.263760
159.360031 -147.338318 -0.000008 0.263772
158.085861 -147.401016 -0.000006 0.231195
nan nan nan 0.000000
nan nan nan 0.000000
nan nan nan 0.000000
199.568558 -145.705856 9.342861 0.674327
199.568542 -145.705856 7.694693 0.652049
199.568558 -145.705856 6.058896 0.650339
199.568558 -145.705856 4.431855 0.663203
199.568542 -145.705856 2.810039 0.655772
199.568542 -145.705856 1.189961 0.657237
190.786438 -146.076538 -0.000034 0.232009
174.481216 -146.764771 -0.000021 0.215302
167.480850 -147.060242 -0.000015 0.220388
163.582031 -147.224808 -0.000011 0.201036
161.092972 -147.329880 -0.000009 0.249578
