# This PCD file was generated using the MATLABÂ® pcwrite function
# from Computer Vision ToolboxÂ®.
# .PCD v.7 - Point Cloud Data file format
VERSION .7
FIELDS x y z intensity
SIZE 4 4 4 4
TYPE F F F F
COUNT 1 1 1 1
WIDTH 1272
HEIGHT 1
VIEWPOINT 0 0 0 1 0 0 0
POINTS 1272
DATA ascii
230.486191 -81.266533 0.000029 0.221082
223.509338 -80.624855 0.000021 0.239620
219.623566 -80.267479 0.000016 0.248321
217.142822 -80.039322 0.000013 0.214608
215.418610 -79.880737 0.000011 0.249087
214.148285 -79.763908 0.000010 0.221908
nan nan nan 0.000000
nan nan nan 0.000000
nan nan nan 0.000000
nan nan nan 0.000000
nan nan nan 0.000000
nan nan nan 0.000000
nan nan nan 0.000000
nan nan nan 0.000000
nan nan nan 0.000000
246.710693 -83.044136 -0.000021 0.338888
230.470001 -81.436035 0.000029 0.219538
223.497803 -80.745674 0.000021 0.251935
219.614624 -80.361176 0.000016 0.206111
217.135529 -80.115707 0.000014 0.209689
215.412460 -79.945091 0.000011 0.222722
214.142990 -79.819397 0.000010 0.219120
nan nan nan 0.000000
nan nan nan 0.000000
nan nan nan 0.000000
nan nan nan 0.000000
nan nan nan 0.000000
nan nan nan 0.000000
nan nan nan 0.000000
nan nan nan 0.000000
nan nan nan 0.000000
246.681946 -83.326904 -0.000034 0.339147
230.452637 -81.605438 0.000030 0.233888
223.485413 -80.866417 0.000021 0.233361
219.605011 -80.454819 0.000016 0.210814
217.127701 -80.192039 0.000013 0.241835
215.405869 -80.009407 0.000011 0.236796
214.137299 -79.874847 0.000010 0.227976
nan nan nan 0.000000
nan nan nan 0.000000
nan nan nan 0.000000
nan nan nan 0.000000
nan nan nan 0.000000
nan nan nan 0.000000
nan nan nan 0.000000
nan nan nan 0.000000
nan nan nan 0.000000
246.650482 -83.609375 -0.000010 0.338323
230.434082 -81.774704 0.000029 0.221872
223.472198 -80.987061 0.000021 0.225307
219.594757 -80.548378 0.000016 0.229256
217.119339 -80.268318 0.000013 0.256806
215.398834 -80.073669 0.000011 0.202305
214.131226 -79.930260 0.000010 0.204279
nan nan nan 0.000000
nan nan nan 0.000000
nan nan nan 0.000000
nan nan nan 0.000000
nan nan nan 0.000000
nan nan nan 0.000000
nan nan nan 0.000000
nan nan nan 0.000000
nan nan nan 0.000000
246.416122 -83.867462 0.009957 1.000000
230.414352 -81.943848 0.000029 0.219467
223.458130 -81.107613 0.000021 0.244731
219.583847 -80.641876 0.000016 0.221824
217.110443 -80.344543 0.000013 0.259367
215.391342 -80.137878 0.000011 0.268810
214.124771 -79.985619 0.000010 0.209210
nan nan nan 0.000000
nan nan nan 0.000000
nan nan nan 0.000000
nan nan nan 0.000000
nan nan nan 0.000000
nan nan nan 0.000000
nan nan nan 0.000000
nan nan nan 0.000000
nan nan nan 0.000000
246.379929 -84.147934 0.010030 1.000000
230.393448 -82.112839 0.000029 0.232141
223.443222 -81.228065 0.000020 0.226899
219.572296 -80.735291 0.000016 0.218425
217.101028 -80.420692 0.000013 0.224685
215.383392 -80.202042 0.000011 0.202353
214.117920 -80.040939 0.000010 0.228119
nan nan nan 0.000000
nan nan nan 0.000000
nan nan nan 0.000000
nan nan nan 0.000000
nan nan nan 0.000000
nan nan nan 0.000000
nan nan nan 0.000000
nan nan nan 0.000000
nan nan nan 0.000000
246.545914 -84.455582 -0.000017 0.337621
230.371353 -82.281685 0.000028 0.218042
223.427475 -81.348412 0.000020 0.263532
219.560089 -80.828621 0.000016 0.248704
217.091064 -80.496780 0.000013 0.214368
215.375015 -80.266144 0.000011 0.212621
214.110687 -80.096214 0.000009 0.213734
nan nan nan 0.000000
nan nan nan 0.000000
nan nan nan 0.000000
nan nan nan 0.000000
nan nan nan 0.000000
nan nan nan 0.000000
nan nan nan 0.000000
nan nan nan 0.000000
nan nan nan 0.000000
246.506607 -84.737061 0.000006 0.338598
230.348083 -82.450363 0.000029 0.226851
223.410889 -81.468636 0.000021 0.227066
219.547211 -80.921867 0.000016 0.256136
217.080582 -80.572800 0.000013 0.222483
215.366180 -80.330177 0.000011 0.214033
214.103073 -80.151428 0.000009 0.214907
nan nan nan 0.000000
nan nan nan 0.000000
nan nan nan 0.000000
nan nan nan 0.000000
nan nan nan 0.000000
nan nan nan 0.000000
nan nan nan 0.000000
nan nan nan 0.000000
nan nan nan 0.000000
246.466064 -85.018364 -0.000007 0.338796
230.323639 -82.618881 0.000028 0.232488
223.393463 -81.588753 0.000020 0.244659
219.533707 -81.015015 0.000016 0.242229
217.069565 -80.648735 0.000013 0.217671
215.356888 -80.394157 0.000011 0.247232
214.095078 -80.206596 0.000009 0.190971
nan nan nan 0.000000
nan nan nan 0.000000
nan nan nan 0.000000
nan nan nan 0.000000
nan nan nan 0.000000
nan nan nan 0.000000
nan nan nan 0.000000
nan nan nan 0.000000
nan nan nan 0.000000
246.422882 -85.299286 0.000014 0.338476
230.298019 -82.787231 0.000028 0.220927
223.375214 -81.708740 0.000020 0.226707
219.519547 -81.108078 0.000015 0.252247
217.058014 -80.724602 0.000012 0.209653
215.347168 -80.458069 0.000011 0.223296
214.086685 -80.261703 0.000009 0.248824
nan nan nan 0.000000
nan nan nan 0.000000
nan nan nan 0.000000
nan nan nan 0.000000
nan nan nan 0.000000
nan nan nan 0.000000
nan nan nan 0.000000
nan nan nan 0.000000
nan nan nan 0.000000
246.378418 -85.580002 0.000001 0.338659
230.271225 -82.955391 0.000028 0.230094
223.356110 -81.828598 0.000020 0.221202
219.504730 -81.201027 0.000015 0.238711
217.045944 -80.800377 0.000013 0.212884
215.336990 -80.521912 0.000011 0.218868
214.077911 -80.316750 0.000009 0.256758
169.007782 -72.705910 11.449360 0.762310
168.982849 -72.701660 10.153058 0.776013
168.983292 -72.701736 8.868628 0.515053
168.983856 -72.701836 7.599422 0.754711
168.984283 -72.701912 6.342535 0.659525
168.985519 -72.702118 5.095041 0.786252
168.985504 -72.702118 3.854369 0.633249
168.985931 -72.702187 2.617675 0.717113
168.986984 -72.702370 1.382343 0.655543
168.987732 -72.702492 0.145741 0.644938
182.151184 -74.941879 -0.000008 0.222842
189.058502 -76.116959 -0.000002 0.248896
192.905502 -76.771416 0.000000 0.204615
195.361465 -77.189224 0.000003 0.207870
197.068542 -77.479637 0.000022 0.209605
198.326157 -77.693581 0.000022 0.206996
168.996353 -72.436409 11.463738 0.544060
168.923386 -72.423470 10.175997 0.721233
168.925079 -72.423775 8.887722 0.498756
168.925949 -72.423927 7.614941 0.710597
168.926773 -72.424072 6.354525 0.483589
168.927505 -72.424202 5.103627 0.474510
168.928558 -72.424393 3.859462 0.678691
168.929596 -72.424576 2.619360 0.600153
168.930634 -72.424759 1.380657 0.634592
168.931732 -72.424950 0.140697 0.637995
182.180328 -74.774101 -0.000009 0.222195
189.079285 -75.997375 -0.000003 0.212011
192.921616 -76.678673 0.000000 0.219874
195.374603 -77.113625 0.000002 0.245652
197.079620 -77.415939 0.000022 0.224673
198.335709 -77.638664 0.000022 0.232919
168.777542 -72.127815 11.531432 0.687083
168.751648 -72.123039 10.224048 0.786160
168.752045 -72.123116 8.928442 0.701244
168.752609 -72.123215 7.648183 0.611765
168.753387 -72.123360 6.380311 0.646036
168.754227 -72.123512 5.121999 0.758923
168.755447 -72.123741 3.870459 0.730449
168.756393 -72.123917 2.623025 0.610727
168.756348 -72.123909 1.376974 0.503014
168.757370 -72.124100 0.129637 0.575723
182.210632 -74.606537 -0.000009 0.234319
189.100891 -75.877945 -0.000003 0.219491
192.938370 -76.586052 0.000001 0.227868
195.388275 -77.038116 0.000003 0.245892
197.091125 -77.352325 0.000022 0.267482
198.345627 -77.583817 0.000022 0.186675
168.712051 -71.844780 11.560661 0.639292
168.550644 -71.813828 10.279059 0.753201
168.550598 -71.813812 8.974870 0.535348
168.550507 -71.813797 7.686131 0.679789
168.550446 -71.813789 6.409840 0.495232
168.550446 -71.813789 5.143114 0.764584
168.550415 -71.813782 3.883173 0.642527
168.550369 -71.813774 2.627277 0.497124
168.550323 -71.813759 1.372723 0.627512
168.548767 -71.813461 0.116744 0.614710
182.242126 -74.439186 -0.000009 0.227820
189.123322 -75.758667 -0.000003 0.254018
192.955780 -76.493546 0.000000 0.219634
195.402451 -76.962700 0.000002 0.243486
197.103073 -77.288795 0.000022 0.189008
198.355927 -77.529037 0.000022 0.249554
168.190903 -71.469376 11.706810 0.564782
167.297760 -71.291641 10.566261 0.574456
167.114059 -71.255089 9.250904 0.632395
167.029419 -71.238243 7.923949 0.631251
166.981384 -71.228683 6.599903 0.631556
167.388504 -71.309700 5.244546 0.641215
167.379639 -71.307938 3.944388 0.641016
167.344528 -71.300949 2.648253 0.626627
167.362183 -71.304459 1.352042 0.640070
166.268951 -71.086906 -0.000023 0.228682
182.274765 -74.272057 -0.000009 0.218653
189.146591 -75.639549 -0.000003 0.230764
192.973816 -76.401161 0.000000 0.211352
195.417175 -76.887390 0.000003 0.237718
197.115479 -77.225349 0.000022 0.197745
198.366623 -77.474327 0.000022 0.258805
nan nan nan 0.000000
nan nan nan 0.000000
167.477631 -71.046021 9.193623 0.612055
168.772034 -71.313019 7.668403 0.709407
168.772614 -71.313133 6.396012 0.579324
168.773254 -71.313271 5.133206 0.717494
168.774261 -71.313477 3.877185 0.637507
168.775726 -71.313774 2.625257 0.674632
168.775970 -71.313828 1.374747 0.707149
168.774628 -71.313553 0.122833 0.497581
182.308594 -74.105164 -0.000009 0.235707
189.170685 -75.520592 -0.000004 0.221705
192.992523 -76.308914 0.000000 0.232655
195.432404 -76.812180 0.000002 0.270869
197.128311 -77.161987 0.000022 0.186579
198.377686 -77.419693 0.000022 0.215769
nan nan nan 0.000000
nan nan nan 0.000000
168.384308 -70.957420 9.035475 0.541711
169.105103 -71.111351 7.626194 0.651850
169.105225 -71.111374 6.363335 0.688914
169.105484 -71.111435 5.109945 0.717571
169.106033 -71.111549 3.863271 0.681376
169.106445 -71.111641 2.620640 0.769451
169.106415 -71.111633 1.379360 0.738674
169.106796 -71.111710 0.136766 0.602792
182.343567 -73.938507 -0.000010 0.221633
189.195633 -75.401810 -0.000003 0.228562
193.011856 -76.216789 0.000000 0.219491
195.448166 -76.737083 0.000002 0.206194
197.141510 -77.098701 0.000003 0.239537
198.389145 -77.365143 0.000022 0.298981
nan nan nan 0.000000
nan nan nan 0.000000
168.902878 -70.795517 8.949521 0.546990
169.320541 -70.887764 7.602005 0.854322
169.321457 -70.887970 6.344480 0.597650
169.322174 -70.888123 5.096470 0.667536
169.323151 -70.888336 3.855175 0.658579
169.324219 -70.888580 2.617932 0.713008
169.325272 -70.888809 1.382085 0.518715
169.326141 -70.889000 0.144974 0.521355
182.379715 -73.772102 -0.000009 0.223021
189.221390 -75.283203 -0.000004 0.212298
193.031830 -76.124802 -0.000000 0.238077
195.464462 -76.662094 0.000002 0.241655
197.155228 -77.035530 0.000003 0.202388
198.400970 -77.310669 0.000022 0.304857
nan nan nan 0.000000
168.446899 -70.417969 10.362932 0.467826
169.017548 -70.548187 8.939024 0.599863
169.433319 -70.643066 7.593633 0.678706
169.433990 -70.643219 6.338018 0.678996
169.434479 -70.643333 5.091881 0.635904
169.434677 -70.643379 3.852466 0.649104
169.434662 -70.643379 2.617048 0.618143
169.435455 -70.643555 1.382965 0.611765
169.436096 -70.643700 0.147605 0.637400
182.417023 -73.605957 -0.000010 0.236281
189.247986 -75.164780 -0.000004 0.231805
193.052444 -76.032959 -0.000000 0.225678
195.481262 -76.587219 0.000002 0.255598
197.169388 -76.972450 0.000003 0.217360
198.413177 -77.256287 0.000021 0.226492
nan nan nan 0.000000
168.607895 -70.178169 10.340759 0.550469
169.132233 -70.301682 8.928825 0.498756
169.527954 -70.394897 7.588274 0.735058
169.528015 -70.394913 6.333933 0.774243
169.528046 -70.394920 5.089008 0.701305
169.529007 -70.395142 3.850706 0.701213
169.529022 -70.395149 2.616461 0.703075
169.529022 -70.395149 1.383538 0.560174
169.529114 -70.395172 0.149298 0.574350
182.455475 -73.440063 -0.000010 0.218270
189.275391 -75.046547 -0.000004 0.260624
193.073715 -75.941269 -0.000000 0.222339
195.498611 -76.512466 0.000002 0.219897
197.183990 -76.909470 0.000003 0.221238
198.425781 -77.201981 0.000021 0.224002
nan nan nan 0.000000
nan nan nan 0.000000
169.084915 -70.016609 8.949268 0.524819
169.521103 -70.122574 7.598662 0.517143
169.521835 -70.122757 6.341908 0.803098
169.522415 -70.122894 5.094647 0.805890
169.523224 -70.123093 3.854093 0.577340
169.523376 -70.123131 2.617587 0.695583
169.524216 -70.123337 1.382427 0.517189
169.524902 -70.123505 0.145991 0.705028
182.495087 -73.274452 -0.000010 0.222375
189.303635 -74.928505 -0.000004 0.227042
193.095612 -75.849724 -0.000000 0.225726
195.516449 -76.437836 0.000002 0.212944
197.199036 -76.846603 0.000003 0.197254
198.438751 -77.147774 0.000021 0.226863
nan nan nan 0.000000
nan nan nan 0.000000
168.925751 -69.701904 8.991098 0.541894
169.482452 -69.841278 7.614219 0.774914
169.483276 -69.841476 6.353966 0.764355
169.484116 -69.841690 5.103218 0.574060
169.485046 -69.841927 3.859221 0.636820
169.486053 -69.842178 2.619280 0.739879
169.487091 -69.842438 1.380737 0.778866
169.487488 -69.842529 0.140902 0.659037
182.535873 -73.109116 -0.000011 0.243187
189.332703 -74.810669 -0.000004 0.215146
193.118149 -75.758331 -0.000000 0.278899
195.534836 -76.363335 0.000002 0.221405
197.214508 -76.783836 0.000003 0.273274
198.452087 -77.093651 0.000021 0.252725
nan nan nan 0.000000
nan nan nan 0.000000
nan nan nan 0.000000
169.355179 -69.535606 7.643683 0.666682
169.355255 -69.535622 6.376903 0.537789
169.355377 -69.535652 5.119628 0.654490
169.355835 -69.535774 3.869078 0.479896
169.355820 -69.535767 2.622581 0.549584
169.355835 -69.535767 1.377419 0.606348
169.356567 -69.535957 0.130959 0.594888
182.577805 -72.944077 -0.000010 0.223751
189.362579 -74.693031 -0.000004 0.225869
193.141327 -75.667099 -0.000000 0.188422
195.553726 -76.288963 0.000001 0.240530
197.230438 -76.721176 0.000003 0.234474
198.465820 -77.039627 0.000021 0.235192
nan nan nan 0.000000
nan nan nan 0.000000
nan nan nan 0.000000
168.999924 -69.166580 7.708515 0.677729
169.050537 -69.180008 6.421167 0.324041
169.004486 -69.167786 5.155095 0.659083
169.005676 -69.168106 3.890290 0.552392
169.006500 -69.168327 2.629633 0.645502
169.007263 -69.168526 1.370380 0.621942
169.010284 -69.169327 0.109944 0.652796
182.620880 -72.779335 -0.000011 0.229053
189.393280 -74.575607 -0.000005 0.236138
193.165131 -75.576035 -0.000001 0.235599
195.573135 -76.214722 0.000001 0.209043
197.246780 -76.658630 0.000002 0.247962
198.479919 -76.985703 0.000021 0.189451
nan nan nan 0.000000
nan nan nan 0.000000
nan nan nan 0.000000
nan nan nan 0.000000
nan nan nan 0.000000
nan nan nan 0.000000
167.888260 -68.584930 3.950742 0.615686
167.933380 -68.597237 2.649017 0.731228
167.933380 -68.597237 1.350982 0.608728
167.933380 -68.597229 0.051554 0.598321
182.665100 -72.614891 -0.000011 0.230609
189.424805 -74.458405 -0.000005 0.237586
193.189590 -75.485138 -0.000000 0.209665
195.593079 -76.140617 0.000001 0.228646
197.263580 -76.596199 0.000003 0.228646
198.494400 -76.931870 0.000021 0.235228
nan nan nan 0.000000
nan nan nan 0.000000
nan nan nan 0.000000
nan nan nan 0.000000
nan nan nan 0.000000
nan nan nan 0.000000
167.884171 -68.295891 3.954720 0.552560
167.933380 -68.309685 2.650272 0.745205
167.933380 -68.309677 1.349728 0.788235
167.933380 -68.309677 0.047790 0.768017
182.710480 -72.450760 -0.000011 0.227270
189.457153 -74.341423 -0.000004 0.236150
193.214676 -75.394417 -0.000001 0.199492
195.613525 -76.066658 0.000001 0.208851
197.280807 -76.533890 0.000003 0.267625
198.509247 -76.878143 0.000021 0.259523
nan nan nan 0.000000
nan nan nan 0.000000
nan nan nan 0.000000
nan nan nan 0.000000
nan nan nan 0.000000
nan nan nan 0.000000
177.738647 -70.842766 3.454832 0.474311
167.933380 -68.020996 2.651563 0.830564
167.933380 -68.020996 1.348437 0.812909
167.933380 -68.020996 0.043915 0.723995
182.757004 -72.286949 -0.000011 0.224218
189.490311 -74.224663 -0.000005 0.220675
193.240387 -75.303864 -0.000001 0.257333
195.634476 -75.992844 0.000001 0.204112
197.298462 -76.471703 0.000003 0.227724
198.524475 -76.824524 0.000021 0.252821
nan nan nan 0.000000
nan nan nan 0.000000
nan nan nan 0.000000
nan nan nan 0.000000
177.967575 -70.694809 5.386273 0.470527
nan nan nan 0.000000
167.875290 -67.713997 3.963046 0.659388
176.993454 -70.407097 2.498300 0.463371
167.933365 -67.731155 1.347110 0.543938
167.933380 -67.731155 0.039929 0.689845
182.804672 -72.123474 -0.000011 0.230716
189.524277 -74.108147 -0.000005 0.248333
193.266739 -75.213501 -0.000001 0.214273
195.655960 -75.919174 0.000001 0.227856
197.316559 -76.409637 0.000002 0.222052
198.540085 -76.771011 0.000021 0.257465
nan nan nan 0.000000
nan nan nan 0.000000
177.509155 -70.341209 7.454313 0.498619
178.468170 -70.631752 6.297874 0.480934
177.479614 -70.332260 5.452008 0.482353
178.111298 -70.523636 4.406300 0.494270
178.587234 -70.667824 3.417285 0.474372
167.933365 -67.440109 2.654256 0.704463
167.933365 -67.440109 1.345745 0.669841
167.933380 -67.440109 0.035832 0.767910
182.853470 -71.960327 -0.000011 0.226671
189.559067 -73.991867 -0.000005 0.221992
193.293716 -75.123322 -0.000001 0.239525
195.677948 -75.845657 0.000001 0.184963
197.335083 -76.347702 0.000003 0.216175
198.556061 -76.717613 0.000021 0.184868
nan nan nan 0.000000
nan nan nan 0.000000
177.531372 -70.128975 7.461772 0.440192
178.790985 -70.520210 6.256945 0.456168
178.208496 -70.339287 5.371607 0.494118
178.394913 -70.397186 4.387109 0.423728
178.548508 -70.444901 3.422315 0.495491
176.688492 -69.867172 2.505639 0.489433
167.933380 -67.147835 1.344342 0.674571
167.933380 -67.147835 0.031620 0.682673
182.903412 -71.797531 -0.000011 0.223308
189.594666 -73.875832 -0.000005 0.220699
193.321320 -75.033333 -0.000001 0.217288
195.700455 -75.772293 0.000001 0.202843
197.354050 -76.285896 0.000003 0.199373
198.572403 -76.664322 0.000021 0.214943
178.002441 -70.058990 9.411552 0.482353
177.774231 -69.986359 8.442247 0.507027
178.207443 -70.124237 7.344679 0.490074
178.641235 -70.262299 6.289613 0.468376
178.362335 -70.173538 5.360442 0.456199
178.950562 -70.360748 4.344542 0.494377
178.108383 -70.092705 3.448132 0.477974
178.508514 -70.220055 2.475494 0.465003
167.933380 -66.854294 1.342901 0.582544
167.933380 -66.854294 0.027295 0.582040
182.954483 -71.635078 -0.000012 0.233337
189.631073 -73.760048 -0.000005 0.246909
193.349548 -74.943535 -0.000001 0.203681
195.723480 -75.699089 0.000001 0.196488
197.373444 -76.224228 0.000002 0.246586
198.589127 -76.611145 0.000020 0.218090
178.110825 -69.877052 9.399685 0.448035
178.183105 -69.900612 8.363870 0.498146
178.560303 -70.023567 7.289185 0.476570
178.752365 -70.086182 6.281932 0.494301
178.515213 -70.008873 5.349512 0.494209
179.088516 -70.195755 4.337922 0.481559
178.305756 -69.940598 3.441194 0.478355
178.609818 -70.039711 2.474822 0.488319
167.933380 -66.559433 1.341422 0.691295
167.933380 -66.559433 0.022854 0.722774
183.006699 -71.472992 -0.000012 0.213363
189.668274 -73.644524 -0.000005 0.233720
193.378403 -74.853943 -0.000002 0.244312
195.747009 -75.626045 0.000000 0.198319
197.393265 -76.162689 0.000002 0.250643
198.606216 -76.558090 0.000020 0.214512
177.801605 -69.556442 9.498401 0.429541
178.251984 -69.706741 8.362860 0.494118
178.708496 -69.859093 7.272950 0.471580
178.913544 -69.927521 6.266599 0.475959
178.526352 -69.798309 5.355882 0.471244
179.048416 -69.972534 4.346779 0.468193
178.783844 -69.884239 3.419755 0.482689
178.498535 -69.789032 2.477836 0.492027
177.976456 -69.614799 1.513158 0.655100
177.989059 -69.619003 0.539082 0.635935
183.060028 -71.311279 -0.000012 0.225678
189.706299 -73.529259 -0.000005 0.223165
193.407898 -74.764549 -0.000002 0.212860
195.771042 -75.553177 0.000000 0.316801
197.413513 -76.101295 0.000002 0.261570
198.623672 -76.505150 0.000020 0.205967
177.804062 -69.336449 9.515444 0.494118
177.366302 -69.186958 8.580006 0.484901
177.218628 -69.136520 7.571856 0.478843
178.261368 -69.492615 6.378893 0.498054
178.517960 -69.580246 5.364821 0.504860
178.997437 -69.743980 4.356733 0.473610
179.026718 -69.753983 3.410498 0.505180
178.591400 -69.605324 2.477357 0.474250
167.933380 -65.965652 1.338346 0.691814
167.933380 -65.965652 0.013619 0.691539
183.114502 -71.149940 -0.000012 0.217875
189.745117 -73.414268 -0.000005 0.224206
193.438004 -74.675369 -0.000002 0.225726
195.795578 -75.480469 0.000000 0.230058
197.434189 -76.040047 0.000002 0.232129
198.641510 -76.452339 0.000020 0.202532
nan nan nan 0.000000
177.709717 -69.081619 8.517326 0.494118
178.372375 -69.313095 7.362937 0.471336
178.751282 -69.445450 6.312486 0.498802
179.019440 -69.539124 5.311836 0.477592
179.195313 -69.600555 4.345236 0.458610
178.424591 -69.331337 3.445236 0.464149
178.928452 -69.507339 2.472667 0.468208
167.933380 -65.666649 1.336749 0.772824
167.933365 -65.666649 0.008823 0.704570
183.170090 -70.988983 -0.000012 0.221597
189.784744 -73.299545 -0.000006 0.219646
193.468735 -74.586395 -0.000002 0.257895
195.820633 -75.407936 0.000000 0.254592
197.455292 -75.978943 0.000002 0.208313
198.659698 -76.399651 0.000020 0.262168
nan nan nan 0.000000
nan nan nan 0.000000
178.568573 -69.164673 7.338268 0.437339
178.259598 -69.054321 6.400581 0.474723
178.710831 -69.215485 5.357712 0.473167
178.920792 -69.290474 4.374928 0.451530
178.988235 -69.314560 3.419402 0.488670
178.606430 -69.178200 2.479430 0.463386
167.933380 -65.366188 1.335111 0.784085
167.857941 -65.339241 -0.000028 0.232536
183.226807 -70.828415 -0.000013 0.232212
189.825165 -73.185104 -0.000006 0.225175
193.500076 -74.497643 -0.000002 0.216618
195.846191 -75.335587 0.000000 0.195411
197.476822 -75.917984 0.000002 0.241081
198.678268 -76.347092 0.000020 0.201371
nan nan nan 0.000000
nan nan nan 0.000000
177.901733 -68.703201 7.480913 0.494118
178.559738 -68.943413 6.364293 0.492134
178.743332 -69.010429 5.362207 0.471199
178.889954 -69.063957 4.383615 0.492393
178.590622 -68.954681 3.443779 0.480598
178.622925 -68.966476 2.480353 0.438651
167.933380 -65.064217 1.333433 0.728435
167.933380 -65.064217 -0.001132 0.728435
183.284637 -70.668251 -0.000013 0.226408
189.866394 -73.070946 -0.000006 0.232691
193.532043 -74.409111 -0.000002 0.240578
195.872253 -75.263405 0.000000 0.207834
197.498779 -75.857178 0.000002 0.241392
198.697189 -76.294662 0.000020 0.228143
nan nan nan 0.000000
nan nan nan 0.000000
nan nan nan 0.000000
177.895370 -68.476395 6.480732 0.496651
178.766296 -68.801231 5.368059 0.463783
178.357056 -68.648590 4.436399 0.490974
178.835403 -68.827011 3.434668 0.469596
178.201492 -68.590569 2.488953 0.463355
167.933380 -64.760712 1.331713 0.688518
168.052856 -64.805267 -0.000029 0.227581
183.343597 -70.508499 -0.000013 0.226791
189.908401 -72.957077 -0.000006 0.234462
193.564636 -74.320801 -0.000002 0.258530
195.898819 -75.191422 0.000000 0.214464
197.521164 -75.796532 0.000002 0.235001
198.716492 -76.242371 0.000020 0.260492
nan nan nan 0.000000
nan nan nan 0.000000
nan nan nan 0.000000
nan nan nan 0.000000
nan nan nan 0.000000
178.465744 -68.468018 4.433283 0.486213
178.713577 -68.562431 3.444854 0.466758
178.261963 -68.390381 2.489182 0.490394
167.933380 -64.455612 1.329952 0.674769
168.153107 -64.539322 -0.000028 0.231494
183.403656 -70.349159 -0.000012 0.239154
189.951218 -72.843506 -0.000006 0.232536
193.597839 -74.232719 -0.000002 0.202472
195.925888 -75.119614 -0.000000 0.202185
197.543961 -75.736038 0.000002 0.219239
198.736160 -76.190208 0.000020 0.196859
nan nan nan 0.000000
nan nan nan 0.000000
nan nan nan 0.000000
nan nan nan 0.000000
nan nan nan 0.000000
178.165970 -68.129112 4.466207 0.493721
167.812256 -64.101776 4.023377 0.486732
167.933380 -64.148888 2.671851 0.671107
167.933380 -64.148888 1.328149 0.672694
168.255203 -64.274078 -0.000029 0.230860
183.464828 -70.190239 -0.000014 0.241547
189.994812 -72.730240 -0.000006 0.244396
193.631653 -74.144875 -0.000003 0.224385
195.953461 -75.048004 0.000000 0.231662
197.567184 -75.675705 0.000001 0.206194
198.756180 -76.138191 0.000019 0.213722
nan nan nan 0.000000
nan nan nan 0.000000
nan nan nan 0.000000
nan nan nan 0.000000
nan nan nan 0.000000
nan nan nan 0.000000
167.807190 -63.790394 4.029205 0.562600
167.933380 -63.840496 2.673697 0.636271
167.933380 -63.840500 1.326304 0.659358
168.359177 -64.009552 -0.000029 0.228993
183.527115 -70.031754 -0.000014 0.225032
190.039215 -72.617279 -0.000006 0.250463
193.666077 -74.057274 -0.000002 0.202867
195.981522 -74.976585 0.000000 0.221717
197.590836 -75.615540 0.000002 0.211999
198.776566 -76.086311 0.000019 0.273609
nan nan nan 0.000000
nan nan nan 0.000000
nan nan nan 0.000000
nan nan nan 0.000000
nan nan nan 0.000000
nan nan nan 0.000000
167.802353 -63.477303 4.035150 0.510994
167.933380 -63.530388 2.675586 0.732525
167.933380 -63.530392 1.324414 0.724193
168.464966 -63.745754 -0.000029 0.227413
183.590500 -69.873703 -0.000014 0.234295
190.084396 -72.504631 -0.000006 0.230872
193.701111 -73.969910 -0.000003 0.224206
196.010086 -74.905365 -0.000000 0.239214
197.614899 -75.555534 0.000001 0.214105
198.797318 -76.034576 0.000019 0.233684
nan nan nan 0.000000
nan nan nan 0.000000
nan nan nan 0.000000
nan nan nan 0.000000
nan nan nan 0.000000
nan nan nan 0.000000
167.795898 -63.161697 4.041316 0.630259
167.933380 -63.218521 2.677519 0.591867
167.933395 -63.218525 1.322482 0.597803
168.572601 -63.482697 -0.000030 0.226791
183.654984 -69.716095 -0.000014 0.226576
190.130356 -72.392296 -0.000006 0.226576
193.736771 -73.882790 -0.000003 0.251337
196.039154 -74.834343 0.000000 0.218964
197.639389 -75.495705 0.000001 0.205656
198.818420 -75.982986 0.000019 0.243594
nan nan nan 0.000000
nan nan nan 0.000000
nan nan nan 0.000000
nan nan nan 0.000000
nan nan nan 0.000000
nan nan nan 0.000000
167.789078 -62.844032 4.047637 0.443366
167.933380 -62.904850 2.679496 0.560662
167.933380 -62.904854 1.320505 0.640558
168.682068 -63.220413 -0.000030 0.230118
183.720581 -69.558952 -0.000014 0.229675
190.177094 -72.280289 -0.000007 0.228694
193.773026 -73.795929 -0.000003 0.220711
196.068710 -74.763527 -0.000000 0.270354
197.664291 -75.436043 0.000001 0.240111
198.839905 -75.931549 0.000019 0.183838
190.852493 -72.438423 6.183592 0.839216
190.852493 -72.438423 5.607251 0.734890
190.852493 -72.438423 5.039002 0.776471
190.852493 -72.438423 4.477483 0.839216
190.852478 -72.438423 3.921391 0.839216
190.852493 -72.438423 3.369472 0.683009
190.852493 -72.438423 2.820508 0.839216
190.852493 -72.438423 2.273307 0.839216
190.852493 -72.438423 1.726693 0.601617
190.852493 -72.438423 1.179491 0.839216
190.852478 -72.438423 0.630527 0.839216
190.852493 -72.438423 0.078609 0.552117
193.809891 -73.709312 -0.000003 0.197482
196.098755 -74.692917 -0.000000 0.205141
197.689606 -75.376556 0.000001 0.189966
198.861725 -75.880257 0.000019 0.226360
191.143097 -72.438423 6.116812 0.834852
191.143097 -72.438423 5.549671 0.830945
191.143097 -72.438423 4.990493 0.837186
191.143097 -72.438423 4.437937 0.839216
191.143097 -72.438423 3.890722 0.762539
191.143097 -72.438423 3.347612 0.899535
191.143097 -72.438423 2.807411 0.836439
191.143097 -72.438423 2.268945 0.836942
191.143097 -72.438423 1.731055 0.664820
191.143097 -72.438423 1.192589 0.839216
191.143082 -72.438416 0.652386 0.905882
191.143097 -72.438423 0.109278 0.560784
193.847351 -73.622963 -0.000003 0.243295
196.129303 -74.622520 -0.000001 0.204866
197.715332 -75.317253 0.000001 0.222399
198.883911 -75.829124 0.000019 0.238747
191.351196 -72.405663 6.072455 0.861219
191.351196 -72.405663 5.511425 0.837034
191.351196 -72.405663 4.958272 0.856382
191.424591 -72.438423 4.399749 0.700206
191.424591 -72.438423 3.861105 0.839216
191.351196 -72.405663 3.333092 0.836866
191.351196 -72.405663 2.798711 0.857969
191.351196 -72.405663 2.266047 0.836530
191.351196 -72.405663 1.733953 0.854063
191.351196 -72.405663 1.201288 0.857664
191.424576 -72.438416 0.673496 0.834714
191.424591 -72.438423 0.138896 0.543969
193.885422 -73.536873 -0.000004 0.240518
196.160339 -74.552338 -0.000000 0.195280
197.741486 -75.258125 0.000001 0.203825
198.906448 -75.778145 0.000018 0.200055
191.466232 -72.333290 6.053631 0.266667
191.511383 -72.353821 5.484483 0.239246
191.518768 -72.357178 4.934097 0.248875
191.697388 -72.438416 4.362854 0.776471
191.697403 -72.438416 3.832491 0.839216
191.625366 -72.405655 3.312597 0.849515
191.430878 -72.317207 2.796928 0.237247
191.466248 -72.333298 2.264817 0.266651
191.466248 -72.333298 1.735183 0.229786
191.625366 -72.405663 1.213568 0.857588
191.697388 -72.438416 0.693891 0.662898
191.697418 -72.438423 0.167511 0.564446
193.924088 -73.451057 -0.000004 0.220795
196.191849 -74.482376 -0.000001 0.223691
197.768036 -75.199181 0.000001 0.247783
198.929352 -75.727318 0.000018 0.205847
191.728363 -72.330208 5.994279 0.580392
191.728363 -72.330208 5.444017 0.580392
191.891251 -72.405663 4.868820 0.830793
191.961960 -72.438416 4.327186 0.708080
191.961960 -72.438416 3.804830 0.725017
191.700317 -72.317207 3.310037 0.247272
191.613983 -72.277214 2.789573 0.580392
191.728363 -72.330208 2.260940 0.580392
191.728363 -72.330208 1.739060 0.580392
191.891266 -72.405663 1.225440 0.835431
191.961960 -72.438416 0.713607 0.797116
191.961990 -72.438423 0.195174 0.561532
193.963348 -73.365509 -0.000003 0.241811
196.223862 -74.412636 -0.000001 0.240530
197.794998 -75.140427 0.000001 0.239896
198.952606 -75.676659 0.000018 0.229927
191.989288 -72.330200 5.935072 0.580392
191.989288 -72.330208 5.392967 0.580392
192.149246 -72.405663 4.826292 0.863828
192.218674 -72.438408 4.292691 0.833906
192.218674 -72.438408 3.778077 0.833524
191.961731 -72.317207 3.290618 0.244862
191.876953 -72.277214 2.777869 0.580392
191.989288 -72.330200 2.257072 0.580392
191.989288 -72.330200 1.742928 0.580392
192.149246 -72.405663 1.236921 0.841230
192.218674 -72.438416 0.732675 0.839216
192.218704 -72.438431 0.221928 0.558907
194.003204 -73.280235 -0.000004 0.211771
196.256363 -74.343124 -0.000001 0.282430
197.822372 -75.081863 0.000000 0.214201
198.976212 -75.626167 0.000018 0.200713
192.242599 -72.330200 5.877780 0.580392
192.242599 -72.330200 5.343568 0.580392
192.399734 -72.405670 4.785140 0.860945
192.467896 -72.438408 4.259311 0.839216
192.467896 -72.438408 3.752189 0.839216
192.240265 -72.329079 3.269579 0.242802
192.132278 -72.277214 2.766543 0.580392
192.242599 -72.330200 2.253329 0.580392
192.242599 -72.330200 1.746671 0.580392
192.399719 -72.405663 1.248032 0.847959
192.467896 -72.438408 0.751127 0.839216
192.467941 -72.438431 0.247816 0.549065
194.043671 -73.195244 -0.000004 0.225355
196.289337 -74.273834 -0.000002 0.206182
197.850159 -75.023491 0.000000 0.239680
199.000107 -75.575806 0.000002 0.212406
192.488647 -72.330200 5.822315 0.580392
192.488663 -72.330200 5.295744 0.580392
192.728394 -72.447411 4.728011 0.773495
192.709976 -72.438408 4.226995 0.720760
192.709976 -72.438408 3.727128 0.905882
192.380280 -72.277206 3.261103 0.580392
192.380280 -72.277206 2.755579 0.580392
192.488647 -72.330200 2.249706 0.580392
192.488647 -72.330200 1.750294 0.580392
192.643005 -72.405663 1.258787 0.857694
192.709991 -72.438408 0.768990 0.728695
192.710022 -72.438431 0.272879 0.552422
194.084717 -73.110542 -0.000004 0.262706
196.322800 -74.204781 -0.000001 0.250595
197.878357 -74.965317 0.000000 0.213399
199.024414 -75.525642 0.000002 0.222494
192.727783 -72.330193 5.768598 0.580392
192.727783 -72.330193 5.249427 0.580392
192.963348 -72.447411 4.689670 0.839216
192.945236 -72.438400 4.195697 0.905882
192.963348 -72.447411 3.700528 0.839216
192.621292 -72.277206 3.243380 0.580392
192.621292 -72.277206 2.744961 0.580392
192.727783 -72.330193 2.246197 0.580392
192.727783 -72.330193 1.753803 0.580392
192.796844 -72.364555 1.264672 0.856809
192.945251 -72.438408 0.786291 0.839216
192.945297 -72.438431 0.297153 0.537255
194.126358 -73.026123 -0.000004 0.210048
196.356750 -74.135963 -0.000001 0.234750
197.906952 -74.907333 0.000000 0.243797
199.049072 -75.475655 0.000002 0.227653
193.173996 -72.438400 5.656545 0.839216
193.173996 -72.438400 5.152812 0.849882
193.173996 -72.438400 4.656150 0.815122
193.173996 -72.438400 4.165371 0.905882
193.173996 -72.438400 3.679336 0.839216
193.173996 -72.438400 3.196947 0.627634
193.173996 -72.438400 2.717141 0.839216
193.173996 -72.438400 2.238876 0.839216
193.173996 -72.438400 1.761124 0.839216
193.173996 -72.438400 1.282859 0.823133
193.174011 -72.438408 0.803054 0.905882
193.174057 -72.438431 0.320673 0.560891
194.168579 -72.941994 -0.000004 0.221836
196.391174 -74.067375 -0.000002 0.206613
197.935959 -74.849564 0.000000 0.231123
199.074081 -75.425835 0.000002 0.217552
193.396515 -72.438393 5.606904 0.764492
193.396530 -72.438400 5.110009 0.650767
193.396515 -72.438393 4.620090 0.851392
193.396530 -72.438393 4.135974 0.813748
193.396530 -72.438400 3.656536 0.839216
193.396530 -72.438400 3.180697 0.839216
193.396530 -72.438393 2.707405 0.778210
193.396530 -72.438393 2.235633 0.756146
193.396530 -72.438393 1.764367 0.839216
193.396530 -72.438393 1.292595 0.596475
193.396545 -72.438408 0.819305 0.847349
193.396591 -72.438431 0.343473 0.564187
194.211395 -72.858170 -0.000004 0.229675
196.426071 -73.999039 -0.000002 0.209258
197.965363 -74.791985 0.000000 0.234271
199.099426 -75.376190 0.000001 0.179949
193.613098 -72.438393 5.558763 0.736095
193.613098 -72.438393 5.068500 0.744183
193.613098 -72.438393 4.585120 0.691875
193.613113 -72.438393 4.107465 0.839216
193.613098 -72.438393 3.634427 0.587991
193.613098 -72.438393 3.164938 0.745190
193.613098 -72.438393 2.697964 0.812009
193.613113 -72.438393 2.232489 0.839216
193.613113 -72.438393 1.767512 0.744183
193.613098 -72.438393 1.302036 0.676326
193.613129 -72.438408 0.835063 0.839216
193.613190 -72.438431 0.365583 0.537224
194.254791 -72.774643 -0.000004 0.210957
196.461456 -73.930946 -0.000002 0.214093
197.995163 -74.734619 0.000000 0.206422
199.125137 -75.326729 0.000001 0.244025
193.762573 -72.405655 5.529493 0.848798
193.762573 -72.405655 5.043262 0.854353
193.840881 -72.447388 4.547713 0.735592
193.823990 -72.438393 4.079807 0.668177
193.840881 -72.447388 3.610776 0.762371
193.762573 -72.405663 3.155356 0.825528
193.762573 -72.405655 2.692223 0.815015
193.762573 -72.405663 2.230576 0.837934
193.762573 -72.405663 1.769424 0.852979
193.762573 -72.405655 1.307777 0.861814
193.824020 -72.438408 0.850352 0.679561
193.824081 -72.438438 0.387033 0.557153
194.298767 -72.691422 -0.000004 0.245425
196.497314 -73.863098 -0.000002 0.249817
198.025375 -74.677460 0.000000 0.247256
199.151184 -75.277443 0.000001 0.190828
193.879593 -72.357193 5.509418 0.242252
193.879593 -72.357193 5.025954 0.265873
194.046036 -72.447388 4.514830 0.742504
194.029449 -72.438400 4.052962 0.612741
194.046036 -72.447395 3.589986 0.746914
193.883652 -72.359390 3.148408 0.844953
193.883652 -72.359390 2.688059 0.853880
193.879608 -72.357193 2.229264 0.238209
193.879608 -72.357193 1.770735 0.242252
193.879593 -72.357193 1.311714 0.266545
194.029449 -72.438400 0.865190 0.506706
194.029510 -72.438438 0.407851 0.560784
194.343323 -72.608505 -0.000004 0.232751
196.533630 -73.795502 -0.000002 0.237000
198.055969 -74.620514 -0.000000 0.282011
199.177567 -75.228348 0.000001 0.270545
194.076141 -72.353813 5.466620 0.242573
194.033264 -72.330185 4.999628 0.580392
194.229660 -72.438400 4.486296 0.786938
194.229660 -72.438400 4.026900 0.839216
194.245972 -72.447395 3.569802 0.812924
193.928650 -72.272545 3.148585 0.242741
193.928650 -72.272545 2.688165 0.264286
194.033264 -72.330185 2.227270 0.580392
194.033264 -72.330185 1.772730 0.580392
194.033264 -72.330185 1.317702 0.580392
194.245972 -72.447395 0.881123 0.736492
194.229721 -72.438438 0.428063 0.557000
194.388458 -72.525902 -0.000005 0.238136
196.570435 -73.728165 -0.000002 0.214488
198.086975 -74.563789 0.000000 0.205967
199.204300 -75.179428 0.000001 0.207654
194.231659 -72.330185 5.435442 0.580392
194.231659 -72.330185 4.962168 0.580392
194.424866 -72.438400 4.455245 0.839216
194.424866 -72.438400 4.001588 0.820768
194.440918 -72.447395 3.550198 0.839216
194.137054 -72.277191 3.133462 0.580392
194.137054 -72.277191 2.679104 0.580392
194.231674 -72.330185 2.224432 0.580392
194.231674 -72.330185 1.775568 0.580392
194.231659 -72.330185 1.326223 0.580392
194.440918 -72.447395 0.895095 0.776471
194.424927 -72.438438 0.447693 0.566491
194.434174 -72.443619 -0.000005 0.224697
196.607697 -73.661087 -0.000002 0.225199
198.118378 -74.507271 -0.000000 0.192898
199.231369 -75.130699 0.000001 0.220257
194.425186 -72.330193 5.393231 0.580392
194.472610 -72.357185 4.913987 0.263172
194.615265 -72.438408 4.425078 0.839216
194.615265 -72.438408 3.976995 0.605676
194.631058 -72.447395 3.531152 0.839216
194.332108 -72.277191 3.119535 0.580392
194.332108 -72.277191 2.670761 0.580392
194.425186 -72.330193 2.221674 0.580392
194.425186 -72.330193 1.778325 0.580392
194.425186 -72.330193 1.334501 0.580392
194.631058 -72.447395 0.908671 0.905882
194.615326 -72.438438 0.466766 0.567452
194.615326 -72.438438 0.023015 0.551064
196.645432 -73.594269 -0.000002 0.243031
198.150162 -74.450981 -0.000000 0.249171
199.258774 -75.082169 0.000001 0.228861
194.614029 -72.330193 5.352207 0.580392
194.744446 -72.405655 4.857855 0.830823
194.801056 -72.438408 4.395759 0.798627
194.801056 -72.438408 3.953093 0.839216
194.816589 -72.447395 3.512641 0.839216
194.522430 -72.277191 3.106000 0.580392
194.522430 -72.277191 2.662652 0.580392
194.614029 -72.330193 2.218994 0.580392
194.614029 -72.330193 1.781006 0.580392
194.614029 -72.330193 1.342547 0.580392
194.816589 -72.447395 0.921864 0.839216
194.801102 -72.438438 0.485302 0.552697
194.801102 -72.438438 0.046915 0.560784
196.683624 -73.527718 -0.000002 0.235504
198.182343 -74.394913 -0.000000 0.209306
199.286530 -75.033821 0.000001 0.280754
194.798370 -72.330200 5.312322 0.580392
194.926697 -72.405655 4.823853 0.861357
194.982407 -72.438416 4.367254 0.776471
194.982407 -72.438416 3.929855 0.839216
194.997681 -72.447395 3.494643 0.824384
194.708221 -72.277191 3.092842 0.580392
194.708221 -72.277191 2.654768 0.580392
194.798355 -72.330193 2.216389 0.580392
194.798355 -72.330193 1.783611 0.580392
194.798355 -72.330193 1.350369 0.580392
194.997681 -72.447395 0.934692 0.827588
194.982452 -72.438438 0.503323 0.559243
194.982452 -72.438438 0.070153 0.560784
196.722290 -73.461433 -0.000002 0.221537
198.214920 -74.339066 -0.000000 0.228909
199.314606 -74.985672 0.000001 0.232260
194.978363 -72.330200 5.273533 0.580392
195.104675 -72.405663 4.790785 0.819669
195.159515 -72.438416 4.339532 0.776471
195.159515 -72.438416 3.907255 0.905882
195.174545 -72.447395 3.477141 0.571817
194.889648 -72.277191 3.080045 0.580392
194.889648 -72.277191 2.647100 0.580392
194.978363 -72.330200 2.213855 0.580392
194.978363 -72.330200 1.786145 0.580392
194.978363 -72.330200 1.357977 0.580392
195.174545 -72.447395 0.947167 0.659251
195.159561 -72.438438 0.520850 0.560601
195.159546 -72.438438 0.092752 0.545113
196.761414 -73.395424 -0.000002 0.254592
198.247879 -74.283455 -0.000001 0.200486
199.343033 -74.937714 0.000000 0.191007
195.154221 -72.330200 5.235798 0.580392
195.347321 -72.447403 4.741241 0.839216
195.332520 -72.438416 4.312564 0.687114
195.332520 -72.438416 3.885270 0.689601
195.347321 -72.447395 3.460114 0.905882
195.066879 -72.277191 3.067595 0.580392
195.066879 -72.277191 2.639641 0.580392
195.154221 -72.330200 2.211390 0.580392
195.154221 -72.330200 1.788610 0.580392
195.154221 -72.330200 1.365378 0.580392
195.347321 -72.447395 0.959303 0.839216
195.332565 -72.438446 0.537900 0.549020
195.332565 -72.438438 0.114737 0.564416
196.800995 -73.329681 -0.000002 0.216738
198.281219 -74.228073 -0.000000 0.222195
199.371780 -74.889969 0.000000 0.242780
195.448456 -72.405655 5.163062 0.843931
195.516159 -72.447403 4.710133 0.839216
195.501602 -72.438423 4.286320 0.839216
195.501587 -72.438423 3.863875 0.825193
195.448456 -72.405663 3.452693 0.842100
195.448456 -72.405655 3.035408 0.863920
195.448456 -72.405655 2.620357 0.853681
195.448456 -72.405655 2.206638 0.861311
195.448456 -72.405655 1.793362 0.841215
195.448456 -72.405655 1.379643 0.809415
195.516159 -72.447403 0.971113 0.839216
195.501633 -72.438446 0.554492 0.561822
195.501633 -72.438438 0.136131 0.548287
196.841049 -73.264221 -0.000002 0.194454
198.314957 -74.172928 -0.000000 0.234247
199.400864 -74.842415 0.000001 0.278205
195.666870 -72.438423 5.112259 0.839216
195.666870 -72.438423 4.683508 0.802319
195.666885 -72.438423 4.260775 0.839216
195.666870 -72.438423 3.843050 0.813458
195.666885 -72.438423 3.429362 0.839216
195.666885 -72.438423 3.018778 0.522744
195.666885 -72.438423 2.610393 0.812009
195.666885 -72.438423 2.203319 0.839216
195.666885 -72.438423 1.796681 0.806561
195.666885 -72.438423 1.389607 0.730282
195.666870 -72.438416 0.981221 0.839216
195.666916 -72.438446 0.570643 0.557427
195.666916 -72.438438 0.156956 0.560784
196.881546 -73.199043 -0.000002 0.231698
198.349075 -74.118011 -0.000001 0.235324
199.430283 -74.795067 0.000001 0.227114
195.828506 -72.438416 5.078020 0.839216
195.828506 -72.438416 4.653985 0.765911
195.828522 -72.438416 4.235903 0.590570
195.828522 -72.438416 3.822774 0.839216
195.828522 -72.438416 3.413637 0.839216
195.828522 -72.438416 3.007570 0.839216
195.828506 -72.438416 2.603678 0.805066
195.828506 -72.438416 2.201082 0.839216
195.828506 -72.438416 1.798918 0.839216
195.828506 -72.438416 1.396322 0.827451
195.828522 -72.438416 0.992429 0.839216
195.828552 -72.438446 0.586369 0.561257
195.828552 -72.438446 0.177233 0.551827
196.922501 -73.134148 -0.000003 0.235887
198.383575 -74.063339 -0.000001 0.190648
199.460037 -74.747925 0.000001 0.201778
195.986633 -72.438416 5.044674 0.839216
195.986633 -72.438416 4.625232 0.839216
195.986633 -72.438416 4.211680 0.839216
195.986633 -72.438416 3.803026 0.636011
195.986633 -72.438416 3.398322 0.776471
195.986633 -72.438416 2.996655 0.839216
195.986633 -72.438416 2.597137 0.749142
195.986633 -72.438416 2.198904 0.776471
195.986633 -72.438416 1.801096 0.821012
195.986633 -72.438416 1.402862 0.824811
195.986633 -72.438416 1.003345 0.839216
195.986633 -72.438408 0.601677 0.765362
195.986679 -72.438446 0.196982 0.530343
196.963898 -73.069542 -0.000003 0.235516
198.418457 -74.008911 -0.000001 0.229687
199.490112 -74.700996 0.000000 0.268930
196.141373 -72.438408 5.012186 0.547539
196.141373 -72.438408 4.597221 0.839216
196.141373 -72.438408 4.188082 0.915816
196.141373 -72.438408 3.783787 0.905882
196.141373 -72.438408 3.383401 0.836103
196.141373 -72.438408 2.986020 0.839216
196.141373 -72.438408 2.590765 0.674098
196.141373 -72.438408 2.196781 0.776471
196.141373 -72.438408 1.803219 0.799786
196.141373 -72.438408 1.409234 0.840940
196.141373 -72.438408 1.013980 0.839216
196.141373 -72.438408 0.616599 0.833204
196.542465 -72.701424 0.287360 0.536675
197.022278 -73.016060 0.003592 0.568048
198.453720 -73.954727 -0.000001 0.249063
199.520523 -74.654274 0.000000 0.205967
196.243683 -72.405663 4.995329 0.845243
196.306351 -72.447395 4.566422 0.659983
196.292862 -72.438408 4.165084 0.905882
196.292862 -72.438408 3.765039 0.761578
196.316376 -72.454063 3.365613 0.272984
196.316376 -72.454063 2.973341 0.277119
196.316376 -72.454063 2.583170 0.277211
196.316376 -72.454063 2.194251 0.268055
196.316376 -72.454063 1.805749 0.282841
196.316376 -72.454056 1.416830 0.278355
196.316360 -72.454056 1.026658 0.285695
196.316360 -72.454056 0.634387 0.277516
196.657806 -72.681374 0.299994 0.553491
197.160492 -73.016060 0.024575 0.554513
198.489365 -73.900787 -0.000001 0.233278
199.551254 -74.607773 0.000000 0.279904
196.346054 -72.374100 4.978437 0.859464
196.454498 -72.447395 4.539850 0.905882
196.441208 -72.438408 4.142668 0.517021
196.441208 -72.438408 3.746766 0.839216
196.441254 -72.438438 3.354683 0.275669
196.441254 -72.438446 2.965551 0.277150
196.441254 -72.438446 2.578502 0.270176
196.441254 -72.438438 2.192696 0.269932
196.441254 -72.438438 1.807304 0.280140
196.441254 -72.438446 1.421498 0.281117
196.441254 -72.438446 1.034449 0.266361
196.441254 -72.438438 0.645317 0.276402
196.702393 -72.614944 0.299996 0.556435
197.295837 -73.016060 0.045027 0.568444
198.525375 -73.847107 -0.000001 0.243043
199.582306 -74.561478 0.000000 0.235085
196.428802 -72.330200 4.967496 0.580392
196.599609 -72.447395 4.513946 0.821347
196.586517 -72.438408 4.120814 0.905882
196.586517 -72.438416 3.728950 0.839216
196.475266 -72.362083 3.356392 0.285008
196.475266 -72.362083 2.966770 0.271672
196.475266 -72.362083 2.579232 0.267109
196.475266 -72.362083 2.192940 0.272038
196.475266 -72.362083 1.807060 0.270039
196.475266 -72.362083 1.420768 0.275380
196.475266 -72.362083 1.033230 0.273762
196.475266 -72.362083 0.643607 0.272602
196.747421 -72.548813 0.299997 0.548791
197.428421 -73.016060 0.064966 0.558068
198.561768 -73.793671 -0.000001 0.202676
199.613678 -74.515404 0.000000 0.190109
196.612274 -72.357185 4.925846 0.244099
196.730179 -72.439301 4.491742 0.625727
196.728897 -72.438416 4.099503 0.825193
196.741791 -72.447395 3.709245 0.839216
196.619293 -72.362083 3.342763 0.272206
196.527756 -72.298325 2.966202 0.279057
196.527756 -72.298325 2.578892 0.269154
196.527756 -72.298325 2.192826 0.276783
196.527756 -72.298325 1.807174 0.272557
196.616898 -72.360413 1.426445 0.688685
196.527756 -72.298325 1.033798 0.281376
196.527756 -72.298332 0.644404 0.273884
196.792938 -72.483009 0.299999 0.536919
197.558319 -73.016060 0.084410 0.560784
198.598526 -73.740486 -0.000001 0.227653
199.645370 -74.469551 -0.000000 0.208696
196.822128 -72.405670 4.875839 0.844053
196.868454 -72.438408 4.467405 0.785168
196.868454 -72.438416 4.078715 0.839216
196.881165 -72.447395 3.692322 0.839216
196.760468 -72.362076 3.329469 0.280919
196.669876 -72.298050 2.956676 0.580392
196.669861 -72.298042 2.573185 0.283482
196.669861 -72.298042 2.190926 0.272572
196.669861 -72.298042 1.809075 0.284749
196.669861 -72.298042 1.426815 0.259556
196.669861 -72.298042 1.043323 0.284977
196.669861 -72.298035 0.657767 0.271305
196.838898 -72.417526 0.300003 0.552071
197.685654 -73.016052 0.103376 0.556100
198.635651 -73.687569 -0.000001 0.261988
199.677383 -74.423920 -0.000000 0.249554
196.959625 -72.405663 4.847784 0.840467
197.005280 -72.438416 4.443334 0.776471
197.005280 -72.438416 4.058435 0.656184
197.017807 -72.447395 3.675811 0.802930
196.898865 -72.362076 3.316500 0.278431
196.825241 -72.309258 2.945765 0.479103
196.809601 -72.298035 2.567593 0.276249
196.836105 -72.317047 2.188529 0.267247
196.836105 -72.317047 1.811471 0.271336
196.836105 -72.317047 1.434009 0.281697
196.836105 -72.317047 1.055330 0.278660
196.836105 -72.317047 0.674614 0.277653
196.885330 -72.352356 0.300004 0.492363
197.810486 -73.016052 0.121879 0.560784
198.673157 -73.634911 -0.000001 0.280455
199.709717 -74.378517 -0.000000 0.178477
197.094482 -72.405663 4.820407 0.861570
197.139465 -72.438416 4.419843 0.833783
197.139465 -72.438416 4.038645 0.839216
197.151810 -72.447395 3.659700 0.905882
196.972504 -72.316864 3.312680 0.274083
196.946655 -72.298050 2.938235 0.580392
196.944641 -72.296570 2.562259 0.276341
196.972748 -72.317039 2.186717 0.284962
196.972748 -72.317039 1.813283 0.262592
196.972748 -72.317039 1.439449 0.279744
196.972748 -72.317039 1.064411 0.267338
196.972748 -72.317039 0.687354 0.275212
196.946655 -72.298035 0.302657 0.321202
197.816193 -72.931068 0.113661 0.562631
198.711014 -73.582512 -0.000002 0.223631
199.742371 -74.333336 0.000000 0.293045
197.226776 -72.405663 4.793684 0.855344
197.271103 -72.438416 4.396915 0.822553
197.271118 -72.438416 4.019330 0.839216
197.283264 -72.447395 3.643975 0.839216
197.104538 -72.315361 3.300534 0.482353
197.081100 -72.298050 2.929345 0.580392
197.083771 -72.300011 2.556647 0.282658
197.106812 -72.317047 2.184947 0.275517
197.106812 -72.317047 1.815052 0.672694
197.106812 -72.317047 1.444761 0.278920
197.106812 -72.317039 1.073276 0.285389
197.106812 -72.317039 0.699792 0.279164
197.081085 -72.298042 0.318740 0.263615
197.816177 -72.841080 0.103978 0.538033
198.749252 -73.530380 -0.000001 0.215039
199.775330 -74.288383 -0.000000 0.202580
197.412262 -72.447395 4.750170 0.839216
197.400284 -72.438416 4.374534 0.776471
197.400284 -72.438416 4.000474 0.839216
197.412262 -72.447395 3.628624 0.776471
197.213028 -72.298050 3.291710 0.580392
197.213028 -72.298050 2.920667 0.580392
197.220123 -72.303375 2.551174 0.278431
197.238373 -72.317047 2.183221 0.273060
197.238373 -72.317047 1.816780 0.634134
197.238373 -72.317047 1.449946 0.228305
197.238373 -72.317055 1.081930 0.278248
197.238373 -72.317047 0.711934 0.278431
197.213028 -72.298042 0.334439 0.285435
197.816177 -72.750168 0.094101 0.549020
198.787842 -73.478516 -0.000002 0.187895
199.808609 -74.243668 -0.000000 0.189703
197.538879 -72.447395 4.724858 0.606683
197.527069 -72.438416 4.352678 0.786206
