# This PCD file was generated using the MATLABÂ® pcwrite function
# from Computer Vision ToolboxÂ®.
# .PCD v.7 - Point Cloud Data file format
VERSION .7
FIELDS x y z intensity
SIZE 4 4 4 4
TYPE F F F F
COUNT 1 1 1 1
WIDTH 1301
HEIGHT 1
VIEWPOINT 0 0 0 1 0 0 0
POINTS 1301
DATA ascii
269.650085 -51.673759 11.164509 0.223529
238.169891 -23.511148 4.248250 0.429389
236.374084 -21.904594 3.404869 0.440604
237.153412 -22.601780 2.893086 0.445014
237.446793 -22.864250 2.303924 0.437049
237.665894 -23.060265 1.691265 0.464530
253.945511 -37.624222 0.000034 0.230692
241.783340 -26.743782 0.000013 0.223225
236.561600 -22.072342 0.000003 0.232320
233.653336 -19.470572 -0.000002 0.210622
231.796646 -17.809559 -0.000005 0.231913
230.506180 -16.655087 -0.000007 0.252031
229.555435 -15.804543 -0.000015 0.226576
nan nan nan 0.000000
nan nan nan 0.000000
nan nan nan 0.000000
269.008179 -51.673759 11.093769 0.223529
268.582092 -51.287170 8.986405 0.968627
236.905426 -22.548164 3.472558 0.421668
236.845078 -22.493406 2.878268 0.437766
236.820862 -22.471439 2.292012 0.451957
237.393845 -22.991289 1.695328 0.454231
237.328262 -22.931784 1.089680 0.478416
237.343063 -22.945221 0.478988 0.468635
236.480347 -22.162514 0.000003 0.237921
233.590332 -19.540504 -0.000002 0.233074
231.745285 -17.866570 -0.000005 0.230345
230.462906 -16.703119 -0.000007 0.233278
229.518127 -15.845955 -0.000015 0.239297
nan nan nan 0.000000
nan nan nan 0.000000
nan nan nan 0.000000
nan nan nan 0.000000
267.955902 -51.287155 8.933226 0.968627
236.850372 -22.667881 3.475847 0.445304
236.373840 -22.229443 2.852430 0.452491
236.663330 -22.495789 2.290378 0.451286
237.510971 -23.275679 1.690774 0.438422
253.563553 -38.045181 0.000035 0.227377
241.554504 -26.996010 0.000013 0.225941
236.398483 -22.252115 0.000003 0.224721
233.526840 -19.609993 -0.000002 0.226061
231.693527 -17.923220 -0.000005 0.223643
230.419296 -16.750845 -0.000007 0.240949
229.480530 -15.887110 -0.000016 0.257489
nan nan nan 0.000000
nan nan nan 0.000000
nan nan nan 0.000000
nan nan nan 0.000000
267.339142 -51.287140 8.881178 0.968627
236.795044 -22.788116 3.479219 0.439536
235.782791 -21.843643 2.818250 0.442313
267.339142 -51.287140 2.978809 0.968627
237.211761 -23.176926 1.695464 0.448539
253.370392 -38.253674 0.000035 0.227270
241.438766 -27.120924 0.000013 0.231207
236.315994 -22.341145 0.000003 0.236760
233.462860 -19.679043 -0.000001 0.240075
231.641373 -17.979511 -0.000005 0.208600
230.375366 -16.798267 -0.000007 0.265148
229.442657 -15.928001 -0.000016 0.208193
nan nan nan 0.000000
nan nan nan 0.000000
nan nan nan 0.000000
249.700653 -35.172657 7.329124 0.223529
249.928436 -35.388187 6.169034 0.223529
236.321396 -22.513348 3.435490 0.435935
235.690979 -21.916849 2.817425 0.439689
236.709198 -22.880280 2.295219 0.448493
266.731537 -51.287117 1.028437 0.968627
253.175781 -38.460793 0.000035 0.230752
241.322159 -27.245016 0.000013 0.229089
236.232895 -22.429600 0.000003 0.207463
233.398407 -19.747643 -0.000002 0.233936
231.588837 -18.035435 -0.000005 0.241488
230.331100 -16.845379 -0.000007 0.219969
229.404480 -15.968626 -0.000017 0.241356
nan nan nan 0.000000
nan nan nan 0.000000
nan nan nan 0.000000
249.578156 -35.402718 7.339511 0.223529
249.636246 -35.458466 6.150276 0.223529
236.321533 -22.682856 3.445085 0.450980
236.624344 -22.973410 2.886428 0.451530
236.710434 -23.056015 2.297217 0.435370
236.770538 -23.113686 1.701419 0.444541
252.979736 -38.666565 0.000034 0.230692
241.204697 -27.368301 0.000013 0.218521
236.149170 -22.517467 0.000003 0.223943
233.333481 -19.815784 -0.000001 0.209390
231.535889 -18.090988 -0.000005 0.278013
230.286499 -16.892185 -0.000007 0.252474
229.366028 -16.008984 -0.000017 0.252091
nan nan nan 0.000000
nan nan nan 0.000000
nan nan nan 0.000000
249.437057 -35.616051 7.346449 0.223529
265.542786 -51.287094 8.731554 0.968627
236.164337 -22.701571 3.436882 0.461540
236.380157 -22.911568 2.875690 0.452293
236.348846 -22.881096 2.290973 0.441154
265.542786 -51.287079 1.042474 0.968627
252.782257 -38.870964 0.000033 0.230238
241.086365 -27.490755 0.000013 0.219335
236.064819 -22.604750 0.000004 0.239070
233.268066 -19.883480 -0.000001 0.237550
231.482574 -18.146172 -0.000005 0.232248
230.241577 -16.938675 -0.000007 0.198607
229.327301 -16.049070 -0.000017 0.231913
nan nan nan 0.000000
nan nan nan 0.000000
nan nan nan 0.000000
249.295563 -35.829941 7.353663 0.223529
264.961151 -51.287064 8.683756 0.968627
236.144623 -22.853985 3.444474 0.431373
236.295471 -23.002827 2.875855 0.450126
236.461487 -23.166634 2.295560 0.448585
236.530731 -23.234957 1.702848 0.435554
249.732742 -36.261292 0.196768 0.223529
240.967194 -27.612389 0.000013 0.228251
235.979889 -22.691441 0.000004 0.249925
233.202194 -19.950712 -0.000001 0.230166
231.428864 -18.200983 -0.000005 0.231255
230.196335 -16.984852 -0.000007 0.197745
229.288284 -16.088886 -0.000018 0.266512
nan nan nan 0.000000
nan nan nan 0.000000
nan nan nan 0.000000
249.153687 -36.044403 7.361155 0.223529
264.387695 -51.287056 8.636957 0.968627
236.770538 -23.654236 3.527130 0.453864
236.244293 -23.127689 2.878396 0.432364
236.381836 -23.265316 2.295773 0.434821
264.387695 -51.287048 1.055929 0.968627
252.383026 -39.275581 0.000033 0.224876
240.847168 -27.733185 0.000013 0.239513
235.894333 -22.777536 0.000004 0.231363
233.135849 -20.017485 -0.000001 0.197230
231.374786 -18.255417 -0.000005 0.247172
230.150772 -17.030712 -0.000006 0.206458
229.248993 -16.128429 -0.000018 0.190720
nan nan nan 0.000000
nan nan nan 0.000000
248.919037 -36.165775 8.561853 0.223529
249.011368 -36.259457 7.368928 0.223529
263.822174 -51.287041 8.591125 0.968627
236.553711 -23.619473 3.512583 0.462989
236.301865 -23.363937 2.888626 0.427863
235.984177 -23.041592 2.288591 0.452583
263.822174 -51.287033 1.062448 0.968627
252.181305 -39.475784 0.000033 0.229208
240.726318 -27.853144 0.000013 0.224481
235.808197 -22.863033 0.000004 0.242876
233.069031 -20.083790 -0.000001 0.233266
231.320313 -18.309471 -0.000004 0.208408
230.104889 -17.076252 -0.000006 0.222758
229.209442 -16.167698 -0.000019 0.208839
nan nan nan 0.000000
nan nan nan 0.000000
250.558121 -38.213467 9.036745 0.223529
248.868622 -36.475136 7.376980 0.223529
263.138977 -51.157982 8.525541 0.223529
236.454865 -23.702549 3.511783 0.461280
235.636780 -22.860817 2.848108 0.447684
235.939804 -23.172592 2.289615 0.460563
263.139038 -51.158058 1.071775 0.223529
251.978180 -39.674583 0.000033 0.230118
240.604614 -27.972248 0.000013 0.227928
235.721451 -22.947931 0.000004 0.224517
233.001770 -20.149630 -0.000001 0.228299
231.265472 -18.363148 -0.000004 0.262671
230.058685 -17.121471 -0.000007 0.284165
229.169601 -16.206690 -0.000019 0.242218
nan nan nan 0.000000
nan nan nan 0.000000
nan nan nan 0.000000
248.725418 -36.691444 7.385317 0.223529
262.714142 -51.287018 8.502281 0.968627
236.358780 -23.788315 3.511371 0.458213
236.138214 -23.558176 2.889865 0.437507
248.530029 -36.487579 2.589468 0.979660
262.714111 -51.287003 1.075086 0.968627
251.773682 -39.871948 0.000033 0.229950
240.482086 -28.090498 0.000013 0.229460
235.634125 -23.032215 0.000004 0.199277
232.934036 -20.214996 -0.000001 0.211412
231.210251 -18.416435 -0.000004 0.217360
230.012161 -17.166365 -0.000006 0.230094
229.129486 -16.245399 -0.000020 0.226276
nan nan nan 0.000000
nan nan nan 0.000000
247.389587 -35.647038 8.300664 0.223529
248.581757 -36.908432 7.393939 0.223529
262.171173 -51.287003 8.459215 0.968627
236.347107 -23.963295 3.521103 0.429206
235.225220 -22.776260 2.831118 0.423255
236.411850 -24.031809 2.305111 0.431312
262.171143 -51.286980 1.081212 0.968627
251.567810 -40.067890 0.000033 0.225666
240.358734 -28.207895 0.000013 0.233086
235.546204 -23.115891 0.000004 0.257967
232.865860 -20.279890 -0.000001 0.245892
231.154678 -18.469339 -0.000004 0.215062
229.965332 -17.210934 -0.000006 0.235300
229.089111 -16.283833 -0.000020 0.195926
nan nan nan 0.000000
nan nan nan 0.000000
nan nan nan 0.000000
248.437607 -37.126102 7.402850 0.223529
261.635345 -51.286987 8.417030 0.968627
236.356201 -24.163025 3.533556 0.468406
235.126236 -22.843294 2.830192 0.431373
236.225510 -24.022783 2.302917 0.432258
261.635315 -51.286957 1.087213 0.968627
251.360565 -40.262383 0.000033 0.228227
240.234573 -28.324429 0.000013 0.238376
235.457703 -23.198948 0.000004 0.219132
232.797226 -20.344307 -0.000001 0.234702
231.098724 -18.521851 -0.000004 0.214428
229.918198 -17.255175 -0.000006 0.242146
229.048477 -16.321980 -0.000020 0.258602
nan nan nan 0.000000
nan nan nan 0.000000
nan nan nan 0.000000
245.269669 -34.054810 6.749299 0.223529
245.440811 -34.241035 5.712376 0.223529
245.613358 -34.428787 4.666905 0.223529
235.006683 -22.887548 2.827798 0.443290
247.117218 -36.065163 2.568606 0.963653
254.172119 -43.741669 1.260785 0.223529
251.151993 -40.455429 0.000033 0.229113
240.109604 -28.440094 0.000013 0.220101
235.368622 -23.281387 0.000004 0.231135
232.728134 -20.408241 -0.000001 0.216283
231.042404 -18.573975 -0.000005 0.221286
229.870743 -17.299084 -0.000006 0.225403
229.007568 -16.359842 -0.000021 0.254652
nan nan nan 0.000000
nan nan nan 0.000000
nan nan nan 0.000000
245.184723 -34.293945 6.767006 0.223529
245.270966 -34.389114 5.711787 0.223529
245.357254 -34.484322 4.656113 0.223529
235.079636 -23.143236 2.839492 0.436393
245.608185 -34.761223 2.536199 0.223529
245.783051 -34.954185 1.459539 0.223529
245.960907 -35.150452 0.364447 0.223529
239.983826 -28.554884 0.000013 0.236425
235.278976 -23.363201 0.000004 0.234941
232.658615 -20.471691 -0.000001 0.206565
230.985718 -18.625702 -0.000004 0.200462
229.822998 -17.342667 -0.000006 0.216762
228.966385 -16.397419 -0.000021 0.199744
nan nan nan 0.000000
nan nan nan 0.000000
251.883698 -42.127319 9.722312 0.223529
245.172058 -34.616486 6.801315 0.223529
260.068665 -51.286949 8.295528 0.968627
260.068665 -51.286934 6.487137 0.968627
234.891006 -23.111189 2.832123 0.436774
245.492599 -34.975189 2.537536 0.223529
245.580490 -35.073547 1.460305 0.223529
245.669189 -35.172798 0.373218 0.223529
239.857239 -28.668791 0.000013 0.227665
235.188751 -23.444389 0.000004 0.241643
232.588638 -20.534657 -0.000001 0.235755
230.928680 -18.677031 -0.000004 0.214608
229.774933 -17.385908 -0.000006 0.230800
228.924957 -16.434708 -0.000021 0.252773
nan nan nan 0.000000
nan nan nan 0.000000
245.058197 -34.829052 7.904706 0.223529
245.132004 -34.912827 6.830251 0.223529
259.559479 -51.286934 8.256648 0.968627
259.559479 -51.286919 6.459427 0.968627
236.227173 -24.806507 2.937988 0.432624
246.304688 -36.243736 2.561884 0.277150
245.567413 -35.406975 1.456366 0.223529
250.518204 -41.025757 0.000033 0.228191
239.729874 -28.781811 0.000013 0.240327
235.097977 -23.524946 0.000004 0.215625
232.518234 -20.597128 -0.000001 0.243702
230.871277 -18.727959 -0.000004 0.234091
229.726578 -17.428816 -0.000006 0.203884
228.883255 -16.471706 -0.000022 0.208923
nan nan nan 0.000000
nan nan nan 0.000000
244.977661 -35.081791 7.929668 0.223529
245.091446 -35.212765 6.859775 0.223529
258.989014 -51.209229 8.206707 0.223529
258.992126 -51.212830 6.424222 0.223529
249.996857 -40.859032 3.976936 0.297505
246.114258 -36.390053 2.561634 0.312474
245.528717 -35.716084 1.452976 0.223529
250.304306 -41.212906 0.000034 0.228993
239.601715 -28.893938 0.000013 0.224409
235.006622 -23.604862 0.000004 0.223332
232.447388 -20.659111 -0.000001 0.217588
230.813522 -18.778492 -0.000004 0.211544
229.677933 -17.471386 -0.000006 0.200127
228.841309 -16.508411 -0.000022 0.194250
nan nan nan 0.000000
nan nan nan 0.000000
nan nan nan 0.000000
244.785690 -35.207401 6.829546 0.980392
258.559570 -51.286903 8.181202 0.968627
258.559570 -51.286880 6.405651 0.968627
249.693436 -40.936649 3.970087 0.268009
245.922119 -36.534058 2.561363 0.286717
245.489563 -36.029095 1.449516 0.223529
250.089111 -41.398552 0.000033 0.227617
239.472778 -29.005167 0.000013 0.237562
234.914734 -23.684147 0.000004 0.239405
232.376114 -20.720596 -0.000001 0.230465
230.755432 -18.828617 -0.000004 0.272257
229.628983 -17.513613 -0.000006 0.195220
228.799103 -16.544825 -0.000023 0.266979
nan nan nan 0.000000
nan nan nan 0.000000
258.395294 -51.673737 11.810855 0.223529
244.477829 -35.195148 6.798573 0.978927
258.068604 -51.286903 8.144608 0.968627
258.068573 -51.286880 6.379567 0.968627
249.389160 -41.010269 3.963157 0.307637
245.732529 -36.680748 2.561183 0.290211
245.449890 -36.346092 1.445985 0.223529
249.872620 -41.582695 0.000033 0.230537
239.343079 -29.115499 0.000012 0.240997
234.822281 -23.762783 0.000004 0.204938
232.304413 -20.781582 -0.000001 0.225367
230.696976 -18.878332 -0.000004 0.207164
229.579742 -17.555500 -0.000006 0.227653
228.756638 -16.580942 -0.000023 0.229603
nan nan nan 0.000000
nan nan nan 0.000000
257.905487 -51.673752 11.753589 0.223529
244.207535 -35.223473 6.776028 0.980392
257.583344 -51.286880 8.108732 0.968627
257.583344 -51.286865 6.354001 0.968627
248.144196 -39.951134 3.883988 0.223529
245.577072 -36.868195 2.561898 0.296361
257.583313 -51.286858 1.131066 0.968627
249.654846 -41.765324 0.000033 0.230704
239.212601 -29.224916 0.000012 0.228885
234.729279 -23.840773 0.000003 0.260265
232.232300 -20.842064 -0.000001 0.254712
230.638184 -18.927641 -0.000004 0.230166
229.530197 -17.597038 -0.000006 0.253455
228.713928 -16.616760 -0.000023 0.218665
nan nan nan 0.000000
nan nan nan 0.000000
247.673737 -39.799995 8.902177 0.223529
243.958893 -35.274872 6.758404 0.980392
257.103699 -51.286873 8.073572 0.968627
257.103699 -51.286850 6.328938 0.968627
249.301285 -41.782555 3.989550 0.973358
245.462830 -37.106850 2.563717 0.304341
250.824387 -43.637886 1.298010 0.223529
249.435806 -41.946423 0.000033 0.228514
239.081360 -29.333427 0.000012 0.233242
234.635742 -23.918110 0.000004 0.221764
232.159760 -20.902046 -0.000001 0.235623
230.579041 -18.976538 -0.000004 0.209162
229.480377 -17.638235 -0.000006 0.236545
228.670975 -16.652281 -0.000024 0.241416
nan nan nan 0.000000
nan nan nan 0.000000
nan nan nan 0.000000
243.712494 -35.326385 6.741235 0.968627
256.629547 -51.286858 8.039106 0.968627
253.046280 -46.859337 5.837343 0.223529
246.989441 -39.375431 3.826131 0.223529
245.289383 -37.274818 2.564054 0.296910
250.632523 -43.876862 1.296962 0.223529
249.215515 -42.125999 0.000033 0.227784
238.949371 -29.441011 0.000012 0.227736
234.541672 -23.994791 0.000004 0.230046
232.086792 -20.961514 -0.000001 0.220029
230.519562 -19.025019 -0.000004 0.256495
229.430267 -17.679079 -0.000006 0.205201
228.627762 -16.687500 -0.000024 0.246658
nan nan nan 0.000000
nan nan nan 0.000000
246.000076 -38.551449 8.533995 0.223529
243.467606 -35.377239 6.724360 0.973312
256.160706 -51.286842 8.005322 0.968627
249.556381 -43.008949 5.411993 0.223529
246.566467 -39.261368 3.808746 0.223529
245.115448 -37.442665 2.564412 0.302464
250.546570 -44.250069 1.293082 0.223529
248.993973 -42.304016 0.000033 0.231255
238.816635 -29.547672 0.000012 0.234917
234.447052 -24.070816 0.000004 0.234259
232.013412 -21.020477 -0.000001 0.232883
230.459732 -19.073086 -0.000004 0.246215
229.379868 -17.719574 -0.000006 0.252713
228.584320 -16.722418 -0.000024 0.216774
nan nan nan 0.000000
nan nan nan 0.000000
245.573700 -38.414841 8.466336 0.223529
243.224930 -35.428345 6.707952 0.980392
255.697052 -51.286835 7.972201 0.968627
249.532043 -43.447937 5.438969 0.223529
255.697021 -51.286812 4.550360 0.968627
244.018097 -36.436867 2.540360 0.223529
250.457199 -44.624298 1.289190 0.223529
248.771179 -42.480499 0.000033 0.230345
238.683151 -29.653408 0.000012 0.223380
234.351913 -24.146179 0.000004 0.232607
231.939636 -21.078922 -0.000001 0.248800
230.399582 -19.120735 -0.000004 0.193377
229.329193 -17.759716 -0.000006 0.184413
228.540619 -16.757030 -0.000025 0.285074
nan nan nan 0.000000
nan nan nan 0.000000
242.999039 -35.498608 7.759782 0.223529
242.983124 -35.478069 6.691688 0.958419
255.170410 -51.199036 7.926953 0.223529
255.173370 -51.202850 6.224833 0.223529
255.176300 -51.206642 4.531511 0.223529
244.766815 -37.778946 2.565212 0.300847
250.369812 -45.006531 1.285140 0.223529
248.547180 -42.655411 0.000033 0.230453
238.548935 -29.758209 0.000012 0.233840
234.256256 -24.220875 0.000004 0.228742
231.865448 -21.136854 -0.000001 0.259631
230.339111 -19.167961 -0.000004 0.225283
229.278244 -17.799503 -0.000006 0.218294
228.496689 -16.791340 -0.000025 0.198295
nan nan nan 0.000000
nan nan nan 0.000000
244.935394 -38.396729 8.392572 0.223529
242.743759 -35.528496 6.675961 0.980392
254.784821 -51.286804 7.907898 0.968627
254.784805 -51.286797 6.210855 0.968627
254.784790 -51.286781 4.522901 0.968627
244.601715 -37.960045 2.565912 0.310796
254.784790 -51.286766 1.159634 0.968627
248.321945 -42.828751 0.000033 0.226157
238.413986 -29.862064 0.000013 0.229579
234.160065 -24.294901 0.000004 0.227353
231.790848 -21.194265 -0.000001 0.217408
230.278290 -19.214762 -0.000004 0.197805
229.227005 -17.838932 -0.000006 0.272568
228.452515 -16.825340 -0.000026 0.247663
nan nan nan 0.000000
nan nan nan 0.000000
254.627411 -51.673752 11.383116 0.223529
242.518448 -35.595131 6.663637 0.980392
254.335999 -51.286797 7.876694 0.968627
254.335983 -51.286781 6.188613 0.968627
254.335968 -51.286774 4.509573 0.968627
244.535034 -38.272820 2.569330 0.299947
252.147644 -48.381042 1.223598 0.223529
248.095520 -43.000526 0.000033 0.227916
238.278320 -29.964979 0.000013 0.215984
234.063370 -24.368252 0.000004 0.229197
231.715851 -21.251150 -0.000001 0.244791
230.217163 -19.261139 -0.000004 0.260313
229.175507 -17.878002 -0.000006 0.216235
228.408112 -16.859028 -0.000026 0.275117
nan nan nan 0.000000
nan nan nan 0.000000
254.179062 -51.673752 11.334267 0.223529
242.316635 -35.691513 6.657162 0.980392
253.891846 -51.286789 7.846097 0.968627
253.891846 -51.286774 6.166806 0.968627
253.891830 -51.286751 4.496506 0.968627
244.457733 -38.576214 2.572549 0.313008
253.891815 -51.286743 1.168425 0.968627
247.867889 -43.170723 0.000033 0.230453
238.141937 -30.066944 0.000013 0.217217
233.966171 -24.440929 0.000004 0.205093
231.640472 -21.307514 -0.000001 0.198810
230.155701 -19.307091 -0.000004 0.221956
229.123734 -17.916716 -0.000006 0.234797
228.363464 -16.892410 -0.000026 0.230884
nan nan nan 0.000000
nan nan nan 0.000000
248.441971 -44.436958 9.654934 0.707912
242.116089 -35.788582 6.651106 0.980392
253.452301 -51.286774 7.816099 0.968627
250.653809 -47.460846 5.756755 0.304128
253.452271 -51.286743 4.483697 0.968627
244.337524 -38.825596 2.574667 0.295415
253.452271 -51.286728 1.172693 0.968627
247.639084 -43.339294 0.000033 0.231817
238.004852 -30.167957 0.000013 0.233289
233.868454 -24.512928 0.000004 0.226444
231.564682 -21.363352 -0.000001 0.231925
230.093918 -19.352608 -0.000004 0.210622
229.071686 -17.955063 -0.000006 0.212262
228.318588 -16.925476 -0.000027 0.185490
nan nan nan 0.000000
nan nan nan 0.000000
253.296143 -51.673759 11.239419 0.223529
241.915771 -35.885036 6.645226 0.980392
253.017212 -51.286766 7.786690 0.968627
249.911911 -46.978600 5.689016 0.305531
253.017181 -51.286728 4.471138 0.968627
244.176590 -39.021622 2.575716 0.314839
251.319977 -48.932091 1.224373 0.293050
247.409119 -43.506302 0.000033 0.229077
237.867065 -30.268011 0.000012 0.238292
233.770248 -24.584236 0.000004 0.247256
231.488525 -21.418659 -0.000001 0.237837
230.031830 -19.397694 -0.000004 0.278648
229.019363 -17.993046 -0.000005 0.265926
228.273483 -16.958229 -0.000027 0.232069
nan nan nan 0.000000
nan nan nan 0.000000
252.861343 -51.673759 11.193383 0.223529
241.716370 -35.981834 6.639691 0.972076
252.586472 -51.286751 7.757854 0.968627
249.090469 -46.364449 5.608868 0.304067
252.586456 -51.286720 4.458825 0.968627
244.073242 -39.300262 2.578439 0.294728
250.843460 -48.832603 1.230234 0.299687
247.177979 -43.671677 0.000033 0.231470
237.728577 -30.367094 0.000013 0.227784
233.671539 -24.654861 0.000004 0.215003
231.411972 -21.473431 -0.000001 0.242122
229.969421 -19.442347 -0.000004 0.189200
228.966797 -18.030664 -0.000005 0.212801
228.228149 -16.990665 -0.000027 0.242409
nan nan nan 0.000000
nan nan nan 0.000000
252.430832 -51.673767 11.148248 0.223529
241.516937 -36.077690 6.634266 0.962005
252.159988 -51.286736 7.729584 0.968627
248.250839 -45.700523 5.524704 0.692454
252.159973 -51.286713 4.446752 0.968627
244.060211 -39.712074 2.583825 0.293095
250.283203 -48.604797 1.238563 0.298634
246.945679 -43.835434 0.000033 0.228323
237.589401 -30.465216 0.000012 0.227330
233.572342 -24.724796 0.000004 0.231267
231.335037 -21.527664 -0.000000 0.234139
229.906708 -19.486563 -0.000004 0.245688
228.913956 -18.067915 -0.000005 0.232141
228.182587 -17.022785 -0.000027 0.256052
nan nan nan 0.000000
nan nan nan 0.000000
251.965454 -51.617142 11.091477 0.223529
241.318283 -36.173813 6.629165 0.980346
251.731308 -51.277519 7.700578 0.223529
248.037262 -45.919434 5.529456 0.968627
251.737030 -51.285820 4.434863 0.223529
251.739883 -51.289940 2.811124 0.223529
249.812347 -48.494125 1.244447 0.304295
246.712280 -43.997597 0.000032 0.230597
237.449539 -30.562357 0.000012 0.227904
233.472656 -24.794037 0.000004 0.232942
231.257736 -21.581364 -0.000001 0.221549
229.843674 -19.530338 -0.000004 0.222865
228.860855 -18.104795 -0.000006 0.231052
228.136810 -17.054588 -0.000028 0.209629
nan nan nan 0.000000
nan nan nan 0.000000
248.495255 -47.128609 10.060871 0.223529
241.120682 -36.270638 6.624465 0.979385
251.319366 -51.286713 7.674688 0.968627
247.798828 -46.103241 5.530854 0.980392
251.319351 -51.286674 4.423309 0.968627
243.673752 -40.029663 2.584514 0.223529
249.332108 -48.360764 1.250685 0.278248
246.477707 -44.158081 0.000032 0.232320
237.309021 -30.658525 0.000012 0.231351
233.372498 -24.862581 0.000004 0.212992
231.180054 -21.634523 -0.000001 0.238340
229.780350 -19.573673 -0.000004 0.264406
228.807510 -18.141302 -0.000005 0.224314
228.090805 -17.086067 -0.000028 0.220173
nan nan nan 0.000000
nan nan nan 0.000000
nan nan nan 0.000000
240.924759 -36.369202 6.620345 0.980392
250.905029 -51.286697 7.648044 0.968627
247.542740 -46.261086 5.529849 0.970275
250.905014 -51.286659 4.411931 0.968627
250.904999 -51.286659 2.803404 0.968627
248.685257 -47.968811 1.261921 0.297261
246.242050 -44.316956 0.000032 0.229161
237.167816 -30.753706 0.000012 0.240829
233.271851 -24.930420 0.000004 0.226085
231.102005 -21.687136 -0.000001 0.223608
229.716721 -19.616566 -0.000004 0.234343
228.753906 -18.177441 -0.000006 0.220257
228.044586 -17.117226 -0.000029 0.294828
nan nan nan 0.000000
nan nan nan 0.000000
240.619293 -36.300850 7.626434 0.223529
240.087662 -35.494095 6.443517 0.223529
240.184128 -35.640472 5.466299 0.223529
240.280991 -35.787460 4.485039 0.223529
240.378464 -35.935375 3.497594 0.223529
240.476746 -36.084541 2.501765 0.223529
240.576096 -36.235298 1.495281 0.223529
240.676727 -36.388016 0.475775 0.223529
237.025955 -30.847900 0.000012 0.216965
233.170746 -24.997557 0.000004 0.239273
231.023575 -21.739204 -0.000001 0.255634
229.652802 -19.659014 -0.000003 0.206757
228.700043 -18.213200 -0.000005 0.296312
227.998154 -17.148062 -0.000029 0.232799
nan nan nan 0.000000
nan nan nan 0.000000
nan nan nan 0.000000
240.589294 -36.651161 6.627890 0.980392
240.012558 -35.762505 5.467246 0.223529
240.108444 -35.910244 4.485722 0.223529
240.204926 -36.058914 3.498008 0.223529
240.302231 -36.208847 2.501905 0.223529
240.400589 -36.360386 1.495140 0.223529
240.500214 -36.513893 0.475345 0.223529
236.883438 -30.941101 0.000012 0.227365
233.069168 -25.063988 0.000004 0.223201
230.944809 -21.790718 -0.000000 0.229185
229.588577 -19.701012 -0.000003 0.195675
228.645935 -18.248581 -0.000005 0.234079
227.951492 -17.178572 -0.000029 0.242744
nan nan nan 0.000000
nan nan nan 0.000000
nan nan nan 0.000000
240.420380 -36.791302 6.631797 0.959258
248.500183 -49.433250 7.318155 0.223529
249.684753 -51.286652 5.970874 0.968627
249.684738 -51.286629 4.379117 0.968627
249.167969 -50.478065 2.776769 0.223529
247.325974 -47.596031 1.279201 0.972992
245.528488 -44.783615 0.000032 0.228143
236.740280 -31.033306 0.000012 0.231195
232.967133 -25.129709 0.000003 0.227665
230.865662 -21.841690 -0.000000 0.229065
229.524063 -19.742563 -0.000003 0.250416
228.591583 -18.283585 -0.000005 0.208743
227.904633 -17.208755 -0.000030 0.210910
nan nan nan 0.000000
nan nan nan 0.000000
nan nan nan 0.000000
240.251541 -36.932308 6.636048 0.980392
248.199936 -49.562088 7.312172 0.223529
249.285278 -51.286652 5.953330 0.968627
249.285248 -51.286621 4.368606 0.968627
248.805557 -50.524399 2.774234 0.223529
247.019241 -47.685982 1.280647 0.980392
245.288467 -44.935837 0.000032 0.231087
236.596481 -31.124516 0.000012 0.226707
232.864624 -25.194710 0.000004 0.224804
230.786179 -21.892101 -0.000000 0.257764
229.459259 -19.783661 -0.000003 0.208983
228.536987 -18.318214 -0.000005 0.247232
227.857559 -17.238611 -0.000030 0.249961
nan nan nan 0.000000
nan nan nan 0.000000
nan nan nan 0.000000
240.082047 -37.073013 6.640434 0.980392
246.089737 -46.768562 6.911001 0.223529
248.889297 -51.286644 5.936133 0.968627
248.889282 -51.286606 4.358299 0.968627
248.480164 -50.626350 2.772829 0.223529
246.668015 -47.701820 1.283471 0.967071
245.047409 -45.086388 0.000031 0.229208
236.452042 -31.214706 0.000012 0.228143
232.761688 -25.258995 0.000004 0.217480
230.706345 -21.941961 -0.000001 0.218198
229.394165 -19.824306 -0.000003 0.244144
228.482162 -18.352455 -0.000005 0.270139
227.810287 -17.268139 -0.000030 0.197613
nan nan nan 0.000000
nan nan nan 0.000000
248.696335 -51.613869 10.767019 0.223529
239.913315 -37.215790 6.645367 0.980392
245.762680 -46.804695 6.894836 0.223529
248.496719 -51.286629 5.919272 0.968627
248.496704 -51.286598 4.348198 0.968627
248.156296 -50.728584 2.771478 0.223529
246.319870 -47.718109 1.286228 0.968627
244.805298 -45.235245 0.000031 0.226097
236.306976 -31.303894 0.000012 0.227641
232.658295 -25.322567 0.000004 0.218545
230.626160 -21.991261 -0.000001 0.202652
229.328796 -19.864498 -0.000003 0.252091
228.427094 -18.386314 -0.000005 0.229364
227.762802 -17.297337 -0.000031 0.237371
nan nan nan 0.000000
nan nan nan 0.000000
248.422729 -51.811623 10.772028 0.223529
239.744156 -37.358761 6.650518 0.980392
245.429672 -46.827133 6.877209 0.223529
248.107483 -51.286621 5.902747 0.968627
248.107468 -51.286583 4.338297 0.968627
248.107452 -51.286568 2.778876 0.968627
248.107452 -51.286568 1.221124 0.968627
244.562149 -45.382408 0.000031 0.227593
236.161301 -31.392065 0.000012 0.230465
232.554459 -25.385410 0.000004 0.219981
230.545624 -22.039997 -0.000001 0.237299
229.263153 -19.904232 -0.000004 0.236784
228.371780 -18.419788 -0.000005 0.238735
227.715103 -17.326200 -0.000031 0.247076
nan nan nan 0.000000
nan nan nan 0.000000
nan nan nan 0.000000
239.574738 -37.502293 6.655947 0.968627
247.721497 -51.286621 7.452889 0.968627
247.721497 -51.286613 5.886548 0.968627
247.721466 -51.286583 4.328591 0.968627
247.721466 -51.286568 2.775644 0.968627
247.721466 -51.286560 1.224358 0.968627
244.317978 -45.527863 0.000031 0.230441
236.015015 -31.479218 0.000012 0.223847
232.450195 -25.447525 0.000004 0.223248
230.464752 -22.088177 -0.000001 0.234103
229.197220 -19.943502 -0.000003 0.230944
228.316238 -18.452875 -0.000005 0.202472
227.667221 -17.354729 -0.000031 0.190672
nan nan nan 0.000000
nan nan nan 0.000000
239.547104 -37.890594 7.769619 0.223529
239.426086 -37.682522 6.667856 0.980392
247.338684 -51.286606 7.430613 0.968627
247.338669 -51.286591 5.870669 0.968627
247.338654 -51.286560 4.319079 0.968627
242.163574 -42.389091 2.604040 0.223529
247.338654 -51.286560 1.227526 0.968627
244.072815 -45.671616 0.000031 0.228909
235.868118 -31.565342 0.000012 0.229532
232.345490 -25.508915 0.000004 0.225546
230.383560 -22.135780 -0.000000 0.245628
229.131027 -19.982315 -0.000003 0.209294
228.260468 -18.485573 -0.000005 0.222040
227.619141 -17.382923 -0.000031 0.228586
nan nan nan 0.000000
nan nan nan 0.000000
239.324738 -37.947735 7.758404 0.223529
239.284683 -37.877731 6.682456 0.972946
246.958969 -51.286606 7.408781 0.968627
246.958954 -51.286591 5.855108 0.968627
246.958939 -51.286552 4.309756 0.968627
246.958923 -51.286545 2.769369 0.968627
240.712906 -40.373196 1.436397 0.223529
243.826630 -45.813652 0.000031 0.230453
235.720627 -31.650446 0.000012 0.222375
232.240356 -25.569572 0.000004 0.224792
230.302032 -22.182819 0.000000 0.243893
229.064560 -20.020664 -0.000003 0.248704
228.204468 -18.517881 -0.000005 0.234331
227.570847 -17.410782 -0.000031 0.201216
nan nan nan 0.000000
nan nan nan 0.000000
239.134842 -38.060776 7.759233 0.223529
239.142975 -38.075233 6.697555 0.965408
246.582260 -51.286591 7.387384 0.968627
246.582260 -51.286575 5.839859 0.968627
246.582245 -51.286537 4.300618 0.968627
246.582230 -51.286537 2.766324 0.968627
240.324921 -40.174232 1.442363 0.223529
243.579468 -45.953957 0.000031 0.227689
235.572540 -31.734516 0.000012 0.233984
232.134811 -25.629490 0.000004 0.228993
230.220169 -22.229292 0.000000 0.218270
228.997833 -20.058552 -0.000003 0.230728
228.148254 -18.549797 -0.000005 0.196895
227.522369 -17.438305 -0.000032 0.189128
nan nan nan 0.000000
nan nan nan 0.000000
238.992325 -38.259521 7.778161 0.223529
238.999954 -38.273300 6.712862 0.968627
246.208511 -51.286575 7.366417 0.968627
246.208511 -51.286568 5.824916 0.968627
246.290848 -51.435219 4.300015 0.968627
243.642090 -46.653542 2.676674 0.223529
239.945038 -39.979401 1.448177 0.223529
243.331345 -46.092545 0.000031 0.230118
235.423874 -31.817549 0.000012 0.231794
232.028839 -25.688671 0.000004 0.230190
230.137985 -22.275192 -0.000000 0.246705
228.930832 -20.095970 -0.000003 0.244180
228.091812 -18.581322 -0.000005 0.208372
227.473709 -17.465485 -0.000032 0.229113
nan nan nan 0.000000
nan nan nan 0.000000
238.848694 -38.459274 7.797433 0.223529
238.856415 -38.473442 6.728631 0.956374
243.205963 -46.456467 6.713090 0.223529
245.784576 -51.189178 5.801179 0.223529
245.785019 -51.189987 4.277492 0.223529
243.050919 -46.171890 2.665108 0.223529
239.573166 -39.788948 1.453839 0.223529
243.082245 -46.229408 0.000031 0.229448
235.274628 -31.899538 0.000012 0.227916
231.922470 -25.747116 0.000004 0.228478
230.055496 -22.320513 -0.000000 0.243319
228.863586 -20.132915 -0.000003 0.267123
228.035156 -18.612448 -0.000005 0.229089
227.424850 -17.492325 -0.000032 0.240769
nan nan nan 0.000000
nan nan nan 0.000000
238.704315 -38.660789 7.817203 0.223529
238.711533 -38.674248 6.744619 0.968627
242.505661 -45.755089 6.603806 0.968627
245.434692 -51.221451 5.789868 0.223529
245.649872 -51.623032 4.293053 0.223529
246.512039 -53.232048 2.793676 0.968627
239.208633 -39.601963 1.459367 0.223529
242.832199 -46.364510 0.000031 0.229843
235.124817 -31.980494 0.000011 0.218533
231.815689 -25.804806 0.000004 0.223069
229.972687 -22.365261 -0.000000 0.246334
228.796066 -20.169395 -0.000003 0.233613
227.978271 -18.643181 -0.000005 0.202029
227.375809 -17.518826 -0.000032 0.248417
nan nan nan 0.000000
nan nan nan 0.000000
238.559387 -38.864540 7.837570 0.223529
238.565811 -38.876728 6.761000 0.960601
241.680939 -44.789139 6.461156 0.980392
246.127380 -53.228371 5.961839 0.968627
246.277710 -53.513695 4.389548 0.968627
246.510513 -53.955536 2.804119 0.968627
238.851379 -39.418716 1.464758 0.223529
242.581223 -46.497864 0.000031 0.228323
234.974442 -32.060390 0.000011 0.232883
231.708511 -25.861759 0.000004 0.227760
229.889557 -22.409428 -0.000001 0.249075
228.728302 -20.205399 -0.000003 0.193484
227.921188 -18.673515 -0.000005 0.228431
227.326584 -17.544981 -0.000032 0.228993
nan nan nan 0.000000
244.689499 -51.185890 11.900863 0.223529
238.415176 -39.073082 7.859051 0.223529
238.422287 -39.086800 6.778761 0.954162
240.678299 -43.442123 6.270397 0.223529
246.118652 -53.944916 6.013581 0.968627
246.273071 -54.243019 4.421199 0.968627
246.210846 -54.122894 2.804277 0.223529
238.501328 -39.239395 1.470011 0.223529
238.515625 -39.266998 0.407370 0.223529
234.823502 -32.139244 0.000012 0.234869
231.600937 -25.917959 0.000004 0.229843
229.806122 -22.453014 -0.000000 0.229208
228.660294 -20.240934 -0.000004 0.217396
227.863892 -18.703449 -0.000005 0.243343
227.277176 -17.570797 -0.000033 0.254891
nan nan nan 0.000000
244.546280 -51.609924 11.968199 0.223529
238.304337 -39.350830 7.894793 0.223529
238.311005 -39.363930 6.807788 0.830625
240.403687 -43.473946 6.259221 0.223529
245.824936 -54.121193 6.015438 0.223529
245.825363 -54.122032 4.405863 0.223529
238.152679 -39.052979 2.524668 0.223529
238.164383 -39.075985 1.474909 0.223529
238.235199 -39.215061 0.415933 0.223529
234.672043 -32.217045 0.000011 0.227988
231.492981 -25.973412 0.000004 0.211759
229.722397 -22.496016 -0.000000 0.229029
228.592026 -20.275990 -0.000003 0.246478
227.806381 -18.732985 -0.000005 0.196788
227.227600 -17.596264 -0.000034 0.215804
nan nan nan 0.000000
nan nan nan 0.000000
nan nan nan 0.000000
238.200272 -39.648285 6.838042 0.665904
240.130508 -43.505600 6.248310 0.223529
237.797562 -38.843513 4.600523 0.223529
237.808884 -38.866150 3.559327 0.223529
237.897507 -39.043228 2.522644 0.223529
238.003616 -39.255272 1.473476 0.223529
241.822800 -46.887421 0.000029 0.227318
234.520020 -32.293777 0.000011 0.228167
231.384628 -26.028099 0.000004 0.236640
229.638367 -22.538433 -0.000000 0.211819
228.523529 -20.310570 -0.000003 0.222961
227.748672 -18.762115 -0.000005 0.192599
227.177841 -17.621384 -0.000034 0.232212
nan nan nan 0.000000
nan nan nan 0.000000
245.061722 -54.118599 10.848104 0.223529
237.449768 -38.637978 6.654314 0.223529
237.460831 -38.660500 5.612501 0.223529
237.565674 -38.873699 4.594291 0.223529
237.668793 -39.083412 3.565830 0.223529
246.503906 -57.051598 2.849222 0.968627
239.926559 -43.675102 1.394699 0.223529
241.568192 -47.013718 0.000029 0.227928
234.367477 -32.369446 0.000011 0.231841
231.275894 -26.082039 0.000003 0.261845
229.554047 -22.580263 -0.000001 0.234020
228.454788 -20.344669 -0.000003 0.252725
227.690811 -18.790976 -0.000036 0.246023
227.127899 -17.646154 -0.000034 0.232045
nan nan nan 0.000000
nan nan nan 0.000000
244.710114 -54.171181 10.828675 0.223529
237.237839 -38.702858 6.649192 0.223529
237.338882 -38.912041 5.632368 0.223529
246.080978 -57.009003 6.236901 0.968627
246.196915 -57.249039 4.551601 0.895155
246.502106 -57.880814 2.861408 0.968627
239.654816 -43.706238 1.396189 0.223529
241.312698 -47.138214 0.000030 0.232284
234.214401 -32.444050 0.000011 0.221729
231.166794 -26.135210 0.000004 0.232428
229.469437 -22.621500 -0.000000 0.214739
228.385803 -20.378288 -0.000003 0.266237
227.632706 -18.819298 -0.000036 0.229316
227.077789 -17.670576 -0.000034 0.193054
nan nan nan 0.000000
nan nan nan 0.000000
nan nan nan 0.000000
245.516251 -56.660339 9.582067 0.968627
239.319092 -43.599609 6.217134 0.223529
246.070801 -57.829063 6.297190 0.968627
245.864441 -57.394157 4.550978 0.974472
246.100784 -57.892273 2.858741 0.223529
239.384384 -43.737221 1.397643 0.223529
241.056351 -47.260948 0.000029 0.228957
234.060806 -32.517582 0.000011 0.232607
231.057327 -26.187620 0.000004 0.234905
229.384537 -22.662151 -0.000001 0.270952
228.316589 -20.411427 -0.000003 0.246861
227.574387 -18.847214 -0.000036 0.250356
227.027512 -17.694647 -0.000034 0.249829
nan nan nan 0.000000
nan nan nan 0.000000
nan nan nan 0.000000
245.343689 -57.134880 9.634874 0.967590
239.051224 -43.630646 6.207252 0.223529
245.695755 -57.890450 6.288659 0.223529
245.696167 -57.891350 4.569564 0.223529
245.855652 -58.233604 2.862088 0.223529
239.115250 -43.768051 1.399060 0.223529
240.799164 -47.381897 0.000029 0.231075
233.906708 -32.590046 0.000011 0.223775
230.947495 -26.239265 0.000004 0.216702
229.299347 -22.702202 -0.000001 0.213423
228.247147 -20.444078 -0.000003 0.217432
227.515884 -18.874725 -0.000037 0.258578
226.977066 -17.718369 -0.000034 0.221705
nan nan nan 0.000000
nan nan nan 0.000000
nan nan nan 0.000000
245.118347 -57.506050 9.670850 0.980392
238.784576 -43.661522 6.197618 0.223529
245.362976 -58.040756 6.288411 0.223529
245.864807 -59.137672 4.628626 0.980392
246.496399 -60.518219 2.900425 0.968627
238.847351 -43.798752 1.400442 0.223529
240.541138 -47.501053 0.000029 0.230238
233.752106 -32.661430 0.000011 0.230190
230.837296 -26.290148 0.000003 0.199636
229.213882 -22.741657 -0.000000 0.238687
228.177475 -20.476246 -0.000003 0.202783
227.457199 -18.901829 -0.000037 0.249183
226.926407 -17.741615 -0.000001 0.343359
nan nan nan 0.000000
nan nan nan 0.000000
244.893982 -57.887695 11.455832 0.223529
244.894394 -57.888618 9.708822 0.223529
238.519135 -43.692253 6.188231 0.223529
246.038239 -60.435692 6.490127 0.968627
245.864731 -60.049332 4.669417 0.965133
246.494354 -61.451378 2.914320 0.968627
238.580688 -43.829300 1.401789 0.223529
240.282288 -47.618401 0.000028 0.229663
233.597015 -32.731728 0.000011 0.227162
230.726761 -26.340256 0.000003 0.243223
229.128159 -22.780518 -0.000000 0.227641
228.107590 -20.507927 -0.000003 0.192766
227.398315 -18.928520 -0.000037 0.225630
226.875641 -17.764629 -0.000001 0.341604
nan nan nan 0.000000
nan nan nan 0.000000
244.616440 -58.157539 11.480168 0.223529
237.662827 -42.379471 7.170841 0.223529
238.254868 -43.722847 6.179088 0.223529
246.026642 -61.357376 6.558789 0.968627
245.864639 -60.989769 4.711628 0.975402
239.815063 -47.262993 2.657760 0.223529
238.315201 -43.859734 1.403100 0.223529
240.022598 -47.733902 0.000028 0.228215
233.441437 -32.800945 0.000011 0.226815
230.615860 -26.389591 0.000003 0.235168
229.042160 -22.818779 -0.000000 0.266524
228.037476 -20.539116 -0.000003 0.247100
227.339249 -18.954796 -0.000037 0.238017
226.808609 -17.750761 0.009997 1.000000
nan nan nan 0.000000
nan nan nan 0.000000
nan nan nan 0.000000
239.613403 -47.503685 7.983227 0.223529
237.991730 -43.753304 6.170187 0.223529
245.671814 -61.514717 6.558974 0.223529
245.672241 -61.515709 4.731526 0.223529
240.066177 -48.550789 2.678717 0.223529
238.050842 -43.890007 1.404376 0.223529
239.762131 -47.847626 0.000028 0.231195
233.285370 -32.869083 0.000010 0.234570
230.504623 -26.438152 0.000003 0.234630
228.955887 -22.856440 -0.000000 0.254712
227.967148 -20.569817 -0.000003 0.202412
227.279999 -18.980663 -0.000037 0.200653
226.757782 -17.772953 0.009997 1.000000
nan nan nan 0.000000
nan nan nan 0.000000
nan nan nan 0.000000
245.117493 -61.201889 10.172516 0.980392
237.729706 -43.783615 6.161527 0.223529
245.323761 -61.688210 6.560813 0.223529
239.777100 -48.610802 4.034726 0.223529
239.783981 -48.627022 2.678045 0.223529
237.787628 -43.920181 1.405618 0.223529
237.787445 -43.919754 0.215602 0.223529
233.128845 -32.936115 0.000011 0.218437
230.393051 -26.485929 0.000004 0.227210
228.869370 -22.893497 -0.000001 0.216044
227.896606 -20.600029 -0.000003 0.228945
227.220566 -19.006115 -0.000037 0.189619
226.706802 -17.794794 0.009995 1.000000
nan nan nan 0.000000
nan nan nan 0.000000
nan nan nan 0.000000
244.830246 -61.512802 10.198537 0.223529
237.468750 -43.813812 6.153105 0.223529
239.525101 -48.757835 5.399180 0.223529
239.546555 -48.809410 4.039335 0.223529
237.497314 -43.882477 2.591974 0.223529
237.511261 -43.916031 1.407432 0.223529
239.238831 -48.069572 0.000028 0.227724
232.971848 -33.002060 0.000011 0.236497
230.281158 -26.532930 0.000003 0.259284
228.782578 -22.929951 -0.000000 0.235743
227.825867 -20.629744 -0.000003 0.245138
227.160965 -19.031151 -0.000038 0.197936
226.655670 -17.816278 0.009993 1.000000
nan nan nan 0.000000
nan nan nan 0.000000
nan nan nan 0.000000
237.181885 -43.777809 7.333960 0.223529
237.208832 -43.843880 6.144916 0.223529
245.976120 -65.344902 6.858206 0.968627
237.223099 -43.878883 3.771897 0.223529
237.236755 -43.912376 2.590803 0.223529
246.119904 -65.697517 1.024210 0.223529
238.976044 -48.177803 0.000028 0.229950
232.814392 -33.066902 0.000011 0.228454
230.168930 -26.579151 0.000003 0.217839
228.695541 -22.965790 -0.000000 0.232583
227.754913 -20.658964 -0.000003 0.220292
227.101181 -19.055771 -0.000038 0.218378
226.619446 -17.874344 -0.000001 0.335210
nan nan nan 0.000000
nan nan nan 0.000000
nan nan nan 0.000000
246.952240 -68.901993 11.332361 0.223529
236.949921 -43.873817 6.136961 0.223529
236.950470 -43.875198 4.948741 0.223529
236.996033 -43.989212 3.772746 0.223529
246.480484 -67.721527 3.008712 0.968627
257.928955 -96.368294 0.486466 0.734783
238.712494 -48.284203 0.000028 0.231722
232.656494 -33.130646 0.000011 0.234259
230.056381 -26.624582 0.000003 0.247507
228.608261 -23.001032 -0.000001 0.196309
227.683746 -20.687691 -0.000003 0.250978
227.041245 -19.079971 -0.000038 0.212777
226.567764 -17.895210 -0.000001 0.338689
nan nan nan 0.000000
nan nan nan 0.000000
nan nan nan 0.000000
245.065308 -65.287720 10.730860 0.223529
236.679337 -43.871346 6.125244 0.223529
236.806107 -44.195107 4.968778 0.223529
245.864090 -67.327644 4.999164 0.980026
257.248993 -96.402771 3.509966 0.758740
246.389404 -68.669205 0.977416 0.223529
238.448212 -48.388763 0.000027 0.234857
232.498138 -33.193295 0.000010 0.231291
229.943527 -26.669233 0.000003 0.217540
228.520737 -23.035660 -0.000001 0.245760
227.612396 -20.715919 -0.000003 0.207690
226.981125 -19.103756 -0.000038 0.255909
226.515930 -17.915718 -0.000001 0.339574
nan nan nan 0.000000
nan nan nan 0.000000
nan nan nan 0.000000
244.721802 -65.539536 10.747274 0.223529
245.603271 -67.837784 9.067048 0.968627
245.933197 -68.698006 7.112583 0.968627
245.863983 -68.517540 5.053669 0.980392
245.995300 -68.859901 3.023162 0.223529
256.557465 -96.398666 0.494187 0.739330
238.183212 -48.491478 0.000027 0.228311
232.339371 -33.254837 0.000010 0.221896
229.830353 -26.713095 0.000003 0.229400
228.432968 -23.069670 -0.000000 0.214500
227.540848 -20.743650 -0.000003 0.245186
226.920776 -19.126945 0.000002 0.342733
226.463943 -17.935860 -0.000001 0.333440
nan nan nan 0.000000
nan nan nan 0.000000
nan nan nan 0.000000
nan nan nan 0.000000
245.582291 -69.001724 9.191379 0.968627
255.869049 -96.392792 9.524758 0.678431
245.600800 -69.051048 5.073586 0.223529
255.872803 -96.402779 3.501902 0.745754
255.872696 -96.402512 0.498104 0.736171
237.917496 -48.592316 0.000027 0.230393
232.180161 -33.315254 0.000010 0.216666
229.716888 -26.756166 0.000003 0.246789
228.344955 -23.103071 -0.000000 0.263820
227.469101 -20.770878 -0.000003 0.209689
226.860336 -19.149887 0.000002 0.336217
226.411835 -17.955641 -0.000001 0.335470
nan nan nan 0.000000
nan nan nan 0.000000
nan nan nan 0.000000
254.768066 -95.254669 15.397744 0.651804
245.277710 -69.438065 9.226229 0.223529
245.240234 -69.336090 7.141590 0.223529
255.632690 -97.606712 6.560258 0.630106
255.632690 -97.606674 3.519000 0.634424
255.632538 -97.606255 0.481009 0.622248
237.651077 -48.691315 0.000027 0.230585
232.020538 -33.374569 0.000010 0.234115
229.603119 -26.798435 0.000003 0.235719
228.256729 -23.135857 -0.000001 0.196931
227.397171 -20.797604 -0.000003 0.249889
226.783768 -19.128971 0.009996 1.000000
226.359589 -17.975054 -0.000001 0.340093
nan nan nan 0.000000
nan nan nan 0.000000
nan nan nan 0.000000
244.882080 -69.633720 11.324875 0.223529
244.937012 -69.786446 9.250500 0.223529
255.691452 -99.684654 9.773080 0.771145
255.691452 -99.684639 6.657178 0.750683
255.642624 -99.548904 3.548923 0.736446
255.642624 -99.548904 0.451076 0.790570
237.383987 -48.788460 0.000026 0.232057
231.860519 -33.432762 0.000010 0.228610
229.489044 -26.839912 0.000003 0.219407
228.168274 -23.168026 -0.000001 0.198008
227.325058 -20.823832 -0.000003 0.206577
226.723312 -19.150951 0.009997 1.000000
226.307190 -17.994104 -0.000001 0.337713
nan nan nan 0.000000
nan nan nan 0.000000
nan nan nan 0.000000
nan nan nan 0.000000
255.639343 -101.530632 13.103827 0.633371
255.529709 -101.219017 9.887171 0.652003
255.598145 -101.413559 6.735664 0.636896
255.598129 -101.413521 3.577427 0.645518
255.636368 -101.522179 0.420688 0.638697
237.116211 -48.883720 0.000026 0.227856
231.700073 -33.489841 0.000010 0.233876
229.374695 -26.880594 0.000003 0.232176
228.079590 -23.199577 -0.000001 0.215517
227.252762 -20.849552 -0.000003 0.263018
226.662720 -19.172523 0.009994 1.000000
226.254684 -18.012787 -0.000000 0.336843
nan nan nan 0.000000
nan nan nan 0.000000
nan nan nan 0.000000
nan nan nan 0.000000
255.661392 -103.666168 13.336693 0.749310
255.661392 -103.666176 10.080232 0.747112
255.661392 -103.666153 6.841205 0.747112
255.661407 -103.666176 3.612584 0.779767
255.632477 -103.582085 0.388873 0.640391
236.847778 -48.977112 0.000027 0.231327
231.539246 -33.545792 0.000010 0.229496
229.260071 -26.920483 0.000003 0.234438
227.990677 -23.230507 -0.000001 0.211903
227.180283 -20.874767 -0.000003 0.211281
226.617020 -19.237408 0.000002 0.337011
226.202026 -18.031103 -0.000001 0.334295
nan nan nan 0.000000
nan nan nan 0.000000
nan nan nan 0.000000
nan nan nan 0.000000
nan nan nan 0.000000
nan nan nan 0.000000
nan nan nan 0.000000
nan nan nan 0.000000
nan nan nan 0.000000
236.578705 -49.068634 0.000026 0.228443
231.378036 -33.600632 0.000010 0.236676
229.145157 -26.959560 0.000003 0.218210
227.901566 -23.260818 -0.000001 0.229687
227.107635 -20.899475 -0.000003 0.233433
226.555817 -19.258226 0.000002 0.336202
226.149261 -18.049053 -0.000001 0.332952
nan nan nan 0.000000
nan nan nan 0.000000
nan nan nan 0.000000
nan nan nan 0.000000
nan nan nan 0.000000
nan nan nan 0.000000
nan nan nan 0.000000
nan nan nan 0.000000
nan nan nan 0.000000
236.309006 -49.158279 0.000026 0.232559
231.216446 -33.654335 0.000010 0.232548
229.029984 -26.997839 0.000003 0.233768
227.812241 -23.290504 -0.000001 0.212777
227.034821 -20.923679 -0.000003 0.242361
226.494461 -19.278614 0.000002 0.323476
226.096359 -18.066633 -0.000001 0.344228
nan nan nan 0.000000
nan nan nan 0.000000
nan nan nan 0.000000
nan nan nan 0.000000
nan nan nan 0.000000
nan nan nan 0.000000
nan nan nan 0.000000
238.943756 -58.303101 2.821829 0.445121
nan nan nan 0.000000
236.038681 -49.246017 0.000026 0.229316
231.054474 -33.706913 0.000009 0.237885
228.914551 -27.035309 0.000003 0.220328
227.722717 -23.319563 -0.000001 0.271192
226.961807 -20.947327 0.000005 0.341039
226.432968 -19.298573 0.000002 0.338155
226.043350 -18.083843 -0.000001 0.330678
nan nan nan 0.000000
nan nan nan 0.000000
nan nan nan 0.000000
nan nan nan 0.000000
nan nan nan 0.000000
nan nan nan 0.000000
238.301453 -57.424957 4.416590 0.449042
nan nan nan 0.000000
nan nan nan 0.000000
235.767746 -49.331886 0.000026 0.231303
230.892151 -33.758362 0.000009 0.231877
228.798843 -27.071981 0.000003 0.232727
227.632980 -23.348001 -0.000001 0.225762
226.888657 -20.970509 0.000005 0.331395
226.371338 -19.318104 0.000002 0.336996
225.990204 -18.100683 -0.000001 0.337652
nan nan nan 0.000000
nan nan nan 0.000000
nan nan nan 0.000000
nan nan nan 0.000000
nan nan nan 0.000000
nan nan nan 0.000000
238.348389 -58.754341 4.479665 0.441428
238.578903 -59.509109 2.838878 0.444282
nan nan nan 0.000000
235.496231 -49.415871 0.000026 0.230010
230.729462 -33.808662 0.000010 0.246849
228.682892 -27.107836 0.000003 0.231734
227.543060 -23.375809 -0.000001 0.244767
226.799316 -20.940689 0.009992 1.000000
226.309586 -19.337202 0.000002 0.329458
225.936951 -18.117151 -0.000001 0.331716
nan nan nan 0.000000
nan nan nan 0.000000
nan nan nan 0.000000
nan nan nan 0.000000
nan nan nan 0.000000
nan nan nan 0.000000
237.681793 -57.750595 4.422997 0.439841
237.793350 -58.125153 2.813485 0.458930
nan nan nan 0.000000
235.224121 -49.497925 0.000025 0.230621
230.566437 -33.857834 0.000010 0.219311
228.566696 -27.142881 0.000003 0.233110
227.452942 -23.402988 -0.000001 0.206721
226.726212 -20.962723 0.009994 1.000000
226.247681 -19.355869 0.000002 0.337942
225.883591 -18.133245 -0.000000 0.330663
nan nan nan 0.000000
nan nan nan 0.000000
nan nan nan 0.000000
nan nan nan 0.000000
nan nan nan 0.000000
nan nan nan 0.000000
237.486130 -58.311752 4.446735 0.430777
237.416550 -58.072037 2.810911 0.421027
nan nan nan 0.000000
234.951447 -49.578094 0.000025 0.230429
230.403061 -33.905872 0.000009 0.244396
228.450256 -27.177118 0.000003 0.229496
227.362625 -23.429543 -0.000001 0.226121
226.652954 -20.984253 0.009996 1.000000
226.185669 -19.374104 0.000002 0.338521
225.830109 -18.148970 -0.000001 0.333669
nan nan nan 0.000000
nan nan nan 0.000000
nan nan nan 0.000000
nan nan nan 0.000000
nan nan nan 0.000000
nan nan nan 0.000000
236.779373 -57.089691 4.379458 0.430228
237.329987 -59.037605 2.825710 0.564157
