# This PCD file was generated using the MATLAB® pcwrite function
# from Computer Vision Toolbox®.
# .PCD v.7 - Point Cloud Data file format
VERSION .7
FIELDS x y z intensity
SIZE 4 4 4 4
TYPE F F F F
COUNT 1 1 1 1
WIDTH 1168
HEIGHT 1
VIEWPOINT 0 0 0 1 0 0 0
POINTS 1168
DATA ascii
286.758484 -103.816849 1.083740 0.616342
286.758484 -103.816849 0.714474 0.652232
286.758484 -103.816849 0.342414 0.635431
286.936096 -103.773399 -0.000006 0.186004
288.618011 -103.361908 -0.000006 0.203334
289.857147 -103.058739 -0.000005 0.240901
286.758514 -103.736664 4.794367 0.611765
286.758484 -103.736671 4.409409 0.678431
286.758484 -103.736671 4.029856 0.649149
286.758514 -103.736664 3.654797 0.611765
286.758514 -103.736664 3.283364 0.611765
286.758484 -103.736671 2.914719 0.651957
286.758484 -103.736671 2.548046 0.611765
286.758484 -103.736671 2.182551 0.616800
286.758484 -103.736671 1.817448 0.647059
286.758484 -103.736671 1.451954 0.677607
286.758484 -103.736671 1.085281 0.614618
286.758484 -103.736671 0.716636 0.627649
286.758514 -103.736664 0.345204 0.627207
286.918121 -103.698799 -0.000006 0.227928
288.602844 -103.299057 -0.000006 0.233266
289.844116 -103.004547 -0.000005 0.209964
286.748505 -103.659050 4.792385 0.783932
286.748505 -103.659050 4.407700 0.780148
286.748505 -103.659058 4.028416 0.789944
286.748505 -103.659058 3.653624 0.780102
286.748505 -103.659058 3.282454 0.776471
286.823181 -103.641884 2.907785 0.720226
286.748505 -103.659058 2.547658 0.784421
286.748505 -103.659058 2.182422 0.776471
286.748505 -103.659050 1.817578 0.787808
286.748505 -103.659058 1.452342 0.774212
286.748505 -103.659058 1.085930 0.774685
286.748505 -103.659058 0.717546 0.788815
286.758484 -103.656761 0.347896 0.641276
286.900665 -103.624069 -0.000007 0.253407
288.588165 -103.236099 -0.000006 0.208301
289.831421 -102.950264 -0.000005 0.213004
286.710388 -103.587807 4.797756 0.118151
286.710388 -103.587807 4.412332 0.129412
286.710388 -103.587807 4.032317 0.129412
286.748505 -103.579323 3.651014 0.714015
286.748505 -103.579323 3.280431 0.786221
286.760895 -103.576561 2.911585 0.790661
286.710388 -103.587807 2.548711 0.123781
286.710388 -103.587807 2.182773 0.129412
286.710388 -103.587807 1.817227 0.129412
286.710388 -103.587807 1.451289 0.153048
286.710388 -103.587807 1.084172 0.134829
286.748505 -103.579323 0.719569 0.791989
286.758514 -103.577095 0.350507 0.613367
286.883728 -103.549225 -0.000007 0.203645
288.573883 -103.173050 -0.000006 0.199564
289.819122 -102.895897 -0.000005 0.235767
286.694000 -103.511574 4.797685 0.678431
286.694000 -103.511574 4.412270 0.678431
286.694000 -103.511574 4.032266 0.678431
286.748505 -103.499840 3.648493 0.685679
286.748505 -103.499840 3.278475 0.794614
286.759583 -103.497459 2.910304 0.789792
286.694000 -103.511574 2.548697 0.678431
286.694000 -103.511574 2.182768 0.678431
286.694000 -103.511574 1.817232 0.678431
286.694000 -103.511574 1.451303 0.678431
286.694000 -103.511574 1.084195 0.678431
286.748505 -103.499840 0.721525 0.795209
286.758484 -103.497696 0.353022 0.616281
286.867310 -103.474266 -0.000006 0.244886
288.560059 -103.109894 -0.000006 0.244850
289.807190 -102.841446 -0.000005 0.195507
286.694000 -103.431931 4.793555 0.678431
286.694000 -103.431931 4.408709 0.678431
286.694000 -103.431931 4.029265 0.678431
286.748505 -103.420593 3.646060 0.663981
286.748505 -103.420601 3.276588 0.802243
286.758301 -103.418556 2.909068 0.782330
286.694000 -103.431931 2.547887 0.678431
286.694000 -103.431931 2.182498 0.678431
286.694000 -103.431931 1.817502 0.678431
286.694000 -103.431931 1.452113 0.678431
286.694000 -103.431931 1.085547 0.678431
286.748505 -103.420593 0.723412 0.790616
286.758484 -103.418518 0.355455 0.645624
286.851440 -103.399193 -0.000006 0.236605
288.546692 -103.046646 -0.000006 0.225630
289.795654 -102.786911 -0.000005 0.188781
286.694000 -103.352524 4.789573 0.678431
286.694000 -103.352516 4.405275 0.678431
286.694000 -103.352516 4.026373 0.678431
286.748505 -103.341583 3.643713 0.683009
286.748505 -103.341583 3.274768 0.782605
286.757050 -103.339867 2.907875 0.779477
286.694000 -103.352524 2.547106 0.678431
286.694000 -103.352524 2.182238 0.678431
286.694000 -103.352524 1.817761 0.678431
286.694000 -103.352516 1.452894 0.678431
286.694000 -103.352516 1.086851 0.678431
286.748505 -103.341583 0.725232 0.790249
286.758514 -103.339577 0.357801 0.649332
286.836060 -103.324005 -0.000007 0.198499
288.533752 -102.983307 -0.000005 0.242313
289.784515 -102.732292 -0.000005 0.239920
286.694000 -103.273331 4.785738 0.678431
286.694000 -103.273331 4.401968 0.678431
286.694000 -103.273331 4.023587 0.678431
286.748505 -103.262787 3.641453 0.721263
286.748505 -103.262787 3.273015 0.777600
286.755859 -103.261368 2.906727 0.769268
286.694000 -103.273331 2.546354 0.678431
286.694000 -103.273331 2.181988 0.678431
286.694000 -103.273331 1.818012 0.678431
286.694000 -103.273331 1.453646 0.678431
286.694000 -103.273331 1.088106 0.678431
286.748505 -103.262787 0.726985 0.796033
286.758484 -103.260857 0.360056 0.623529
286.821228 -103.248718 -0.000006 0.216044
288.521240 -102.919876 -0.000005 0.270713
289.773743 -102.677605 -0.000005 0.229137
286.694000 -103.194359 4.782048 0.678431
286.694000 -103.194359 4.398787 0.678431
286.694000 -103.194359 4.020907 0.678431
286.748505 -103.184204 3.639279 0.720104
286.748505 -103.184212 3.271329 0.799985
286.754700 -103.183052 2.905622 0.793118
286.694000 -103.194359 2.545630 0.678431
286.694000 -103.194359 2.181747 0.678431
286.694000 -103.194359 1.818253 0.678431
286.694000 -103.194359 1.454370 0.678431
286.694000 -103.194359 1.089314 0.678431
286.748505 -103.184212 0.728670 0.795987
286.758484 -103.182343 0.362229 0.623529
286.806915 -103.173332 -0.000006 0.254987
288.509186 -102.856361 -0.000005 0.240686
289.763336 -102.622841 -0.000005 0.202221
286.694000 -103.115585 4.778505 0.678431
286.694000 -103.115585 4.395731 0.678431
286.694000 -103.115585 4.018332 0.678431
286.748505 -103.105835 3.637191 0.700175
286.748505 -103.105835 3.269711 0.807843
286.753601 -103.104912 2.904560 0.779126
286.694000 -103.115585 2.544935 0.678431
286.694000 -103.115585 2.181515 0.678431
286.694000 -103.115585 1.818485 0.678431
286.694000 -103.115585 1.455065 0.678431
286.694000 -103.115585 1.090474 0.678431
286.748505 -103.105835 0.730290 0.796033
286.758514 -103.104042 0.364317 0.582315
286.793152 -103.097839 -0.000006 0.233337
288.497559 -102.792770 -0.000005 0.232703
289.753326 -102.568008 -0.000005 0.228861
286.694000 -103.037010 4.775105 0.678431
286.694000 -103.037010 4.392800 0.678431
286.694000 -103.037010 4.015863 0.678431
286.748505 -103.027649 3.635188 0.659525
286.748505 -103.027649 3.268156 0.793454
286.748505 -103.027649 2.903878 0.778897
286.694000 -103.037010 2.544268 0.678431
286.694000 -103.037010 2.181293 0.678431
286.694000 -103.037010 1.818707 0.678431
286.694000 -103.037010 1.455731 0.678431
286.694000 -103.037010 1.091587 0.678431
286.748505 -103.027649 0.731844 0.796033
286.758514 -103.025932 0.366320 0.623529
286.779877 -103.022255 -0.000006 0.227054
288.486420 -102.729088 -0.000005 0.214009
289.743683 -102.513100 -0.000005 0.234642
286.694000 -102.958626 4.771847 0.678431
286.694000 -102.958626 4.389992 0.678431
286.694000 -102.958626 4.013497 0.678431
286.748505 -102.949654 3.633268 0.639429
286.748505 -102.949654 3.266668 0.792309
286.748505 -102.949654 2.902818 0.776471
286.694000 -102.958626 2.543630 0.678431
286.694000 -102.958626 2.181080 0.678431
286.694000 -102.958626 1.818920 0.678431
286.694000 -102.958626 1.456370 0.678431
286.694000 -102.958626 1.092653 0.678431
286.748505 -102.949654 0.733332 0.795987
286.758484 -102.948013 0.368233 0.654902
286.767151 -102.946587 -0.000006 0.223344
288.475677 -102.665337 -0.000005 0.245473
289.734436 -102.458130 -0.000005 0.227018
286.694000 -102.880424 4.768734 0.678431
286.694000 -102.880424 4.387306 0.678431
286.694000 -102.880424 4.011234 0.678431
286.748505 -102.871841 3.631433 0.776471
286.748505 -102.871841 3.265245 0.794949
286.748505 -102.871841 2.901803 0.792035
286.694000 -102.880424 2.543019 0.678431
286.694000 -102.880424 2.180877 0.678431
286.694000 -102.880424 1.819123 0.678431
286.694000 -102.880424 1.456981 0.678431
286.694000 -102.880424 1.093673 0.678431
286.748505 -102.871841 0.734755 0.792523
286.758484 -102.870270 0.370068 0.659403
286.758484 -102.870270 0.000643 0.655024
288.465393 -102.601517 -0.000005 0.262144
289.725586 -102.403099 -0.000005 0.213566
286.694000 -102.802391 4.765760 0.678431
286.694000 -102.802391 4.384744 0.678431
286.694000 -102.802391 4.009076 0.678431
286.748505 -102.794197 3.629682 0.776471
286.748505 -102.794197 3.263886 0.788403
286.748505 -102.794197 2.900835 0.801038
286.694000 -102.802391 2.542435 0.678431
286.694000 -102.802391 2.180683 0.678431
286.694000 -102.802391 1.819317 0.678431
286.694000 -102.802391 1.457564 0.678431
286.694000 -102.802391 1.094646 0.678431
286.748505 -102.794197 0.736114 0.785077
286.758514 -102.792694 0.371819 0.638697
286.758514 -102.792694 0.002795 0.659403
288.455566 -102.537621 -0.000005 0.253599
289.717102 -102.348007 -0.000005 0.267147
286.694000 -102.724518 4.762929 0.678431
286.694000 -102.724518 4.382301 0.678431
286.694000 -102.724518 4.007018 0.678431
286.748505 -102.716721 3.628014 0.783978
286.748505 -102.716721 3.262592 0.795529
286.748505 -102.716713 2.899913 0.807843
286.694000 -102.724518 2.541880 0.678431
286.694000 -102.724518 2.180498 0.678431
286.694000 -102.724518 1.819502 0.678431
286.694000 -102.724518 1.458120 0.678431
286.694000 -102.724518 1.095573 0.678431
286.748505 -102.716721 0.737408 0.776471
286.758514 -102.715286 0.373487 0.603922
286.758545 -102.715279 0.004844 0.606149
288.446198 -102.473656 -0.000006 0.222913
289.709015 -102.292854 -0.000005 0.240434
286.694000 -102.646805 4.760238 0.678431
286.694000 -102.646805 4.379981 0.678431
286.694000 -102.646805 4.005063 0.678431
286.748505 -102.639389 3.626428 0.781796
286.748505 -102.639389 3.261363 0.788037
286.748505 -102.639389 2.899036 0.776471
286.694000 -102.646805 2.541353 0.678431
286.694000 -102.646805 2.180322 0.678431
286.694000 -102.646805 1.819678 0.678431
286.694000 -102.646805 1.458647 0.678431
286.694000 -102.646805 1.096454 0.678431
286.748505 -102.639389 0.738637 0.784161
286.758514 -102.638031 0.375072 0.652049
286.758545 -102.638023 0.006792 0.654566
288.437256 -102.409630 -0.000005 0.232751
289.701294 -102.237648 -0.000005 0.266213
286.694000 -102.569237 4.757686 0.678431
286.694000 -102.569237 4.377780 0.678431
286.694000 -102.569237 4.003209 0.678431
286.748505 -102.562210 3.624923 0.781979
286.748505 -102.562210 3.260196 0.784863
286.748505 -102.562210 2.898205 0.793164
286.694000 -102.569237 2.540852 0.678431
286.694000 -102.569237 2.180156 0.678431
286.694000 -102.569237 1.819845 0.678431
286.694000 -102.569237 1.459148 0.678431
286.694000 -102.569237 1.097289 0.678431
286.748505 -102.562210 0.739804 0.787274
286.758484 -102.560921 0.376570 0.667277
286.758453 -102.560928 0.008614 0.698039
288.428772 -102.345535 -0.000005 0.229460
289.694000 -102.182388 -0.000005 0.214632
286.694000 -102.491814 4.755272 0.678431
286.694000 -102.491814 4.375700 0.678431
286.694000 -102.491814 4.001456 0.678431
286.748505 -102.485168 3.623501 0.780941
286.748505 -102.485168 3.259093 0.786755
286.746368 -102.485428 2.897594 0.796078
286.694000 -102.491814 2.540379 0.678431
286.694000 -102.491814 2.179997 0.678431
286.694000 -102.491814 1.820002 0.678431
286.694000 -102.491806 1.459621 0.678431
286.694000 -102.491814 1.098079 0.678431
286.748505 -102.485168 0.740907 0.786114
286.758484 -102.483948 0.377992 0.671885
286.758453 -102.483955 0.010361 0.680644
288.420715 -102.281395 -0.000005 0.189631
289.687042 -102.127075 -0.000005 0.179027
286.694000 -102.414513 4.752997 0.678431
286.694000 -102.414513 4.373738 0.678431
286.694000 -102.414513 3.999804 0.678431
286.748505 -102.408257 3.622161 0.780972
286.748505 -102.408257 3.258054 0.771740
286.745667 -102.408585 2.896911 0.776898
286.694000 -102.414513 2.539932 0.678431
286.694000 -102.414513 2.179849 0.678431
286.694000 -102.414513 1.820151 0.678431
286.694000 -102.414513 1.460067 0.678431
286.694000 -102.414513 1.098824 0.678431
286.748505 -102.408257 0.741946 0.786191
286.758484 -102.407112 0.379331 0.638102
286.758484 -102.407112 0.012006 0.636530
288.413116 -102.217194 -0.000005 0.242720
289.680511 -102.071724 -0.000005 0.239860
286.694000 -102.337341 4.750860 0.678431
286.694000 -102.337341 4.371895 0.678431
286.694000 -102.337341 3.998251 0.678431
286.748505 -102.331474 3.620902 0.787335
286.748505 -102.331474 3.257077 0.804532
286.744995 -102.331848 2.896270 0.774685
286.694000 -102.337341 2.539513 0.678431
286.694000 -102.337341 2.179709 0.678431
286.694000 -102.337341 1.820291 0.678431
286.694000 -102.337341 1.460487 0.678431
286.694000 -102.337341 1.099523 0.678431
286.748505 -102.331474 0.742923 0.790478
286.758484 -102.330399 0.380590 0.669490
286.758484 -102.330399 0.013553 0.675517
288.405975 -102.152939 -0.000005 0.254963
289.674347 -102.016319 -0.000005 0.207894
286.694000 -102.260284 4.748859 0.678431
286.694000 -102.260284 4.370170 0.678431
286.694000 -102.260284 3.996798 0.678431
286.748505 -102.254799 3.619724 0.776684
286.748505 -102.254799 3.256163 0.807111
286.744385 -102.255219 2.895670 0.780270
286.694000 -102.260284 2.539121 0.678431
286.694000 -102.260284 2.179578 0.678431
286.694000 -102.260284 1.820421 0.678431
286.694000 -102.260284 1.460879 0.678431
286.694000 -102.260284 1.100178 0.678431
286.748505 -102.254799 0.743837 0.791806
286.758484 -102.253792 0.381768 0.653864
286.758514 -102.253792 0.014999 0.682719
288.399261 -102.088638 -0.000005 0.243283
289.668549 -101.960876 -0.000004 0.230884
286.694000 -102.183342 4.746996 0.678431
286.694000 -102.183342 4.368564 0.678431
286.694000 -102.183342 3.995445 0.678431
286.748505 -102.178238 3.618625 0.776471
286.748505 -102.178238 3.255311 0.792676
286.748505 -102.178238 2.894723 0.781460
286.694000 -102.183342 2.538755 0.678431
286.694000 -102.183342 2.179457 0.678431
286.694000 -102.183342 1.820543 0.678431
286.694000 -102.183342 1.461244 0.678431
286.694000 -102.183342 1.100788 0.678431
286.748505 -102.178238 0.744689 0.788037
286.758514 -102.177299 0.382865 0.647059
286.758514 -102.177299 0.016346 0.690196
288.393036 -102.024300 -0.000005 0.235336
289.663177 -101.905396 -0.000004 0.207331
286.694000 -102.106491 4.745269 0.678431
286.694000 -102.106491 4.367075 0.678431
286.694000 -102.106491 3.994190 0.678431
286.748505 -102.101776 3.617608 0.776471
286.748505 -102.101776 3.254522 0.780270
286.748505 -102.101776 2.894161 0.779721
286.694000 -102.106491 2.538416 0.678431
286.694000 -102.106491 2.179344 0.678431
286.694000 -102.106491 1.820656 0.678431
286.694000 -102.106491 1.461583 0.678431
286.694000 -102.106491 1.101353 0.678431
286.748505 -102.101776 0.745478 0.789624
286.758514 -102.100906 0.383883 0.662715
286.758514 -102.100906 0.017595 0.636866
288.387207 -101.959908 -0.000005 0.255334
289.658173 -101.849884 -0.000004 0.214021
286.694000 -102.029739 4.743678 0.678431
286.694000 -102.029739 4.365703 0.678431
286.694000 -102.029739 3.993034 0.678431
286.748505 -102.025406 3.616670 0.776471
286.748505 -102.025406 3.253795 0.777173
286.748505 -102.025406 2.893642 0.777462
286.694000 -102.029739 2.538105 0.678431
286.694000 -102.029739 2.179240 0.678431
286.694000 -102.029739 1.820760 0.678431
286.694000 -102.029739 1.461895 0.678431
286.694000 -102.029739 1.101874 0.678431
286.748505 -102.025406 0.746205 0.790753
286.758453 -102.024612 0.384814 0.689845
286.758514 -102.024605 0.018745 0.658396
288.381866 -101.895485 -0.000005 0.238352
289.653564 -101.794334 -0.000004 0.204064
286.694000 -101.953072 4.742222 0.678431
286.694000 -101.953072 4.364448 0.678431
286.694000 -101.953072 3.991977 0.678431
286.748505 -101.949120 3.615812 0.781643
286.748505 -101.949120 3.253129 0.795026
286.748505 -101.949120 2.893168 0.781064
286.694000 -101.953072 2.537819 0.678431
286.694000 -101.953072 2.179145 0.678431
286.694000 -101.953072 1.820855 0.678431
286.694000 -101.953072 1.462181 0.678431
286.694000 -101.953072 1.102351 0.678431
286.748505 -101.949120 0.746870 0.790936
286.758392 -101.948395 0.385661 0.694514
286.758545 -101.948387 0.019797 0.679713
288.376984 -101.831024 -0.000005 0.210503
289.649323 -101.738747 -0.000005 0.214213
286.748505 -101.872910 4.727220 0.731441
286.748505 -101.872910 4.351512 0.696605
286.748505 -101.872910 3.981079 0.757824
286.748505 -101.872910 3.615034 0.776471
286.748505 -101.872910 3.252526 0.793042
286.748505 -101.872910 2.892738 0.785809
286.748505 -101.872910 2.534877 0.742321
286.748505 -101.872910 2.178165 0.759564
286.748505 -101.872910 1.821835 0.719646
286.748505 -101.872910 1.465123 0.726177
286.748505 -101.872910 1.107262 0.759625
286.748505 -101.872910 0.747474 0.796902
286.758331 -101.872261 0.386428 0.697932
286.758545 -101.872246 0.020752 0.692638
288.372528 -101.766525 -0.000005 0.200545
289.645508 -101.683144 -0.000005 0.223799
286.748505 -101.796768 4.726040 0.776471
286.748505 -101.796768 4.350494 0.780026
286.748505 -101.796768 3.980222 0.780606
286.748505 -101.796768 3.614335 0.779232
286.748505 -101.796768 3.251984 0.807843
286.748505 -101.796768 2.892351 0.776471
286.748505 -101.796768 2.534645 0.789212
286.748505 -101.796768 2.178088 0.779187
286.748505 -101.796768 1.821912 0.785855
286.748505 -101.796768 1.465354 0.779400
286.748505 -101.796768 1.107648 0.786526
286.748505 -101.796768 0.748016 0.789731
286.758301 -101.796196 0.387124 0.690517
286.758545 -101.796181 0.021608 0.673289
288.368530 -101.702003 -0.000005 0.196716
289.642029 -101.627502 -0.000005 0.199133
286.758362 -101.720184 4.722517 0.637415
286.758362 -101.720184 4.347458 0.616358
286.758362 -101.720184 3.977663 0.633127
286.758362 -101.720184 3.612249 0.647578
286.758362 -101.720184 3.250366 0.647059
286.758362 -101.720184 2.891199 0.599695
286.758362 -101.720184 2.533955 0.634607
286.758362 -101.720184 2.177858 0.619577
286.758362 -101.720184 1.822142 0.585031
286.758362 -101.720184 1.466045 0.602365
286.758392 -101.720184 1.108803 0.611246
286.758423 -101.720177 0.749642 0.589258
286.758301 -101.720184 0.387742 0.616663
286.758545 -101.720177 0.022367 0.614710
288.364960 -101.637451 -0.000005 0.280886
289.638977 -101.571846 -0.000004 0.220149
286.758179 -101.644234 4.721653 0.640055
286.758179 -101.644234 4.346711 0.616449
286.758179 -101.644234 3.977034 0.642084
286.758179 -101.644234 3.611736 0.650965
286.758179 -101.644234 3.249968 0.611765
286.758179 -101.644234 2.890916 0.627878
286.758179 -101.644234 2.533785 0.647059
286.758179 -101.644234 2.177801 0.614038
286.758179 -101.644234 1.822199 0.639063
286.758240 -101.644234 1.466218 0.669764
286.758301 -101.644234 1.109093 0.679850
286.758331 -101.644226 0.750050 0.680354
286.758331 -101.644226 0.388285 0.692988
286.758545 -101.644218 0.023030 0.685969
288.361877 -101.572876 -0.000005 0.222973
289.636322 -101.516167 -0.000004 0.209438
286.757996 -101.568336 4.720922 0.644022
286.757996 -101.568336 4.346081 0.636759
286.757996 -101.568336 3.976504 0.630808
286.757996 -101.568336 3.611303 0.641871
286.757996 -101.568336 3.249632 0.636576
286.757996 -101.568336 2.890677 0.640848
286.757996 -101.568336 2.533642 0.646189
286.758026 -101.568336 2.177753 0.614755
286.758087 -101.568329 1.822248 0.622248
286.758148 -101.568329 1.466366 0.678309
286.758179 -101.568329 1.109340 0.669795
286.758240 -101.568329 0.750396 0.687556
286.758331 -101.568321 0.388749 0.686152
286.758545 -101.568314 0.023596 0.666667
288.359222 -101.508286 -0.000004 0.208504
289.634033 -101.460472 -0.000004 0.196560
286.720276 -101.493614 4.729723 0.641123
286.720306 -101.493614 4.353669 0.631708
286.720306 -101.493614 3.982895 0.650507
286.720306 -101.493614 3.616513 0.613809
286.720306 -101.493614 3.253673 0.658228
286.720276 -101.493614 2.893559 0.627756
286.720276 -101.493614 2.535369 0.678431
286.720276 -101.493614 2.178329 0.617456
286.720276 -101.493614 1.821671 0.632166
286.720367 -101.493614 1.464636 0.658991
286.720459 -101.493614 1.106456 0.665492
286.720551 -101.493607 0.746356 0.677928
286.758362 -101.492455 0.389135 0.664439
286.758545 -101.492447 0.024065 0.666667
288.357025 -101.443672 -0.000004 0.243702
289.632141 -101.404762 -0.000004 0.270605
285.748199 -101.440384 4.972772 0.765835
286.857880 -101.414276 4.323499 0.647059
286.858002 -101.414276 3.957459 0.647059
286.858032 -101.414276 3.595775 0.647059
286.858124 -101.414276 3.237579 0.647059
286.705872 -101.417854 2.894571 0.781903
285.748199 -101.440384 2.583036 0.776394
285.748199 -101.440384 2.194206 0.757519
285.748199 -101.440384 1.805793 0.767224
286.857849 -101.414276 1.471493 0.638605
286.858063 -101.414276 1.117910 0.647059
286.858063 -101.414276 0.762414 0.656733
286.758392 -101.416618 0.389442 0.611765
286.758545 -101.416618 0.024437 0.611765
288.355286 -101.379051 -0.000004 0.240231
289.630615 -101.349045 -0.000004 0.201264
285.528198 -101.361160 5.027471 0.730236
286.831726 -101.339600 4.328828 0.393698
286.831726 -101.339600 3.961968 0.647059
286.831726 -101.339600 3.599454 0.674174
285.528198 -101.361160 3.390422 0.708232
286.705536 -101.341682 2.894474 0.791272
285.743195 -101.357605 2.583200 0.678431
285.528198 -101.361160 2.197780 0.742245
285.528198 -101.361160 1.802220 0.739055
286.831726 -101.339600 1.470283 0.564645
286.831726 -101.339600 1.115873 0.647471
286.831726 -101.339600 0.759557 0.670542
286.758423 -101.340813 0.389671 0.680919
286.758545 -101.340805 0.024713 0.682719
288.353973 -101.314415 -0.000004 0.229400
289.629517 -101.293312 -0.000004 0.223775
285.498199 -101.277069 5.034709 0.678431
286.798187 -101.264641 4.335856 0.644038
285.498199 -101.277069 4.204443 0.678431
285.498199 -101.277069 3.797126 0.678431
285.509552 -101.276955 3.392441 0.129412
286.705292 -101.265526 2.894411 0.796078
285.743195 -101.274727 2.583147 0.678431
285.498199 -101.277069 2.198253 0.678431
285.498199 -101.277069 1.801747 0.678431
285.498199 -101.277069 1.404816 0.678431
285.498199 -101.277069 1.006607 0.678431
285.524200 -101.276817 0.609244 0.739666
286.758453 -101.265015 0.389822 0.669520
286.758514 -101.265015 0.024892 0.698863
288.353149 -101.249771 -0.000004 0.238603
289.628784 -101.237572 -0.000004 0.204004
285.498199 -101.192490 5.034581 0.678431
286.797821 -101.189133 4.335838 0.647135
285.498199 -101.192490 4.204350 0.678431
285.498199 -101.192490 3.797050 0.678431
285.509583 -101.192459 3.392378 0.115160
286.705200 -101.189377 2.894382 0.804456
285.743195 -101.191856 2.583122 0.678431
285.498199 -101.192490 2.198245 0.678431
285.498199 -101.192490 1.801756 0.678431
285.498199 -101.192490 1.404842 0.678431
285.498199 -101.192490 1.006649 0.678431
285.524139 -101.192421 0.609298 0.722774
286.758484 -101.189240 0.389894 0.654902
286.758514 -101.189240 0.024976 0.674205
288.352753 -101.185127 -0.000004 0.199947
289.628448 -101.181831 -0.000004 0.268822
285.498199 -101.107910 5.034601 0.678431
286.832306 -101.113785 4.328405 0.393439
286.832306 -101.113785 3.961612 0.647059
286.832306 -101.113785 3.599163 0.657771
285.509552 -101.107964 3.392388 0.123598
286.705231 -101.113220 2.894386 0.773816
285.743195 -101.108986 2.583126 0.678431
285.498199 -101.107910 2.198246 0.678431
285.498199 -101.107910 1.801754 0.678431
286.832306 -101.113785 1.470379 0.564645
286.832306 -101.113785 1.116034 0.648997
286.832306 -101.113785 0.759782 0.657832
286.758484 -101.113457 0.389887 0.631540
286.758484 -101.113457 0.024953 0.693965
288.352814 -101.120476 -0.000004 0.248489
289.628510 -101.126091 -0.000003 0.206446
285.498199 -101.023331 5.034768 0.678431
286.798706 -101.038132 4.335793 0.649104
285.498199 -101.023331 4.204485 0.678431
285.498199 -101.023331 3.797161 0.678431
285.509521 -101.023453 3.392470 0.115572
286.705353 -101.037071 2.894425 0.783215
285.743195 -101.026115 2.583158 0.678431
285.498199 -101.023331 2.198256 0.678431
285.498199 -101.023331 1.801743 0.678431
285.498199 -101.023331 1.404805 0.678431
285.498199 -101.023331 1.006588 0.678431
285.524231 -101.023621 0.609221 0.719707
286.758453 -101.037674 0.389794 0.636149
286.758484 -101.037674 0.024845 0.728893
288.353333 -101.055832 -0.000004 0.221298
289.628937 -101.070351 -0.000004 0.223823
285.498199 -100.938736 5.035084 0.678431
286.799805 -100.962639 4.335793 0.647059
285.498199 -100.938736 4.204714 0.678431
285.498199 -100.938736 3.797347 0.678431
285.509430 -100.938942 3.392624 0.115480
286.705597 -100.960907 2.894497 0.788388
285.743195 -100.943230 2.583219 0.678431
285.498199 -100.938736 2.198277 0.678431
285.498199 -100.938736 1.801723 0.678431
285.498199 -100.938736 1.404743 0.678431
285.498199 -100.938736 1.006485 0.678431
285.524353 -100.939209 0.609091 0.733989
286.758423 -100.961876 0.389623 0.665599
286.758484 -100.961876 0.024640 0.723400
288.354279 -100.991188 -0.000004 0.212705
289.629761 -101.014618 -0.000003 0.194490
285.515686 -100.854561 5.031168 0.633188
286.832275 -100.887932 4.329137 0.392935
286.832275 -100.887932 3.962229 0.647059
286.832275 -100.887932 3.599666 0.659724
285.515686 -100.854561 3.392119 0.727657
286.705963 -100.884735 2.894603 0.807843
285.743195 -100.860329 2.583308 0.678431
285.515686 -100.854561 2.198022 0.712322
285.515686 -100.854561 1.801979 0.729839
286.832275 -100.887932 1.470213 0.564630
286.832275 -100.887932 1.115757 0.648859
286.832275 -100.887932 0.759393 0.659144
286.758423 -100.886063 0.389373 0.654902
286.758484 -100.886063 0.024339 0.706127
288.355682 -100.926559 -0.000004 0.204136
289.630981 -100.958885 -0.000003 0.205536
285.528198 -100.770439 5.028640 0.774441
286.803558 -100.811684 4.335814 0.648096
285.528198 -100.770439 4.200033 0.777340
285.528198 -100.770439 3.793531 0.781445
285.528198 -100.770439 3.390958 0.776791
286.706482 -100.808540 2.894742 0.805264
285.743195 -100.777390 2.583425 0.678431
285.528198 -100.770439 2.197856 0.782788
285.528198 -100.770439 1.802144 0.777340
285.528198 -100.770439 1.406007 0.777050
285.528198 -100.770439 1.008594 0.779950
285.528198 -100.770439 0.609042 0.778500
286.758392 -100.810219 0.389045 0.673930
286.758484 -100.810226 0.023942 0.698039
288.357574 -100.861938 -0.000004 0.252953
289.632599 -100.903168 -0.000003 0.250116
285.498199 -100.684784 5.036918 0.678431
286.806152 -100.736221 4.335836 0.648463
285.498199 -100.684784 4.206047 0.678431
285.498199 -100.684784 3.798433 0.678431
285.509003 -100.685204 3.393517 0.129412
286.707092 -100.732330 2.894916 0.800305
285.743195 -100.694420 2.583571 0.678431
285.498199 -100.684784 2.198397 0.678431
285.498199 -100.684784 1.801603 0.678431
285.498199 -100.684784 1.404384 0.678431
285.498199 -100.684784 1.005884 0.678431
285.525085 -100.685837 0.608337 0.733028
286.758362 -100.734344 0.388639 0.647059
286.758484 -100.734344 0.023448 0.627497
288.359863 -100.797333 -0.000003 0.227473
289.634583 -100.847466 -0.000003 0.204902
285.498199 -100.600052 5.037826 0.678431
286.832245 -100.661850 4.330895 0.392523
286.832245 -100.661850 3.963710 0.647059
286.832245 -100.661850 3.600873 0.661402
285.508789 -100.600540 3.393959 0.110658
286.707825 -100.656082 2.895123 0.801480
285.743195 -100.611397 2.583746 0.678431
285.498199 -100.600052 2.198456 0.678431
285.498199 -100.600052 1.801544 0.678431
286.832245 -100.661850 1.469813 0.564630
286.832245 -100.661850 1.115089 0.648722
286.832245 -100.661850 0.758456 0.660319
286.758331 -100.658424 0.388153 0.675395
286.758484 -100.658432 0.022858 0.702342
288.362640 -100.732742 -0.000003 0.274220
289.636963 -100.791771 -0.000003 0.213112
285.498199 -100.515266 5.038883 0.678431
286.812805 -100.585358 4.335906 0.644862
285.498199 -100.515266 4.207474 0.678431
285.498199 -100.515266 3.799597 0.678431
285.508514 -100.515816 3.394473 0.125277
286.708679 -100.579811 2.895364 0.807843
285.743195 -100.528328 2.583949 0.678431
285.498199 -100.515266 2.198525 0.678431
285.498199 -100.515266 1.801475 0.678431
285.498199 -100.515266 1.403998 0.678431
285.498199 -100.515266 1.005241 0.678431
285.525909 -100.516739 0.607529 0.759411
286.758331 -100.582458 0.387590 0.735698
286.758484 -100.582466 0.022170 0.733028
288.365845 -100.668175 -0.000004 0.221621
289.639740 -100.736099 -0.000003 0.243654
285.498199 -100.430412 5.040087 0.678431
286.816864 -100.509964 4.335956 0.647059
285.498199 -100.430412 4.208350 0.678431
285.498199 -100.430412 3.800312 0.678431
285.508240 -100.431023 3.395061 0.114015
286.709656 -100.503494 2.895638 0.799680
285.743195 -100.445190 2.584180 0.678431
285.498199 -100.430412 2.198604 0.678431
285.498199 -100.430412 1.801396 0.678431
285.498199 -100.430412 1.403761 0.678431
285.498199 -100.430412 1.004846 0.678431
285.526398 -100.432114 0.607034 0.721874
286.758301 -100.506432 0.386948 0.707683
286.758484 -100.506439 0.021385 0.752071
288.369537 -100.603630 -0.000004 0.261187
289.642914 -100.680443 -0.000003 0.202377
285.498199 -100.345490 5.041443 0.678431
286.832153 -100.435318 4.333686 0.392065
286.832153 -100.435318 3.966061 0.647059
286.832153 -100.435318 3.602790 0.663172
285.507904 -100.346146 3.395720 0.123583
286.710754 -100.427139 2.895947 0.796048
285.743195 -100.361992 2.584440 0.678431
285.498199 -100.345490 2.198693 0.678431
285.498199 -100.345490 1.801307 0.678431
286.832153 -100.435318 1.469178 0.564630
286.832153 -100.435318 1.114029 0.648600
286.832153 -100.435318 0.756969 0.661402
286.758301 -100.430344 0.386228 0.662379
286.758484 -100.430351 0.020505 0.662593
288.373657 -100.539108 -0.000003 0.252294
289.646454 -100.624817 -0.000003 0.200569
285.518036 -100.261963 5.037964 0.650919
286.826385 -100.359245 4.336088 0.647700
285.518036 -100.261963 4.206806 0.660029
285.518036 -100.261963 3.799053 0.737316
285.518036 -100.261963 3.395241 0.732723
286.711975 -100.350739 2.896290 0.795682
285.743195 -100.278709 2.584730 0.678431
285.518036 -100.261963 2.198466 0.638407
285.518036 -100.261963 1.801535 0.684520
285.518036 -100.261963 1.404178 0.688350
285.518036 -100.261963 1.005541 0.697856
285.527557 -100.262672 0.605859 0.738491
286.758301 -100.354179 0.385431 0.670649
286.758484 -100.354195 0.019526 0.666987
288.378204 -100.474625 -0.000003 0.259882
289.650391 -100.569214 -0.000003 0.206649
285.748199 -100.195747 4.981773 0.792279
286.831879 -100.283928 4.336173 0.647059
285.748199 -100.195747 4.165989 0.786404
285.748199 -100.195747 3.765778 0.785412
285.748199 -100.195747 3.369434 0.762036
286.713318 -100.274284 2.896667 0.782391
285.748199 -100.195747 2.584801 0.765057
285.748199 -100.195747 2.194795 0.791470
285.748199 -100.195747 1.805205 0.806195
285.748199 -100.195747 1.415199 0.780407
285.748199 -100.195747 1.023935 0.778805
285.748199 -100.195747 0.630566 0.761044
286.758331 -100.277946 0.384557 0.690196
286.758484 -100.277962 0.018449 0.691310
288.383240 -100.410172 -0.000003 0.226755
289.654724 -100.513641 -0.000003 0.203286
285.809753 -100.117760 4.968064 0.623102
286.844940 -100.209274 4.334726 0.647059
286.832062 -100.208138 3.969288 0.647059
286.832062 -100.208138 3.605422 0.675258
285.809753 -100.117760 3.363139 0.632197
286.714783 -100.197769 2.897078 0.777951
285.809601 -100.117744 2.582120 0.622446
285.809753 -100.117760 2.193899 0.610834
285.809753 -100.117760 1.806101 0.649958
286.832062 -100.208138 1.468307 0.577173
286.832062 -100.208138 1.112575 0.648493
286.832062 -100.208138 0.754929 0.662348
286.758362 -100.201622 0.383604 0.673243
286.758484 -100.201637 0.017274 0.690196
288.388702 -100.345757 -0.000003 0.272700
289.659454 -100.458099 -0.000003 0.240566
286.657074 -100.115532 4.756762 0.642176
286.858215 -100.134735 4.333339 0.647059
286.858093 -100.134720 3.965797 0.647059
286.858398 -100.134750 3.602528 0.642283
286.858795 -100.134789 3.242781 0.647059
286.716400 -100.121193 2.897522 0.774548
286.656982 -100.115524 2.540675 0.623056
286.657043 -100.115532 2.180095 0.644251
286.657074 -100.115540 1.819906 0.654902
286.858276 -100.134735 1.469258 0.647059
286.858459 -100.134758 1.114181 0.647059
286.858521 -100.134758 0.757186 0.647059
286.758392 -100.125206 0.382571 0.684565
286.758484 -100.125214 0.016002 0.690196
288.394623 -100.281380 -0.000003 0.201886
289.664551 -100.402588 -0.000003 0.253395
286.755066 -100.048347 4.733988 0.612360
286.755066 -100.048347 4.357347 0.643656
286.755066 -100.048347 3.985996 0.627466
286.755066 -100.048347 3.619041 0.610040
286.755066 -100.048347 3.255634 0.642786
286.755066 -100.048347 2.894954 0.618219
286.755096 -100.048347 2.536204 0.616480
286.755096 -100.048347 2.178607 0.597070
286.755127 -100.048347 1.821393 0.597620
286.755127 -100.048347 1.463798 0.624857
286.755157 -100.048355 1.105052 0.628443
286.755157 -100.048355 0.744375 0.608789
286.758423 -100.048691 0.381459 0.635294
286.758514 -100.048698 0.014631 0.623529
288.401001 -100.217049 -0.000003 0.231171
289.670044 -100.347122 -0.000002 0.191857
286.758453 -99.972061 4.735163 0.617975
286.758453 -99.972061 4.358360 0.641459
286.758453 -99.972061 3.986849 0.623072
286.758453 -99.972061 3.619738 0.620584
286.758453 -99.972061 3.256173 0.620035
286.758453 -99.972061 2.895338 0.644663
286.758453 -99.972061 2.536434 0.632853
286.758453 -99.972061 2.178684 0.618204
286.758453 -99.972061 1.821316 0.615442
286.758484 -99.972061 1.463566 0.635294
286.758484 -99.972061 1.104664 0.655283
286.758484 -99.972061 0.743829 0.658763
286.758484 -99.972061 0.380266 0.670527
286.758484 -99.972069 0.013160 0.704448
288.407806 -100.152756 -0.000003 0.234702
289.675903 -100.291687 -0.000002 0.208528
286.758514 -99.895317 4.737306 0.610101
286.758514 -99.895317 4.360208 0.610925
286.758514 -99.895317 3.988405 0.638483
286.758514 -99.895317 3.621006 0.640116
286.758514 -99.895317 3.257158 0.646006
286.758514 -99.895317 2.896039 0.644572
286.758514 -99.895317 2.536855 0.597345
286.758514 -99.895317 2.178824 0.593256
286.758514 -99.895317 1.821176 0.611765
286.758514 -99.895317 1.463144 0.645380
286.758514 -99.895317 1.103959 0.644877
286.758514 -99.895317 0.742841 0.648951
286.758514 -99.895317 0.378994 0.678294
286.758484 -99.895317 0.011590 0.676036
288.415070 -100.088516 -0.000003 0.258159
289.682190 -100.236298 -0.000002 0.249542
286.758514 -99.818451 4.739603 0.613046
286.758514 -99.818451 4.362189 0.611765
286.758514 -99.818451 3.990074 0.621866
286.758514 -99.818451 3.622366 0.669474
286.758514 -99.818451 3.258213 0.641062
286.758514 -99.818451 2.896791 0.614252
286.758514 -99.818451 2.537306 0.641733
286.758514 -99.818451 2.178974 0.593256
286.758514 -99.818451 1.821026 0.611765
286.758514 -99.818443 1.462693 0.653346
286.758514 -99.818451 1.103207 0.645487
286.758514 -99.818451 0.741786 0.690028
286.758575 -99.818459 0.377641 0.671305
286.758484 -99.818443 0.009920 0.673564
288.422791 -100.024338 -0.000003 0.216846
289.688843 -100.180954 -0.000002 0.205009
286.748505 -99.740135 4.744569 0.776471
286.748505 -99.740135 4.366472 0.780514
286.748505 -99.740135 3.993682 0.776471
286.748505 -99.740135 3.625308 0.776471
286.748505 -99.740135 3.260494 0.785809
286.746887 -99.739922 2.898551 0.784314
286.748505 -99.740135 2.538280 0.780941
286.748505 -99.740135 2.179298 0.776471
286.748505 -99.740135 1.820701 0.776471
286.748505 -99.740135 1.461720 0.770397
286.748505 -99.740135 1.101582 0.776471
286.748505 -99.740135 0.739506 0.790753
286.758636 -99.741455 0.376207 0.644755
286.758484 -99.741440 0.008150 0.648554
288.430939 -99.960205 -0.000003 0.221417
289.695862 -100.125664 -0.000002 0.196129
286.694000 -99.655396 4.760925 0.678431
286.694000 -99.655396 4.380574 0.678431
286.694000 -99.655396 4.005563 0.678431
286.748505 -99.662918 3.626833 0.770260
286.748505 -99.662910 3.261678 0.798779
286.747742 -99.662811 2.899324 0.780545
286.694000 -99.655396 2.541487 0.678431
286.694000 -99.655396 2.180367 0.678431
286.694000 -99.655396 1.819633 0.678431
286.694000 -99.655396 1.458512 0.678431
286.694000 -99.655396 1.096228 0.678431
286.748505 -99.662910 0.738322 0.792538
286.758667 -99.664322 0.374692 0.626108
286.758484 -99.664291 0.006279 0.705592
288.439545 -99.896133 -0.000003 0.207834
289.703308 -100.070412 -0.000002 0.239333
286.694000 -99.577644 4.763654 0.678431
286.694000 -99.577644 4.382927 0.678431
286.694000 -99.577644 4.007545 0.678431
286.748505 -99.585548 3.628441 0.773007
286.748505 -99.585548 3.262924 0.784634
286.748596 -99.585564 2.900140 0.776715
286.694000 -99.577644 2.542023 0.678431
286.694000 -99.577644 2.180545 0.678431
286.694000 -99.577644 1.819455 0.678431
286.694000 -99.577644 1.457977 0.678431
286.694000 -99.577644 1.095335 0.678431
286.748505 -99.585548 0.737076 0.790860
286.758331 -99.586975 0.373034 0.626719
286.758545 -99.587006 0.004320 0.649760
288.448608 -99.832123 -0.000003 0.238244
289.711090 -100.015221 -0.000002 0.192479
286.694000 -99.499733 4.766522 0.678431
286.694000 -99.499733 4.385400 0.678431
286.694000 -99.499733 4.009628 0.678431
286.748505 -99.508026 3.630131 0.777523
286.748505 -99.508026 3.264235 0.797086
286.749542 -99.508186 2.900997 0.782925
286.694000 -99.499733 2.542585 0.678431
286.694000 -99.499733 2.180732 0.678431
286.694000 -99.499733 1.819267 0.678431
286.694000 -99.499733 1.457415 0.678431
286.694000 -99.499733 1.094396 0.678431
286.748505 -99.508026 0.735765 0.783673
286.758453 -99.509537 0.371361 0.626749
286.758514 -99.509552 0.002247 0.648112
288.458099 -99.768173 -0.000003 0.191258
289.719299 -99.960083 -0.000002 0.200342
286.694000 -99.421654 4.769531 0.678431
286.694000 -99.421654 4.387995 0.678431
286.694000 -99.421654 4.011815 0.678431
286.748505 -99.430336 3.631904 0.768139
286.748505 -99.430336 3.265610 0.780179
286.750519 -99.430656 2.901896 0.776471
286.694000 -99.421654 2.543175 0.678431
286.694000 -99.421654 2.180929 0.678431
286.694000 -99.421654 1.819071 0.678431
286.694000 -99.421654 1.456824 0.678431
286.694000 -99.421654 1.093411 0.678431
286.748505 -99.430336 0.734390 0.788220
286.758484 -99.431931 0.369597 0.611399
286.758514 -99.431931 0.000070 0.653834
288.468048 -99.704300 -0.000002 0.227054
289.727875 -99.905006 -0.000001 0.227042
286.694000 -99.343407 4.772683 0.678431
286.694000 -99.343407 4.390712 0.678431
286.694000 -99.343407 4.014104 0.678431
286.748505 -99.352478 3.633761 0.773724
286.748505 -99.352478 3.267050 0.777447
286.751526 -99.352982 2.902838 0.807843
286.694000 -99.343407 2.543793 0.678431
286.694000 -99.343407 2.181135 0.678431
286.694000 -99.343407 1.818865 0.678431
286.694000 -99.343407 1.456206 0.678431
286.694000 -99.343407 1.092379 0.678431
286.748505 -99.352478 0.732949 0.794659
286.758484 -99.354141 0.367742 0.639261
286.758484 -99.354141 -0.002209 0.723018
288.478455 -99.640488 -0.000002 0.216439
289.736847 -99.849991 -0.000002 0.261653
286.694000 -99.264969 4.775978 0.678431
286.694000 -99.264969 4.393553 0.678431
286.694000 -99.264969 4.016498 0.678431
286.748505 -99.274437 3.635702 0.676646
286.748505 -99.274437 3.268556 0.798611
286.752594 -99.275146 2.903821 0.787717
286.694000 -99.264969 2.544440 0.678431
286.694000 -99.264969 2.181350 0.678431
286.694000 -99.264969 1.818650 0.678431
286.694000 -99.264969 1.455560 0.678431
286.694000 -99.264969 1.091301 0.678431
286.748505 -99.274437 0.731444 0.794659
286.758484 -99.276169 0.365801 0.621973
286.783325 -99.280479 -0.000003 0.215948
288.489288 -99.576759 -0.000002 0.190086
289.746185 -99.795036 -0.000001 0.209701
286.694000 -99.186348 4.779416 0.678431
286.694000 -99.186348 4.396517 0.678431
286.694000 -99.186348 4.018994 0.678431
286.748505 -99.196205 3.637728 0.670558
286.748505 -99.196205 3.270126 0.807843
286.753723 -99.197144 2.904848 0.776883
286.694000 -99.186348 2.545114 0.678431
286.694000 -99.186348 2.181575 0.678431
286.694000 -99.186348 1.818425 0.678431
286.694000 -99.186348 1.454886 0.678431
286.694000 -99.186348 1.090176 0.678431
286.748505 -99.196205 0.729874 0.794568
286.758514 -99.198013 0.363782 0.629618
286.796692 -99.204926 -0.000003 0.220496
288.500580 -99.513100 -0.000002 0.214464
289.755920 -99.740150 -0.000001 0.248345
286.694000 -99.107521 4.782998 0.678431
286.694000 -99.107521 4.399605 0.678431
286.694000 -99.107521 4.021596 0.678431
286.748505 -99.117775 3.639838 0.601862
286.748505 -99.117775 3.271764 0.791714
286.730469 -99.114380 2.907955 0.703334
286.694000 -99.107521 2.545816 0.678431
286.694000 -99.107521 2.181809 0.678431
286.694000 -99.107521 1.818191 0.678431
286.694000 -99.107521 1.454183 0.678431
286.694000 -99.107521 1.089003 0.678431
286.748505 -99.117775 0.728237 0.794476
286.758514 -99.119659 0.361672 0.649226
286.810638 -99.129463 -0.000002 0.241045
288.512299 -99.449524 -0.000002 0.218904
289.766022 -99.685333 -0.000001 0.235168
286.694000 -99.028496 4.786724 0.678431
286.694000 -99.028496 4.402819 0.678431
286.694000 -99.028496 4.024304 0.678431
286.748505 -99.039139 3.642034 0.589548
286.748505 -99.039139 3.273466 0.790295
286.742310 -99.037933 2.908180 0.719905
286.694000 -99.028496 2.546547 0.678431
286.694000 -99.028496 2.182052 0.678431
286.694000 -99.028496 1.817948 0.678431
286.694000 -99.028496 1.453452 0.678431
286.694000 -99.028496 1.087783 0.678431
286.748505 -99.039139 0.726533 0.794476
286.758484 -99.041092 0.359476 0.598260
286.825073 -99.054100 -0.000002 0.259631
288.524475 -99.386032 -0.000002 0.249626
289.776520 -99.630592 -0.000001 0.234211
286.694000 -98.949249 4.790597 0.678431
286.694000 -98.949249 4.406159 0.678431
286.694000 -98.949249 4.027118 0.678431
286.748505 -98.960289 3.644317 0.587961
286.748505 -98.960289 3.275236 0.797086
286.754425 -98.961487 2.908429 0.714199
286.694000 -98.949249 2.547307 0.678431
286.694000 -98.949249 2.182305 0.678431
286.694000 -98.949249 1.817695 0.678431
286.694000 -98.949249 1.452693 0.678431
286.694000 -98.949249 1.086515 0.678431
286.748505 -98.960289 0.724764 0.788586
286.758484 -98.962311 0.357194 0.653651
286.840057 -98.978836 -0.000002 0.196799
288.537109 -99.322632 -0.000002 0.249781
289.787384 -99.575920 -0.000001 0.203298
286.694000 -98.869781 4.794619 0.678431
286.694000 -98.869781 4.409626 0.678431
286.694000 -98.869781 4.030038 0.678431
286.748505 -98.881218 3.646686 0.778881
286.748505 -98.881218 3.277074 0.793408
286.766937 -98.885086 2.908689 0.694545
286.694000 -98.869781 2.548096 0.678431
286.694000 -98.869781 2.182568 0.678431
286.694000 -98.869774 1.817432 0.678431
286.694000 -98.869774 1.451904 0.678431
286.694000 -98.869781 1.085199 0.678431
286.748505 -98.881218 0.722926 0.780453
286.758514 -98.883316 0.354831 0.624994
286.855560 -98.903679 -0.000002 0.229687
288.550140 -99.259315 -0.000001 0.278456
289.798645 -99.521332 -0.000001 0.202173
286.694000 -98.790077 4.798788 0.678431
286.694000 -98.790077 4.413220 0.678431
286.694000 -98.790077 4.033067 0.678431
286.748505 -98.801910 3.649142 0.754345
286.748505 -98.801910 3.278979 0.786587
286.779541 -98.808655 2.908986 0.721920
286.694000 -98.790077 2.548913 0.678431
286.694000 -98.790077 2.182840 0.678431
286.694000 -98.790077 1.817160 0.678431
286.694000 -98.790077 1.451087 0.678431
286.694000 -98.790077 1.083834 0.678431
286.748505 -98.801910 0.721021 0.784009
286.758484 -98.804077 0.352375 0.620768
286.871582 -98.828636 -0.000002 0.207630
288.563660 -99.196091 -0.000002 0.244946
289.810303 -99.466812 -0.000001 0.257572
286.694000 -98.710129 4.803106 0.678431
286.694000 -98.710129 4.416944 0.678431
286.694000 -98.710129 4.036202 0.678431
286.748505 -98.722359 3.651687 0.745800
286.748505 -98.722359 3.280952 0.803159
286.792419 -98.732224 2.909308 0.714107
286.694000 -98.710129 2.549760 0.678431
286.694000 -98.710129 2.183122 0.678431
286.694000 -98.710129 1.816877 0.678431
286.694000 -98.710129 1.450240 0.678431
286.694000 -98.710129 1.082421 0.678431
286.748505 -98.722359 0.719048 0.784314
286.758484 -98.724602 0.349830 0.609461
286.888123 -98.753708 -0.000002 0.207463
288.577606 -99.132965 -0.000001 0.223943
289.822327 -99.412384 -0.000001 0.214189
286.694000 -98.629929 4.807573 0.678431
286.694000 -98.629929 4.420796 0.678431
286.694000 -98.629929 4.039449 0.678431
286.748505 -98.642563 3.654319 0.727169
286.748505 -98.642563 3.282994 0.780255
286.805634 -98.655815 2.909644 0.693401
286.694000 -98.629929 2.550637 0.678431
286.694000 -98.629929 2.183414 0.678431
286.694000 -98.629929 1.816586 0.678431
286.694000 -98.629929 1.449363 0.678431
286.694000 -98.629929 1.080958 0.678431
286.748505 -98.642563 0.717006 0.784405
286.758514 -98.644882 0.347204 0.625696
286.905182 -98.678894 -0.000002 0.224361
288.591980 -99.069939 -0.000001 0.204279
289.834717 -99.358040 -0.000001 0.197924
286.694000 -98.549477 4.812194 0.678431
286.694000 -98.549477 4.424779 0.678431
286.694000 -98.549477 4.042805 0.678431
286.750641 -98.563019 3.656716 0.723430
286.748505 -98.562508 3.285105 0.776471
286.827789 -98.581474 2.909274 0.666468
286.694000 -98.549477 2.551543 0.678431
286.694000 -98.549477 2.183716 0.678431
286.694000 -98.549477 1.816284 0.678431
286.694000 -98.549477 1.448457 0.678431
286.694000 -98.549477 1.079446 0.678431
286.748505 -98.562508 0.714895 0.780377
286.758484 -98.564896 0.344481 0.652735
286.922791 -98.604202 -0.000002 0.240434
288.606781 -99.007011 -0.000001 0.239561
289.847504 -99.303780 -0.000001 0.211676
286.694000 -98.468750 4.816966 0.678431
286.694000 -98.468750 4.428895 0.678431
286.694000 -98.468750 4.046272 0.678431
286.748383 -98.482162 3.659872 0.720668
286.748505 -98.482185 3.287286 0.776471
286.830200 -98.502335 2.910613 0.689601
286.694000 -98.468750 2.552479 0.678431
286.694000 -98.468750 2.184028 0.678431
286.694000 -98.468750 1.815972 0.678431
286.694000 -98.468750 1.447521 0.678431
286.694000 -98.468750 1.077883 0.678431
286.748505 -98.482193 0.712714 0.790570
286.758514 -98.484657 0.341675 0.638163
286.940887 -98.529633 -0.000002 0.232308
288.622040 -98.944191 -0.000001 0.209438
289.860657 -99.249619 -0.000000 0.232404
286.694000 -98.387741 4.821893 0.678431
286.694000 -98.387741 4.433143 0.678431
286.694000 -98.387741 4.049851 0.678431
286.746063 -98.400970 3.663131 0.729290
286.748505 -98.401588 3.289538 0.801862
286.832642 -98.422958 2.912000 0.690684
286.694000 -98.387741 2.553445 0.678431
286.694000 -98.387741 2.184350 0.678431
286.694000 -98.387741 1.815650 0.678431
286.694000 -98.387741 1.446555 0.678431
286.694000 -98.387741 1.076271 0.678431
286.748505 -98.401588 0.710463 0.792081
286.758484 -98.404121 0.338771 0.638239
286.959534 -98.455193 -0.000002 0.232811
288.637756 -98.881477 -0.000001 0.242852
289.874176 -99.195541 -0.000001 0.207989
286.694000 -98.306450 4.826976 0.678431
286.694000 -98.306450 4.437525 0.678431
286.694000 -98.306450 4.053542 0.678431
286.708832 -98.310333 3.671831 0.139162
286.748505 -98.320702 3.291860 0.795346
286.835144 -98.343353 2.913430 0.697917
286.694000 -98.306450 2.554441 0.678431
286.694000 -98.306450 2.184682 0.678431
286.694000 -98.306450 1.815318 0.678431
286.694000 -98.306450 1.445558 0.678431
286.694000 -98.306450 1.074607 0.678431
286.748505 -98.320702 0.708140 0.793347
286.758514 -98.323318 0.335784 0.631434
286.978668 -98.380882 -0.000002 0.281652
288.653870 -98.818871 -0.000001 0.220711
289.888092 -99.141563 -0.000000 0.271563
286.694000 -98.224861 4.832214 0.678431
286.694000 -98.224861 4.442042 0.678431
286.694000 -98.224861 4.057348 0.678431
286.705170 -98.227875 3.675492 0.125917
286.748505 -98.239517 3.294254 0.770687
286.837677 -98.263496 2.914909 0.704112
286.694000 -98.224861 2.555469 0.678431
286.694000 -98.224861 2.185024 0.678431
286.694000 -98.224861 1.814976 0.678431
286.694000 -98.224861 1.444531 0.678431
286.694000 -98.224861 1.072892 0.678431
286.748505 -98.239517 0.705746 0.787778
286.758484 -98.242203 0.332695 0.624414
286.998352 -98.306709 -0.000001 0.235145
288.670441 -98.756386 -0.000001 0.212202
289.902374 -99.087685 -0.000000 0.252689
286.694000 -98.142967 4.837611 0.678431
286.694000 -98.142967 4.446694 0.678431
286.694000 -98.142967 4.061268 0.678431
286.701416 -98.145020 3.679265 0.129412
286.748505 -98.158035 3.296720 0.776242
286.840271 -98.183403 2.916430 0.701305
286.694000 -98.142967 2.556528 0.678431
286.694000 -98.142967 2.185376 0.678431
286.694000 -98.142967 1.814623 0.678431
286.694000 -98.142967 1.443473 0.678431
