# This PCD file was generated using the MATLABÂ® pcwrite function
# from Computer Vision ToolboxÂ®.
# .PCD v.7 - Point Cloud Data file format
VERSION .7
FIELDS x y z intensity
SIZE 4 4 4 4
TYPE F F F F
COUNT 1 1 1 1
WIDTH 1245
HEIGHT 1
VIEWPOINT 0 0 0 1 0 0 0
POINTS 1245
DATA ascii
161.974182 -25.690741 0.000014 0.235480
159.520874 -26.123714 0.000012 0.273035
157.815735 -26.424650 0.000009 0.201539
156.559464 -26.646366 0.000008 0.220161
nan nan nan 0.000000
nan nan nan 0.000000
188.928024 -21.223003 9.424527 0.918929
188.928009 -21.223003 8.052691 0.927138
188.646347 -21.270689 6.661250 0.734478
188.646347 -21.270689 5.322307 0.721813
188.646362 -21.270689 3.990533 0.721141
188.646362 -21.270691 2.663038 0.740124
188.646362 -21.270691 1.336962 0.725856
188.646362 -21.270689 0.009466 0.720088
172.745651 -23.962627 0.000027 0.220651
165.837631 -25.132133 0.000019 0.240901
161.990204 -25.783491 0.000014 0.218078
159.533951 -26.199327 0.000012 0.260636
157.826752 -26.488352 0.000010 0.205751
156.568954 -26.701292 0.000008 0.200378
nan nan nan 0.000000
nan nan nan 0.000000
188.928024 -21.511585 9.415943 0.905882
188.928024 -21.511587 8.045691 0.913725
188.646347 -21.557251 6.655859 0.713283
188.646347 -21.557251 5.318466 0.696483
188.646347 -21.557251 3.988232 0.701732
188.646347 -21.557251 2.662270 0.720913
188.646347 -21.557251 1.337729 0.726757
188.646347 -21.557251 0.011767 0.720256
172.773499 -24.130619 0.000027 0.222614
165.857483 -25.251869 0.000019 0.234582
162.005600 -25.876352 0.000014 0.227844
159.546494 -26.275032 0.000012 0.218258
157.837311 -26.552130 0.000010 0.233888
156.578079 -26.756283 0.000008 0.281532
nan nan nan 0.000000
nan nan nan 0.000000
188.928009 -21.799520 9.407738 0.905623
188.928024 -21.799519 8.039005 0.937255
188.646362 -21.843168 6.650709 0.689326
188.646362 -21.843170 5.314794 0.700496
188.646362 -21.843170 3.986034 0.702510
188.646362 -21.843170 2.661538 0.703456
188.646362 -21.843170 1.338462 0.732494
188.646362 -21.843170 0.013966 0.733639
172.800156 -24.298803 0.000027 0.235791
165.876480 -25.371744 0.000019 0.263640
162.020340 -25.969320 0.000014 0.217049
159.558502 -26.350822 0.000012 0.261665
157.847443 -26.615980 0.000010 0.246610
156.586792 -26.811338 0.000008 0.215661
nan nan nan 0.000000
nan nan nan 0.000000
188.928009 -22.086826 9.399912 0.911208
188.928024 -22.086824 8.032625 0.905882
188.646362 -22.128462 6.645798 0.688426
188.646347 -22.128464 5.311293 0.690776
188.646347 -22.128464 3.983935 0.689693
188.646362 -22.128462 2.660840 0.700191
188.646362 -22.128462 1.339161 0.724163
188.646347 -22.128464 0.016065 0.723293
172.825653 -24.467167 0.000027 0.229603
165.894653 -25.491747 0.000019 0.227533
162.034424 -26.062386 0.000015 0.225762
159.569992 -26.426693 0.000011 0.227318
157.857117 -26.679899 0.000010 0.188099
156.595139 -26.866451 0.000008 0.215374
nan nan nan 0.000000
nan nan nan 0.000000
188.928009 -22.373543 9.392462 0.919509
188.928040 -22.373541 8.026554 0.937255
188.646362 -22.413172 6.641121 0.738964
188.646347 -22.413172 5.307959 0.739010
188.646347 -22.413172 3.981938 0.720928
188.646347 -22.413174 2.660173 0.734783
188.646347 -22.413174 1.339826 0.739635
188.646347 -22.413172 0.018062 0.721721
172.849960 -24.635706 0.000027 0.236353
165.911987 -25.611874 0.000019 0.240554
162.047867 -26.155550 0.000015 0.225810
159.580948 -26.502642 0.000012 0.247914
157.866348 -26.743885 0.000010 0.238938
156.603104 -26.921621 0.000008 0.224242
nan nan nan 0.000000
nan nan nan 0.000000
188.928009 -22.659695 9.385389 0.905882
188.928024 -22.659693 8.020786 0.917906
188.646347 -22.697321 6.636679 0.716747
188.646347 -22.697323 5.304793 0.727428
188.646347 -22.697321 3.980041 0.721202
188.646347 -22.697321 2.659542 0.725582
188.646347 -22.697321 1.340458 0.722576
188.646347 -22.697321 0.019958 0.716350
172.873108 -24.804411 0.000027 0.226133
165.928467 -25.732119 0.000019 0.225008
162.060654 -26.248804 0.000014 0.265842
159.591370 -26.578667 0.000012 0.213566
157.875122 -26.807934 0.000010 0.282418
156.610672 -26.976847 0.000008 0.201551
nan nan nan 0.000000
nan nan nan 0.000000
188.928009 -22.945313 9.378686 0.925612
188.928024 -22.945311 8.015324 0.911330
188.646362 -22.980938 6.632471 0.702907
188.646362 -22.980938 5.301794 0.717327
188.646347 -22.980938 3.978245 0.726162
188.646362 -22.980938 2.658943 0.726802
188.646362 -22.980938 1.341056 0.732769
188.646347 -22.980938 0.021755 0.730510
172.895065 -24.973270 0.000027 0.225941
165.944122 -25.852474 0.000019 0.255634
162.072784 -26.342146 0.000014 0.241643
159.601273 -26.654760 0.000012 0.210646
157.883469 -26.872040 0.000010 0.247316
156.617859 -27.032124 0.000008 0.201682
nan nan nan 0.000000
nan nan nan 0.000000
188.928009 -23.230427 9.372356 0.910079
188.928024 -23.230425 8.010161 0.928298
188.646347 -23.264057 6.628497 0.697520
188.646362 -23.264057 5.298963 0.696025
188.646347 -23.264057 3.976547 0.691005
188.646362 -23.264057 2.658378 0.704250
188.646347 -23.264057 1.341622 0.734249
188.646347 -23.264057 0.023453 0.721691
166.770111 -25.876080 0.507527 0.739605
165.958939 -25.972935 0.000019 0.215984
162.084274 -26.435570 0.000015 0.208588
159.610641 -26.730923 0.000012 0.221932
157.891357 -26.936205 0.000010 0.215505
156.624664 -27.087448 0.000008 0.213279
nan nan nan 0.000000
nan nan nan 0.000000
188.928009 -23.515068 9.366396 0.914275
188.928024 -23.515068 8.005301 0.919707
188.646347 -23.546707 6.624753 0.706722
188.646362 -23.546703 5.296295 0.706889
188.646347 -23.546705 3.974948 0.684779
188.646362 -23.546707 2.657845 0.708095
188.646362 -23.546707 1.342153 0.726177
165.912659 -26.100266 1.148908 0.732799
172.935440 -25.311432 0.000027 0.238543
165.972900 -26.093500 0.000019 0.256567
162.095108 -26.529072 0.000015 0.216128
159.619461 -26.807150 0.000012 0.206170
157.898788 -27.000423 0.000010 0.217217
156.631088 -27.142818 0.000008 0.222004
nan nan nan 0.000000
nan nan nan 0.000000
188.928009 -23.799259 9.360804 0.905882
188.928024 -23.799259 8.000743 0.911665
188.646362 -23.828907 6.621245 0.732204
188.646362 -23.828909 5.293793 0.732937
188.646362 -23.828907 3.973450 0.713970
188.646362 -23.828909 2.657347 0.727626
165.682114 -26.246147 1.720514 0.724758
167.394821 -26.065866 1.076339 0.733166
172.953857 -25.480717 0.000027 0.225451
165.986023 -26.214157 0.000019 0.230549
162.105286 -26.622646 0.000015 0.235336
159.627762 -26.883434 0.000012 0.245832
157.905792 -27.064692 0.000010 0.194214
156.637115 -27.198233 0.000008 0.208013
nan nan nan 0.000000
nan nan nan 0.000000
188.928009 -24.083038 9.355576 0.894118
188.928024 -24.083038 7.996484 0.930907
188.646347 -24.110699 6.617962 0.720943
188.646362 -24.110699 5.291454 0.720699
188.646347 -24.110699 3.972049 0.711635
188.646362 -24.110699 2.656879 0.712902
166.283981 -26.306850 1.710816 0.736004
188.646347 -24.110699 0.027951 0.703365
172.971085 -25.650127 0.000027 0.230453
165.998306 -26.334904 0.000019 0.233373
162.114822 -26.716291 0.000015 0.197889
159.635529 -26.959776 0.000012 0.205141
157.912323 -27.129007 0.000010 0.217265
156.642746 -27.253689 0.000008 0.236234
nan nan nan 0.000000
nan nan nan 0.000000
188.928009 -24.366425 9.350717 0.894118
188.928024 -24.366425 7.992519 0.912657
188.646347 -24.392101 6.614911 0.697963
188.646347 -24.392103 5.289279 0.705470
188.646347 -24.392103 3.970745 0.690333
165.704422 -26.483568 2.279469 0.746853
167.876602 -26.285545 1.684838 0.728023
188.646347 -24.392103 0.029254 0.720012
166.508255 -26.410288 0.533468 0.806104
166.009750 -26.455734 0.000019 0.216798
162.123688 -26.809999 0.000015 0.249326
159.642761 -27.036169 0.000012 0.213124
157.918427 -27.193367 0.000010 0.222985
156.648010 -27.309183 0.000008 0.213303
nan nan nan 0.000000
nan nan nan 0.000000
188.928009 -24.649452 9.346218 0.921492
188.928009 -24.649452 7.988853 0.908354
188.646347 -24.673147 6.612088 0.691646
188.646362 -24.673147 5.287268 0.692561
166.097244 -26.570169 2.857860 0.724544
167.235016 -26.474451 2.304434 0.731975
188.646347 -24.673147 1.343955 0.733944
188.646347 -24.673147 0.030460 0.719265
166.508392 -26.535582 0.534354 0.766476
166.020355 -26.576639 0.000019 0.241870
162.131912 -26.903769 0.000015 0.234223
159.649460 -27.112612 0.000012 0.225905
157.924072 -27.257767 0.000010 0.218844
156.652878 -27.364712 0.000008 0.224146
nan nan nan 0.000000
nan nan nan 0.000000
188.928009 -24.932146 9.342087 0.906523
188.928024 -24.932146 7.985485 0.929244
188.646347 -24.953863 6.609493 0.708721
188.487503 -24.966110 5.272353 0.678431
166.217239 -26.683187 2.863290 0.727749
188.646347 -24.953863 2.655675 0.723552
188.646347 -24.953863 1.344325 0.727855
166.510239 -26.660597 1.122272 0.795850
166.508514 -26.660730 0.535169 0.773922
166.030090 -26.697617 0.000019 0.232907
162.139481 -26.997591 0.000015 0.203944
159.655640 -27.189100 0.000012 0.222195
157.929260 -27.322206 0.000010 0.221549
156.657349 -27.420273 0.000008 0.197099
nan nan nan 0.000000
nan nan nan 0.000000
188.928009 -25.214537 9.338314 0.924224
188.928009 -25.214535 7.982409 0.911894
188.646347 -25.234276 6.607123 0.726528
188.487503 -25.245409 5.270672 0.678431
188.646347 -25.234276 3.967420 0.711971
188.646347 -25.234276 2.655338 0.720378
166.512085 -26.785503 1.707753 0.782925
166.510376 -26.785624 1.122717 0.752773
166.508636 -26.785746 0.535911 0.754894
166.039001 -26.818659 0.000020 0.233158
162.146378 -27.091465 0.000015 0.228682
159.661270 -27.265629 0.000012 0.233074
157.934006 -27.386679 0.000010 0.252462
156.661438 -27.475863 0.000008 0.203166
nan nan nan 0.000000
nan nan nan 0.000000
188.928009 -25.496651 9.334906 0.905882
188.928040 -25.496651 7.979632 0.936110
188.646362 -25.514416 6.604985 0.732525
188.646362 -25.514416 5.282204 0.720119
188.646362 -25.514416 3.966507 0.723461
188.646362 -25.514416 2.655034 0.710811
166.425812 -26.915873 1.709304 0.724056
166.510498 -26.910532 1.123119 0.751400
166.508759 -26.910641 0.536581 0.754452
166.047058 -26.939760 0.000019 0.224050
162.152634 -27.185385 0.000015 0.229125
159.666367 -27.342194 0.000012 0.183156
157.938293 -27.451183 0.000010 0.219275
156.665146 -27.531483 0.000008 0.195280
nan nan nan 0.000000
nan nan nan 0.000000
188.928009 -25.778521 9.331856 0.927413
188.928024 -25.778521 7.977145 0.930953
188.646362 -25.794312 6.603070 0.698222
188.646347 -25.794312 5.280839 0.698894
188.646362 -25.794312 3.965689 0.683085
166.514069 -27.035141 2.292022 0.801312
166.424927 -27.040138 1.709439 0.697398
166.510605 -27.035334 1.123478 0.764706
173.049606 -26.668730 0.000027 0.229041
166.054291 -27.060917 0.000019 0.226348
162.158234 -27.279346 0.000015 0.205835
159.670929 -27.418795 0.000012 0.236234
157.942139 -27.515718 0.000010 0.202592
156.668457 -27.587126 0.000009 0.247459
nan nan nan 0.000000
nan nan nan 0.000000
188.928009 -26.060165 9.329165 0.931350
188.928024 -26.060165 7.974950 0.922667
188.646347 -26.073986 6.601380 0.716320
188.646362 -26.073986 5.279635 0.698955
166.515915 -27.159782 2.876462 0.754879
166.514191 -27.159868 2.291917 0.754665
166.408051 -27.165075 1.709822 0.723476
188.646362 -26.073986 0.035032 0.720897
173.058563 -26.838778 0.000027 0.247842
166.060654 -27.182119 0.000019 0.228706
162.163177 -27.373344 0.000015 0.209330
159.674957 -27.495424 0.000012 0.213973
157.945541 -27.580276 0.000010 0.236377
156.671387 -27.642790 0.000008 0.283387
nan nan nan 0.000000
nan nan nan 0.000000
188.928009 -26.341618 9.326834 0.937255
188.928024 -26.341618 7.973052 0.905882
188.646362 -26.353466 6.599918 0.712902
188.646362 -26.353466 5.278593 0.713603
166.516037 -27.284439 2.876188 0.759396
166.340607 -27.291819 2.288981 0.775021
166.355728 -27.291183 1.710771 0.740993
188.646362 -26.353466 0.035656 0.718776
173.066299 -27.008884 0.000028 0.228263
166.066177 -27.303364 0.000020 0.225546
162.167450 -27.467373 0.000015 0.219718
159.678436 -27.572081 0.000012 0.243319
157.948486 -27.644855 0.000010 0.201240
156.673920 -27.698475 0.000008 0.216894
nan nan nan 0.000000
nan nan nan 0.000000
194.259323 -26.435905 10.295522 0.919921
197.626755 -26.317789 9.262571 0.936019
188.646347 -26.632786 6.598678 0.732937
166.517883 -27.408964 3.462163 0.782635
166.516159 -27.409023 2.875958 0.749249
166.115570 -27.423075 2.285218 0.764324
167.149918 -27.386795 1.697845 0.723262
188.646362 -26.632786 0.036186 0.740047
173.072876 -27.179041 0.000028 0.228754
166.070862 -27.424643 0.000019 0.231387
162.171082 -27.561432 0.000015 0.247555
159.681396 -27.648760 0.000012 0.253647
157.950974 -27.709455 0.000010 0.228849
156.676071 -27.754175 0.000008 0.196979
nan nan nan 0.000000
nan nan nan 0.000000
nan nan nan 0.000000
189.092331 -26.899439 7.994511 0.514611
188.646347 -26.911966 6.597664 0.725521
166.518005 -27.533501 3.461851 0.763653
166.516281 -27.533548 2.875771 0.771115
166.092178 -27.545460 2.284772 0.762615
189.363800 -26.891813 1.334262 0.000000
189.390518 -26.891064 0.000045 0.230669
173.078247 -27.349237 0.000027 0.243031
166.074692 -27.545952 0.000019 0.225774
162.174057 -27.655512 0.000015 0.223990
159.683823 -27.725456 0.000012 0.267194
157.953018 -27.774071 0.000010 0.182438
156.677826 -27.809887 0.000008 0.217935
nan nan nan 0.000000
nan nan nan 0.000000
nan nan nan 0.000000
189.102478 -27.181412 7.994985 0.176593
166.519867 -27.657953 4.050862 0.762722
166.518127 -27.657990 3.461610 0.745220
166.516388 -27.658028 2.875627 0.784100
166.068878 -27.667471 2.284342 0.754879
189.437363 -27.174345 1.333172 0.678431
189.397507 -27.175186 0.000046 0.230154
173.082428 -27.519470 0.000028 0.221597
166.077667 -27.667284 0.000020 0.236808
162.176361 -27.749611 0.000015 0.231291
159.685715 -27.802170 0.000012 0.209737
157.954605 -27.838699 0.000010 0.252175
156.679199 -27.865612 0.000008 0.231817
nan nan nan 0.000000
nan nan nan 0.000000
nan nan nan 0.000000
166.521744 -27.782398 4.644379 0.768048
166.519989 -27.782421 4.050624 0.720058
166.518250 -27.782446 3.461440 0.737987
165.794174 -27.792669 2.840035 0.773831
166.380707 -27.784388 2.289411 0.736980
189.437347 -27.458860 1.333255 0.678431
189.402496 -27.459354 0.000046 0.227569
173.085419 -27.689728 0.000028 0.223823
166.079803 -27.788637 0.000020 0.214189
162.178024 -27.843725 0.000015 0.201455
159.687057 -27.878893 0.000012 0.205548
157.955750 -27.903337 0.000010 0.208923
156.680176 -27.921347 0.000008 0.223368
nan nan nan 0.000000
nan nan nan 0.000000
nan nan nan 0.000000
166.521851 -27.906855 4.644200 0.764401
166.520111 -27.906866 4.050486 0.738094
188.646362 -27.748964 5.275779 0.707927
165.771637 -27.912209 2.838866 0.799756
189.363800 -27.743843 2.665492 0.000000
189.363800 -27.743843 1.334508 0.000000
189.405518 -27.743546 0.000046 0.228431
173.087234 -27.860001 0.000028 0.232667
166.081100 -27.910000 0.000020 0.227222
162.179031 -27.937847 0.000015 0.228490
159.687881 -27.955624 0.000012 0.211293
157.956421 -27.967981 0.000010 0.216439
156.680771 -27.977085 0.000008 0.199528
nan nan nan 0.000000
nan nan nan 0.000000
166.523758 -28.031300 5.243767 0.761791
166.521988 -28.031300 4.644151 0.756771
166.520233 -28.031300 4.050447 0.756222
188.646347 -28.027868 5.275694 0.722438
165.752914 -28.031418 2.837925 0.766690
189.437363 -28.027746 2.666679 0.678431
189.324295 -28.027763 1.335171 0.541527
189.325317 -28.027763 0.004037 0.549020
173.087860 -28.030281 0.000028 0.226659
166.081543 -28.031368 0.000020 0.213016
162.179367 -28.031973 0.000015 0.206051
159.688156 -28.032358 0.000012 0.255514
157.956665 -28.032627 0.000010 0.251457
156.680984 -28.032825 0.000008 0.230669
nan nan nan 0.000000
166.525665 -28.155771 5.850807 0.764950
166.523865 -28.155760 5.243864 0.745495
166.522095 -28.155746 4.644230 0.756848
188.646347 -28.306774 6.595959 0.725719
165.487518 -28.148684 3.376812 0.767086
165.730301 -28.150341 2.836833 0.776181
189.437363 -28.312174 2.666695 0.678431
189.437363 -28.312174 1.333306 0.074250
189.331329 -28.311451 0.003696 0.549020
173.087296 -28.200563 0.000028 0.224876
166.081146 -28.152737 0.000019 0.221166
162.179062 -28.126101 0.000015 0.208791
159.687897 -28.109095 0.000012 0.242289
157.956451 -28.097275 0.000010 0.268810
156.680786 -28.088566 0.000008 0.224349
nan nan nan 0.000000
166.525787 -28.280258 5.851110 0.755779
166.523987 -28.280233 5.244120 0.760128
167.135361 -28.288675 4.735397 0.704021
188.646347 -28.585711 6.596291 0.697429
165.465500 -28.265617 3.375104 0.755199
188.646362 -28.585711 3.962794 0.691981
189.437378 -28.596632 2.666742 0.678431
189.437363 -28.596632 1.333257 0.073976
189.335480 -28.595224 0.003348 0.549020
173.085526 -28.370838 0.000028 0.227892
166.079880 -28.274101 0.000019 0.243534
162.178085 -28.220222 0.000015 0.251122
159.687103 -28.185825 0.000012 0.221382
157.955780 -28.161919 0.000010 0.211795
156.680222 -28.144306 0.000008 0.280024
166.527725 -28.404806 6.467439 0.756893
166.525909 -28.404768 5.851603 0.753109
166.524109 -28.404732 5.244534 0.749950
189.092377 -28.873968 7.993449 0.310475
188.646347 -28.864695 6.596847 0.718074
165.443558 -28.382265 3.373472 0.796109
188.646362 -28.864695 3.963030 0.691859
189.437378 -28.881142 2.666824 0.678431
189.437363 -28.881142 1.333177 0.074510
189.360245 -28.879538 0.001889 0.549020
173.082581 -28.541094 0.000028 0.224170
166.077789 -28.395451 0.000020 0.228861
162.176453 -28.314335 0.000015 0.231351
159.685776 -28.262550 0.000012 0.208755
157.954666 -28.226557 0.000010 0.210479
156.679260 -28.200039 0.000008 0.184808
166.527847 -28.529369 6.468228 0.753796
166.526031 -28.529320 5.852282 0.772152
nan nan nan 0.000000
189.092453 -29.156155 7.994476 0.350317
188.646332 -29.143763 6.597623 0.722225
165.421677 -28.498644 3.371910 0.764050
188.646347 -29.143764 3.963364 0.718593
189.437378 -29.165735 2.666936 0.678431
189.437363 -29.165735 1.333064 0.084245
189.360260 -29.163593 0.001550 0.549020
173.078445 -28.711329 0.000028 0.226683
166.074829 -28.516787 0.000020 0.226899
162.174164 -28.408436 0.000015 0.221513
159.683914 -28.339264 0.000012 0.209737
157.953094 -28.291185 0.000010 0.241954
156.677902 -28.255764 0.000008 0.199432
166.527985 -28.653982 6.469234 0.744442
166.526154 -28.653919 5.853148 0.748669
nan nan nan 0.000000
189.092545 -29.438452 7.995796 0.388296
165.165176 -28.606604 3.895706 0.766598
168.074463 -28.707747 3.589857 0.770520
188.646362 -29.422939 3.963793 0.732616
189.363800 -29.447882 2.665877 0.000000
189.363800 -29.447882 1.334123 0.000000
189.363800 -29.447882 0.000940 0.000000
173.073120 -28.881527 0.000028 0.224074
166.071045 -28.638096 0.000020 0.241081
162.171234 -28.502518 0.000015 0.219694
159.681519 -28.415962 0.000012 0.211759
157.951065 -28.355801 0.000010 0.252737
156.676163 -28.311478 0.000008 0.222530
166.528107 -28.778658 6.470460 0.762661
nan nan nan 0.000000
nan nan nan 0.000000
nan nan nan 0.000000
165.143890 -28.720858 3.893761 0.784497
188.646347 -29.702253 5.278550 0.723003
188.646362 -29.702253 3.964317 0.720806
189.437378 -29.735283 2.667260 0.678431
189.437378 -29.735283 1.332740 0.678431
189.437378 -29.735283 -0.003211 0.678431
173.066620 -29.051687 0.000028 0.229855
166.066406 -28.759378 0.000020 0.257680
162.167633 -28.596577 0.000015 0.233529
159.678589 -28.492641 0.000012 0.208169
157.948593 -28.420403 0.000010 0.214297
156.674026 -28.367180 0.000008 0.213243
nan nan nan 0.000000
nan nan nan 0.000000
nan nan nan 0.000000
nan nan nan 0.000000
165.122635 -28.834881 3.891912 0.795941
188.437469 -29.971542 5.262439 0.675944
188.646347 -29.981726 3.964937 0.692775
189.437363 -30.020290 2.667470 0.678431
189.437363 -30.020290 1.332529 0.678431
189.437363 -30.020290 -0.003844 0.678431
173.058929 -29.221796 0.000028 0.227689
166.060913 -28.880623 0.000020 0.224996
162.163376 -28.690607 0.000015 0.216989
159.675110 -28.569298 0.000012 0.198188
157.945679 -28.484983 0.000010 0.229472
156.671509 -28.422863 0.000008 0.234043
nan nan nan 0.000000
nan nan nan 0.000000
nan nan nan 0.000000
164.873932 -28.936005 4.403413 0.782437
165.101410 -28.948687 3.890157 0.762798
188.828156 -30.271528 5.295712 0.678431
188.646362 -30.261393 3.965655 0.687984
189.363800 -30.301392 2.666510 0.000000
189.363800 -30.301392 1.333491 0.000000
189.363800 -30.301392 -0.000956 0.065141
173.050034 -29.391848 0.000028 0.232942
166.054581 -29.001829 0.000019 0.219347
162.158463 -28.784607 0.000015 0.231805
159.671112 -28.645929 0.000012 0.233014
157.942307 -28.549543 0.000010 0.227940
156.668594 -28.478529 0.000008 0.198906
nan nan nan 0.000000
nan nan nan 0.000000
nan nan nan 0.000000
164.853104 -29.048033 4.401312 0.768246
188.437866 -30.528191 6.580865 0.691600
188.828156 -30.552685 5.297076 0.678431
188.646362 -30.541275 3.966468 0.730587
nan nan nan 0.000000
nan nan nan 0.000000
189.326614 -30.583967 0.000047 0.231985
173.039963 -29.561832 0.000028 0.220819
166.047394 -29.122986 0.000020 0.247507
162.152893 -28.878571 0.000015 0.210144
159.666565 -28.722530 0.000012 0.230585
157.938477 -28.614077 0.000010 0.241428
156.665298 -28.534174 0.000008 0.200533
nan nan nan 0.000000
nan nan nan 0.000000
nan nan nan 0.000000
164.832352 -29.159874 4.399337 0.776516
188.438095 -30.806871 6.583008 0.676707
188.812683 -30.833008 5.297331 0.292287
188.646362 -30.821402 3.967377 0.727108
245.419220 -34.782501 3.586609 0.223529
nan nan nan 0.000000
189.307816 -30.867552 0.000047 0.232978
173.028702 -29.731741 0.000028 0.220053
166.039383 -29.244089 0.000020 0.227772
162.146667 -28.972490 0.000015 0.209581
159.661499 -28.799099 0.000012 0.216068
157.934204 -28.678583 0.000010 0.210658
156.661621 -28.589794 0.000008 0.238280
nan nan nan 0.000000
nan nan nan 0.000000
nan nan nan 0.000000
164.809525 -29.271376 4.397169 0.776394
188.511429 -31.091438 6.593815 0.660197
nan nan nan 0.000000
245.073700 -35.434845 6.748642 0.223529
nan nan nan 0.000000
nan nan nan 0.000000
189.287048 -31.150999 0.000047 0.229412
173.016266 -29.901567 0.000028 0.226073
166.030502 -29.365133 0.000020 0.237718
162.139786 -29.066366 0.000015 0.221824
159.655884 -28.875628 0.000012 0.235970
157.929489 -28.743057 0.000010 0.244396
156.657547 -28.645386 0.000009 0.221729
nan nan nan 0.000000
nan nan nan 0.000000
164.566116 -29.364189 4.897687 0.777676
168.768326 -29.716404 4.987805 0.796078
nan nan nan 0.000000
nan nan nan 0.000000
239.968872 -35.684166 6.499640 0.223529
246.016922 -36.191090 3.598126 0.223529
nan nan nan 0.000000
189.264297 -31.434298 0.000047 0.228000
173.002625 -30.071306 0.000028 0.236748
166.020798 -29.486115 0.000020 0.219742
162.132248 -29.160192 0.000015 0.195028
159.649750 -28.952118 0.000012 0.208169
157.924301 -28.807499 0.000010 0.274686
156.653076 -28.700949 0.000008 0.220903
nan nan nan 0.000000
nan nan nan 0.000000
164.545654 -29.473967 4.895716 0.791531
nan nan nan 0.000000
nan nan nan 0.000000
nan nan nan 0.000000
168.583298 -29.840790 2.980996 0.423957
nan nan nan 0.000000
240.670044 -36.389931 0.488755 0.223529
189.239563 -31.717428 0.000047 0.227892
172.987823 -30.240944 0.000028 0.228431
166.010223 -29.607023 0.000020 0.241751
162.124069 -29.253963 0.000015 0.249542
159.643066 -29.028563 0.000012 0.203849
157.918686 -28.871901 0.000010 0.275692
156.648224 -28.756479 0.000008 0.228311
nan nan nan 0.000000
nan nan nan 0.000000
164.525192 -29.583597 4.893884 0.768002
nan nan nan 0.000000
nan nan nan 0.000000
nan nan nan 0.000000
166.754868 -29.801870 2.891389 0.427115
nan nan nan 0.000000
nan nan nan 0.000000
168.755478 -29.997719 1.009858 0.468986
168.090927 -29.932663 0.402150 0.519417
165.998825 -29.727858 0.000020 0.222123
162.115219 -29.347675 0.000015 0.225534
159.635864 -29.104959 0.000012 0.216690
157.912613 -28.936262 0.000010 0.213100
156.642990 -28.811974 0.000008 0.209138
nan nan nan 0.000000
164.288208 -29.670366 5.385967 0.748760
164.504700 -29.693089 4.892186 0.775967
nan nan nan 0.000000
nan nan nan 0.000000
167.912903 -30.050770 3.584303 0.441062
165.276199 -29.774054 2.818978 0.455726
168.615341 -30.124489 2.327739 0.531060
167.967392 -30.056488 1.682922 0.562051
167.390289 -29.995922 1.076593 0.479057
166.859406 -29.940207 0.502553 0.507530
165.986588 -29.848606 0.000020 0.246490
162.105728 -29.441320 0.000016 0.215398
159.628128 -29.181303 0.000012 0.256088
157.906082 -29.000580 0.000010 0.225367
156.637375 -28.867430 0.000008 0.210144
nan nan nan 0.000000
164.268204 -29.778259 5.384185 0.764492
169.287903 -30.340521 5.770152 0.767056
nan nan nan 0.000000
168.937271 -30.301245 4.343067 0.397086
166.252274 -30.000496 3.448488 0.406241
164.229172 -29.773886 2.767840 0.392828
167.276443 -30.115215 2.305941 0.525658
166.753677 -30.056660 1.702667 0.536599
166.259033 -30.001253 1.131816 0.478065
165.781860 -29.947805 0.590324 0.543313
165.328339 -29.897005 0.074703 0.505165
162.095581 -29.534901 0.000015 0.222279
159.619843 -29.257591 0.000012 0.272592
157.899109 -29.064850 0.000010 0.189344
156.631363 -28.922848 0.000008 0.205871
nan nan nan 0.000000
164.248123 -29.886028 5.382546 0.795361
nan nan nan 0.000000
nan nan nan 0.000000
167.423767 -30.264202 4.169612 0.651377
164.837769 -29.956247 3.332855 0.449210
164.098923 -29.868261 2.762015 0.411765
166.156723 -30.113316 2.287735 0.500298
165.685028 -30.057144 1.720038 0.519860
165.242340 -30.004425 1.181415 0.555764
164.820099 -29.954144 0.668604 0.597086
164.420288 -29.906530 0.178352 0.521279
162.084763 -29.628405 0.000015 0.234510
159.611038 -29.333818 0.000012 0.252953
157.891693 -29.129070 0.000010 0.284273
156.624954 -28.978220 0.000008 0.217576
nan nan nan 0.000000
164.227997 -29.993694 5.381064 0.795316
nan nan nan 0.000000
167.464066 -30.401995 4.805968 0.447578
165.704422 -30.179977 3.972108 0.443915
164.246307 -29.996004 3.285114 0.468391
163.999939 -29.964920 2.757767 0.451835
165.150040 -30.110029 2.271378 0.563302
164.733566 -30.057482 1.735491 0.462791
164.397705 -30.015108 1.222536 0.502205
164.275269 -29.999659 0.712491 0.498009
164.196777 -29.989754 0.202707 0.526558
162.073303 -29.721832 0.000015 0.208779
159.601700 -29.409985 0.000012 0.235516
157.883820 -29.193237 0.000010 0.206302
156.618179 -29.033548 0.000008 0.198990
163.994812 -30.072872 5.865892 0.784604
169.697006 -30.832806 6.575762 0.796048
nan nan nan 0.000000
167.417511 -30.529016 4.801543 0.637110
164.459137 -30.134752 3.829370 0.443748
164.134018 -30.091423 3.276990 0.416526
163.902069 -30.060511 2.753603 0.416480
164.379181 -30.124096 2.258898 0.658778
164.296539 -30.113083 1.742466 0.533165
164.223465 -30.103344 1.230468 0.398810
164.161850 -30.095131 0.720707 0.423194
164.100342 -30.086937 0.212270 0.530800
162.061203 -29.815178 0.000015 0.256890
159.591827 -29.486082 0.000012 0.190169
157.875504 -29.257347 0.000010 0.207152
156.611008 -29.088825 0.000008 0.227401
163.975143 -30.178913 5.864611 0.785092
170.015076 -31.026815 6.649506 0.783307
166.137589 -30.482483 5.204619 0.470649
165.212234 -30.352579 4.473891 0.457237
164.266830 -30.219860 3.808779 0.386404
164.034622 -30.187263 3.269981 0.384756
163.805267 -30.155064 2.749521 0.405020
164.249969 -30.217493 2.257010 0.571954
164.188370 -30.208845 1.744008 0.443854
164.127014 -30.200233 1.234517 0.425956
164.066101 -30.191681 0.727413 0.515557
164.005295 -30.183146 0.221603 0.447440
162.048447 -29.908438 0.000015 0.225283
159.581421 -29.562111 0.000012 0.223500
157.866745 -29.321398 0.000010 0.225474
156.603455 -29.144054 0.000008 0.206529
163.955399 -30.284874 5.863498 0.788235
168.185623 -30.908871 6.254781 0.483909
166.158234 -30.609812 5.211638 0.451575
164.422562 -30.353785 4.357972 0.470665
164.165787 -30.315908 3.798847 0.480797
163.936340 -30.282064 3.263112 0.362921
163.709503 -30.248602 2.745519 0.436881
164.153107 -30.314039 2.255667 0.557778
164.092209 -30.305056 1.745341 0.467765
164.031555 -30.296110 1.238488 0.521248
163.971329 -30.287224 0.733988 0.524956
163.911209 -30.278357 0.230756 0.433310
162.035034 -30.001604 0.000015 0.229173
159.570496 -29.638063 0.000012 0.212274
157.857529 -29.385387 0.000010 0.244132
156.595505 -29.199226 0.000008 0.192635
163.935593 -30.390772 5.862556 0.772335
166.666046 -30.813034 5.927172 0.429053
164.784256 -30.522018 4.962053 0.450034
164.300995 -30.447281 4.342215 0.274556
164.065872 -30.410919 3.789115 0.521599
163.839142 -30.375854 3.256380 0.458213
163.614746 -30.341152 2.741595 0.392538
164.057251 -30.409586 2.254349 0.535393
163.997040 -30.400272 1.746648 0.491417
163.937073 -30.391001 1.242381 0.592935
163.877518 -30.381790 0.740435 0.471351
163.818085 -30.372597 0.239730 0.453071
162.020966 -30.094677 0.000015 0.262683
159.559021 -29.713938 0.000012 0.203609
157.847870 -29.449308 0.000010 0.217731
156.587173 -29.254343 0.000008 0.262515
166.467270 -30.909464 6.509223 0.439582
165.448334 -30.744595 5.665092 0.429282
164.443604 -30.582024 4.902536 0.463386
164.199432 -30.542515 4.329542 0.398001
163.967087 -30.504919 3.779580 0.468360
163.742996 -30.468660 3.249783 0.454429
163.524918 -30.433376 2.737945 0.406668
163.962387 -30.504158 2.253057 0.525902
163.902832 -30.494524 1.747930 0.469474
163.843674 -30.484951 1.246192 0.502434
163.784653 -30.475401 0.746756 0.594797
163.725876 -30.465889 0.248530 0.588724
162.006256 -30.187647 0.000015 0.246023
159.547028 -29.789730 0.000012 0.192156
157.837769 -29.513163 0.000010 0.209222
156.578461 -29.309401 0.000008 0.212094
165.678604 -30.903654 6.314082 0.441749
164.596359 -30.720778 5.482707 0.442908
164.338577 -30.677217 4.886508 0.440375
164.098999 -30.636736 4.317125 0.441672
163.869354 -30.597931 3.770234 0.487434
163.647873 -30.560505 3.243316 0.394430
163.432129 -30.524050 2.734174 0.403189
163.868454 -30.597778 2.251791 0.552605
163.809570 -30.587828 1.749186 0.489937
163.751068 -30.577942 1.249935 0.552193
163.692703 -30.568079 0.752955 0.623285
163.634567 -30.558256 0.257159 0.530861
161.990906 -30.280514 0.000015 0.197924
159.534515 -29.865437 0.000012 0.221549
157.827225 -29.576944 0.000010 0.233014
156.569366 -29.364393 0.000009 0.222877
164.714478 -30.855896 6.074064 0.462562
164.469116 -30.812668 5.459000 0.526390
164.236145 -30.771629 4.871064 0.466331
163.999695 -30.729971 4.304959 0.473808
163.772293 -30.689913 3.761030 0.362615
163.553757 -30.651413 3.236979 0.490639
163.340286 -30.613808 2.730478 0.413931
163.775467 -30.690472 2.250550 0.479469
163.717239 -30.680212 1.750418 0.457053
163.659363 -30.670019 1.253605 0.538476
163.601639 -30.659849 0.759033 0.532723
163.544250 -30.649738 0.265609 0.586084
161.974899 -30.373270 0.000015 0.249267
159.521469 -29.941055 0.000012 0.218521
157.816223 -29.640650 0.000010 0.219215
156.559891 -29.419323 0.000009 0.233182
164.551804 -30.941505 6.037754 0.596246
164.366272 -30.907484 5.440763 0.481270
164.135162 -30.865101 4.855987 0.450401
163.901459 -30.822248 4.293040 0.476936
163.676697 -30.781033 3.752060 0.410971
163.460159 -30.741325 3.230731 0.448463
163.249374 -30.702671 2.726854 0.431037
163.683411 -30.782263 2.249332 0.479652
163.625793 -30.771698 1.751626 0.495521
163.568558 -30.761204 1.257203 0.587396
163.511566 -30.750751 0.764984 0.595193
163.454697 -30.740322 0.273906 0.448615
161.958237 -30.465912 0.000015 0.224194
159.507889 -30.016581 0.000012 0.248620
157.804794 -29.704277 0.000010 0.215661
156.550034 -29.474186 0.000009 0.218665
164.449600 -31.036585 6.016963 0.468788
164.264603 -31.001326 5.422904 0.349630
164.035278 -30.957615 4.841216 0.424567
163.804291 -30.913589 4.281362 0.391608
163.582108 -30.871243 3.743272 0.347341
163.368011 -30.830435 3.224646 0.391058
163.159348 -30.790665 2.723302 0.405158
163.592224 -30.873169 2.248139 0.569558
163.535233 -30.862309 1.752810 0.570626
163.478622 -30.851519 1.260731 0.521248
163.422241 -30.840771 0.770827 0.486656
163.365967 -30.830048 0.282040 0.527749
161.940948 -30.558437 0.000015 0.221166
159.493790 -30.092009 0.000012 0.262706
157.792908 -29.767824 0.000010 0.227988
156.539780 -29.528978 0.000008 0.204459
164.348495 -31.130707 5.996599 0.488960
164.164063 -31.094217 5.405412 0.457862
163.936478 -31.049192 4.826747 0.524819
163.708145 -31.004019 4.269920 0.412100
163.488510 -30.960564 3.734660 0.340032
163.276794 -30.918676 3.218683 0.439551
163.070221 -30.877808 2.719819 0.296529
163.501923 -30.963217 2.246969 0.471153
163.445541 -30.952063 1.753971 0.543801
163.389526 -30.940981 1.264189 0.533242
163.333755 -30.929947 0.776555 0.434119
163.278076 -30.918932 0.290016 0.573709
161.922989 -30.650835 0.000015 0.224996
159.479156 -30.167336 0.000012 0.254891
157.780579 -29.831284 0.000010 0.223332
156.529160 -29.583696 0.000008 0.264573
164.248489 -31.223902 5.976651 0.535439
164.064255 -31.186115 5.388203 0.498192
163.838745 -31.139860 4.812571 0.471382
163.613022 -31.093563 4.258711 0.396170
163.395859 -31.049021 3.726222 0.366934
163.186478 -31.006075 3.212839 0.376364
162.981934 -30.964121 2.716405 0.365042
163.412460 -31.052425 2.245823 0.493584
163.356689 -31.040985 1.755109 0.534997
163.301270 -31.029619 1.267580 0.533684
163.246078 -31.018299 0.782171 0.503822
163.190994 -31.007002 0.297837 0.467582
161.904404 -30.743111 0.000015 0.211137
159.463989 -30.242561 0.000012 0.213806
157.767822 -29.894659 0.000010 0.229113
156.518143 -29.638340 0.000009 0.261234
164.148743 -31.316021 5.956908 0.413153
163.965866 -31.277182 5.371420 0.355428
163.742050 -31.229643 4.798687 0.431769
163.518692 -31.182203 4.247700 0.456626
163.304153 -31.136637 3.717954 0.428214
163.097061 -31.092651 3.207113 0.428122
162.894501 -31.049629 2.713059 0.364385
163.323837 -31.140818 2.244699 0.498695
163.268661 -31.129097 1.756224 0.555840
163.213821 -31.117451 1.270904 0.498344
163.159225 -31.105852 0.787676 0.525109
163.104706 -31.094275 0.305502 0.497597
161.885178 -30.835251 0.000015 0.221046
159.448318 -30.317677 0.000012 0.203513
157.754608 -29.957943 0.000010 0.210024
156.506760 -29.692905 0.000009 0.258207
164.052078 -31.407696 5.938091 0.386221
163.869598 -31.367603 5.355218 0.442496
163.647110 -31.318724 4.785224 0.471260
163.426208 -31.270191 4.237047 0.348775
163.213898 -31.223547 3.709917 0.406470
163.009018 -31.178535 3.201544 0.398184
162.808121 -31.134398 2.709791 0.383062
163.236588 -31.228531 2.243606 0.469917
163.181946 -31.216526 1.757309 0.496605
163.127640 -31.204597 1.274138 0.545403
163.073578 -31.192719 0.793036 0.551308
163.019623 -31.180864 0.312966 0.515175
161.865295 -30.927256 0.000015 0.206721
159.432114 -30.392681 0.000012 0.225798
157.740952 -30.021132 0.000010 0.225307
156.494980 -29.747389 0.000009 0.208181
163.955078 -31.498224 5.919321 0.585092
163.773178 -31.456928 5.339102 0.467964
163.552322 -31.406788 4.771885 0.426368
163.333893 -31.357197 4.226497 0.396384
163.123917 -31.309525 3.701970 0.440208
162.921249 -31.263514 3.196039 0.458610
162.722260 -31.218334 2.706572 0.408621
163.149506 -31.315334 2.242525 0.532128
163.095428 -31.303057 1.758382 0.638514
163.041702 -31.290859 1.277335 0.616464
162.988190 -31.278709 0.798333 0.498970
162.934784 -31.266586 0.320342 0.576486
161.844772 -31.019119 0.000015 0.224218
159.415390 -30.467571 0.000012 0.232703
157.726868 -30.084225 0.000010 0.206948
156.482834 -29.801790 0.000009 0.237777
163.858337 -31.587748 5.900750 0.553704
163.677368 -31.545332 5.323231 0.433143
163.458511 -31.494036 4.758822 0.472206
163.242508 -31.443407 4.216163 0.450736
163.034821 -31.394726 3.694185 0.419577
162.834320 -31.347733 3.190646 0.436088
162.637177 -31.301525 2.703418 0.290242
163.063202 -31.401379 2.241466 0.484215
163.009689 -31.388836 1.759434 0.613031
162.956512 -31.376371 1.280468 0.601831
162.903549 -31.363960 0.803523 0.396414
162.850693 -31.351570 0.327570 0.557244
161.823608 -31.110840 0.000015 0.238711
159.398132 -30.542345 0.000012 0.216786
157.712326 -30.147217 0.000010 0.260014
156.470306 -29.856106 0.000009 0.246574
163.763336 -31.676626 5.882757 0.447944
163.582947 -31.633017 5.307778 0.438300
163.365662 -31.580484 4.746029 0.476188
163.152039 -31.528839 4.206042 0.436255
162.946396 -31.479120 3.686538 0.444404
162.748215 -31.431210 3.185363 0.394278
162.552872 -31.383982 2.700327 0.368429
162.977676 -31.486683 2.240428 0.550530
162.924713 -31.473879 1.760464 0.625528
162.872086 -31.461155 1.283539 0.530877
162.819656 -31.448481 0.808610 0.491630
162.767395 -31.435846 0.334647 0.482856
161.801819 -31.202406 0.000016 0.229927
159.380356 -30.616993 0.000012 0.228466
157.697357 -30.210106 0.000010 0.280287
156.457397 -29.910332 0.000008 0.193903
163.669281 -31.764719 5.865139 0.512688
163.489517 -31.719925 5.292653 0.437003
163.273743 -31.666162 4.733500 0.463600
163.062363 -31.613495 4.196116 0.398108
162.859009 -31.562828 3.679071 0.402152
162.662872 -31.513956 3.180184 0.414740
162.469315 -31.465731 2.697299 0.368017
162.892899 -31.571270 2.239410 0.363073
162.840469 -31.558208 1.761474 0.591455
162.788376 -31.545227 1.286548 0.503136
162.736481 -31.532299 0.813595 0.520760
162.684738 -31.519405 0.341590 0.542092
161.779373 -31.293821 0.000015 0.203968
159.362061 -30.691517 0.000012 0.207391
157.681946 -30.272892 0.000010 0.254461
156.444107 -29.964466 0.000009 0.229292
163.576111 -31.852024 5.847871 0.392142
163.397507 -31.806198 5.277957 0.433921
163.183014 -31.751160 4.721289 0.431922
162.973816 -31.697481 4.186438 0.424552
162.772583 -31.645844 3.671772 0.496193
162.578369 -31.596010 3.175115 0.489860
162.386414 -31.546757 2.694325 0.367086
162.809006 -31.655193 2.238416 0.490532
162.757080 -31.641870 1.762461 0.601556
162.705490 -31.628630 1.289491 0.492332
162.654114 -31.615446 0.818472 0.559823
162.602859 -31.602299 0.348384 0.464912
161.756302 -31.385077 0.000015 0.219718
159.343262 -30.765911 0.000012 0.188841
157.666092 -30.335566 0.000010 0.192635
156.430435 -30.018507 0.000009 0.214763
163.483826 -31.938576 5.830964 0.425834
163.305389 -31.891460 5.263342 0.394308
163.092834 -31.835335 4.709268 0.370001
162.885895 -31.780693 4.176925 0.493202
162.686768 -31.728115 3.664604 0.414313
162.494431 -31.677330 3.170135 0.357946
162.304276 -31.627121 2.691416 0.495552
162.725632 -31.738377 2.237439 0.545846
162.674240 -31.724806 1.763431 0.569543
162.623154 -31.711317 1.292382 0.597253
162.572327 -31.697897 0.823258 0.513939
162.521545 -31.684488 0.355055 0.451667
161.732590 -31.476166 0.000015 0.239549
159.323929 -30.840172 0.000012 0.191330
157.649811 -30.398129 0.000010 0.245868
156.416397 -30.072451 0.000009 0.213590
163.392456 -32.024403 5.814415 0.454124
163.214645 -31.976124 5.249141 0.444831
163.003540 -31.918798 4.697500 0.398993
162.798798 -31.863209 4.167612 0.395605
162.601746 -31.809704 3.657583 0.390677
162.411362 -31.758009 3.165267 0.416556
162.222870 -31.706825 2.688565 0.349004
162.642960 -31.820896 2.236481 0.457649
162.592072 -31.807077 1.764382 0.597040
162.541504 -31.793346 1.295214 0.422934
162.491180 -31.779682 0.827951 0.540215
162.440903 -31.766027 0.361591 0.542123
161.708237 -31.567091 0.000015 0.252450
159.304077 -30.914295 0.000012 0.197877
157.633087 -30.460575 0.000010 0.201479
156.401978 -30.126295 0.000009 0.234977
163.301331 -32.109344 5.798054 0.443748
163.124817 -32.060093 5.235247 0.432364
162.915131 -32.001583 4.685989 0.366537
162.712540 -31.945051 4.158496 0.401022
162.517502 -31.890631 3.650711 0.473228
162.329025 -31.838037 3.160499 0.401541
162.142136 -31.785891 2.685772 0.508400
162.560989 -31.902765 2.235543 0.479271
162.510605 -31.888706 1.765313 0.567880
162.460541 -31.874735 1.297988 0.553353
162.410706 -31.860828 0.832548 0.499672
162.360901 -31.846933 0.367993 0.566796
161.683258 -31.657845 0.000015 0.234379
159.283707 -30.988279 0.000012 0.234893
157.615936 -30.522905 0.000010 0.195172
156.387177 -30.180038 0.000009 0.229783
163.211914 -32.193840 5.782265 0.456413
163.035461 -32.143272 5.221568 0.519768
162.827469 -32.083664 4.674705 0.459678
162.626892 -32.026180 4.149546 0.381826
162.433762 -31.970839 3.643951 0.400504
162.247223 -31.917379 3.155816 0.488487
162.065475 -31.865294 2.683210 0.404150
162.479599 -31.983974 2.234623 0.564935
162.429688 -31.969669 1.766226 0.606729
162.380127 -31.955465 1.300710 0.432975
162.330734 -31.941309 0.837062 0.450874
162.281448 -31.927187 0.374277 0.575509
161.657639 -31.748417 0.000015 0.213674
159.262833 -31.062117 0.000012 0.242218
157.598343 -30.585112 0.000010 0.230477
156.372009 -30.233675 0.000009 0.254449
163.122467 -32.277409 5.766584 0.395499
162.947281 -32.225876 5.208251 0.339605
162.740631 -32.165092 4.663662 0.427039
162.542145 -32.106709 4.140805 0.496162
162.350983 -32.050480 3.637361 0.403403
162.166245 -31.996136 3.151239 0.512489
161.986053 -31.943134 2.680529 0.403662
162.398926 -32.064579 2.233723 0.467414
162.349503 -32.050041 1.767120 0.550790
162.300430 -32.035606 1.303373 0.369604
162.251495 -32.021214 0.841473 0.547448
162.202682 -32.006859 0.380422 0.606897
161.631393 -31.838812 0.000015 0.228694
159.241425 -31.135811 0.000012 0.213806
157.580307 -30.647196 0.000010 0.222351
156.356476 -30.287207 0.000009 0.192371
163.034470 -32.360508 5.751400 0.385138
162.859344 -32.307667 5.195094 0.309361
162.654694 -32.245911 4.652874 0.500786
162.458176 -32.186611 4.132253 0.510140
162.268951 -32.129513 3.630912 0.339849
162.085938 -32.074291 3.146759 0.381842
161.907303 -32.020386 2.677905 0.382712
162.318909 -32.144588 2.232842 0.560723
162.269974 -32.129822 1.767994 0.623941
162.221359 -32.115154 1.305979 0.494453
162.172897 -32.100529 0.845793 0.417105
162.124557 -32.085941 0.386439 0.544305
161.604523 -31.929022 0.000015 0.220819
159.219528 -31.209352 0.000012 0.225929
157.561859 -30.709152 0.000010 0.245808
156.340561 -30.340628 0.000009 0.194298
162.946655 -32.442783 5.736388 0.457771
162.771774 -32.388676 5.182117 0.362112
162.569168 -32.325996 4.642251 0.477073
162.374634 -32.265808 4.123833 0.431159
162.187302 -32.207851 3.624562 0.372930
162.005966 -32.151752 3.142344 0.391897
161.828735 -32.096920 2.675313 0.424674
162.239273 -32.223930 2.231976 0.491096
162.190781 -32.208931 1.768855 0.554330
162.142624 -32.194031 1.308546 0.673075
162.094620 -32.179180 0.850047 0.562295
162.046722 -32.164360 0.392365 0.478233
161.577011 -32.019043 0.000015 0.214117
159.197098 -31.282738 0.000012 0.250655
157.542953 -30.770979 0.000010 0.238316
156.324265 -30.393936 0.000009 0.277032
162.860199 -32.524620 5.721850 0.447578
162.685150 -32.469116 5.169457 0.477028
162.484665 -32.405556 4.631906 0.480919
162.292099 -32.344505 4.115641 0.456336
162.106628 -32.285698 3.618382 0.430945
161.927246 -32.228825 3.138072 0.468055
161.751221 -32.173016 2.672796 0.396475
162.160477 -32.302773 2.231131 0.505714
162.112457 -32.287548 1.769694 0.561273
162.064758 -32.272423 1.311046 0.563699
162.017227 -32.257355 0.854187 0.414328
161.969757 -32.242302 0.398135 0.454109
161.548874 -32.108868 0.000015 0.259954
159.174164 -31.355965 0.000012 0.217300
157.523636 -30.832670 0.000010 0.217683
156.307602 -30.447130 0.000009 0.207882
162.773804 -32.605621 5.707440 0.475288
162.599182 -32.548912 5.157043 0.376074
162.400604 -32.484428 4.621726 0.362341
162.209869 -32.422485 4.107560 0.403952
162.026154 -32.362823 3.612279 0.420249
161.848495 -32.305134 3.133837 0.427893
161.673798 -32.248398 2.670305 0.492210
162.081955 -32.380943 2.230298 0.661280
162.034363 -32.365494 1.770521 0.481621
161.987106 -32.350143 1.313511 0.672221
161.940018 -32.334854 0.858273 0.655390
161.893005 -32.319588 0.403825 0.530755
161.520111 -32.198490 0.000015 0.243737
159.150711 -31.429029 0.000013 0.221537
157.503891 -30.894226 0.000010 0.222327
156.290573 -30.500206 0.000009 0.205632
162.688843 -32.686268 5.693532 0.387793
162.514099 -32.628166 5.144928 0.455070
162.317581 -32.562828 4.611826 0.476448
162.128738 -32.500038 4.099717 0.423499
161.946808 -32.439552 3.606364 0.437919
161.770782 -32.381027 3.129726 0.400061
161.597458 -32.323402 2.667893 0.378088
162.004349 -32.458683 2.229489 0.502678
161.957214 -32.443016 1.771324 0.399313
161.910385 -32.427444 1.315906 0.532860
161.863739 -32.411934 0.862242 0.447623
161.817169 -32.396450 0.409354 0.617990
161.490738 -32.287914 0.000015 0.216283
159.126755 -31.501932 0.000012 0.201934
157.483704 -30.955643 0.000010 0.199026
156.273178 -30.553162 0.000009 0.321217
162.603806 -32.766068 5.679713 0.440772
162.429504 -32.706764 5.133025 0.449317
162.234726 -32.640488 4.602043 0.476493
162.047791 -32.576881 4.091971 0.392111
161.867615 -32.515579 3.600517 0.403586
161.693161 -32.456219 3.125659 0.387350
161.521133 -32.397686 2.665503 0.390570
161.926895 -32.535748 2.228689 0.436057
161.880188 -32.519855 1.772118 0.487938
161.833786 -32.504070 1.318273 0.522789
161.787567 -32.488342 0.866164 0.517800
161.741425 -32.472637 0.414819 0.676661
161.460724 -32.377129 0.000015 0.272592
159.102295 -31.574663 0.000012 0.227174
157.463089 -31.016916 0.000010 0.207080
156.255402 -30.605995 0.000009 0.234582
162.520309 -32.845596 5.666419 0.459297
162.345917 -32.784901 5.121446 0.481300
162.153229 -32.717834 4.592601 0.480903
161.968002 -32.653362 4.084472 0.422354
161.789551 -32.591251 3.594858 0.389242
161.616638 -32.531067 3.121723 0.450324
161.445953 -32.471657 2.663193 0.349706
161.850449 -32.612442 2.227915 0.493843
161.804169 -32.596340 1.772887 0.375189
161.758194 -32.580338 1.320565 0.507210
161.712402 -32.564396 0.869963 0.506218
161.666672 -32.548477 0.420111 0.571176
161.430099 -32.466133 0.000015 0.245748
159.077316 -31.647223 0.000012 0.220723
157.442047 -31.078047 0.000010 0.235288
156.237259 -30.658701 0.000009 0.241428
162.436584 -32.924263 5.653179 0.349386
162.262680 -32.862373 5.110044 0.383780
162.071671 -32.794392 4.583229 0.490990
161.888275 -32.729115 4.077045 0.451514
161.711502 -32.666199 3.589250 0.450980
161.540100 -32.605198 3.117821 0.427756
161.370697 -32.544907 2.660900 0.393042
161.774033 -32.688454 2.227148 0.490639
161.728180 -32.672138 1.773648 0.369726
161.682617 -32.655922 1.322834 0.566918
161.637238 -32.639767 0.873725 0.525292
161.591934 -32.623646 0.425350 0.578912
161.398834 -32.554924 0.000015 0.221298
159.051849 -31.719604 0.000012 0.205380
157.420593 -31.139025 0.000010 0.255167
156.218750 -30.711281 0.000009 0.277678
162.354477 -33.002743 5.640486 0.515267
162.180527 -32.939457 5.098984 0.423880
161.991547 -32.870708 4.574212 0.401617
161.809814 -32.804592 4.069886 0.396262
161.634674 -32.740879 3.583843 0.264225
161.465210 -32.679230 3.114098 0.475670
161.296631 -32.617901 2.658690 0.355612
161.698685 -32.764168 2.226408 0.461418
161.653259 -32.747639 1.774383 0.407446
161.608109 -32.731216 1.325027 0.610636
161.563141 -32.714855 0.877357 0.534554
161.518219 -32.698513 0.430413 0.681849
161.366974 -32.643490 0.000015 0.250679
159.025864 -31.791807 0.000012 0.206781
157.398697 -31.199854 0.000010 0.202604
156.199875 -30.763731 0.000009 0.219419
162.272034 -33.080341 5.627812 0.560235
162.098602 -33.015869 5.088074 0.344198
161.911240 -32.946228 4.565241 0.387442
161.731262 -32.879326 4.062777 0.429374
161.557800 -32.814842 3.578479 0.357397
161.389786 -32.752392 3.110365 0.356481
161.225830 -32.691444 2.656673 0.455238
161.623276 -32.839184 2.225673 0.506233
161.578278 -32.822456 1.775112 0.588190
161.533524 -32.805824 1.327200 0.561212
161.488953 -32.789253 0.880960 0.579919
161.444443 -32.772705 0.435434 0.602457
161.334473 -32.731834 0.000015 0.215134
158.999374 -31.863827 0.000012 0.244456
157.376389 -31.260530 0.000010 0.230429
156.180634 -30.816046 0.000009 0.229280
162.190689 -33.157608 5.615545 0.420600
162.017059 -33.091682 5.077346 0.432471
161.831528 -33.021236 4.556462 0.420340
161.653290 -32.953560 4.055821 0.431128
161.481430 -32.888309 3.573227 0.352544
161.314850 -32.825066 3.106709 0.437385
161.152084 -32.763260 2.654522 0.448524
161.548355 -32.913719 2.224955 0.423926
161.503754 -32.896790 1.775826 0.651591
161.459412 -32.879951 1.329328 0.560571
161.415222 -32.863174 0.884488 0.633005
161.371109 -32.846424 0.440347 0.515831
161.301376 -32.819946 0.000015 0.215685
158.972382 -31.935661 0.000012 0.238747
157.353653 -31.321047 0.000010 0.214979
156.161041 -30.868227 0.000009 0.204303
162.110107 -33.234440 5.603593 0.430167
161.937164 -33.167393 5.067094 0.421012
161.753342 -33.096123 4.548061 0.470375
161.576691 -33.027634 4.049150 0.494118
161.406357 -32.961601 3.568185 0.349996
161.241165 -32.897556 3.103197 0.388235
161.079575 -32.834911 2.652458 0.375601
161.474594 -32.988052 2.224264 0.496971
161.430389 -32.970917 1.776513 0.511803
