# This PCD file was generated using the MATLABÂ® pcwrite function
# from Computer Vision ToolboxÂ®.
# .PCD v.7 - Point Cloud Data file format
VERSION .7
FIELDS x y z intensity
SIZE 4 4 4 4
TYPE F F F F
COUNT 1 1 1 1
WIDTH 1194
HEIGHT 1
VIEWPOINT 0 0 0 1 0 0 0
POINTS 1194
DATA ascii
281.202026 -144.504364 3.860871 0.640589
281.202026 -144.504364 3.326336 0.740871
281.202026 -144.504364 2.794664 0.499428
281.202026 -144.504364 2.264699 0.480644
281.202026 -144.504364 1.735301 0.512688
281.202026 -144.504364 1.205336 0.638483
281.202026 -144.504364 0.673663 0.432746
281.202026 -144.504364 0.139129 0.469215
283.836029 -143.945023 -0.000017 0.215649
286.272980 -143.427521 -0.000014 0.235623
287.966736 -143.067841 -0.000011 0.205656
289.214630 -142.802856 -0.000010 0.200629
281.202026 -144.389084 6.045916 0.465248
281.202026 -144.389084 5.488543 0.481285
281.202026 -144.389084 4.938994 0.475120
281.202026 -144.389084 4.395954 0.736248
281.202026 -144.389084 3.858162 0.424567
281.202026 -144.389084 3.324405 0.763394
281.202026 -144.389084 2.793507 0.669093
281.202026 -144.389084 2.264314 0.475212
281.202026 -144.389084 1.735687 0.523766
281.202026 -144.389084 1.206493 0.741329
281.202026 -144.389084 0.675594 0.474464
281.202026 -144.389084 0.141838 0.472206
283.816803 -143.852875 -0.000017 0.214715
286.257294 -143.352402 -0.000014 0.255765
287.953552 -143.004562 -0.000012 0.212573
289.203247 -142.748291 -0.000010 0.257572
281.202026 -144.274139 6.040231 0.677424
281.202026 -144.274139 5.483639 0.456367
281.202026 -144.274139 4.934864 0.699855
281.202026 -144.274139 4.392587 0.450980
281.202026 -144.274139 3.855551 0.722942
281.202026 -144.274139 3.322544 0.585946
281.202026 -144.274139 2.792392 0.444129
281.202026 -144.274139 2.263942 0.530846
281.202026 -144.274139 1.736058 0.489967
281.202026 -144.274139 1.207608 0.676173
281.202026 -144.274139 0.677456 0.684886
281.202026 -144.274139 0.144449 0.460822
283.798218 -143.760605 -0.000017 0.232775
286.242157 -143.277176 -0.000014 0.222710
287.940765 -142.941193 -0.000012 0.202209
289.192230 -142.693649 -0.000010 0.211029
281.202026 -144.159500 6.034758 0.459068
281.202026 -144.159500 5.478920 0.469810
281.202026 -144.159500 4.930887 0.419608
281.202026 -144.159500 4.389345 0.422065
281.202026 -144.159500 3.853037 0.545419
281.202026 -144.159500 3.320752 0.646937
281.202026 -144.159500 2.791318 0.484291
281.202026 -144.159500 2.263585 0.461875
281.202026 -144.159500 1.736416 0.536507
281.202026 -144.159500 1.208682 0.702937
281.202026 -144.159500 0.679247 0.450248
281.202026 -144.159500 0.146963 0.503822
283.780273 -143.668198 -0.000017 0.227760
286.227539 -143.201859 -0.000014 0.204543
287.928436 -142.877731 -0.000012 0.283243
289.181610 -142.638916 -0.000010 0.281209
281.202026 -144.045181 6.029495 0.463066
281.202026 -144.045181 5.474383 0.461036
281.202026 -144.045181 4.927065 0.465995
281.202026 -144.045181 4.386229 0.421439
281.202026 -144.045181 3.850620 0.516701
281.202026 -144.045181 3.319030 0.598505
281.202026 -144.045181 2.790286 0.453971
281.202026 -144.045181 2.263241 0.451392
281.202026 -144.045181 1.736759 0.484504
281.202026 -144.045181 1.209714 0.752239
281.202026 -144.045181 0.680970 0.462745
281.202026 -144.045181 0.149380 0.473503
283.762970 -143.575668 -0.000017 0.230202
286.213409 -143.126419 -0.000014 0.266117
287.916565 -142.814178 -0.000012 0.241236
289.171356 -142.584137 -0.000010 0.253096
281.202026 -143.931137 6.024442 0.458564
281.202026 -143.931137 5.470027 0.447059
281.202026 -143.931137 4.923394 0.420951
281.202026 -143.931137 4.383236 0.419608
281.202026 -143.931137 3.848299 0.478157
281.202026 -143.931137 3.317376 0.664424
281.202026 -143.931137 2.789295 0.482353
281.202026 -143.931137 2.262911 0.505882
281.202026 -143.931137 1.737090 0.445197
281.202026 -143.931137 1.210705 0.739605
281.202026 -143.931137 0.682624 0.476967
281.202026 -143.931137 0.151701 0.484047
283.746338 -143.483032 -0.000017 0.241260
286.199860 -143.050888 -0.000014 0.279701
287.905121 -142.750549 -0.000012 0.247890
289.161499 -142.529266 -0.000010 0.194322
281.202026 -143.817383 6.019598 0.460533
281.202026 -143.817383 5.465849 0.419608
281.202026 -143.817398 4.919875 0.426596
281.202026 -143.817383 4.380367 0.701091
281.202026 -143.817383 3.846075 0.450980
281.202026 -143.817398 3.315790 0.731548
281.202026 -143.817383 2.788345 0.702754
281.202026 -143.817398 2.262594 0.450980
281.202026 -143.817398 1.737406 0.769757
281.202026 -143.817383 1.211655 0.629435
281.202026 -143.817398 0.684210 0.459663
281.202026 -143.817383 0.153926 0.493874
283.730316 -143.390274 -0.000017 0.244384
286.186798 -142.975281 -0.000014 0.217360
287.894135 -142.686844 -0.000012 0.226073
289.152039 -142.474335 -0.000010 0.221393
281.202026 -143.703903 6.014961 0.504570
281.202026 -143.703903 5.461850 0.437003
281.202026 -143.703903 4.916507 0.537530
281.202026 -143.703903 4.377622 0.450980
281.202026 -143.703903 3.843944 0.450980
281.202026 -143.703903 3.314272 0.511925
281.202026 -143.703903 2.787436 0.602609
281.202026 -143.703903 2.262291 0.468727
281.202026 -143.703903 1.737709 0.801236
281.202026 -143.703903 1.212564 0.450980
281.202026 -143.703903 0.685728 0.592676
281.202026 -143.703903 0.156056 0.501198
283.714966 -143.297394 -0.000017 0.215816
286.174286 -142.899567 -0.000014 0.217253
287.883606 -142.623062 -0.000012 0.228861
289.142944 -142.419342 -0.000010 0.187381
281.202026 -143.590683 6.010529 0.529290
281.202026 -143.590683 5.458030 0.589151
281.202026 -143.590683 4.913287 0.551690
281.202026 -143.590683 4.374998 0.448402
281.202026 -143.590683 3.841909 0.450980
281.202026 -143.590683 3.312821 0.538430
281.202026 -143.590683 2.786566 0.545022
281.202026 -143.590683 2.262002 0.450980
281.202026 -143.590683 1.737998 0.799847
281.202026 -143.590683 1.213434 0.443137
281.202026 -143.590683 0.687178 0.469978
281.202026 -143.590683 0.158091 0.560876
283.700256 -143.204422 -0.000017 0.229412
286.162292 -142.823776 -0.000014 0.223919
287.873505 -142.559204 -0.000012 0.213052
289.134216 -142.364288 -0.000010 0.212453
281.202026 -143.477692 6.006303 0.485542
281.202026 -143.477692 5.454385 0.512566
281.202026 -143.477692 4.910217 0.658946
281.202026 -143.477692 4.372494 0.450980
281.202026 -143.477692 3.839968 0.419608
281.202026 -143.477692 3.311438 0.515923
281.202026 -143.477692 2.785737 0.488624
281.202026 -143.477692 2.261725 0.450980
281.202026 -143.477692 1.738275 0.799756
281.202026 -143.477692 1.214262 0.484840
281.202026 -143.477692 0.688562 0.463828
281.202026 -143.477692 0.160032 0.554025
283.686188 -143.111359 -0.000017 0.231638
286.150848 -142.747894 -0.000014 0.259032
287.863831 -142.495285 -0.000012 0.239860
289.125916 -142.309174 -0.000010 0.209509
281.202026 -143.364944 6.002280 0.561883
281.202026 -143.364944 5.450916 0.697246
281.202026 -143.364944 4.907295 0.650080
281.202026 -143.364944 4.370111 0.462104
281.202026 -143.364944 3.838120 0.455451
281.202026 -143.364944 3.310121 0.559442
281.202026 -143.364944 2.784948 0.441215
281.202026 -143.364944 2.261463 0.425772
281.202026 -143.364944 1.738537 0.673777
281.202026 -143.364944 1.215051 0.449973
281.202026 -143.364944 0.689879 0.450675
281.202026 -143.364944 0.161880 0.518868
283.672791 -143.018188 -0.000017 0.200976
286.139893 -142.671936 -0.000014 0.208241
287.854645 -142.431290 -0.000012 0.190899
289.117950 -142.253998 -0.000010 0.238232
281.202026 -143.252411 5.998459 0.555673
281.202026 -143.252411 5.447622 0.666941
281.202026 -143.252411 4.904519 0.591394
281.202026 -143.252411 4.367848 0.613291
281.202026 -143.252411 3.836365 0.419059
281.202026 -143.252411 3.308870 0.798398
281.202026 -143.252411 2.784199 0.435065
281.202026 -143.252411 2.261213 0.466377
281.202026 -143.252411 1.738787 0.815641
281.202026 -143.252411 1.215801 0.528328
281.202026 -143.252411 0.691129 0.459541
281.202026 -143.252411 0.163634 0.805295
283.660034 -142.924927 -0.000017 0.223344
286.129517 -142.595917 -0.000014 0.250511
287.845856 -142.367249 -0.000012 0.234391
289.110413 -142.198761 -0.000010 0.221968
281.202026 -143.140076 5.994841 0.686061
281.202026 -143.140076 5.444502 0.618311
281.202026 -143.140076 4.901892 0.718532
281.202026 -143.140076 4.365706 0.450980
281.202026 -143.140076 3.834703 0.450980
281.202026 -143.140076 3.307685 0.571130
281.202026 -143.140076 2.783490 0.450980
281.202026 -143.140076 2.260977 0.450980
281.202026 -143.140076 1.739023 0.760861
281.202026 -143.140076 1.216510 0.482765
281.202026 -143.140076 0.692314 0.450980
281.202026 -143.140076 0.165296 0.658137
283.647919 -142.831573 -0.000017 0.221202
286.119629 -142.519821 -0.000014 0.203789
287.837555 -142.303131 -0.000012 0.208923
289.103241 -142.143478 -0.000010 0.209785
281.202026 -143.027954 5.991423 0.592401
281.202026 -143.027954 5.441556 0.639445
281.202026 -143.027954 4.899409 0.676890
281.202026 -143.027954 4.363683 0.556558
281.202026 -143.027954 3.833135 0.450980
281.202026 -143.027954 3.306567 0.475074
281.202026 -143.027954 2.782820 0.419608
281.202026 -143.027954 2.260754 0.459937
281.202026 -143.027954 1.739247 0.727108
281.202026 -143.027954 1.217180 0.458152
281.202026 -143.027954 0.693433 0.471839
281.202026 -143.027954 0.166865 0.747524
283.636475 -142.738144 -0.000017 0.230022
286.110291 -142.443649 -0.000014 0.220185
287.829681 -142.238968 -0.000012 0.202819
289.096466 -142.088165 -0.000010 0.224242
281.202026 -142.916016 5.988206 0.684504
281.202026 -142.916016 5.438781 0.703578
281.202026 -142.916016 4.897071 0.578592
281.202026 -142.916016 4.361778 0.478508
281.202026 -142.916016 3.831657 0.419608
281.202026 -142.916016 3.305513 0.502770
281.202026 -142.916016 2.782188 0.523461
281.202026 -142.916016 2.260543 0.462745
281.202026 -142.916016 1.739457 0.666194
281.202026 -142.916016 1.217811 0.495506
281.202026 -142.916016 0.694486 0.469780
281.202026 -142.916016 0.168343 0.691569
283.625671 -142.644638 -0.000017 0.218940
286.101501 -142.367416 -0.000014 0.209114
287.822266 -142.174744 -0.000012 0.207559
289.090057 -142.032791 -0.000010 0.231087
281.202026 -142.804245 5.985188 0.678691
281.202026 -142.804245 5.436179 0.794049
281.202026 -142.804245 4.894879 0.657023
281.202026 -142.804245 4.359990 0.475853
281.202026 -142.804245 3.830271 0.551415
281.202026 -142.804245 3.304526 0.508095
281.202026 -142.804245 2.781596 0.545647
281.202026 -142.804245 2.260346 0.732815
281.202026 -142.804245 1.739654 0.677394
281.202026 -142.804245 1.218404 0.589548
281.202026 -142.804245 0.695474 0.419608
281.202026 -142.804245 0.169729 0.676432
283.615540 -142.551056 -0.000017 0.207259
286.093231 -142.291122 -0.000014 0.182618
287.815308 -142.110474 -0.000012 0.273765
289.084045 -141.977371 -0.000010 0.211747
281.202026 -142.692657 5.982367 0.530480
281.202026 -142.692657 5.433748 0.686015
281.202026 -142.692657 4.892831 0.795392
281.202026 -142.692657 4.358321 0.456870
281.202026 -142.692657 3.828975 0.419608
281.202026 -142.692657 3.303602 0.684016
281.202026 -142.692657 2.781044 0.534188
281.202026 -142.692657 2.260162 0.452689
281.202026 -142.692657 1.739838 0.773571
281.202026 -142.692657 1.218957 0.552056
281.202026 -142.692657 0.696397 0.469734
281.202026 -142.692657 0.171025 0.717678
283.606049 -142.457413 -0.000017 0.220268
286.085480 -142.214783 -0.000014 0.207271
287.808777 -142.046143 -0.000012 0.215529
289.078430 -141.921906 -0.000010 0.217767
281.202026 -142.581207 5.979745 0.524468
281.202026 -142.581207 5.431487 0.483940
281.202026 -142.581207 4.890926 0.759625
281.202026 -142.581207 4.356767 0.573037
281.202026 -142.581207 3.827771 0.450980
281.202026 -142.581207 3.302745 0.541390
281.202026 -142.581207 2.780529 0.737758
281.202026 -142.581207 2.259990 0.483543
281.202026 -142.581207 1.740010 0.688670
281.202026 -142.581207 1.219471 0.451408
281.202026 -142.581207 0.697255 0.496925
281.202026 -142.581207 0.172228 0.711833
283.597198 -142.363693 -0.000017 0.238053
286.078278 -142.138382 -0.000014 0.231123
287.802704 -141.981781 -0.000012 0.225319
289.073181 -141.866409 -0.000010 0.243965
281.202026 -142.469894 5.977321 0.482353
281.202026 -142.469894 5.429397 0.496178
281.202026 -142.469894 4.889165 0.509087
281.202026 -142.469894 4.355331 0.603143
281.202026 -142.469894 3.826657 0.450980
281.202026 -142.469894 3.301950 0.453254
281.202026 -142.469894 2.780053 0.691844
281.202026 -142.469894 2.259832 0.496666
281.202026 -142.469894 1.740168 0.685969
281.202026 -142.469894 1.219946 0.486152
281.202026 -142.469894 0.698049 0.473167
281.202026 -142.469894 0.173342 0.698909
283.589020 -142.269928 -0.000017 0.239573
286.071594 -142.061935 -0.000014 0.240458
287.797089 -141.917389 -0.000012 0.238496
289.068359 -141.810883 -0.000010 0.221824
281.202026 -142.358719 5.975094 0.520760
281.202026 -142.358719 5.427476 0.560311
281.202026 -142.358719 4.887547 0.578119
281.202026 -142.358719 4.354012 0.608164
281.202026 -142.358719 3.825635 0.419608
281.202026 -142.358719 3.301222 0.462989
281.202026 -142.358719 2.779617 0.762341
281.202026 -142.358719 2.259687 0.474510
281.202026 -142.358719 1.740313 0.684062
281.202026 -142.358719 1.220383 0.556374
281.202026 -142.358719 0.698778 0.476997
281.202026 -142.358719 0.174365 0.756268
283.581482 -142.176102 -0.000017 0.219945
286.065460 -141.985443 -0.000014 0.215182
287.791901 -141.852936 -0.000012 0.183958
289.063873 -141.755325 -0.000010 0.278839
281.202026 -142.247665 5.973063 0.469657
281.202026 -142.247665 5.425725 0.570001
281.202026 -142.247665 4.886071 0.616159
281.202026 -142.247665 4.352810 0.488502
281.202026 -142.247665 3.824702 0.736828
281.202026 -142.247665 3.300556 0.439216
281.202026 -142.247665 2.779218 0.678294
281.202026 -142.247665 2.259553 0.450980
281.202026 -142.247665 1.740446 0.665415
281.202026 -142.247665 1.220782 0.427436
281.202026 -142.247665 0.699443 0.739666
281.202026 -142.247665 0.175298 0.800702
283.574615 -142.082214 -0.000017 0.232176
286.059845 -141.908920 -0.000014 0.217995
287.787201 -141.788467 -0.000011 0.223368
289.059814 -141.699722 -0.000010 0.206661
281.202026 -142.136719 5.971224 0.419608
281.202026 -142.136719 5.424141 0.427649
281.202026 -142.136719 4.884737 0.770199
281.202026 -142.136719 4.351722 0.494926
281.202026 -142.136719 3.823858 0.458839
281.202026 -142.136719 3.299955 0.474510
281.202026 -142.136719 2.778858 0.615808
281.202026 -142.136719 2.259434 0.450980
281.202026 -142.136719 1.740566 0.721462
281.202026 -142.136719 1.221142 0.419608
281.202026 -142.136719 0.700044 0.515770
281.202026 -142.136719 0.176142 0.709499
283.568390 -141.988297 -0.000017 0.204794
286.054779 -141.832352 -0.000014 0.251888
287.782928 -141.723953 -0.000012 0.217444
289.056122 -141.644104 -0.000010 0.233134
281.202026 -142.025864 5.969584 0.482353
281.202026 -142.025864 5.422726 0.447181
281.202026 -142.025864 4.883544 0.423285
281.202026 -142.025864 4.350749 0.678889
281.202026 -142.025864 3.823104 0.450980
281.202026 -142.025864 3.299418 0.459373
281.202026 -142.025864 2.778536 0.616297
281.202026 -142.025864 2.259327 0.476081
281.202026 -142.025864 1.740673 0.736370
281.202026 -142.025864 1.221464 0.482353
281.202026 -142.025864 0.700582 0.493950
281.202026 -142.025864 0.176896 0.740078
283.562805 -141.894333 -0.000017 0.230214
286.050262 -141.755753 -0.000014 0.274327
287.779114 -141.659424 -0.000011 0.201587
289.052826 -141.588455 -0.000010 0.295929
281.202026 -141.915100 5.968136 0.482353
281.202026 -141.915100 5.421477 0.474205
281.202026 -141.915100 4.882493 0.464973
281.202026 -141.915100 4.349893 0.665324
281.202026 -141.915100 3.822440 0.419608
281.202026 -141.915100 3.298944 0.451896
281.202026 -141.915100 2.778252 0.568765
281.202026 -141.915100 2.259232 0.419608
281.202026 -141.915100 1.740768 0.761791
281.202026 -141.915100 1.221748 0.482353
281.202026 -141.915100 0.701055 0.535698
281.202026 -141.915100 0.177560 0.506050
283.557922 -141.800323 -0.000017 0.216917
286.046234 -141.679108 -0.000014 0.226396
287.775726 -141.594864 -0.000011 0.253467
289.049927 -141.532791 -0.000010 0.209641
281.202026 -141.804398 5.966885 0.650248
281.202026 -141.804398 5.420398 0.419608
281.202026 -141.804398 4.881583 0.586435
281.202026 -141.804398 4.349151 0.670619
281.202026 -141.804398 3.821864 0.450980
281.202026 -141.804398 3.298534 0.638361
281.202026 -141.804398 2.778006 0.563684
281.202026 -141.804398 2.259150 0.450980
281.202026 -141.804398 1.740850 0.794980
281.202026 -141.804398 1.221993 0.634958
281.202026 -141.804398 0.701465 0.500114
281.202026 -141.804398 0.178136 0.511421
283.553650 -141.706299 -0.000017 0.214476
286.042786 -141.602463 -0.000014 0.269995
287.772797 -141.530289 -0.000012 0.272819
289.047424 -141.477112 -0.000010 0.242505
281.202026 -141.693771 5.965826 0.450980
281.202026 -141.693771 5.419485 0.394858
281.202026 -141.693771 4.880815 0.545007
281.202026 -141.693771 4.348525 0.594293
281.202026 -141.693771 3.821378 0.450980
281.202026 -141.693771 3.298188 0.460853
281.202026 -141.693771 2.777799 0.524285
281.202026 -141.693771 2.259081 0.450980
281.202026 -141.693771 1.740919 0.756695
281.202026 -141.693771 1.222201 0.400122
281.202026 -141.693771 0.701811 0.471550
281.202026 -141.693771 0.178622 0.556512
283.550049 -141.612244 -0.000017 0.260301
286.039856 -141.525772 -0.000014 0.217552
287.770325 -141.465683 -0.000012 0.220795
289.045288 -141.421402 -0.000010 0.270354
281.202026 -141.583206 5.964961 0.450980
281.202026 -141.583206 5.418739 0.420523
281.202026 -141.583206 4.880187 0.454276
281.202026 -141.583206 4.348012 0.569772
281.202026 -141.583206 3.820982 0.419608
281.202026 -141.583206 3.297905 0.473106
281.202026 -141.583206 2.777629 0.558282
281.202026 -141.583206 2.259025 0.468666
281.202026 -141.583206 1.740975 0.764202
281.202026 -141.583206 1.222370 0.450980
281.202026 -141.583206 0.702094 0.465660
281.202026 -141.583206 0.179018 0.567468
283.547119 -141.518158 -0.000017 0.230489
286.037445 -141.449081 -0.000014 0.227341
287.768311 -141.401062 -0.000012 0.272329
289.043549 -141.365692 -0.000010 0.252091
281.202026 -141.472672 5.964291 0.450980
281.202026 -141.472672 5.418161 0.483162
281.202026 -141.472672 4.879699 0.533288
281.202026 -141.472672 4.347614 0.795422
281.202026 -141.472672 3.820673 0.419608
281.202026 -141.472672 3.297685 0.504219
281.202026 -141.472672 2.777498 0.518914
281.202026 -141.472672 2.258981 0.450980
281.202026 -141.472672 1.741019 0.736736
281.202026 -141.472672 1.222502 0.500084
281.202026 -141.472672 0.702314 0.479896
281.202026 -141.472672 0.179327 0.623011
283.544830 -141.424057 -0.000017 0.244120
286.035583 -141.372360 -0.000014 0.241535
287.766754 -141.336441 -0.000012 0.258985
289.042206 -141.309967 -0.000010 0.252929
281.202026 -141.362167 5.963812 0.450980
281.202026 -141.362167 5.417749 0.603586
281.202026 -141.362167 4.879353 0.532738
281.202026 -141.362167 4.347332 0.746777
281.202026 -141.362167 3.820454 0.531075
281.202026 -141.362167 3.297529 0.501442
281.202026 -141.362167 2.777404 0.469841
281.202026 -141.362167 2.258949 0.708232
281.202026 -141.362167 1.741050 0.697444
281.202026 -141.362167 1.222595 0.450980
281.202026 -141.362167 0.702471 0.479789
281.202026 -141.362167 0.179546 0.745495
283.543213 -141.329941 -0.000017 0.231997
286.034271 -141.295639 -0.000014 0.243187
287.765625 -141.271790 -0.000012 0.197601
289.041229 -141.254227 -0.000010 0.292076
281.202026 -141.251694 5.963528 0.533700
281.202026 -141.251694 5.417504 0.450980
281.202026 -141.251694 4.879146 0.756451
281.202026 -141.251694 4.347163 0.735729
281.202026 -141.251694 3.820323 0.450980
281.202026 -141.251694 3.297436 0.756878
281.202026 -141.251694 2.777348 0.492943
281.202026 -141.251694 2.258931 0.450980
281.202026 -141.251694 1.741069 0.745556
281.202026 -141.251694 1.222651 0.389700
281.202026 -141.251694 0.702564 0.490791
281.202026 -141.251694 0.179677 0.705684
283.542236 -141.235809 -0.000017 0.232248
286.033478 -141.218903 -0.000014 0.200964
287.764984 -141.207153 -0.000012 0.217803
289.040649 -141.198486 -0.000010 0.273214
281.202026 -141.141235 5.963437 0.450980
281.202026 -141.141235 5.417424 0.516060
281.202026 -141.141235 4.879079 0.503136
281.202026 -141.141235 4.347110 0.670039
281.202026 -141.141235 3.820281 0.447425
281.202026 -141.141235 3.297406 0.497307
281.202026 -141.141235 2.777330 0.486137
281.202026 -141.141235 2.258925 0.451347
281.202026 -141.141235 1.741075 0.646403
281.202026 -141.141235 1.222669 0.388235
281.202026 -141.141235 0.702594 0.494118
281.202026 -141.141235 0.179719 0.788403
283.541931 -141.141678 -0.000018 0.232500
286.033234 -141.142166 -0.000014 0.230932
287.764771 -141.142502 -0.000012 0.213172
289.040466 -141.142746 -0.000010 0.238579
281.202026 -141.030762 5.963539 0.419608
281.202026 -141.030762 5.417512 0.532174
281.202026 -141.030762 4.879153 0.526375
281.202026 -141.030762 4.347170 0.601312
281.202026 -141.030762 3.820328 0.450126
281.202026 -141.030762 3.297439 0.482353
281.202026 -141.030762 2.777350 0.433982
281.202026 -141.030762 2.258932 0.474510
281.202026 -141.030762 1.741068 0.694896
281.202026 -141.030762 1.222650 0.450980
281.202026 -141.030762 0.702560 0.625284
281.202026 -141.030762 0.179672 0.766293
283.542297 -141.047562 -0.000017 0.229520
286.033508 -141.065430 -0.000014 0.241954
287.765015 -141.077850 -0.000012 0.248560
289.040680 -141.087006 -0.000010 0.300657
281.202026 -140.920288 5.963834 0.460853
281.202026 -140.920288 5.417768 0.448814
281.202026 -140.920288 4.879367 0.450980
281.202026 -140.920288 4.347344 0.754940
281.202026 -140.920288 3.820464 0.419608
281.202026 -140.920288 3.297536 0.494118
281.202026 -140.920288 2.777408 0.698039
281.202026 -140.920288 2.258951 0.474510
281.202026 -140.920288 1.741049 0.666926
281.202026 -140.920288 1.222591 0.698894
281.202026 -140.920288 0.702464 0.556268
281.202026 -140.920288 0.179536 0.439277
283.543304 -140.953430 -0.000017 0.207894
286.034332 -140.988693 -0.000014 0.216487
287.765686 -141.013214 -0.000012 0.244827
289.041290 -141.031265 -0.000010 0.231411
281.202026 -140.809784 5.964321 0.450980
281.202026 -140.809784 5.418189 0.519219
281.202026 -140.809784 4.879722 0.462379
281.202026 -140.809784 4.347633 0.563943
281.202026 -140.809784 3.820688 0.603143
281.202026 -140.809784 3.297696 0.462745
281.202026 -140.809784 2.777504 0.513130
281.202026 -140.809784 2.258983 0.484352
281.202026 -140.809784 1.741017 0.667063
281.202026 -140.809784 1.222496 0.450980
281.202026 -140.809784 0.702304 0.669474
281.202026 -140.809784 0.179312 0.585946
283.544952 -140.859314 -0.000018 0.232452
286.035675 -140.911972 -0.000014 0.258853
287.766846 -140.948578 -0.000012 0.206314
289.042267 -140.975540 -0.000010 0.242002
281.202026 -140.699249 5.965004 0.450980
281.202026 -140.699249 5.418777 0.434928
281.202026 -140.699249 4.880218 0.455283
281.202026 -140.699249 4.348037 0.536385
281.202026 -140.699249 3.821001 0.450980
281.202026 -140.699249 3.297918 0.450980
281.202026 -140.699249 2.777638 0.778058
281.202026 -140.699249 2.259027 0.462379
281.202026 -140.699249 1.740973 0.634134
281.202026 -140.699249 1.222362 0.482353
281.202026 -140.699249 0.702081 0.552544
281.202026 -140.699249 0.178999 0.501854
283.547272 -140.765213 -0.000017 0.241655
286.037567 -140.835266 -0.000014 0.233373
287.768433 -140.883942 -0.000012 0.230274
289.043640 -140.919815 -0.000010 0.259032
281.202026 -140.588684 5.965880 0.419608
281.202026 -140.588684 5.419531 0.429664
281.202026 -140.588684 4.880854 0.453895
281.202026 -140.588684 4.348556 0.610697
281.202026 -140.588684 3.821403 0.450980
281.202026 -140.588684 3.298205 0.462745
281.202026 -140.588684 2.777810 0.766384
281.202026 -140.588684 2.259085 0.450980
281.202026 -140.588684 1.740916 0.628717
281.202026 -140.588684 1.222190 0.419608
281.202026 -140.588684 0.701794 0.529397
281.202026 -140.588684 0.178597 0.576852
283.550232 -140.671143 -0.000018 0.224278
286.040009 -140.758560 -0.000014 0.272029
287.770477 -140.819336 -0.000012 0.263640
289.045380 -140.864105 -0.000010 0.227856
281.202026 -140.478043 5.966949 0.419608
281.202026 -140.478043 5.420454 0.428458
281.202026 -140.478043 4.881630 0.462821
281.202026 -140.478043 4.349189 0.734798
281.202026 -140.478043 3.821894 0.462119
281.202026 -140.478043 3.298555 0.450980
281.202026 -140.478043 2.778019 0.746807
281.202026 -140.478043 2.259154 0.505882
281.202026 -140.478043 1.740845 0.565682
281.202026 -140.478043 1.221981 0.419608
281.202026 -140.478043 0.701444 0.523445
281.202026 -140.478043 0.178106 0.580362
283.553894 -140.577072 -0.000017 0.236174
286.042969 -140.681885 -0.000014 0.228849
287.772949 -140.754730 -0.000012 0.249123
289.047546 -140.808395 -0.000010 0.229962
281.202026 -140.367355 5.968211 0.562066
281.202026 -140.367355 5.421542 0.429969
281.202026 -140.367355 4.882547 0.705989
281.202026 -140.367355 4.349937 0.698100
281.202026 -140.367355 3.822474 0.450980
281.202026 -140.367355 3.298969 0.776471
281.202026 -140.367355 2.778266 0.634134
281.202026 -140.367355 2.259237 0.450980
281.202026 -140.367355 1.740763 0.675517
281.202026 -140.367355 1.221733 0.562188
281.202026 -140.367355 0.701031 0.522545
281.202026 -140.367355 0.177526 0.600824
283.558167 -140.483047 -0.000017 0.217420
286.046448 -140.605225 -0.000014 0.277547
287.775909 -140.690155 -0.000011 0.230094
289.050079 -140.752716 -0.000010 0.274866
281.202026 -140.256577 5.969671 0.473655
281.202026 -140.256577 5.422799 0.444114
281.202026 -140.256577 4.883606 0.580209
281.202026 -140.256577 4.350801 0.638300
281.202026 -140.256577 3.823143 0.450980
281.202026 -140.256577 3.299446 0.457511
281.202026 -140.256577 2.778553 0.697139
281.202026 -140.256577 2.259332 0.421317
281.202026 -140.256577 1.740668 0.716182
281.202026 -140.256577 1.221447 0.454414
281.202026 -140.256577 0.700553 0.490578
281.202026 -140.256577 0.176856 0.640650
283.563110 -140.389053 -0.000017 0.230118
286.050476 -140.528595 -0.000014 0.221382
287.779297 -140.625595 -0.000012 0.244695
289.053009 -140.697052 -0.000010 0.219969
281.202026 -140.145721 5.971322 0.482353
281.202026 -140.145721 5.424223 0.445365
281.202026 -140.145721 4.884807 0.667048
281.202026 -140.145721 4.351778 0.609644
281.202026 -140.145721 3.823902 0.450980
281.202026 -140.145721 3.299987 0.466850
281.202026 -140.145721 2.778877 0.634409
281.202026 -140.145721 2.259440 0.482353
281.202026 -140.145721 1.740560 0.714397
281.202026 -140.145721 1.221123 0.450980
281.202026 -140.145721 0.700013 0.475670
281.202026 -140.145721 0.176098 0.709728
283.568726 -140.295090 -0.000017 0.217480
286.055054 -140.451996 -0.000014 0.202089
287.783142 -140.561050 -0.000011 0.293129
289.056335 -140.641403 -0.000010 0.245305
281.202026 -140.034775 5.973169 0.419608
281.202026 -140.034775 5.425816 0.481651
281.202026 -140.034775 4.886148 0.694224
281.202026 -140.034775 4.352872 0.591058
281.202026 -140.034775 3.824751 0.419608
281.202026 -140.034775 3.300591 0.443183
281.202026 -140.034775 2.779239 0.735225
281.202026 -140.034760 2.259561 0.457557
281.202026 -140.034760 1.740439 0.714305
281.202026 -140.034775 1.220761 0.489219
281.202026 -140.034775 0.699408 0.473259
281.202026 -140.034775 0.175249 0.647456
283.574982 -140.201157 -0.000017 0.218593
286.060150 -140.375427 -0.000014 0.209761
287.787445 -140.496552 -0.000011 0.210503
289.060028 -140.585785 -0.000010 0.297736
281.202026 -139.923706 5.975212 0.482353
281.202026 -139.923706 5.427578 0.712810
281.202026 -139.923706 4.887632 0.592569
281.202026 -139.923706 4.354082 0.646113
281.202026 -139.923706 3.825689 0.688029
281.202026 -139.923706 3.301260 0.475303
281.202026 -139.923706 2.779640 0.618921
281.202026 -139.923706 2.259694 0.698161
281.202026 -139.923706 1.740306 0.684123
281.202026 -139.923706 1.220360 0.506722
281.202026 -139.923706 0.698739 0.584802
281.202026 -139.923706 0.174311 0.767620
283.581879 -140.107285 -0.000017 0.255035
286.065796 -140.298904 -0.000014 0.213195
287.792206 -140.432083 -0.000011 0.224254
289.064117 -140.530197 -0.000010 0.202412
281.202026 -139.812515 5.977450 0.450980
281.202026 -139.812515 5.429508 0.540993
281.202026 -139.812515 4.889258 0.738842
281.202026 -139.812515 4.355408 0.489143
281.202026 -139.812515 3.826717 0.419608
281.202026 -139.812515 3.301993 0.533379
281.202026 -139.812515 2.780079 0.572976
281.202026 -139.812515 2.259841 0.474510
281.202026 -139.812515 1.740160 0.657877
281.202026 -139.812515 1.219921 0.450980
281.202026 -139.812515 0.698006 0.461280
281.202026 -139.812515 0.173283 0.731533
283.589447 -140.013458 -0.000017 0.224840
286.071960 -140.222412 -0.000014 0.199349
287.797394 -140.367630 -0.000011 0.224924
289.068604 -140.474625 -0.000010 0.222040
281.202026 -139.701202 5.979886 0.497459
281.202026 -139.701202 5.431608 0.638025
281.202026 -139.701202 4.891028 0.708003
281.202026 -139.701202 4.356851 0.529335
281.202026 -139.701202 3.827837 0.419608
281.202026 -139.701202 3.302790 0.538582
281.202026 -139.701202 2.780556 0.621042
281.202026 -139.701202 2.259999 0.474144
281.202026 -139.701202 1.740000 0.696468
281.202026 -139.701202 1.219443 0.450980
281.202026 -139.701202 0.697209 0.459525
281.202026 -139.701202 0.172163 0.761364
283.597656 -139.919693 -0.000017 0.225187
286.078674 -140.145966 -0.000014 0.212118
287.803040 -140.303238 -0.000012 0.220759
289.073486 -140.419098 -0.000010 0.231052
281.202026 -139.589752 5.982518 0.517876
281.202026 -139.589752 5.433878 0.639094
281.202026 -139.589752 4.892940 0.675441
281.202026 -139.589752 4.358410 0.544121
281.202026 -139.589752 3.829044 0.450980
281.202026 -139.589752 3.303652 0.531884
281.202026 -139.589752 2.781072 0.530922
281.202026 -139.589752 2.260172 0.450980
281.202026 -139.589752 1.739828 0.650294
281.202026 -139.589752 1.218927 0.450980
281.202026 -139.589752 0.696347 0.471382
281.202026 -139.589752 0.170955 0.764508
283.606537 -139.825989 -0.000017 0.246454
286.085907 -140.069580 -0.000014 0.211281
287.809143 -140.238876 -0.000011 0.190935
289.078735 -140.363617 -0.000010 0.234965
281.202026 -139.478134 5.985349 0.612222
281.202026 -139.478134 5.436317 0.635645
281.202026 -139.478134 4.894997 0.619532
281.202026 -139.478134 4.360085 0.508736
281.202026 -139.478134 3.830345 0.437751
281.202026 -139.478134 3.304579 0.523232
281.202026 -139.478134 2.781628 0.690059
281.202026 -139.478134 2.260356 0.452979
281.202026 -139.478134 1.739644 0.606226
281.202026 -139.478134 1.218372 0.585489
281.202026 -139.478134 0.695421 0.480980
281.202026 -139.478134 0.169655 0.715038
283.616089 -139.732346 -0.000017 0.209186
286.093658 -139.993225 -0.000014 0.197924
287.815674 -140.174561 -0.000011 0.225044
289.084381 -140.308151 -0.000010 0.210048
281.202026 -139.366364 5.988379 0.654505
281.202026 -139.366364 5.438931 0.774029
281.202026 -139.366364 4.897197 0.693187
281.202026 -139.366364 4.361880 0.458762
281.202026 -139.366364 3.831735 0.784619
281.202026 -139.366364 3.305570 0.545922
281.202026 -139.366364 2.782222 0.568078
281.202026 -139.366364 2.260555 0.550561
281.202026 -139.366364 1.739445 0.625116
281.202026 -139.366364 1.217778 0.439948
281.202026 -139.366364 0.694429 0.745174
281.202026 -139.366364 0.168264 0.743389
283.626251 -139.638763 -0.000017 0.217839
286.101959 -139.916946 -0.000014 0.257333
287.822662 -140.110291 -0.000011 0.217947
289.090393 -140.252747 -0.000010 0.273573
281.202026 -139.254410 5.991607 0.692241
281.202026 -139.254410 5.441714 0.673503
281.202026 -139.254410 4.899541 0.573678
281.202026 -139.254410 4.363791 0.420752
281.202026 -139.254410 3.833219 0.420829
281.202026 -139.254410 3.306627 0.549874
281.202026 -139.254410 2.782855 0.620600
281.202026 -139.254410 2.260765 0.459861
281.202026 -139.254410 1.739235 0.605249
281.202026 -139.254410 1.217144 0.482353
281.202026 -139.254410 0.693373 0.473793
281.202026 -139.254410 0.166781 0.702754
283.637085 -139.545258 -0.000017 0.209701
286.110809 -139.840714 -0.000014 0.213554
287.830109 -140.046066 -0.000011 0.215457
289.096832 -140.197372 -0.000010 0.203286
281.202026 -139.142273 5.995036 0.603922
281.202026 -139.142273 5.444671 0.705379
281.202026 -139.142273 4.902033 0.550484
281.202026 -139.142273 4.365822 0.451743
281.202026 -139.142273 3.834793 0.450980
281.202026 -139.142273 3.307749 0.485298
281.202026 -139.142273 2.783528 0.623758
281.202026 -139.142273 2.260990 0.493034
281.202026 -139.142273 1.739011 0.636774
281.202026 -139.142273 1.216472 0.477577
281.202026 -139.142273 0.692250 0.484855
281.202026 -139.142273 0.165207 0.663355
283.648590 -139.451828 -0.000017 0.222530
286.120178 -139.764557 -0.000014 0.271670
287.838013 -139.981903 -0.000011 0.210215
289.103638 -140.142044 -0.000010 0.231710
281.202026 -139.029953 5.998666 0.700069
281.202026 -139.029953 5.447801 0.627817
281.202026 -139.029953 4.904669 0.563928
281.202026 -139.029953 4.367971 0.450980
281.202026 -139.029953 3.836460 0.450980
281.202026 -139.029953 3.308938 0.498116
281.202026 -139.029953 2.784239 0.574639
281.202026 -139.029953 2.261226 0.504753
281.202026 -139.029953 1.738773 0.628061
281.202026 -139.029953 1.215760 0.498589
281.202026 -139.029953 0.691062 0.462745
281.202026 -139.029953 0.163540 0.595590
283.660736 -139.358490 -0.000017 0.207044
286.130066 -139.688461 -0.000014 0.233828
287.846344 -139.917801 -0.000011 0.204495
289.110809 -140.086761 -0.000010 0.222040
281.202026 -138.917404 6.002497 0.733883
281.202026 -138.917404 5.451103 0.552758
281.202026 -138.917404 4.907452 0.514031
281.202026 -138.917404 4.370240 0.807843
281.202026 -138.917404 3.838220 0.512123
281.202026 -138.917404 3.310192 0.550118
281.202026 -138.917404 2.784991 0.689464
281.202026 -138.917404 2.261477 0.474510
281.202026 -138.917404 1.738523 0.623484
281.202026 -138.917404 1.215009 0.803433
281.202026 -138.917404 0.689808 0.470771
281.202026 -138.917404 0.161780 0.586084
283.673523 -139.265228 -0.000017 0.230298
286.140503 -139.612442 -0.000013 0.232356
287.855133 -139.853745 -0.000011 0.254305
289.118408 -140.031540 -0.000010 0.195196
281.202026 -138.804642 6.006531 0.691325
281.202026 -138.804642 5.454581 0.476219
281.202026 -138.804642 4.910383 0.508827
281.202026 -138.804642 4.372629 0.388235
281.202026 -138.804642 3.840073 0.611444
281.202026 -138.804642 3.311512 0.592020
281.202026 -138.804642 2.785782 0.586023
281.202026 -138.804642 2.261740 0.450980
281.202026 -138.804642 1.738260 0.607080
281.202026 -138.804642 1.214218 0.463584
281.202026 -138.804642 0.688487 0.680522
281.202026 -138.804642 0.159927 0.555581
283.686981 -139.172073 -0.000017 0.201515
286.151459 -139.536484 -0.000014 0.200450
287.864380 -139.789764 -0.000011 0.227306
289.126343 -139.976364 -0.000010 0.197769
281.202026 -138.691635 6.010770 0.444541
281.202026 -138.691635 5.458236 0.425116
281.202026 -138.691635 4.913460 0.466377
281.202026 -138.691635 4.375139 0.419608
281.202026 -138.691635 3.842019 0.522789
281.202026 -138.691635 3.312899 0.532143
281.202026 -138.691635 2.786613 0.491447
281.202026 -138.691635 2.262017 0.455161
281.202026 -138.691635 1.737983 0.612619
281.202026 -138.691635 1.213386 0.444968
281.202026 -138.691635 0.687100 0.477150
281.202026 -138.691635 0.157981 0.563668
283.701050 -139.079010 -0.000017 0.225582
286.162964 -139.460617 -0.000014 0.228227
287.874054 -139.725845 -0.000011 0.259786
289.134705 -139.921249 -0.000010 0.205189
281.202026 -138.578400 6.015211 0.461646
281.202026 -138.578400 5.462067 0.424994
281.202026 -138.578400 4.916688 0.429252
281.202026 -138.578400 4.377770 0.450980
281.202026 -138.578400 3.844060 0.450980
281.202026 -138.578400 3.314353 0.516320
281.202026 -138.578400 2.787484 0.419608
281.202026 -138.578400 2.262308 0.450980
281.202026 -138.578400 1.737692 0.657343
281.202026 -138.578400 1.212515 0.482353
281.202026 -138.578400 0.685646 0.450980
281.202026 -138.578400 0.155940 0.517098
283.715820 -138.986038 -0.000017 0.222494
286.174957 -139.384827 -0.000013 0.194885
287.884186 -139.662003 -0.000011 0.261330
289.143433 -139.866196 -0.000010 0.235791
281.202026 -138.464890 6.019860 0.450980
281.202026 -138.464890 5.466075 0.431128
281.202026 -138.464890 4.920065 0.459251
281.202026 -138.464890 4.380523 0.450980
281.202026 -138.464890 3.846195 0.469703
281.202026 -138.464890 3.315875 0.628885
281.202026 -138.464890 2.788396 0.419608
281.202026 -138.464890 2.262611 0.419608
281.202026 -138.464890 1.737389 0.674846
281.202026 -138.464890 1.211603 0.482353
281.202026 -138.464890 0.684124 0.505882
281.202026 -138.464890 0.153805 0.484230
283.731201 -138.893173 -0.000017 0.204435
286.187500 -139.309113 -0.000013 0.211831
287.894745 -139.598221 -0.000011 0.221262
289.152557 -139.811218 -0.000010 0.211963
nan nan nan 0.000000
nan nan nan 0.000000
nan nan nan 0.000000
nan nan nan 0.000000
245.047028 -131.968781 8.072033 0.343679
247.258987 -132.359253 6.143668 0.618204
247.259003 -132.359253 4.482646 0.721477
250.198166 -132.878098 2.778118 0.636194
250.198181 -132.878098 1.221883 0.568429
256.932861 -134.066956 -0.000052 0.228754
273.004364 -136.904007 -0.000031 0.242960
279.904327 -138.122040 -0.000022 0.227677
283.747253 -138.800415 -0.000017 0.215948
286.200592 -139.233505 -0.000014 0.269085
287.905762 -139.534515 -0.000011 0.243857
289.162048 -139.756287 -0.000010 0.204615
nan nan nan 0.000000
nan nan nan 0.000000
nan nan nan 0.000000
nan nan nan 0.000000
245.034882 -131.591904 8.081093 0.341405
247.258987 -132.000549 6.148882 0.493935
247.259003 -132.000549 4.485770 0.619348
250.198181 -132.540573 2.779097 0.661891
250.198166 -132.540573 1.220903 0.654734
256.983215 -133.787231 -0.000052 0.230010
273.034546 -136.736420 -0.000031 0.226109
279.925842 -138.002594 -0.000022 0.229173
283.763916 -138.707779 -0.000016 0.210946
286.214203 -139.157990 -0.000013 0.248477
287.917206 -139.470886 -0.000011 0.238424
289.171936 -139.701431 -0.000009 0.190983
nan nan nan 0.000000
nan nan nan 0.000000
nan nan nan 0.000000
nan nan nan 0.000000
245.022217 -131.213776 8.090537 0.309789
247.259003 -131.640915 6.154312 0.606561
247.259003 -131.640915 4.489023 0.635493
250.198181 -132.202194 2.780116 0.693385
250.198181 -132.202194 1.219884 0.578775
257.035583 -133.507874 -0.000051 0.229627
273.065918 -136.569046 -0.000031 0.227760
279.948212 -137.883301 -0.000022 0.255777
283.781250 -138.615265 -0.000017 0.246694
286.228333 -139.082565 -0.000013 0.220400
287.929138 -139.407349 -0.000011 0.201970
289.182190 -139.646637 -0.000010 0.284285
nan nan nan 0.000000
nan nan nan 0.000000
nan nan nan 0.000000
nan nan nan 0.000000
245.009064 -130.834381 8.100359 0.379690
247.258972 -131.280334 6.159960 0.570275
248.003647 -131.427917 4.455111 0.524392
250.198181 -131.862900 2.781176 0.619501
250.198181 -131.862900 1.218824 0.541192
257.089874 -133.228882 -0.000051 0.228000
273.098419 -136.401886 -0.000031 0.243211
279.971375 -137.764160 -0.000022 0.224553
283.799225 -138.522873 -0.000016 0.210563
286.242981 -139.007233 -0.000013 0.247651
287.941467 -139.343887 -0.000011 0.265567
289.192841 -139.591919 -0.000009 0.212741
nan nan nan 0.000000
nan nan nan 0.000000
nan nan nan 0.000000
nan nan nan 0.000000
244.995361 -130.453629 8.110568 0.331884
247.259003 -130.918747 6.165824 0.727565
247.997910 -131.070572 4.458861 0.567269
250.286240 -131.540756 2.780806 0.634424
250.286224 -131.540756 1.219193 0.613764
257.146088 -132.950272 -0.000052 0.226552
273.132111 -136.234970 -0.000031 0.221250
279.995392 -137.645187 -0.000021 0.222303
283.817871 -138.430603 -0.000016 0.201563
286.258179 -138.932022 -0.000013 0.228167
287.954254 -139.280518 -0.000011 0.217576
289.203857 -139.537277 -0.000009 0.253013
nan nan nan 0.000000
nan nan nan 0.000000
nan nan nan 0.000000
nan nan nan 0.000000
244.981171 -130.071487 8.121163 0.414588
247.460785 -130.599045 6.154994 0.657938
247.243912 -130.552902 4.500323 0.483299
249.984863 -131.136063 2.786989 0.632593
249.992401 -131.137680 1.213137 0.517647
257.204285 -132.672073 -0.000052 0.228550
273.166962 -136.068283 -0.000031 0.238041
280.020233 -137.526382 -0.000021 0.229472
283.837128 -138.338470 -0.000016 0.213507
286.273865 -138.856903 -0.000013 0.215122
287.967499 -139.217239 -0.000011 0.204184
289.215271 -139.482712 -0.000009 0.250834
nan nan nan 0.000000
nan nan nan 0.000000
nan nan nan 0.000000
nan nan nan 0.000000
244.966461 -129.687897 8.132154 0.354757
247.460800 -130.236816 6.161276 0.649653
247.245316 -130.189392 4.504035 0.552422
250.286224 -130.858612 2.783130 0.649271
250.286224 -130.858612 1.216870 0.641016
257.264404 -132.394272 -0.000052 0.228957
273.203003 -135.901855 -0.000030 0.224134
280.045929 -137.407761 -0.000021 0.230238
283.857025 -138.246460 -0.000016 0.218701
286.290100 -138.781906 -0.000013 0.199708
287.981171 -139.154053 -0.000011 0.215709
289.227081 -139.428238 -0.000009 0.207176
nan nan nan 0.000000
nan nan nan 0.000000
nan nan nan 0.000000
nan nan nan 0.000000
244.951187 -129.302795 8.143540 0.402853
247.460815 -129.873474 6.167780 0.674037
247.246704 -129.824799 4.507878 0.550271
250.198181 -130.495956 2.785831 0.517647
250.198181 -130.495956 1.214168 0.715892
257.326447 -132.116913 -0.000052 0.230824
273.240173 -135.735672 -0.000030 0.224637
280.072418 -137.289322 -0.000021 0.212944
283.877594 -138.154602 -0.000016 0.255502
286.306854 -138.707016 -0.000013 0.204208
287.995300 -139.090973 -0.000011 0.269947
289.239227 -139.373840 -0.000009 0.237789
nan nan nan 0.000000
nan nan nan 0.000000
nan nan nan 0.000000
nan nan nan 0.000000
244.935394 -128.916138 8.155324 0.354498
247.460815 -129.508972 6.174508 0.659464
247.248108 -129.459045 4.511857 0.538201
250.198181 -130.151581 2.787100 0.517647
250.198166 -130.151581 1.212899 0.676844
257.390442 -131.839996 -0.000051 0.231817
273.278503 -135.569763 -0.000030 0.238531
280.099731 -137.171066 -0.000021 0.222913
283.898773 -138.062897 -0.000016 0.215792
286.324127 -138.632248 -0.000013 0.225798
288.009827 -139.027985 -0.000011 0.230345
289.251801 -139.319534 -0.000009 0.276613
nan nan nan 0.000000
nan nan nan 0.000000
nan nan nan 0.000000
nan nan nan 0.000000
244.919067 -128.527847 8.167513 0.297612
247.460785 -129.143280 6.181465 0.659815
247.249527 -129.092117 4.515969 0.482948
250.198181 -129.806076 2.788413 0.546197
250.198181 -129.806076 1.211588 0.751354
257.456360 -131.563522 -0.000051 0.232332
273.318024 -135.404114 -0.000030 0.227617
280.127899 -137.052994 -0.000021 0.219203
283.920624 -137.971329 -0.000016 0.221693
286.341919 -138.557602 -0.000013 0.247436
288.024841 -138.965088 -0.000011 0.228981
289.264709 -139.265305 -0.000009 0.209761
nan nan nan 0.000000
nan nan nan 0.000000
nan nan nan 0.000000
nan nan nan 0.000000
244.902191 -128.137878 8.180109 0.299702
247.460800 -128.776352 6.188646 0.661295
248.167877 -128.952789 4.473793 0.355673
250.198181 -129.459412 2.789766 0.627344
250.198181 -129.459412 1.210234 0.666087
257.524200 -131.287506 -0.000051 0.228837
273.358673 -135.238754 -0.000030 0.218665
280.156860 -136.935135 -0.000021 0.230812
283.943085 -137.879929 -0.000016 0.252103
286.360260 -138.483093 -0.000013 0.245389
288.040283 -138.902313 -0.000011 0.241296
289.278015 -139.211182 -0.000009 0.210563
nan nan nan 0.000000
nan nan nan 0.000000
nan nan nan 0.000000
nan nan nan 0.000000
244.884766 -127.746185 8.193111 0.316625
247.460800 -128.408127 6.196058 0.637415
250.286240 -129.134155 4.370720 0.622110
250.198181 -129.111542 2.791163 0.549020
250.198181 -129.111542 1.208836 0.647288
257.593994 -131.011993 -0.000051 0.229962
273.400452 -135.073669 -0.000030 0.235851
280.186676 -136.817474 -0.000021 0.212860
283.966187 -137.788681 -0.000016 0.234151
286.379089 -138.408707 -0.000013 0.218162
288.056152 -138.839645 -0.000011 0.228323
289.291718 -139.157135 -0.000009 0.204232
nan nan nan 0.000000
nan nan nan 0.000000
nan nan nan 0.000000
nan nan nan 0.000000
244.866776 -127.352676 8.206535 0.373236
247.460800 -128.038589 6.203701 0.654536
250.198181 -128.762405 4.379513 0.680598
250.198166 -128.762405 2.792604 0.517647
250.198166 -128.762405 1.207396 0.625452
257.665680 -130.736954 -0.000051 0.230920
273.443420 -134.908890 -0.000030 0.232272
280.217285 -136.700027 -0.000021 0.217636
283.989929 -137.697586 -0.000016 0.246071
286.398438 -138.334442 -0.000013 0.222004
288.072449 -138.777084 -0.000010 0.214344
289.305786 -139.103195 -0.000009 0.228383
nan nan nan 0.000000
nan nan nan 0.000000
nan nan nan 0.000000
nan nan nan 0.000000
244.848221 -126.957321 8.220377 0.344411
247.460800 -127.667686 6.211580 0.650172
250.198181 -128.411987 4.383973 0.598566
250.198166 -128.411987 2.794091 0.545953
250.198166 -128.411987 1.205909 0.729122
257.739319 -130.462433 -0.000051 0.228861
273.487518 -134.744415 -0.000030 0.226073
280.248718 -136.582794 -0.000021 0.234809
284.014313 -137.606674 -0.000016 0.254138
286.418335 -138.260330 -0.000012 0.210993
288.089203 -138.714645 -0.000010 0.208001
289.320221 -139.049362 -0.000009 0.216128
nan nan nan 0.000000
nan nan nan 0.000000
nan nan nan 0.000000
nan nan nan 0.000000
244.829102 -126.560028 8.234644 0.389212
247.460815 -127.295364 6.219691 0.667887
250.286224 -128.084824 4.384074 0.640345
250.198151 -128.060211 2.795620 0.652445
250.198151 -128.060211 1.204380 0.657420
257.814850 -130.188431 -0.000051 0.229053
273.532776 -134.580246 -0.000030 0.233254
280.280975 -136.465790 -0.000021 0.221729
284.039337 -137.515930 -0.000016 0.225606
286.438721 -138.186356 -0.000013 0.236114
288.106384 -138.652313 -0.000010 0.201718
289.335022 -138.995621 -0.000009 0.259391
nan nan nan 0.000000
nan nan nan 0.000000
nan nan nan 0.000000
nan nan nan 0.000000
244.809433 -126.160759 8.249336 0.351232
247.460800 -126.921585 6.228042 0.645960
247.259003 -126.863678 4.543512 0.482231
250.198166 -127.707092 2.797194 0.517647
250.198166 -127.707092 1.202805 0.765866
257.892273 -129.914963 -0.000051 0.228143
273.579193 -134.416397 -0.000030 0.241296
280.314026 -136.349014 -0.000021 0.231111
284.064972 -137.425369 -0.000016 0.220137
286.459625 -138.112518 -0.000013 0.224613
288.123993 -138.590118 -0.000010 0.217145
289.350220 -138.941986 -0.000008 0.217300
nan nan nan 0.000000
nan nan nan 0.000000
nan nan nan 0.000000
nan nan nan 0.000000
244.789139 -125.759445 8.264469 0.401205
247.460800 -126.546318 6.236633 0.642145
247.258987 -126.486877 4.548681 0.618753
250.198151 -127.352539 2.798815 0.517647
250.198166 -127.352539 1.201185 0.583917
257.971619 -129.642044 -0.000051 0.228431
273.626709 -134.252884 -0.000030 0.224541
280.347931 -136.232468 -0.000021 0.217671
284.091248 -137.334976 -0.000016 0.241009
286.481049 -138.038834 -0.000013 0.243869
288.142029 -138.528046 -0.000010 0.201347
289.365784 -138.888458 -0.000009 0.233002
nan nan nan 0.000000
nan nan nan 0.000000
nan nan nan 0.000000
nan nan nan 0.000000
244.768295 -125.356010 8.280031 0.286152
247.460800 -126.169495 6.245467 0.609781
247.902527 -126.302948 4.520969 0.632273
250.198151 -126.996536 2.800479 0.507454
250.198151 -126.996536 1.199520 0.800900
258.052887 -129.369675 -0.000051 0.230238
273.675415 -134.089706 -0.000030 0.232057
280.382629 -136.116150 -0.000021 0.237598
284.118164 -137.244781 -0.000016 0.217037
286.502991 -137.965302 -0.000013 0.217468
288.160522 -138.466095 -0.000010 0.216283
289.381714 -138.835052 -0.000008 0.245796
nan nan nan 0.000000
nan nan nan 0.000000
nan nan nan 0.000000
nan nan nan 0.000000
244.746841 -124.950394 8.296044 0.351781
247.460800 -125.791077 6.254544 0.650248
247.893646 -125.925163 4.526814 0.641718
250.198151 -126.639015 2.802191 0.670558
250.198151 -126.639015 1.197809 0.710750
258.136047 -129.097885 -0.000051 0.229197
273.725220 -133.926865 -0.000030 0.227258
280.418121 -136.000092 -0.000021 0.230788
284.145721 -137.154770 -0.000016 0.215517
286.525452 -137.891922 -0.000013 0.237981
288.179443 -138.404266 -0.000010 0.236329
289.398010 -138.781738 -0.000009 0.222590
nan nan nan 0.000000
nan nan nan 0.000000
nan nan nan 0.000000
nan nan nan 0.000000
244.724777 -124.542526 8.312507 0.359518
247.460800 -125.411034 6.263869 0.650370
247.259003 -125.346977 4.565064 0.692714
250.286209 -126.307907 2.802437 0.653300
250.286209 -126.307907 1.197562 0.654902
258.221100 -128.826706 -0.000049 0.230836
273.776184 -133.764389 -0.000030 0.229986
280.454468 -135.884293 -0.000021 0.239980
284.173889 -137.064957 -0.000016 0.231698
286.548401 -137.818695 -0.000012 0.247280
