# This PCD file was generated using the MATLABÂ® pcwrite function
# from Computer Vision System ToolboxÂ®.
# .PCD v.7 - Point Cloud Data file format
VERSION .7
FIELDS x y z intensity
SIZE 4 4 4 4
TYPE F F F F
COUNT 1 1 1 1
WIDTH 1184
HEIGHT 1
VIEWPOINT 0 0 0 1 0 0 0
POINTS 1184
DATA ascii
110.970322 109.665268 0.000010 0.460685
110.033821 107.439194 0.355182 0.905882
110.468216 108.471764 0.000010 0.487587
110.259613 107.975914 0.000010 0.419928
110.073189 107.532776 0.000010 0.464942
109.905525 107.134239 0.000009 0.444221
141.535706 180.111664 24.754845 0.553414
141.535706 180.111664 23.539742 0.577646
141.535706 180.111664 22.332466 0.592599
141.535645 180.111526 21.132513 0.572854
141.535706 180.111664 19.939487 0.564767
141.535706 180.111633 18.752842 0.697688
141.535660 180.111542 17.572136 0.635050
141.535660 180.111542 16.396954 0.547433
141.535706 180.111633 15.226859 0.580682
141.535706 180.111664 14.061388 0.575021
141.535660 180.111542 12.900108 0.539284
110.570992 108.483986 3.024194 0.309194
110.612396 108.579765 2.913148 0.310903
141.535706 180.111664 9.437455 0.718669
124.369476 140.402679 5.168970 0.318196
124.497360 140.698486 4.610316 0.313115
141.535706 180.111664 5.997911 0.578561
109.943642 107.032791 2.248340 0.223529
109.957245 107.064262 2.149643 0.373068
109.964073 107.080048 2.049988 0.260792
109.984886 107.128197 1.949669 0.271260
109.998894 107.160606 1.848295 0.266667
110.013008 107.193253 1.745937 0.337926
110.695007 108.770859 1.565392 0.454215
110.697655 108.776970 1.440570 0.805844
110.700302 108.783104 1.315379 0.650446
116.238251 121.593498 0.000013 0.459632
110.169769 107.555878 1.196716 0.338720
110.229393 107.693794 1.071988 0.388235
110.710892 108.807587 0.810059 0.321569
110.713593 108.813843 0.682345 0.268894
110.230843 107.697151 0.739554 0.278431
111.740295 111.188820 0.000011 0.473350
111.377533 110.349686 0.000011 0.411978
110.159660 107.532486 0.438012 0.252705
110.791084 108.993103 0.000010 0.473854
110.550537 108.436661 0.000010 0.456779
110.337067 107.942871 0.000010 0.404196
110.146301 107.501587 0.000010 0.472419
109.974739 107.104721 0.000010 0.454994
141.766388 178.521606 24.398956 0.585245
141.766388 178.521606 23.202858 0.554620
141.766388 178.521606 22.014463 0.501015
141.766388 178.521606 20.833305 0.574899
141.766388 178.521606 19.658916 0.627848
141.766388 178.521606 18.490833 0.528588
141.766403 178.521637 17.328609 0.447044
141.766388 178.521622 16.171806 0.605173
141.766388 178.521622 15.019998 0.534890
141.766403 178.521622 13.872746 0.627543
141.766403 178.521637 12.729648 0.600565
141.766403 178.521637 11.590281 0.561196
141.766403 178.521637 10.454245 0.689982
141.766403 178.521637 9.321135 0.670848
110.731003 108.622597 2.674906 0.148501
124.990875 140.739182 4.624194 0.216449
141.766403 178.521637 5.935384 0.584772
141.766388 178.521622 4.810023 0.461982
125.257538 141.339783 2.886735 0.968627
124.919289 140.577957 2.290090 0.307652
125.305229 141.447189 1.703686 0.393683
124.788918 140.284332 1.135941 0.301274
125.296570 141.427673 0.518620 0.558328
124.635895 139.939697 -0.000002 0.738201
120.695602 131.065216 0.000016 0.455741
110.796814 108.770813 1.313397 0.606104
110.799545 108.776978 1.187428 0.284596
110.802292 108.783150 1.060999 0.378088
110.805000 108.789246 0.934075 0.261372
110.807762 108.795464 0.806588 0.306859
110.416061 107.913269 0.812955 0.238056
112.284096 112.120522 0.000012 0.450401
111.849220 111.141083 0.000012 0.395270
111.478249 110.305557 0.000011 0.419364
111.157944 109.584160 0.000011 0.447898
110.878502 108.954803 0.000010 0.510475
110.632500 108.400742 0.000010 0.388815
110.414200 107.909081 0.000010 0.350607
110.219109 107.469688 0.000010 0.508873
110.043655 107.074524 0.000010 0.509361
142.692505 178.521606 24.498110 0.604273
142.692490 178.521591 23.296711 0.624994
142.692490 178.521606 22.103056 0.663035
142.692490 178.521606 20.916672 0.461616
142.692505 178.521606 19.737087 0.610361
142.692505 178.521606 18.563831 0.680629
142.692490 178.521606 17.396461 0.611399
142.692505 178.521606 16.234539 0.544640
142.692505 178.521606 15.077631 0.559442
142.692505 178.521606 13.925302 0.720348
142.692505 178.521622 12.777142 0.466575
142.692505 178.521622 11.632734 0.519539
142.692505 178.521606 10.491665 0.632975
142.692505 178.521606 9.353538 0.541863
142.692505 178.521637 8.217950 0.531655
110.807404 108.568695 2.550830 0.166812
125.920486 141.725388 4.098826 0.943786
125.496475 140.795151 3.465181 0.317494
125.469086 140.735046 2.877610 0.623529
125.394516 140.571457 2.291327 0.752209
125.176727 140.093643 1.712110 0.258824
110.604851 108.124321 1.826169 0.230991
110.073021 106.957535 1.752193 0.242176
110.811180 108.576988 1.571355 0.298634
120.999222 130.928589 0.000017 0.436820
118.435234 125.303436 0.000015 0.464103
110.896729 108.764664 1.184985 0.513298
110.284271 107.420998 1.204282 0.290196
110.902328 108.776962 0.930865 0.217426
110.409111 107.694878 0.952496 0.250492
112.930580 113.226746 0.000012 0.386404
110.449837 107.784241 0.714000 0.258824
110.616692 108.150299 0.533814 0.275669
111.578514 110.260445 0.000011 0.409522
111.251144 109.542221 0.000011 0.399329
110.347321 107.559326 0.306657 0.256184
110.714111 108.364029 0.000011 0.419013
110.490997 107.874527 0.000010 0.406775
110.291603 107.437073 0.000010 0.378607
110.112274 107.043655 0.000010 0.474617
143.626923 178.521606 24.600328 0.536431
143.626923 178.521606 23.393475 0.571771
143.626923 178.521606 22.194397 0.570962
143.626923 178.521606 21.002623 0.601785
143.626938 178.521637 19.817682 0.461006
143.626938 178.521637 18.639091 0.546197
143.626923 178.521606 17.466415 0.607980
143.626923 178.521622 16.299217 0.598093
143.626923 178.521622 15.137049 0.574289
143.626938 178.521622 13.979486 0.622568
143.626923 178.521606 12.826108 0.402823
143.626938 178.521637 11.676500 0.663722
143.626923 178.521622 10.530250 0.626581
143.626923 178.521606 9.386950 0.674784
143.626938 178.521622 8.246201 0.461372
143.626938 178.521637 7.107604 0.582864
126.070808 140.985977 4.070938 0.652567
143.626938 178.521622 4.835286 0.460578
126.112930 141.076050 2.888989 0.291661
126.391235 141.671066 2.300595 0.306874
125.599701 139.978745 1.711632 0.266667
125.963928 140.757477 1.117916 0.674891
125.746758 140.293152 0.546304 0.387976
125.415268 139.584412 -0.000000 0.760571
110.856628 108.457504 1.453906 0.253925
110.991707 108.746300 1.309176 0.515694
116.868050 121.310135 0.000015 0.456947
110.976753 108.714340 1.060039 0.258824
114.517433 116.284439 0.000013 0.406912
113.712105 114.562614 0.000013 0.444724
113.059456 113.167236 0.000013 0.440543
110.604187 107.917778 0.685795 0.293873
112.065651 111.042435 0.000012 0.480659
111.678337 110.214348 0.000011 0.410727
111.343933 109.499382 0.000011 0.433173
111.052193 108.875626 0.000011 0.438788
110.795357 108.326508 0.000011 0.442390
110.567444 107.839226 0.000011 0.395590
110.378281 107.434784 -0.008453 0.259861
110.180588 107.012108 0.000010 0.427207
144.569977 178.521606 24.705687 0.636088
144.569977 178.521606 23.493204 0.622003
144.569977 178.521606 22.288538 0.593027
144.569977 178.521606 21.091208 0.584985
144.569992 178.521637 19.900742 0.433722
144.569992 178.521622 18.716658 0.501442
144.569992 178.521637 17.538521 0.428611
144.569992 178.521622 16.365873 0.675761
144.569977 178.521606 15.198289 0.525872
144.569977 178.521606 14.035329 0.483253
144.569992 178.521637 12.876576 0.747494
144.569992 178.521637 11.721610 0.676173
144.569977 178.521606 10.570013 0.527092
144.569977 178.521606 9.421383 0.660502
144.569977 178.521606 8.275318 0.581521
144.569992 178.521637 7.131414 0.559335
144.569977 178.521606 5.989275 0.546868
144.569992 178.521622 4.848505 0.518395
144.569992 178.521622 3.708711 0.472770
122.677376 132.887253 2.238232 0.237522
126.910736 141.711533 1.697708 0.520409
126.924515 141.740265 1.092398 0.367269
133.359375 155.153488 -0.000034 0.655940
125.802315 139.401077 -0.000001 0.741634
121.602386 130.646484 0.000017 0.442588
118.928452 125.072746 0.000016 0.451499
117.076096 121.211578 0.000015 0.448493
115.716690 118.377953 0.000014 0.446983
114.676254 116.209198 0.000013 0.404395
110.524361 107.554733 0.962260 0.264561
113.187744 113.106461 0.000013 0.396490
110.662941 107.843597 0.692149 0.376471
112.173126 110.991524 0.000012 0.484199
111.777702 110.167274 0.000012 0.379690
111.436295 109.455627 0.000012 0.438651
111.138443 108.834770 0.000011 0.416876
110.876236 108.288193 0.000011 0.484565
110.643547 107.803177 0.000011 0.427893
110.435600 107.369720 0.000011 0.519799
110.248589 106.979897 0.000010 0.492790
145.521957 178.521606 24.814232 0.690333
145.648407 178.778656 23.666719 0.678431
145.648407 178.778687 22.452330 0.678431
145.521957 178.521606 21.182476 0.832120
145.589752 178.659454 20.017912 0.299901
145.648407 178.778687 18.851612 0.678431
145.648422 178.778717 17.663963 0.449210
145.521973 178.521622 16.434553 0.553735
145.648407 178.778687 15.304842 0.511391
145.648407 178.778687 14.132492 0.678431
145.604431 178.689270 12.951927 0.237201
145.521973 178.521637 11.768083 0.612970
145.648407 178.778687 10.639199 0.512230
145.648407 178.778687 9.481298 0.678431
145.604446 178.689301 8.318796 0.192172
145.521973 178.521637 7.155944 0.517113
145.648407 178.778687 6.021481 0.481193
145.648407 178.778687 4.871502 0.678431
123.066025 132.867783 2.717770 0.315038
123.128281 132.994354 2.240153 0.632120
123.201508 133.143234 1.758761 0.144915
126.733803 140.324524 1.119042 0.276722
133.898743 154.891129 -0.000025 0.656718
126.187546 139.213959 -0.000002 0.734722
121.901863 130.500992 0.000017 0.458625
119.173332 124.953789 0.000016 0.455390
117.283157 121.110977 0.000015 0.425025
115.896004 118.290840 0.000014 0.441047
114.834328 116.132408 0.000014 0.430106
110.581230 107.485687 0.966918 0.221073
113.315430 113.044434 0.000013 0.385138
112.753082 111.901161 0.000013 0.490166
112.280098 110.939552 0.000012 0.475273
111.876602 110.119232 0.000012 0.479026
111.528221 109.410965 0.000012 0.406332
111.224289 108.793060 0.000012 0.393469
110.956726 108.249092 0.000011 0.400473
110.719292 107.766373 0.000011 0.397955
110.507103 107.334984 0.000011 0.486976
110.316269 106.947014 0.000011 0.376898
146.483170 178.521606 24.926044 0.583352
146.483185 178.521606 23.701801 0.580255
146.483170 178.521606 22.485434 0.581659
146.483170 178.521606 21.276489 0.724544
146.483170 178.521606 20.074463 0.630121
146.483170 178.521606 18.878885 0.629099
146.483170 178.521591 17.689314 0.639597
146.483185 178.521622 16.505293 0.525567
146.483185 178.521622 15.326384 0.701076
146.483170 178.521606 14.152131 0.705104
146.483185 178.521622 12.982134 0.605631
146.483185 178.521637 11.815958 0.692119
146.483185 178.521606 10.653188 0.708873
146.483170 178.521606 9.493411 0.549081
146.483170 178.521606 8.336218 0.701228
146.483185 178.521622 7.181214 0.679423
146.483170 178.521606 6.027990 0.525780
146.483170 178.521606 4.876149 0.630274
123.403458 132.740005 2.718477 0.502846
123.106003 132.149963 2.235141 0.303777
146.483185 178.521637 1.424967 0.624643
146.483185 178.521622 0.274704 0.552270
123.570015 133.070389 0.790149 0.356558
126.570923 139.023071 -0.000003 0.736278
122.199898 130.352585 0.000018 0.434455
119.417038 124.832413 0.000016 0.442878
117.489227 121.008362 0.000015 0.449424
116.074455 118.201973 0.000014 0.443275
114.991638 116.054070 0.000014 0.434058
114.135948 114.356697 0.000013 0.441489
113.442497 112.981155 0.000013 0.512337
112.868958 111.843452 0.000013 0.419364
112.386551 110.886536 0.000013 0.461891
111.975021 110.070221 0.000012 0.382559
111.619705 109.365402 0.000012 0.361166
111.309723 108.750519 0.000012 0.429725
111.036835 108.209198 0.000012 0.481987
110.794670 107.728844 0.000011 0.402640
110.578255 107.299545 0.000011 0.393668
110.383621 106.913467 0.000011 0.338033
147.453964 178.521622 25.041197 0.582467
147.586746 178.778687 23.882269 0.678431
147.586761 178.778717 22.655806 0.678431
147.453949 178.521606 21.373302 0.430762
147.453964 178.521622 20.165243 0.449073
147.586746 178.778702 19.019257 0.678431
147.586746 178.778687 17.819786 0.678431
147.453964 178.521637 16.578148 0.638834
147.540543 178.689240 15.421928 0.446906
147.586746 178.778687 14.253184 0.678431
147.586746 178.778687 13.073458 0.675898
147.453979 178.521637 11.865259 0.554910
123.666748 132.467041 5.591359 0.252628
123.554413 132.249542 5.089133 0.258824
123.505707 132.155258 4.604432 0.847654
123.777969 132.682388 4.164668 0.631159
147.540573 178.689301 6.056875 0.231937
123.974365 133.062622 3.215640 0.532555
124.325974 133.743378 2.744263 0.258824
147.453964 178.521622 2.577922 0.539956
124.152786 133.408081 1.754410 0.182330
123.385071 131.921692 1.295999 0.235294
124.054977 133.218689 0.778608 0.855116
123.718597 132.567444 0.323070 0.319356
122.496460 130.201233 0.000018 0.430137
119.659546 124.708672 0.000016 0.450919
117.694290 120.903725 0.000015 0.400122
116.252022 118.111351 0.000015 0.438987
115.148178 115.974182 0.000014 0.456977
114.275864 114.285294 0.000014 0.434943
113.568947 112.916626 0.000013 0.442206
112.984261 111.784622 0.000013 0.403052
112.492485 110.832481 0.000012 0.467033
112.072960 110.020241 0.000013 0.447929
111.710739 109.318954 0.000012 0.413611
111.394737 108.707130 0.000012 0.414374
111.116547 108.168518 0.000012 0.417563
110.869682 107.690559 0.000011 0.379309
110.649055 107.263420 0.000011 0.398184
110.450645 106.879272 0.000011 0.507988
148.434631 178.521606 25.159739 0.731380
148.523346 178.689316 23.969875 0.079576
148.523346 178.689331 22.738503 0.132479
148.434616 178.521606 21.472982 0.523690
148.434616 178.521606 20.258703 0.508614
148.523331 178.689301 19.087393 0.094118
148.523346 178.689331 17.883129 0.164157
148.434631 178.521606 16.653152 0.511070
148.434631 178.521637 15.462225 0.625452
148.523346 178.689316 14.302246 0.204089
148.523331 178.689301 13.117794 0.135378
148.434631 178.521606 11.916016 0.659770
148.523331 178.689301 10.760080 0.205524
148.523346 178.689316 9.585976 0.258824
123.926933 132.193344 4.620940 0.309560
124.597855 133.461639 4.227794 0.383795
124.229355 132.765045 3.695807 0.581048
123.988998 132.310669 3.194046 0.329564
124.269775 132.841431 2.728055 0.790265
124.271339 132.844391 2.242680 0.757824
124.122993 132.563965 1.759396 0.290196
124.201820 132.712982 1.274797 0.549020
124.263748 132.830048 0.786718 0.317006
124.169304 132.651520 0.310082 0.267369
122.791519 130.047012 0.000017 0.435309
119.900818 124.582558 0.000016 0.441138
117.898300 120.797081 0.000015 0.448218
116.428696 118.018997 0.000015 0.438590
115.303917 115.892769 0.000015 0.477791
114.415070 114.212532 0.000014 0.437430
113.694748 112.850861 0.000013 0.424475
113.098976 111.724648 0.000013 0.473457
112.597878 110.777390 0.000013 0.476326
112.170395 109.969299 0.000013 0.425422
111.801315 109.271606 0.000012 0.467247
111.479324 108.662918 0.000012 0.432502
111.195854 108.127060 0.000012 0.315267
110.944305 107.651550 0.000012 0.483040
110.719505 107.226593 0.000011 0.478218
110.517326 106.844414 0.000011 0.359396
149.425552 178.521606 25.281776 0.537530
149.425537 178.521606 24.038528 0.539178
149.425537 178.521606 22.803301 0.542443
149.425537 178.521606 21.575588 0.545693
149.425552 178.521606 20.354914 0.549142
149.425537 178.521606 19.140793 0.507134
149.425537 178.521606 17.932758 0.503929
149.425552 178.521622 16.730366 0.638773
149.425568 178.521637 15.533160 0.577600
149.425537 178.521606 14.340688 0.575738
149.425537 178.521606 13.152534 0.532326
149.425568 178.521637 11.968268 0.508629
149.425552 178.521606 10.787454 0.558404
124.379364 132.279510 5.124295 0.656489
124.216583 131.978989 4.617168 0.597360
124.728027 132.923248 4.203424 0.310811
124.421539 132.357391 3.683487 0.968627
124.797752 133.051987 3.227938 0.482200
124.313873 132.158600 2.716642 0.344625
124.429230 132.371582 2.240439 0.289219
123.982620 131.547012 1.765698 0.303777
125.146278 133.695465 1.249035 0.278431
124.409660 132.335464 0.798738 0.370779
127.709511 138.427887 -0.000003 0.736461
123.085052 129.889862 0.000017 0.437201
120.140839 124.454056 0.000016 0.456825
118.101257 120.688416 0.000016 0.440467
116.604454 117.924911 0.000015 0.415778
115.458855 115.809830 0.000014 0.455970
114.553558 114.138397 0.000014 0.426978
113.819901 112.783867 0.000014 0.429252
113.213104 111.663559 0.000013 0.492638
112.702728 110.721260 0.000013 0.426764
112.267334 109.917412 0.000013 0.479179
111.891418 109.223373 0.000013 0.480049
111.563461 108.617874 0.000012 0.431418
111.274750 108.084824 0.000012 0.345235
111.018547 107.611809 0.000012 0.486427
110.789581 107.189079 0.000012 0.384970
110.583664 106.808899 0.000012 0.377249
150.427048 178.521622 25.407373 0.531746
150.569565 178.778687 24.230022 0.678431
150.569550 178.778656 22.984055 0.678431
150.427032 178.521606 21.681190 0.730785
150.427048 178.521606 20.453928 0.743114
150.569565 178.778687 19.289724 0.678431
150.569565 178.778671 18.071198 0.678431
150.427063 178.521637 16.809830 0.679469
150.427063 178.521637 15.606163 0.686229
150.569565 178.778687 14.447918 0.678431
150.569565 178.778687 13.249439 0.678431
150.427063 178.521637 12.022042 0.515801
125.011955 132.678894 5.672289 0.351568
150.569565 178.778671 9.675798 0.678431
124.436203 131.640366 4.603364 0.298421
124.472290 131.705475 4.133196 0.299001
150.520020 178.689331 6.121350 0.083635
124.473946 131.708450 3.184272 0.424613
124.697800 132.112244 2.719467 0.401175
124.374252 131.528625 2.235427 0.229755
121.614113 126.549995 1.801830 0.321569
125.018639 132.690948 1.267538 0.273381
124.645355 132.017639 0.804154 0.327260
128.085098 138.222092 -0.000004 0.732418
123.377022 129.729874 0.000018 0.436103
120.379593 124.323219 0.000017 0.429435
118.303139 120.577789 0.000016 0.425727
116.779274 117.829117 0.000015 0.443229
115.612968 115.725372 0.000015 0.407507
114.691307 114.062912 0.000014 0.451835
113.944382 112.715645 0.000014 0.456672
113.326622 111.601349 0.000014 0.473198
112.807014 110.664108 0.000013 0.473640
112.363754 109.864571 0.000013 0.417304
111.981049 109.174255 0.000013 0.447364
111.647163 108.572006 0.000013 0.396796
111.353226 108.041824 0.000013 0.522576
111.092392 107.571342 0.000012 0.550118
110.859291 107.150879 0.000012 0.387778
110.649651 106.772736 0.000012 0.554528
151.439529 178.521637 25.536608 0.637430
151.439514 178.521591 24.279751 0.630961
151.439514 178.521606 23.031006 0.622065
151.439514 178.521606 21.789852 0.613306
151.439529 178.521637 20.555822 0.604547
151.439514 178.521606 19.328403 0.594125
151.439514 178.521591 18.107147 0.570413
151.439514 178.521622 16.891594 0.582788
151.439529 178.521637 15.681288 0.650263
151.439514 178.521606 14.475762 0.646647
151.439514 178.521606 13.274604 0.574365
151.439529 178.521637 12.077374 0.564218
151.439529 178.521637 10.883640 0.559701
151.439514 178.521606 9.692971 0.619272
151.439514 178.521606 8.504961 0.571664
125.354599 132.541046 4.201627 0.256123
125.202744 132.273376 3.697485 0.470283
125.211288 132.288437 3.212639 0.386709
125.091026 132.076431 2.722630 0.816190
121.981644 126.595444 2.199606 0.235294
124.788422 131.543030 1.763164 0.321569
151.439529 178.521637 0.228756 0.531899
125.389069 132.601807 0.775565 0.273701
125.546494 132.879303 0.270576 0.267048
123.667419 129.567001 0.000018 0.437446
120.617043 124.190033 0.000017 0.434302
118.503929 120.465187 0.000016 0.450492
116.953148 117.731590 0.000016 0.433799
115.766243 115.639404 0.000015 0.448417
114.828308 113.986069 0.000014 0.468315
114.068192 112.646202 0.000014 0.482444
113.439522 111.538025 0.000014 0.487221
112.910744 110.605927 0.000014 0.412390
112.459656 109.810791 0.000013 0.462547
112.070183 109.124260 0.000013 0.460517
111.730408 108.525322 0.000013 0.383948
111.431282 107.998047 0.000013 0.458732
111.165840 107.530151 0.000012 0.329747
110.928619 107.111992 0.000012 0.562142
110.715279 106.735931 0.000012 0.513588
152.463333 178.521622 25.669573 0.613397
152.612564 178.778748 24.479057 0.678431
152.612549 178.778717 23.219128 0.678431
152.463348 178.521637 21.901659 0.580957
152.463333 178.521606 20.660643 0.567285
152.612534 178.778702 19.483404 0.678431
152.612549 178.778717 18.251230 0.678431
152.463333 178.521622 16.975725 0.507271
152.463348 178.521637 15.758574 0.577340
152.612549 178.778732 14.587362 0.678431
152.612549 178.778717 13.375459 0.678431
152.463348 178.521637 12.134306 0.567880
152.463348 178.521637 10.933825 0.576028
152.612549 178.778717 9.761784 0.678431
152.612549 178.778717 8.563148 0.678431
152.463348 178.521637 7.349251 0.575387
152.463348 178.521637 6.158625 0.577203
152.612549 178.778732 4.979158 0.678431
122.360916 126.652489 2.603562 0.223529
114.210854 112.609207 2.094893 0.311513
121.959747 125.961235 1.804066 0.269734
122.316582 126.576096 1.398171 0.266239
137.599609 152.910095 -0.000026 0.656092
122.482925 126.862732 0.579736 0.294270
123.956192 129.401276 0.000019 0.434638
120.853188 124.054535 0.000017 0.439872
118.703598 120.350609 0.000016 0.420447
117.126060 117.632370 0.000016 0.434409
115.918671 115.551941 0.000016 0.442786
114.964546 113.907898 0.000015 0.451774
114.191322 112.575554 0.000014 0.422599
113.551796 111.473602 0.000014 0.481636
113.013893 110.546738 0.000014 0.398444
112.555023 109.756065 0.000014 0.469230
112.158829 109.073395 0.000013 0.391470
111.813187 108.477821 0.000013 0.382193
111.508904 107.953506 0.000013 0.394629
111.238876 107.488235 0.000013 0.413336
110.997566 107.072433 0.000013 0.395956
110.780540 106.698486 0.000012 0.504662
153.498871 178.521606 25.806358 0.577585
153.565018 178.633026 24.567106 0.669444
153.565033 178.633057 23.302252 0.660334
153.498886 178.521622 22.016666 0.581567
153.498871 178.521606 20.768482 0.584100
153.565002 178.633026 19.551893 0.673793
153.565018 178.633026 18.314892 0.677668
153.498886 178.521622 17.062267 0.627054
153.498886 178.521637 15.838086 0.641001
153.565033 178.633057 14.636674 0.646281
153.565018 178.633026 13.420020 0.581949
153.498901 178.521637 12.192872 0.677119
153.498901 178.521637 10.985454 0.628260
153.565033 178.633057 9.792192 0.538476
153.565002 178.633011 8.588858 0.556359
122.726189 126.676720 3.824691 0.272923
153.498886 178.521606 6.182658 0.662318
114.489075 112.799088 2.484599 0.233463
114.389259 112.630928 2.286852 0.241947
114.292374 112.467697 2.094364 0.388235
122.706085 126.642853 1.797746 0.223529
122.798012 126.797729 1.389632 0.216007
123.371719 127.764290 0.945691 0.289158
123.011223 127.156937 0.555842 0.269795
122.625938 126.507828 0.186891 0.290196
121.087982 123.916718 0.000018 0.419898
115.099640 113.827744 0.635419 0.321569
117.297989 117.531456 0.000016 0.448997
116.070236 115.462982 0.000015 0.386023
115.100014 113.828384 0.000015 0.421729
114.313744 112.503693 0.000015 0.419730
113.663437 111.408073 0.000015 0.427863
113.116455 110.486542 0.000014 0.402640
112.649841 109.700409 0.000014 0.471916
112.246971 109.021660 0.000013 0.417151
111.895500 108.429512 0.000013 0.438895
111.586075 107.908203 0.000013 0.397162
111.311501 107.445610 0.000013 0.460822
111.066116 107.032196 0.000013 0.347143
110.845436 106.660393 0.000013 0.445884
154.546570 178.521622 25.947058 0.523507
154.546570 178.521637 24.668287 0.515267
154.546570 178.521622 23.397758 0.511620
154.546570 178.521622 22.134968 0.509804
154.546570 178.521606 20.879406 0.508492
154.546585 178.521637 19.630594 0.506661
154.546585 178.521637 18.388041 0.505104
154.546585 178.521637 17.151287 0.503777
154.546585 178.521637 15.919868 0.502098
154.546570 178.521622 14.693327 0.503639
154.546570 178.521637 13.471223 0.624552
154.546585 178.521637 12.253108 0.641398
154.546585 178.521637 11.038558 0.737728
154.546570 178.521637 9.827127 0.725872
154.546585 178.521637 8.618402 0.607279
114.636139 112.761307 2.875529 0.321569
115.222137 113.726845 2.732438 0.181140
123.279404 127.002792 3.031379 0.968627
114.470703 112.488708 2.285281 0.248615
114.630180 112.751488 2.097094 0.312627
114.278954 112.172775 1.907336 0.343847
122.667816 125.995071 1.404463 0.257038
123.392807 127.189644 0.961466 0.192157
123.354492 127.126511 0.548939 0.321569
123.329002 127.084503 0.136395 0.293462
121.321419 123.776611 0.000017 0.451041
119.099518 120.115601 0.000017 0.451362
117.468918 117.428864 0.000016 0.432517
116.220917 115.372543 0.000015 0.439765
115.234695 113.747543 0.000015 0.418082
114.435455 112.430641 0.000015 0.431876
113.774429 111.341461 0.000014 0.361364
113.218422 110.425339 0.000014 0.423621
112.744118 109.643822 0.000014 0.425254
112.334602 108.969063 0.000014 0.428931
111.977333 108.380386 0.000013 0.462821
111.662811 107.862152 0.000013 0.287724
111.383705 107.402275 0.000013 0.378195
111.134277 106.991287 0.000013 0.372320
110.909950 106.621674 0.000013 0.384527
155.606812 178.521606 26.091753 0.473960
155.606842 178.521637 24.805267 0.439368
155.766312 178.778687 23.597599 0.678431
155.710861 178.689301 22.299932 0.122438
155.606827 178.521622 20.993490 0.628016
155.766296 178.778656 19.795242 0.678431
155.766312 178.778687 18.541092 0.678431
155.606842 178.521637 17.242844 0.603418
155.606827 178.521637 16.003984 0.594751
155.766312 178.778687 14.811872 0.678431
155.766296 178.778671 13.578351 0.678431
155.606827 178.521637 12.315065 0.465492
122.845741 125.717117 4.972739 0.352941
122.987343 125.945358 4.597215 0.267323
115.011238 113.089424 3.105022 0.258824
115.608795 114.052574 2.970435 0.393317
114.799446 112.748062 2.684055 0.323186
114.698837 112.585892 2.482195 0.599298
114.789085 112.731361 2.292612 0.345129
114.453003 112.189659 2.093354 0.303029
114.358330 112.037064 1.907821 0.292409
114.265160 111.886887 1.726903 0.217624
123.476959 126.734520 0.972724 0.508003
123.498894 126.769875 0.559413 0.388602
123.459862 126.706970 0.151335 0.681361
115.537262 113.937271 0.823019 0.281239
116.062538 114.783920 0.523086 0.307744
114.825829 112.790588 0.525542 0.257176
116.370705 115.280617 0.000016 0.441093
115.368576 113.665382 0.000016 0.449653
114.556450 112.356392 0.000015 0.478447
113.884750 111.273750 0.000015 0.449393
113.319786 110.363136 0.000014 0.447089
112.837830 109.586319 0.000014 0.435096
112.421707 108.915604 0.000014 0.424079
112.058678 108.330467 0.000014 0.452735
111.739082 107.815346 0.000013 0.387869
111.455475 107.358231 0.000013 0.495613
111.202026 106.949715 0.000013 0.415106
110.974083 106.582314 0.000013 0.484154
156.680054 178.521606 26.240574 0.415091
156.680054 178.521622 24.946133 0.493126
156.680023 178.521561 23.660011 0.496071
156.680038 178.521576 22.381750 0.503883
156.680054 178.521606 21.110811 0.503655
156.680038 178.521576 19.846678 0.504128
156.680023 178.521576 18.588892 0.552590
156.680084 178.521637 17.336998 0.556268
156.680084 178.521652 16.090488 0.558801
156.680038 178.521576 14.848905 0.561563
156.680038 178.521576 13.611817 0.500145
123.292282 125.868011 5.412993 0.251225
123.294487 125.871490 5.009106 0.266667
115.100220 112.948868 3.300710 0.383230
156.680023 178.521576 8.699519 0.520699
115.801437 114.054703 2.976578 0.231617
123.868271 126.776360 3.449837 0.292287
114.834679 112.530090 2.483010 0.384665
123.373627 125.996284 2.602864 0.273991
114.532204 112.053078 2.092872 0.317067
114.436928 111.902832 1.908292 0.267536
123.659828 126.447647 1.386639 0.291737
123.674110 126.470169 0.976626 0.272053
123.652283 126.435745 0.568653 0.216037
125.094604 128.710327 0.000022 0.735317
114.896828 112.628105 0.927547 0.202121
116.121681 114.559738 0.536604 0.258824
114.990097 112.775192 0.518229 0.826810
116.519577 115.187233 0.000016 0.503456
115.501640 113.581917 0.000016 0.425971
114.676704 112.280968 0.000015 0.423453
113.994415 111.204971 0.000015 0.439750
113.420532 110.299942 0.000014 0.504082
112.930977 109.527893 0.000014 0.488670
112.508286 108.861305 0.000014 0.437858
112.139526 108.279755 0.000014 0.469963
111.814896 107.767792 0.000013 0.506050
111.526810 107.313484 0.000013 0.492348
111.269363 106.907478 0.000013 0.506401
111.037827 106.542336 0.000013 0.334615
157.766739 178.521622 26.393602 0.406455
157.766739 178.521622 25.090990 0.460044
157.933350 178.778717 23.868204 0.678431
157.933334 178.778717 22.577641 0.678431
157.766739 178.521606 21.231457 0.734371
157.894745 178.719147 20.004570 0.230930
157.933350 178.778732 18.748343 0.678431
157.766769 178.521637 17.433826 0.751141
157.766754 178.521637 16.179440 0.755215
157.933334 178.778717 14.972396 0.678431
157.933334 178.778717 13.723422 0.678431
124.062187 126.504715 5.519304 0.320333
123.738983 126.005905 5.043878 0.780362
115.279488 112.950203 3.309057 0.575692
123.567337 125.741005 4.206088 0.391653
115.189911 112.811966 2.895416 0.163272
114.978798 112.486137 2.678316 0.321569
114.810997 112.227173 2.474244 0.583795
114.710266 112.071716 2.280843 0.270588
114.610214 111.917305 2.092399 0.282750
123.337875 125.386871 1.802552 0.364706
115.243927 112.895325 1.699884 0.234150
115.097672 112.669601 1.508498 0.444144
115.926949 113.949440 1.241744 0.285786
125.374893 128.530640 0.000022 0.739834
115.749397 113.675423 0.830775 0.290196
115.490906 113.276489 0.657782 0.879545
115.417191 113.162720 0.463395 0.563607
114.995903 112.512543 0.343471 0.290196
115.633881 113.497147 0.000016 0.412848
114.796211 112.204353 0.000015 0.395789
114.103386 111.135109 0.000015 0.436500
113.520653 110.235764 0.000015 0.468009
113.023537 109.468552 0.000014 0.405447
112.594330 108.806145 0.000015 0.367178
112.219879 108.228249 0.000014 0.523430
111.890236 107.719498 0.000014 0.410819
111.597710 107.268036 0.000013 0.406729
111.336281 106.864578 0.000013 0.446235
111.101173 106.501724 0.000013 0.421347
158.867340 178.521622 26.550961 0.544762
158.867355 178.521622 25.239944 0.544244
158.867355 178.521622 23.937376 0.594858
158.867355 178.521622 22.642736 0.592065
115.283508 112.683311 5.112031 0.203922
158.867355 178.521637 20.075207 0.637690
115.292633 112.697083 4.704310 0.252796
158.867355 178.521637 17.533379 0.484276
158.867371 178.521637 16.270908 0.491127
158.867325 178.521591 15.013424 0.498466
158.867340 178.521591 13.760504 0.505806
124.945053 127.278160 5.645638 0.263951
124.018814 125.878967 5.048518 0.260349
115.405472 112.867546 3.309047 0.534142
115.909241 113.628548 3.172713 0.407126
124.256622 126.238205 3.850749 0.251713
115.145226 112.474419 2.682047 0.737499
115.194626 112.549034 2.489939 0.290196
115.244568 112.624481 2.295672 0.968627
123.630386 125.292206 2.197979 0.249607
115.129471 112.450615 1.902818 0.258824
115.392242 112.847565 1.699073 0.321569
115.348152 112.780960 1.500956 0.250889
115.365051 112.806480 1.299695 0.256901
115.798615 113.461426 1.052875 0.266667
115.399185 112.858055 0.893927 0.264927
116.236343 114.122665 0.562572 0.308736
115.096558 112.400894 0.543467 0.278431
115.061310 112.347649 0.354880 0.261097
115.765289 113.411087 0.000016 0.417700
114.914963 112.126579 0.000015 0.466896
114.211678 111.064186 0.000015 0.361120
113.620140 110.170601 0.000015 0.502190
113.115517 109.408310 0.000015 0.433295
112.679825 108.750153 0.000014 0.589853
112.299721 108.175957 0.000014 0.349783
111.965096 107.670464 0.000014 0.431815
111.668152 107.221901 0.000014 0.445838
111.402779 106.821022 0.000013 0.582391
111.164116 106.460503 0.000013 0.477302
159.982346 178.521622 26.712759 0.653193
159.982346 178.521606 25.393099 0.668971
160.156174 178.778687 24.154303 0.678431
115.389442 112.574852 5.312140 0.295827
159.982346 178.521606 21.483072 0.499550
159.982330 178.521606 20.194323 0.608942
160.156158 178.778656 18.967453 0.678431
160.095718 178.689270 17.669159 0.148348
159.982361 178.521637 16.364956 0.673976
160.156158 178.778656 15.142112 0.678431
160.156158 178.778671 13.876798 0.678431
159.982361 178.521637 12.580951 0.681025
159.982361 178.521637 11.327563 0.683070
160.156174 178.778687 10.103864 0.678431
115.561554 112.829376 3.110866 0.307744
116.379555 114.039093 2.994490 0.289860
116.006020 113.486679 2.742565 0.266102
115.025780 112.037048 2.472934 0.891905
114.864273 111.798195 2.278033 0.497047
124.013084 125.328033 2.199566 0.570291
115.525215 112.775635 1.899610 0.819608
115.516014 112.762039 1.699118 0.309804
115.110634 112.162529 1.522106 0.299290
124.128456 125.498642 0.592635 0.310262
115.195457 112.287971 1.130172 0.285908
115.789299 113.166183 0.859812 0.327993
115.278458 112.410713 0.729361 0.610117
118.307999 116.890999 0.000017 0.439155
116.960602 114.898384 0.000017 0.454322
115.895836 113.323738 0.000016 0.473259
115.032944 112.047638 0.000016 0.470573
114.319267 110.992203 0.000015 0.428458
113.718987 110.104469 0.000015 0.446387
113.206902 109.347168 0.000015 0.411688
112.764763 108.693314 0.000015 0.472297
112.379044 108.122879 0.000015 0.466407
112.039474 107.620705 0.000014 0.497566
111.738136 107.175072 0.000014 0.488319
111.468842 106.776825 0.000013 0.453285
111.226654 106.418655 0.000013 0.413840
115.289093 112.168747 5.836948 0.209705
161.112274 178.521637 25.550579 0.451682
161.112244 178.521606 24.230585 0.543023
115.101662 111.897339 5.153784 0.313970
161.112259 178.521637 21.614229 0.567971
115.509186 112.487442 4.899292 0.278004
161.112244 178.521576 19.025879 0.543038
161.112244 178.521591 17.740993 0.545419
115.395943 112.323463 4.258849 0.289509
115.266426 112.135925 4.028287 0.229694
115.554901 112.553635 3.896460 0.640040
115.524307 112.509338 3.689064 0.240803
115.916176 113.076767 3.556901 0.263050
115.487869 112.456573 3.283946 0.321569
115.691750 112.751801 3.111544 0.756741
115.672745 112.724281 2.906953 0.319860
115.506439 112.483459 2.691667 0.941405
125.124634 126.410812 3.047970 0.353353
115.620453 112.648560 2.300199 0.549020
115.774414 112.871506 2.101829 0.390051
115.862030 112.998367 1.897162 0.270649
115.754608 112.842819 1.695164 0.294697
115.087860 111.877350 1.530235 0.374472
114.977135 111.717018 1.351037 0.897124
115.273781 112.146568 1.134451 0.429862
115.413261 112.348541 0.923800 0.593378
115.807083 112.918800 0.668143 0.435813
115.993546 113.188805 0.429690 0.321569
117.105698 114.799225 0.000017 0.440833
116.025528 113.235107 0.000016 0.464042
115.150146 111.967545 0.000016 0.464622
114.426140 110.919167 0.000016 0.489082
113.817169 110.037369 0.000015 0.411933
113.297676 109.285133 0.000015 0.383688
112.849152 108.635651 0.000015 0.408286
112.457840 108.069031 0.000014 0.482521
112.113358 107.570213 0.000014 0.450462
111.807663 107.127563 0.000014 0.443320
111.534470 106.731972 0.000013 0.513359
111.288780 106.376205 0.000013 0.229252
162.257568 178.521606 27.050150 0.568658
162.257599 178.521622 25.712484 0.653681
162.257568 178.521576 24.383415 0.615305
115.406326 112.084503 5.225714 0.511467
115.357552 112.015343 5.007157 0.268635
162.257599 178.521606 20.442728 0.592477
115.428864 112.116463 4.632422 0.247745
115.445457 112.139999 4.438516 0.321569
162.257599 178.521622 16.561077 0.484215
116.206230 113.218803 4.225509 0.321569
115.725433 112.537010 3.906955 0.939178
115.947960 112.852562 3.747599 0.968627
162.257614 178.521637 11.454912 0.586603
115.528427 112.257645 3.272012 0.290196
115.822411 112.674522 3.112366 0.697063
162.257584 178.521606 7.661255 0.588022
162.257584 178.521606 6.401185 0.728191
115.264748 111.883736 2.473251 0.410758
115.017761 111.533501 2.275469 0.324041
115.553192 112.292770 2.097894 0.258824
115.572235 112.319763 1.901890 0.288350
115.421974 112.106697 1.710757 0.248966
116.015686 112.948601 1.484093 0.564294
115.408096 112.087013 1.325818 0.279927
115.354675 112.011261 1.138264 0.276341
115.417938 112.100967 0.938249 0.343618
115.809418 112.656097 0.686403 0.908095
116.104904 113.075111 0.432595 0.295964
116.273674 113.314438 0.189257 0.261357
115.052696 111.583038 0.238959 0.287343
115.266556 111.886299 0.000016 0.425299
114.532288 110.845085 0.000016 0.454734
113.914696 109.969307 0.000016 0.399741
113.387848 109.222206 0.000015 0.497978
112.932961 108.577164 0.000015 0.364614
112.536110 108.014412 0.000015 0.425650
112.186745 107.518997 0.000014 0.448890
111.876717 107.079369 0.000014 0.469581
111.599655 106.686478 0.000014 0.421271
111.350479 106.333145 0.000014 0.508156
115.504234 111.973473 5.827658 0.287648
115.668777 112.201996 5.692820 0.290196
163.539597 178.689270 24.588728 0.249210
115.675323 112.211090 5.282582 0.592157
115.455894 111.906326 5.000633 0.279454
115.388268 111.812408 4.779916 0.262867
115.787491 112.366882 4.706007 0.290196
115.664658 112.196281 4.467086 0.351934
115.791893 112.372993 4.299603 0.280262
163.539612 178.689270 15.399823 0.289281
163.539612 178.689270 14.109695 0.241779
115.851707 112.456070 3.705280 0.501503
116.083160 112.777534 3.542293 0.927001
115.568016 112.062050 3.260385 0.593576
116.119400 112.827866 3.133803 0.854917
115.955711 112.600517 2.910605 0.968627
115.932671 112.568520 2.706117 0.782818
115.373299 111.791618 2.472857 0.624903
115.938194 112.576195 2.302634 0.611139
115.903038 112.527359 2.100473 0.362676
115.937340 112.575005 1.899143 0.576486
115.936401 112.573692 1.697426 0.349050
115.934883 112.571587 1.495680 0.373404
115.932899 112.568832 1.293865 0.443702
115.930916 112.566078 1.091897 0.269871
115.247864 111.617393 0.973769 0.289158
115.927017 112.560669 0.687211 0.462074
115.794098 112.376053 0.506433 0.331411
115.913551 112.541962 0.282894 0.330449
115.904739 112.529732 0.080779 0.504540
115.382164 111.803925 0.000016 0.443885
114.637711 110.769966 0.000016 0.498741
114.011551 109.900291 0.000016 0.383749
113.477386 109.158401 0.000015 0.469093
113.016190 108.517853 0.000015 0.455009
112.613838 107.959023 0.000015 0.497261
112.259621 107.467064 0.000014 0.475319
111.945297 107.030502 0.000014 0.487587
111.664391 106.640350 0.000014 0.546929
111.411758 106.289474 0.000014 0.553628
164.596710 178.521591 27.406816 0.570428
164.596725 178.521622 26.050110 0.613260
164.596725 178.521606 24.702129 0.552544
164.596725 178.521622 23.362358 0.518593
115.553543 111.797401 4.994328 0.284840
116.163277 112.626961 4.994056 0.456779
115.613487 111.878960 4.617267 0.198535
116.172943 112.640114 4.575710 0.929473
116.033714 112.450691 4.330712 0.546349
116.030838 112.446770 4.124670 0.446632
164.596725 178.521606 14.170486 0.435889
115.871529 112.230034 3.686162 0.321569
115.957100 112.346458 3.500655 0.151766
116.184616 112.655998 3.332289 0.787655
116.140450 112.595901 3.121168 0.520882
147.205521 154.860535 6.010121 0.737041
116.041199 112.460869 2.705053 0.699229
115.592361 111.850212 2.478627 0.252995
116.121246 112.569778 2.304647 0.270832
115.371323 111.549492 2.093250 0.937499
116.511658 113.100937 1.894148 0.258824
115.870102 112.228088 1.703680 0.272358
116.310471 112.827217 1.481679 0.914504
116.013885 112.423706 1.297061 0.915328
115.314392 111.472038 1.165460 0.351446
116.112518 112.557899 0.882233 0.907225
115.986176 112.386017 0.696289 0.373480
116.004425 112.410843 0.491475 0.243687
115.993011 112.395309 0.290922 0.315312
116.409279 112.961655 0.000017 0.512810
115.540726 111.779968 -0.010206 0.306249
114.742386 110.693810 0.000016 0.435630
114.107712 109.830330 0.000016 0.422278
113.566299 109.093719 0.000015 0.441642
113.098839 108.457726 0.000015 0.371649
112.691010 107.902878 0.000015 0.468605
112.331985 107.414413 0.000015 0.463081
112.013390 106.980957 0.000015 0.462379
111.728668 106.593590 0.000015 0.497200
111.472603 106.245209 0.000014 0.424720
165.973938 178.764526 27.671976 0.329290
165.791687 178.521637 26.226089 0.661128
115.625977 111.655853 5.377319 0.266377
165.973938 178.764526 23.585297 0.256214
115.669571 111.713959 4.994778 0.345098
115.953995 112.093063 4.887735 0.847791
115.671959 111.717140 4.600291 0.252186
115.843521 111.945816 4.451254 0.291539
115.888748 112.006096 4.263460 0.893080
116.377647 112.657745 4.176698 0.289830
115.922180 112.050659 3.872257 0.270542
115.939148 112.073273 3.676604 0.260548
116.068413 112.245575 3.499214 0.447501
116.234642 112.467133 3.321900 0.265782
116.313377 112.572083 3.127223 0.730190
147.193741 153.732452 5.956295 0.660258
115.967422 112.110970 2.690157 0.337881
115.781616 111.863297 2.482664 0.495018
115.652313 111.690956 2.285301 0.218265
115.940536 112.075119 2.098233 0.575982
120.494858 118.145569 1.852096 0.266087
116.622826 112.984543 1.682941 0.303990
143.597595 148.939148 -0.000016 0.736690
116.124893 112.320847 1.297813 0.657847
115.988449 112.138985 1.110183 0.294118
116.352875 112.624725 0.868029 0.555734
116.052361 112.224174 0.704005 0.283574
115.902557 112.024498 0.528007 0.258824
116.067596 112.244476 0.299482 0.240208
115.699631 111.754021 0.174097 0.276509
115.610924 111.635780 0.000017 0.487312
114.846313 110.616638 0.000016 0.428809
114.203194 109.759430 0.000016 0.443305
113.654572 109.028168 0.000016 0.495293
113.180885 108.396797 0.000015 0.442573
112.767639 107.845978 0.000015 0.418952
112.403831 107.361061 0.000015 0.551705
112.080994 106.930756 0.000015 0.477012
111.792488 106.546196 0.000015 0.481376
111.533012 106.200348 0.000014 0.551781
167.004379 178.521606 27.783882 0.517296
167.004395 178.521637 26.407034 0.640696
167.004395 178.521637 25.039053 0.654032
116.847145 113.016777 5.577820 0.246418
116.395531 112.426987 5.201897 0.558114
115.934029 111.824265 4.844261 0.212879
116.070045 112.001892 4.683759 0.241733
115.938133 111.829620 4.445401 0.336767
115.955025 111.851685 4.250866 0.293141
116.431732 112.474258 4.160990 0.784268
116.012848 111.927200 3.866805 0.725124
116.101166 112.042542 3.684802 0.503853
115.728943 111.556419 3.424923 0.235294
167.004379 178.521606 10.427497 0.758724
116.105614 112.048347 3.088071 0.571405
116.040298 111.963043 2.883395 0.566766
115.911018 111.794205 2.677022 0.351171
116.417580 112.455772 2.510698 0.854597
116.111519 112.056061 2.296463 0.292348
116.072289 112.004822 2.098387 0.794919
120.615631 117.938393 1.852700 0.290196
115.984825 111.890602 1.707630 0.426474
116.620438 112.720711 1.478378 0.290196
116.525932 112.597290 1.276606 0.336767
115.686623 111.501152 1.150913 0.937255
115.493034 111.248329 0.984597 0.311025
116.659828 112.772148 0.635462 0.788937
116.197464 112.168304 0.499173 0.238514
117.816193 114.282349 0.000018 0.481987
116.660568 112.773117 0.000018 0.478340
115.724052 111.550034 0.000017 0.457237
114.949471 110.538445 0.000017 0.430426
114.297974 109.687592 0.000016 0.428199
113.742195 108.961746 0.000016 0.453193
113.262337 108.335060 0.000016 0.492607
112.843697 107.788322 0.000016 0.456199
112.475151 107.307007 0.000015 0.459556
112.148109 106.879890 0.000014 0.506905
111.855835 106.498184 0.000014 0.470726
111.592979 106.154900 0.000015 0.391485
168.436340 178.778717 28.065580 0.557107
168.235443 178.521622 26.593088 0.556634
116.579773 112.414604 5.653004 0.792874
116.577118 112.411209 5.436474 0.266667
117.225281 113.240700 5.438752 0.284321
116.117447 111.822937 4.865620 0.281529
116.060287 111.749794 4.647082 0.278798
168.436325 178.778702 18.491671 0.662364
116.006912 111.681480 4.235260 0.223529
168.235443 178.521622 15.771134 0.601038
117.260361 113.285599 4.096525 0.223529
116.117683 111.823235 3.666550 0.626657
116.119156 111.825127 3.469372 0.259251
116.485954 112.294540 3.323243 0.926268
116.490417 112.300255 3.119421 0.402304
115.946739 111.604477 2.863292 0.280247
115.961166 111.622932 2.672217 0.781552
115.845154 111.474472 2.473822 0.350515
116.018379 111.696159 2.289753 0.719860
116.561928 112.391769 2.102351 0.262242
115.775787 111.385696 1.906005 0.265675
116.035141 111.717606 1.709712 0.157916
116.534294 112.356400 1.489537 0.396078
133.793030 134.443481 -0.000001 0.656840
116.514030 112.330467 1.082373 0.454246
116.406815 112.193253 0.890372 0.261189
116.237610 111.976723 0.711158 0.276036
116.504280 112.317993 0.469023 0.290196
115.925560 111.577362 0.368312 0.261280
116.784813 112.677010 0.000018 0.429953
115.836334 111.463181 0.000017 0.394629
115.051865 110.459244 0.000017 0.461540
114.392036 109.614822 0.000017 0.426368
113.829163 108.894478 0.000016 0.463249
113.343178 108.272530 0.000016 0.400717
112.919189 107.729927 0.000016 0.427558
112.545937 107.252251 0.000015 0.442329
112.214714 106.828369 0.000015 0.474434
111.918709 106.449547 0.000015 0.515938
111.652496 106.108856 0.000015 0.488441
169.485535 178.521637 28.182554 0.487709
116.652412 112.258995 5.850852 0.281132
169.485535 178.521622 25.395271 0.615335
116.333069 111.858482 5.308107 0.262898
169.485535 178.521622 22.641827 0.591608
169.485535 178.521637 21.276430 0.664530
116.307053 111.825851 4.685047 0.299214
116.316124 111.837227 4.484818 0.160784
116.872154 112.534599 4.418150 0.290196
116.540955 112.119209 4.131595 0.266453
116.191414 111.680817 3.856280 0.299687
116.085251 111.547676 3.640139 0.524880
116.238487 111.739861 3.470062 0.331167
116.072021 111.531082 3.250257 0.232242
116.138382 111.614304 3.064858 0.385763
116.225922 111.724098 2.879031 0.348333
116.273865 111.784225 2.686904 0.267536
116.023163 111.469803 2.477313 0.281605
115.870148 111.277893 2.281502 0.218585
116.056747 111.511917 2.095782 0.407843
115.952782 111.381531 1.905309 0.306554
115.836678 111.235916 1.719552 0.309255
145.020782 147.838257 -0.000015 0.734585
115.611351 110.953308 1.361818 0.176471
116.434982 111.986305 1.101192 0.460472
116.331917 111.857040 0.912751 0.364706
116.230873 111.730301 0.728011 0.828321
119.592720 115.946693 0.000019 0.446235
118.093140 114.065941 0.000018 0.472221
116.908112 112.579689 0.000018 0.406806
115.947754 111.375229 0.000018 0.380789
115.153465 110.379036 0.000017 0.446998
114.485390 109.541145 0.000016 0.467643
113.915466 108.826355 0.000016 0.524376
113.423393 108.209206 0.000016 0.379583
112.994102 107.670792 0.000016 0.372656
112.616180 107.196808 0.000016 0.389532
112.280815 106.776192 0.000015 0.507073
111.981102 106.400299 0.000015 0.499580
111.711555 106.062241 0.000014 0.403647
170.971222 178.786957 28.479658 0.129412
170.971237 178.786987 27.065651 0.331136
170.755371 178.521637 25.580992 0.662242
116.480293 111.804893 5.319211 0.273182
170.971222 178.786957 22.876064 0.337774
116.099792 111.337173 4.790534 0.263523
116.116745 111.358009 4.598662 0.261509
116.498207 111.826912 4.502347 0.240085
170.755386 178.521637 17.340130 0.612314
170.755371 178.521637 15.988441 0.638743
116.720398 112.100037 3.938569 0.702693
170.971222 178.786957 13.337458 0.392279
170.755386 178.521637 11.960769 0.635904
116.152832 111.402367 3.246029 0.192157
116.154266 111.404137 3.053773 0.320745
147.149689 149.504745 5.758200 0.700984
116.379562 111.681076 2.686260 0.571435
116.224663 111.490662 2.481982 0.233936
116.067177 111.297073 2.284222 0.659663
115.915054 111.110085 2.093152 0.271717
116.121429 111.363770 1.904707 0.350362
116.016136 111.234344 1.717366 0.295705
115.897514 111.088531 1.534988 0.284962
115.782150 110.946716 1.357142 0.258824
116.763145 112.152588 1.081416 0.346242
124.433861 121.581680 0.000020 0.449805
121.731316 118.259628 0.000019 0.424079
116.244186 111.514664 0.546861 0.321569
118.230011 113.955711 0.000018 0.418814
117.030441 112.481155 0.000018 0.483635
116.058319 111.286186 0.000017 0.426322
115.254280 110.297844 0.000017 0.437720
114.578011 109.466545 0.000017 0.346380
114.001099 108.757385 0.000017 0.411749
113.502991 108.145103 0.000016 0.517433
113.068436 107.610931 0.000016 0.424643
112.685875 107.140671 0.000016 0.502571
112.346397 106.723373 0.000015 0.426322
112.043007 106.350441 0.000015 0.439445
111.770157 106.015045 0.000015 0.447517
172.045624 178.521606 28.604147 0.591531
172.045624 178.521622 27.183493 0.613138
172.045624 178.521622 25.771990 0.577996
172.045624 178.521606 24.369074 0.653132
172.045624 178.521606 22.974211 0.668254
116.163452 111.190598 4.776542 0.279103
116.180595 111.211250 4.585652 0.290196
172.045624 178.521606 18.832424 0.601907
116.993500 112.190697 4.389299 0.258824
172.045624 178.521637 16.101744 0.417487
172.045624 178.521606 14.744036 0.622385
116.849411 112.017090 3.734705 0.405493
116.854012 112.022629 3.529927 0.806134
116.168388 111.196548 3.233309 0.435386
116.169815 111.198265 3.043013 0.312261
116.868034 112.039536 2.917360 0.321569
116.644211 111.769852 2.697108 0.231556
116.432091 111.514267 2.486890 0.441779
