# This PCD file was generated using the MATLAB® pcwrite function
# from Computer Vision System Toolbox®.
# .PCD v.7 - Point Cloud Data file format
VERSION .7
FIELDS x y z intensity
SIZE 4 4 4 4
TYPE F F F F
COUNT 1 1 1 1
WIDTH 1223
HEIGHT 1
VIEWPOINT 0 0 0 1 0 0 0
POINTS 1223
DATA ascii
88.397278 219.914108 1.316131 0.357000
88.397278 219.914108 1.260309 0.388235
88.397278 219.914108 1.204225 0.379599
88.397278 219.914108 1.147859 0.376471
88.397278 219.914108 1.091188 0.371756
88.397278 219.914108 1.034190 0.354833
88.397278 219.914108 0.976844 0.344488
88.397278 219.914108 0.919125 0.331991
88.356255 219.914108 3.079408 0.328511
88.356255 219.914108 3.021767 0.358618
88.356255 219.914108 2.964499 0.364904
88.356255 219.914108 2.907579 0.332998
88.356255 219.914108 2.850985 0.351141
88.356255 219.914108 2.794694 0.338415
88.356255 219.914108 2.738687 0.335378
88.356255 219.914108 2.682940 0.351843
88.356255 219.914108 2.627434 0.360525
88.356255 219.914108 2.572149 0.349950
88.356255 219.914108 2.517062 0.359991
88.356255 219.914108 2.462156 0.400977
88.356255 219.914108 2.407411 0.352209
88.356255 219.914108 2.352806 0.374823
88.356255 219.914108 2.298323 0.387793
88.356255 219.914108 2.243943 0.360601
88.356255 219.914108 2.189646 0.329900
88.356255 219.914108 2.135415 0.372122
88.356255 219.914108 2.081230 0.378225
88.356255 219.914108 2.027074 0.363241
88.356255 219.914108 1.972926 0.381811
88.356255 219.914108 1.918769 0.382757
88.356255 219.914108 1.864585 0.382437
88.356255 219.914108 1.810354 0.395041
88.356255 219.914108 1.756057 0.390433
88.356255 219.914108 1.701677 0.394339
88.356255 219.914108 1.647194 0.356832
88.356255 219.914108 1.592589 0.385397
88.356255 219.914108 1.537844 0.425635
88.356255 219.914108 1.482937 0.442466
88.356255 219.914108 1.427851 0.396872
88.356255 219.914108 1.372565 0.393256
88.356255 219.914108 1.317059 0.378439
88.356255 219.914108 1.261313 0.395590
88.356255 219.914108 1.205305 0.398352
88.356255 219.914108 1.149015 0.398550
88.356255 219.914108 1.092421 0.402426
88.356255 219.914108 1.035501 0.402670
88.356255 219.914108 0.978232 0.388235
88.356255 219.914108 0.920592 0.417762
88.315338 219.914108 3.078049 0.432212
88.315338 219.914108 3.020481 0.430304
88.315338 219.914108 2.963284 0.402838
88.315338 219.914108 2.906436 0.409674
88.315338 219.914108 2.849913 0.410697
88.315338 219.914108 2.793694 0.401373
88.315338 219.914108 2.737757 0.405921
88.315338 219.914108 2.682081 0.417731
88.315338 219.914108 2.626645 0.427741
88.315338 219.914108 2.571428 0.428061
88.315338 219.914108 2.516411 0.435401
88.315338 219.914108 2.461574 0.433127
88.315338 219.914108 2.406898 0.445167
88.315338 219.914108 2.352362 0.426352
88.315338 219.914108 2.297947 0.425238
88.315338 219.914108 2.243635 0.442679
88.315338 219.914108 2.189408 0.344518
88.315338 219.914108 2.135245 0.429160
88.315338 219.914108 2.081128 0.433829
88.315338 219.914108 2.027040 0.393988
88.315338 219.914108 1.972960 0.412131
88.315338 219.914108 1.918872 0.430869
88.315338 219.914108 1.864755 0.422507
88.315338 219.914108 1.810592 0.431449
88.315338 219.914108 1.756364 0.433371
88.315338 219.914108 1.702053 0.440101
88.315338 219.914108 1.647638 0.414603
88.315338 219.914108 1.593102 0.435904
88.315338 219.914108 1.538425 0.448066
88.315338 219.914108 1.483588 0.436774
88.315338 219.914108 1.428572 0.368307
88.315338 219.914108 1.373355 0.428931
88.315338 219.914108 1.317919 0.413916
88.315338 219.914108 1.262243 0.410971
88.315338 219.914108 1.206306 0.404028
88.315338 219.914108 1.150087 0.391348
88.315338 219.914108 1.093564 0.428611
88.315338 219.914108 1.036716 0.415518
88.315338 219.914108 0.979519 0.419379
88.315338 219.914108 0.921951 0.403220
88.274521 219.914108 3.076797 0.434241
88.274521 219.914108 3.019296 0.444053
88.274521 219.914108 2.962166 0.408301
88.274521 219.914108 2.905383 0.434669
88.274521 219.914108 2.848927 0.406653
88.274521 219.914108 2.792772 0.422324
88.274521 219.914108 2.736900 0.418463
88.274521 219.914108 2.681288 0.410056
88.274521 219.914108 2.625917 0.448600
88.274521 219.914108 2.570765 0.431754
88.274521 219.914108 2.515812 0.441611
88.274521 219.914108 2.461038 0.434836
88.274521 219.914108 2.406425 0.411475
88.274521 219.914108 2.351953 0.450980
88.274521 219.914108 2.297601 0.431159
88.274521 219.914108 2.243353 0.422461
88.274521 219.914108 2.189188 0.345159
88.274521 219.914108 2.135088 0.404257
88.274521 219.914108 2.081034 0.428214
88.274521 219.914108 2.027008 0.433265
88.274521 219.914108 1.972992 0.431952
88.274521 219.914108 1.918966 0.431861
88.274521 219.914108 1.864912 0.433204
88.274521 219.914108 1.810812 0.439033
88.274521 219.914108 1.756647 0.414984
88.274521 219.914108 1.702399 0.419608
88.274521 219.914108 1.648047 0.402609
88.274521 219.914108 1.593575 0.397192
88.274521 219.914108 1.538961 0.433265
88.274521 219.914108 1.484188 0.432959
88.274521 219.914108 1.429235 0.404807
88.274521 219.914108 1.374083 0.439399
88.274521 219.914108 1.318711 0.407843
88.274521 219.914108 1.263100 0.383352
88.274521 219.914108 1.207228 0.411795
88.274521 219.914108 1.151074 0.412482
88.274521 219.914108 1.094617 0.397177
88.274521 219.914108 1.037834 0.408408
88.274521 219.914108 0.980704 0.405615
88.274521 219.914108 0.923203 0.400626
88.233795 219.914108 3.075651 0.392065
88.233795 219.914108 3.018211 0.431861
88.233795 219.914108 2.961142 0.443580
88.233795 219.914108 2.904420 0.432441
88.233795 219.914108 2.848023 0.431373
88.233795 219.914108 2.791929 0.400595
88.233795 219.914108 2.736116 0.417533
88.233795 219.914108 2.680564 0.405432
88.233795 219.914108 2.625251 0.431373
88.233795 219.914108 2.570158 0.431373
88.233795 219.914108 2.515263 0.433600
88.233795 219.914108 2.460548 0.435111
88.233795 219.914108 2.405993 0.436210
88.233795 219.914108 2.351578 0.426215
88.233795 219.914108 2.297285 0.416846
88.233795 219.914108 2.243094 0.393835
88.233795 219.914108 2.188987 0.344808
88.233795 219.914108 2.134944 0.429786
88.233795 219.914108 2.080948 0.434806
88.233795 219.914108 2.026980 0.426261
88.233795 219.914108 1.973020 0.409491
88.233795 219.914108 1.919052 0.436606
88.233795 219.914108 1.865056 0.449882
88.233795 219.914108 1.811013 0.415564
88.233795 219.914108 1.756906 0.420951
88.233795 219.914108 1.702715 0.419608
88.233795 219.914108 1.648422 0.418509
88.233795 219.914108 1.594007 0.404532
88.233795 219.914108 1.539452 0.398383
88.233795 219.914108 1.484737 0.419608
88.233795 219.914108 1.429842 0.414832
88.233795 219.914108 1.374749 0.422461
88.233795 219.914108 1.319436 0.418280
88.233795 219.914108 1.263884 0.388235
88.233795 219.914108 1.208071 0.417075
88.233795 219.914108 1.151977 0.411612
88.233795 219.914108 1.095580 0.391287
88.233795 219.914108 1.038858 0.403464
88.233795 219.914108 0.981789 0.432059
88.233795 219.914108 0.924349 0.398291
88.193146 219.914108 3.074612 0.427878
88.193146 219.914108 3.017228 0.427359
88.193146 219.914108 2.960213 0.439216
88.193146 219.914108 2.903546 0.432135
88.193146 219.914108 2.847204 0.405936
88.193146 219.914108 2.791163 0.407843
88.193146 219.914108 2.735405 0.418555
88.193146 219.914108 2.679906 0.419608
88.193146 219.914108 2.624647 0.416709
88.193146 219.914108 2.569607 0.423835
88.193146 219.914108 2.514765 0.426703
88.193146 219.914108 2.460103 0.438331
88.193146 219.914108 2.405601 0.422141
88.193146 219.914108 2.351238 0.407843
88.193146 219.914108 2.296997 0.392889
88.193146 219.914108 2.242859 0.388449
88.193146 219.914108 2.188804 0.343191
88.193146 219.914108 2.134814 0.420340
88.193146 219.914108 2.080870 0.431464
88.193146 219.914108 2.026953 0.450980
88.193146 219.914108 1.973047 0.409033
88.193146 219.914108 1.919130 0.420569
88.193146 219.914108 1.865186 0.410712
88.193146 219.914108 1.811196 0.353323
88.193146 219.914108 1.757141 0.361257
88.193146 219.914108 1.703003 0.378500
88.193146 219.914108 1.648762 0.401541
88.193146 219.914108 1.594399 0.391440
88.193146 219.914108 1.539897 0.419608
88.193146 219.914108 1.485235 0.431586
88.193146 219.914108 1.430393 0.404746
88.193146 219.914108 1.375353 0.424750
88.193146 219.914108 1.320094 0.426001
88.193146 219.914108 1.264595 0.402258
88.193146 219.914108 1.208836 0.427787
88.193146 219.914108 1.152796 0.414054
88.193146 219.914108 1.096454 0.396078
88.193146 219.914108 1.039787 0.406699
88.193146 219.914108 0.982772 0.412848
88.193146 219.914108 0.925388 0.394537
88.152580 219.914108 3.073678 0.396719
88.152580 219.914108 3.016343 0.325170
88.152580 219.914108 2.959378 0.420447
88.152580 219.914108 2.902761 0.429816
88.152580 219.914108 2.846467 0.388632
88.152580 219.914108 2.790476 0.400366
88.152580 219.914108 2.734766 0.361852
88.152580 219.914108 2.679315 0.417304
88.152580 219.914108 2.624104 0.433051
88.152580 219.914108 2.569111 0.409674
88.152580 219.914108 2.514318 0.411063
88.152580 219.914108 2.459703 0.425467
88.152580 219.914108 2.405248 0.415473
88.152580 219.914108 2.350933 0.392096
88.152580 219.914108 2.296739 0.376318
88.152580 219.914108 2.242648 0.396536
88.152580 219.914108 2.188640 0.367071
88.152580 219.914108 2.134696 0.419608
88.152580 219.914108 2.080799 0.412146
88.152580 219.914108 2.026930 0.419791
88.152580 219.914108 1.973070 0.407843
88.152580 219.914108 1.919201 0.399161
88.152580 219.914108 1.865304 0.419883
88.152580 219.914108 1.811360 0.418128
88.152580 219.914108 1.757352 0.402838
88.152580 219.914108 1.703261 0.362356
88.152580 219.914108 1.649067 0.386419
88.152580 219.914108 1.594752 0.389670
88.152580 219.914108 1.540297 0.387411
88.152580 219.914108 1.485682 0.419608
88.152580 219.914108 1.430889 0.415564
88.152580 219.914108 1.375896 0.430457
88.152580 219.914108 1.320685 0.431373
88.152580 219.914108 1.265234 0.430365
88.152580 219.914108 1.209524 0.416526
88.152580 219.914108 1.153533 0.408667
88.152580 219.914108 1.097239 0.381903
88.152580 219.914108 1.040621 0.397177
88.152580 219.914108 0.983657 0.406744
88.152580 219.914108 0.926322 0.391043
88.112076 219.914108 3.072848 0.409674
88.112076 219.914108 3.015558 0.409461
88.112076 219.914108 2.958638 0.425208
88.112076 219.914108 2.902063 0.433860
88.112076 219.914108 2.845813 0.396612
88.112076 219.914108 2.789865 0.397024
88.112076 219.914108 2.734198 0.391531
88.112076 219.914108 2.678790 0.392554
88.112076 219.914108 2.623622 0.412879
88.112076 219.914108 2.568672 0.414969
88.112076 219.914108 2.513920 0.409247
88.112076 219.914108 2.459348 0.396277
88.112076 219.914108 2.404935 0.409674
88.112076 219.914108 2.350662 0.386892
88.112076 219.914108 2.296510 0.411292
88.112076 219.914108 2.242460 0.437995
88.112076 219.914108 2.188494 0.324147
88.112076 219.914108 2.134592 0.383597
88.112076 219.914108 2.080737 0.446769
88.112076 219.914108 2.026909 0.425238
88.112076 219.914108 1.973091 0.404318
88.112076 219.914108 1.919263 0.389395
88.112076 219.914108 1.865408 0.404913
88.112076 219.914108 1.811506 0.403754
88.112076 219.914108 1.757540 0.405417
88.112076 219.914108 1.703490 0.371237
88.112076 219.914108 1.649338 0.364996
88.112076 219.914108 1.595065 0.405722
88.112076 219.914108 1.540652 0.387579
88.112076 219.914108 1.486079 0.399344
88.112076 219.914108 1.431328 0.430549
88.112076 219.914108 1.376378 0.400580
88.112076 219.914108 1.321209 0.417395
88.112076 219.914108 1.265802 0.409079
88.112076 219.914108 1.210135 0.398001
88.112076 219.914108 1.154187 0.426383
88.112076 219.914108 1.097936 0.393896
88.112076 219.914108 1.041363 0.390631
88.112076 219.914108 0.984442 0.396262
88.112076 219.914108 0.927152 0.395407
88.071632 219.914108 3.072123 0.392477
88.071632 219.914108 3.014872 0.422278
88.071632 219.914108 2.957990 0.407935
88.071632 219.914108 2.901454 0.430167
88.071632 219.914108 2.845242 0.394080
88.071632 219.914108 2.789332 0.414145
88.071632 219.914108 2.733702 0.420706
88.071632 219.914108 2.678332 0.366293
88.071632 219.914108 2.623200 0.417395
88.071632 219.914108 2.568287 0.395514
88.071632 219.914108 2.513573 0.382177
88.071632 219.914108 2.459038 0.410330
88.071632 219.914108 2.404661 0.407935
88.071632 219.914108 2.350425 0.385809
88.071632 219.914108 2.296310 0.396078
88.071632 219.914108 2.242296 0.393500
88.071632 219.914108 2.188367 0.387289
88.071632 219.914108 2.134501 0.419150
88.071632 219.914108 2.080683 0.422278
88.071632 219.914108 2.026891 0.399298
88.071632 219.914108 1.973109 0.407843
88.071632 219.914108 1.919317 0.383902
88.071632 219.914108 1.865499 0.416297
88.071632 219.914108 1.811633 0.405402
88.071632 219.914108 1.757703 0.406836
88.071632 219.914108 1.703690 0.376471
88.071632 219.914108 1.649575 0.391104
88.071632 219.914108 1.595339 0.380743
88.071632 219.914108 1.540962 0.368658
88.071632 219.914108 1.486427 0.386587
88.071632 219.914108 1.431712 0.438422
88.071632 219.914108 1.376800 0.416846
88.071632 219.914108 1.321668 0.403189
88.071632 219.914108 1.266298 0.417868
88.071632 219.914108 1.210668 0.420523
88.071632 219.914108 1.154758 0.442817
88.071632 219.914108 1.098546 0.401907
88.071632 219.914108 1.042010 0.415534
88.071632 219.914108 0.985128 0.386297
88.071632 219.914108 0.927877 0.394705
88.031235 219.914108 3.071503 0.415152
88.031235 219.914108 3.014285 0.404395
88.031235 219.914108 2.957436 0.402945
88.031235 219.914108 2.900932 0.378515
88.031235 219.914108 2.844753 0.392035
88.031235 219.914108 2.788875 0.417685
88.031235 219.914108 2.733277 0.405585
88.031235 219.914108 2.677939 0.400946
88.031235 219.914108 2.622840 0.388754
88.031235 219.914108 2.567959 0.409766
88.031235 219.914108 2.513276 0.396063
88.031235 219.914108 2.458772 0.410559
88.031235 219.914108 2.404427 0.396262
88.031235 219.914108 2.350222 0.379919
88.031235 219.914108 2.296138 0.404166
88.031235 219.914108 2.242156 0.434195
88.031235 219.914108 2.188258 0.364294
88.031235 219.914108 2.134423 0.405890
88.031235 219.914108 2.080636 0.373907
88.031235 219.914108 2.026875 0.366537
88.031235 219.914108 1.973124 0.404532
88.031235 219.914108 1.919364 0.361471
88.031235 219.914108 1.865576 0.430640
88.031235 219.914108 1.811742 0.419608
88.031235 219.914108 1.757844 0.346258
88.031235 219.914108 1.703862 0.388235
88.031235 219.914108 1.649778 0.408331
88.031235 219.914108 1.595573 0.398199
88.031235 219.914108 1.541228 0.395544
88.031235 219.914108 1.486724 0.355810
88.031235 219.914108 1.432041 0.445106
88.031235 219.914108 1.377160 0.421576
88.031235 219.914108 1.322061 0.414099
88.031235 219.914108 1.266723 0.417929
88.031235 219.914108 1.211125 0.433173
88.031235 219.914108 1.155247 0.437659
88.031235 219.914108 1.099067 0.419608
88.031235 219.914108 1.042564 0.430915
88.031235 219.914108 0.985715 0.395300
88.031235 219.914108 0.928497 0.399832
87.990883 219.914108 3.070986 0.413443
87.990883 219.914108 3.013796 0.430915
87.990883 219.914108 2.956974 0.407767
87.990883 219.914108 2.900498 0.384817
87.990883 219.914108 2.844346 0.391318
87.990883 219.914108 2.788495 0.411704
87.990883 219.914108 2.732924 0.393927
87.990883 219.914108 2.677612 0.376669
87.990883 219.914108 2.622540 0.361242
87.990883 219.914108 2.567685 0.432441
87.990883 219.914108 2.513028 0.399390
87.990883 219.914108 2.458551 0.415564
87.990883 219.914108 2.404232 0.414099
87.990883 219.914108 2.350054 0.406104
87.990883 219.914108 2.295995 0.419120
87.990883 219.914108 2.242039 0.386801
87.990883 219.914108 2.188167 0.368307
87.990883 219.914108 2.134359 0.404166
87.990883 219.914108 2.080597 0.409216
87.990883 219.914108 2.026863 0.409628
87.990883 219.914108 1.973137 0.396536
87.990883 219.914108 1.919403 0.396002
87.990883 219.914108 1.865641 0.419348
87.990883 219.914108 1.811833 0.388235
87.990883 219.914108 1.757960 0.419486
87.990883 219.914108 1.704005 0.383825
87.990883 219.914108 1.649947 0.360891
87.990883 219.914108 1.595768 0.388525
87.990883 219.914108 1.541449 0.400717
87.990883 219.914108 1.486971 0.390936
87.990883 219.914108 1.432315 0.393011
87.990883 219.914108 1.377460 0.387625
87.990883 219.914108 1.322388 0.423377
87.990883 219.914108 1.267076 0.429679
87.990883 219.914108 1.211505 0.384939
87.990883 219.914108 1.155654 0.380545
87.990883 219.914108 1.099502 0.372976
87.990883 219.914108 1.043026 0.418051
87.990883 219.914108 0.986204 0.375235
87.990883 219.914108 0.929014 0.413108
87.950569 219.914108 3.070573 0.414923
87.950569 219.914108 3.013405 0.419608
87.950569 219.914108 2.956605 0.405493
87.950569 219.914108 2.900151 0.381979
87.950569 219.914108 2.844020 0.404685
87.950569 219.914108 2.788191 0.417777
87.950569 219.914108 2.732641 0.352331
87.950569 219.914108 2.677351 0.377462
87.950569 219.914108 2.622299 0.388830
87.950569 219.914108 2.567466 0.388998
87.950569 219.914108 2.512831 0.363378
87.950569 219.914108 2.458374 0.419608
87.950569 219.914108 2.404076 0.408942
87.950569 219.914108 2.349918 0.378317
87.950569 219.914108 2.295881 0.365377
87.950569 219.914108 2.241946 0.396719
87.950569 219.914108 2.188094 0.342275
87.950569 219.914108 2.134307 0.406744
87.950569 219.914108 2.080566 0.396078
87.950569 219.914108 2.026852 0.372061
87.950569 219.914108 1.973148 0.390723
87.950569 219.914108 1.919434 0.389700
87.950569 219.914108 1.865693 0.364096
87.950569 219.914108 1.811906 0.404456
87.950569 219.914108 1.758054 0.408621
87.950569 219.914108 1.704119 0.410910
87.950569 219.914108 1.650082 0.382055
87.950569 219.914108 1.595924 0.395010
87.950569 219.914108 1.541626 0.383505
87.950569 219.914108 1.487169 0.367651
87.950569 219.914108 1.432534 0.369512
87.950569 219.914108 1.377701 0.426108
87.950569 219.914108 1.322649 0.407584
87.950569 219.914108 1.267359 0.385183
87.950569 219.914108 1.211809 0.393606
87.950569 219.914108 1.155980 0.356252
87.950569 219.914108 1.099849 0.370779
87.950569 219.914108 1.043395 0.376196
87.950569 219.914108 0.986595 0.358633
87.950569 219.914108 0.929427 0.380697
87.910278 219.914108 3.070264 0.379660
87.910278 219.914108 3.013112 0.415702
87.910278 219.914108 2.956328 0.406195
87.910278 219.914108 2.899890 0.395834
87.910278 219.914108 2.843776 0.380819
87.910278 219.914108 2.787962 0.401282
87.910278 219.914108 2.732429 0.387091
87.910278 219.914108 2.677155 0.394766
87.910278 219.914108 2.622119 0.399008
87.910278 219.914108 2.567302 0.428382
87.910278 219.914108 2.512682 0.420005
87.910278 219.914108 2.458241 0.414557
87.910278 219.914108 2.403960 0.424567
87.910278 219.914108 2.349817 0.394186
87.910278 219.914108 2.295796 0.394339
87.910278 219.914108 2.241876 0.384817
87.910278 219.914108 2.188040 0.376822
87.910278 219.914108 2.134268 0.396078
87.910278 219.914108 2.080542 0.386358
87.910278 219.914108 2.026844 0.386587
87.910278 219.914108 1.973155 0.376150
87.910278 219.914108 1.919458 0.418387
87.910278 219.914108 1.865732 0.409308
87.910278 219.914108 1.811960 0.405890
87.910278 219.914108 1.758124 0.415366
87.910278 219.914108 1.704204 0.407111
87.910278 219.914108 1.650183 0.400900
87.910278 219.914108 1.596040 0.390814
87.910278 219.914108 1.541759 0.386206
87.910278 219.914108 1.487318 0.364843
87.910278 219.914108 1.432698 0.397543
87.910278 219.914108 1.377881 0.438727
87.910278 219.914108 1.322845 0.404501
87.910278 219.914108 1.267571 0.389883
87.910278 219.914108 1.212037 0.396811
87.910278 219.914108 1.156224 0.369696
87.910278 219.914108 1.100110 0.382452
87.910278 219.914108 1.043672 0.380194
87.910278 219.914108 0.986888 0.388235
87.910278 219.914108 0.929736 0.388235
87.870010 219.914108 3.070057 0.421729
87.870010 219.914108 3.012917 0.411704
87.870010 219.914108 2.956144 0.395956
87.870010 219.914108 2.899717 0.416114
87.870010 219.914108 2.843613 0.381201
87.870010 219.914108 2.787811 0.412940
87.870010 219.914108 2.732288 0.414511
87.870010 219.914108 2.677024 0.394308
87.870010 219.914108 2.622000 0.394568
87.870010 219.914108 2.567192 0.419974
87.870010 219.914108 2.512583 0.408850
87.870010 219.914108 2.458153 0.413626
87.870010 219.914108 2.403882 0.429282
87.870010 219.914108 2.349750 0.437263
87.870010 219.914108 2.295739 0.394553
87.870010 219.914108 2.241830 0.398459
87.870010 219.914108 2.188004 0.409873
87.870010 219.914108 2.134242 0.396719
87.870010 219.914108 2.080527 0.395773
87.870010 219.914108 2.026839 0.418906
87.870010 219.914108 1.973161 0.396262
87.870010 219.914108 1.919473 0.358495
87.870010 219.914108 1.865758 0.407828
87.870010 219.914108 1.811996 0.418753
87.870010 219.914108 1.758170 0.388235
87.870010 219.914108 1.704261 0.332113
87.870010 219.914108 1.650250 0.405493
87.870010 219.914108 1.596119 0.380880
87.870010 219.914108 1.541847 0.368612
87.870010 219.914108 1.487417 0.377890
87.870010 219.914108 1.432808 0.408026
87.870010 219.914108 1.378000 0.394736
87.870010 219.914108 1.322975 0.389944
87.870010 219.914108 1.267712 0.375143
87.870010 219.914108 1.212189 0.393622
87.870010 219.914108 1.156387 0.387045
87.870010 219.914108 1.100283 0.360891
87.870010 219.914108 1.043856 0.374411
87.870010 219.914108 0.987084 0.379919
87.870010 219.914108 0.929943 0.376028
87.829750 219.914108 3.069954 0.405631
87.829750 219.914108 3.012819 0.406195
87.829750 219.914108 2.956052 0.409049
87.829750 219.914108 2.899630 0.419562
87.829750 219.914108 2.843532 0.403830
87.829750 219.914108 2.787735 0.419608
87.829750 219.914108 2.732217 0.407752
87.829750 219.914108 2.676959 0.388098
87.829750 219.914108 2.621940 0.394476
87.829750 219.914108 2.567138 0.390570
87.829750 219.914108 2.512534 0.430411
87.829750 219.914108 2.458109 0.443122
87.829750 219.914108 2.403842 0.395819
87.829750 219.914108 2.349716 0.374594
87.829750 219.914108 2.295710 0.414176
87.829750 219.914108 2.241806 0.415427
87.829750 219.914108 2.187985 0.410010
87.829750 219.914108 2.134229 0.423407
87.829750 219.914108 2.080519 0.436423
87.829750 219.914108 2.026837 0.385657
87.829750 219.914108 1.973163 0.420813
87.829750 219.914108 1.919481 0.426154
87.829750 219.914108 1.865771 0.425193
87.829750 219.914108 1.812014 0.406485
87.829750 219.914108 1.758194 0.415015
87.829750 219.914108 1.704290 0.388235
87.829750 219.914108 1.650284 0.401587
87.829750 219.914108 1.596157 0.395056
87.829750 219.914108 1.541891 0.409934
87.829750 219.914108 1.487466 0.412009
87.829750 219.914108 1.432862 0.395651
87.829750 219.914108 1.378060 0.387945
87.829750 219.914108 1.323041 0.345632
87.829750 219.914108 1.267782 0.402335
87.829750 219.914108 1.212265 0.381445
87.829750 219.914108 1.156468 0.385885
87.829750 219.914108 1.100370 0.371237
87.829750 219.914108 1.043948 0.396078
87.829750 219.914108 0.987181 0.383307
87.829750 219.914108 0.930046 0.371511
87.789497 219.914108 3.069954 0.403479
87.789497 219.914108 3.012819 0.405356
87.789497 219.914108 2.956052 0.407843
87.789497 219.914108 2.899630 0.398642
87.789497 219.914108 2.843532 0.411063
87.789497 219.914108 2.787735 0.414466
87.789497 219.914108 2.732217 0.400610
87.789497 219.914108 2.676959 0.376379
87.789497 219.914108 2.621940 0.409583
87.789497 219.914108 2.567138 0.405356
87.789497 219.914108 2.512534 0.437964
87.789497 219.914108 2.458109 0.441794
87.789497 219.914108 2.403843 0.410513
87.789497 219.914108 2.349716 0.429160
87.789497 219.914108 2.295710 0.431373
87.789497 219.914108 2.241806 0.426825
87.789497 219.914108 2.187985 0.390967
87.789497 219.914108 2.134229 0.436393
87.789497 219.914108 2.080519 0.450980
87.789497 219.914108 2.026837 0.402243
87.789497 219.914108 1.973163 0.421836
87.789497 219.914108 1.919481 0.440620
87.789497 219.914108 1.865771 0.410437
87.789497 219.914108 1.812014 0.410224
87.789497 219.914108 1.758194 0.418921
87.789497 219.914108 1.704290 0.399329
87.789497 219.914108 1.650284 0.383444
87.789497 219.914108 1.596157 0.406088
87.789497 219.914108 1.541891 0.403281
87.789497 219.914108 1.487466 0.388235
87.789497 219.914108 1.432862 0.408331
87.789497 219.914108 1.378060 0.373281
87.789497 219.914108 1.323041 0.391669
87.789497 219.914108 1.267782 0.416297
87.789497 219.914108 1.212265 0.405722
87.789497 219.914108 1.156468 0.361944
87.789497 219.914108 1.100370 0.380133
87.789497 219.914108 1.043948 0.377615
87.789497 219.914108 0.987181 0.375860
87.789497 219.914108 0.930046 0.406546
87.749237 219.914108 3.070057 0.401862
87.749237 219.914108 3.012917 0.402335
87.749237 219.914108 2.956144 0.419425
87.749237 219.914108 2.899717 0.412894
87.749237 219.914108 2.843613 0.421912
87.749237 219.914108 2.787811 0.411032
87.749237 219.914108 2.732288 0.390539
87.749237 219.914108 2.677025 0.369879
87.749237 219.914108 2.622000 0.416480
87.749237 219.914108 2.567193 0.401724
87.749237 219.914108 2.512583 0.435966
87.749237 219.914108 2.458153 0.431922
87.749237 219.914108 2.403882 0.429908
87.749237 219.914108 2.349750 0.432746
87.749237 219.914108 2.295739 0.410071
87.749237 219.914108 2.241830 0.429709
87.749237 219.914108 2.188004 0.411154
87.749237 219.914108 2.134242 0.424872
87.749237 219.914108 2.080527 0.435050
87.749237 219.914108 2.026839 0.413733
87.749237 219.914108 1.973161 0.416434
87.749237 219.914108 1.919473 0.397787
87.749237 219.914108 1.865758 0.396078
87.749237 219.914108 1.811996 0.398428
87.749237 219.914108 1.758170 0.396078
87.749237 219.914108 1.704261 0.376287
87.749237 219.914108 1.650250 0.401587
87.749237 219.914108 1.596119 0.399390
87.749237 219.914108 1.541847 0.396750
87.749237 219.914108 1.487417 0.351324
87.749237 219.914108 1.432808 0.432609
87.749237 219.914108 1.378000 0.376120
87.749237 219.914108 1.322975 0.364935
87.749237 219.914108 1.267712 0.410544
87.749237 219.914108 1.212189 0.361364
87.749237 219.914108 1.156387 0.369574
87.749237 219.914108 1.100283 0.388495
87.749237 219.914108 1.043856 0.376791
87.749237 219.914108 0.987083 0.401495
87.749237 219.914108 0.929942 0.407477
87.708969 219.914108 3.070264 0.396353
87.708969 219.914108 3.013112 0.419562
87.708969 219.914108 2.956328 0.408072
87.708969 219.914108 2.899890 0.407843
87.708969 219.914108 2.843776 0.412726
87.708969 219.914108 2.787962 0.404837
87.708969 219.914108 2.732429 0.420157
87.708969 219.914108 2.677155 0.368063
87.708969 219.914108 2.622119 0.390417
87.708969 219.914108 2.567302 0.418006
87.708969 219.914108 2.512682 0.431647
87.708969 219.914108 2.458241 0.427237
87.708969 219.914108 2.403960 0.421653
87.708969 219.914108 2.349817 0.415534
87.708969 219.914108 2.295796 0.388846
87.708969 219.914108 2.241876 0.422919
87.708969 219.914108 2.188040 0.417975
87.708969 219.914108 2.134268 0.450980
87.708969 219.914108 2.080542 0.419730
87.708969 219.914108 2.026844 0.415885
87.708969 219.914108 1.973155 0.391226
87.708969 219.914108 1.919458 0.401541
87.708969 219.914108 1.865732 0.398886
87.708969 219.914108 1.811960 0.373724
87.708969 219.914108 1.758124 0.383978
87.708969 219.914108 1.704204 0.413733
87.708969 219.914108 1.650183 0.401968
87.708969 219.914108 1.596040 0.396185
87.708969 219.914108 1.541759 0.379522
87.708969 219.914108 1.487318 0.388876
87.708969 219.914108 1.432698 0.389685
87.708969 219.914108 1.377880 0.372992
87.708969 219.914108 1.322845 0.408331
87.708969 219.914108 1.267571 0.339864
87.708969 219.914108 1.212037 0.384649
87.708969 219.914108 1.156224 0.386496
87.708969 219.914108 1.100110 0.378927
87.708969 219.914108 1.043672 0.388037
87.708969 219.914108 0.986888 0.407965
87.708969 219.914108 0.929736 0.384237
87.668678 219.914108 3.070573 0.394827
87.668678 219.914108 3.013405 0.419608
87.668678 219.914108 2.956605 0.398932
87.668678 219.914108 2.900151 0.407843
87.668678 219.914108 2.844020 0.398932
87.668678 219.914108 2.788191 0.431373
87.668678 219.914108 2.732641 0.410803
87.668678 219.914108 2.677351 0.401266
87.668678 219.914108 2.622299 0.396078
87.668678 219.914108 2.567466 0.400961
87.668678 219.914108 2.512831 0.439872
87.668678 219.914108 2.458374 0.412665
87.668678 219.914108 2.404076 0.412833
87.668678 219.914108 2.349918 0.435325
87.668678 219.914108 2.295881 0.402335
87.668678 219.914108 2.241946 0.403433
87.668678 219.914108 2.188094 0.421088
87.668678 219.914108 2.134307 0.446540
87.668678 219.914108 2.080566 0.444602
87.668678 219.914108 2.026852 0.413001
87.668678 219.914108 1.973148 0.409674
87.668678 219.914108 1.919434 0.410513
87.668678 219.914108 1.865693 0.393713
87.668678 219.914108 1.811906 0.401221
87.668678 219.914108 1.758054 0.414649
87.668678 219.914108 1.704119 0.431373
87.668678 219.914108 1.650082 0.406607
87.668678 219.914108 1.595924 0.407446
87.668678 219.914108 1.541626 0.403021
87.668678 219.914108 1.487169 0.398199
87.668678 219.914108 1.432534 0.405035
87.668678 219.914108 1.377701 0.396078
87.668678 219.914108 1.322649 0.348898
87.668678 219.914108 1.267359 0.375967
87.668678 219.914108 1.211809 0.404288
87.668678 219.914108 1.155980 0.375280
87.668678 219.914108 1.099849 0.403342
87.668678 219.914108 1.043395 0.396811
87.668678 219.914108 0.986595 0.425116
87.668678 219.914108 0.929427 0.391806
87.628365 219.914108 3.070986 0.396078
87.628365 219.914108 3.013796 0.400854
87.628365 219.914108 2.956974 0.392142
87.628365 219.914108 2.900498 0.410025
87.628365 219.914108 2.844346 0.410285
87.628365 219.914108 2.788495 0.439063
87.628365 219.914108 2.732924 0.395636
87.628365 219.914108 2.677612 0.397726
87.628365 219.914108 2.622540 0.428290
87.628365 219.914108 2.567685 0.431617
87.628365 219.914108 2.513028 0.421439
87.628365 219.914108 2.458551 0.395758
87.628365 219.914108 2.404232 0.416663
87.628365 219.914108 2.350054 0.411887
87.628365 219.914108 2.295995 0.438300
87.628365 219.914108 2.242039 0.419608
87.628365 219.914108 2.188167 0.399817
87.628365 219.914108 2.134359 0.435111
87.628365 219.914108 2.080597 0.431861
87.628365 219.914108 2.026863 0.439902
87.628365 219.914108 1.973137 0.407477
87.628365 219.914108 1.919403 0.346838
87.628365 219.914108 1.865641 0.367819
87.628365 219.914108 1.811833 0.400214
87.628365 219.914108 1.757960 0.413962
87.628365 219.914108 1.704004 0.408850
87.628365 219.914108 1.649947 0.409018
87.628365 219.914108 1.595768 0.403021
87.628365 219.914108 1.541449 0.398428
87.628365 219.914108 1.486971 0.410376
87.628365 219.914108 1.432315 0.376471
87.628365 219.914108 1.377460 0.369314
87.628365 219.914108 1.322388 0.378225
87.628365 219.914108 1.267076 0.408438
87.628365 219.914108 1.211505 0.398260
87.628365 219.914108 1.155654 0.418112
87.628365 219.914108 1.099502 0.396628
87.628365 219.914108 1.043026 0.406241
87.628365 219.914108 0.986204 0.411978
87.628365 219.914108 0.929014 0.367590
87.588013 219.914108 3.071503 0.367575
87.588013 219.914108 3.014285 0.387045
87.588013 219.914108 2.957436 0.402335
87.588013 219.914108 2.900932 0.396170
87.588013 219.914108 2.844753 0.400671
87.588013 219.914108 2.788875 0.395026
87.588013 219.914108 2.733277 0.404532
87.588013 219.914108 2.677939 0.407843
87.588013 219.914108 2.622840 0.431907
87.588013 219.914108 2.567959 0.437812
87.588013 219.914108 2.513276 0.411200
87.588013 219.914108 2.458772 0.391119
87.588013 219.914108 2.404427 0.397223
87.588013 219.914108 2.350222 0.411521
87.588013 219.914108 2.296138 0.440314
87.588013 219.914108 2.242156 0.378988
87.588013 219.914108 2.188258 0.421103
87.588013 219.914108 2.134424 0.436515
87.588013 219.914108 2.080636 0.432380
87.588013 219.914108 2.026875 0.400092
87.588013 219.914108 1.973124 0.392416
87.588013 219.914108 1.919364 0.378302
87.588013 219.914108 1.865576 0.408988
87.588013 219.914108 1.811742 0.370214
87.588013 219.914108 1.757844 0.387198
87.588013 219.914108 1.703862 0.431373
87.588013 219.914108 1.649778 0.399268
87.588013 219.914108 1.595573 0.391882
87.588013 219.914108 1.541228 0.409125
87.588013 219.914108 1.486724 0.405631
87.588013 219.914108 1.432041 0.396628
87.588013 219.914108 1.377160 0.396353
87.588013 219.914108 1.322061 0.407584
87.588013 219.914108 1.266723 0.386313
87.588013 219.914108 1.211125 0.400061
87.588013 219.914108 1.155247 0.418967
87.588013 219.914108 1.099067 0.397421
87.588013 219.914108 1.042564 0.420035
87.588013 219.914108 0.985715 0.408957
87.588013 219.914108 0.928497 0.364065
87.547615 219.914108 3.072124 0.415106
87.547615 219.914108 3.014873 0.397604
87.547615 219.914108 2.957990 0.417395
87.547615 219.914108 2.901454 0.402502
87.547615 219.914108 2.845242 0.401404
87.547615 219.914108 2.789332 0.446845
87.547615 219.914108 2.733702 0.409842
87.547615 219.914108 2.678332 0.436118
87.547615 219.914108 2.623200 0.438270
87.547615 219.914108 2.568288 0.437385
87.547615 219.914108 2.513573 0.373526
87.547615 219.914108 2.459038 0.377646
87.547615 219.914108 2.404661 0.419608
87.547615 219.914108 2.350425 0.424109
87.547615 219.914108 2.296310 0.408576
87.547615 219.914108 2.242296 0.398322
87.547615 219.914108 2.188367 0.365682
87.547615 219.914108 2.134501 0.417792
87.547615 219.914108 2.080683 0.439582
87.547615 219.914108 2.026891 0.389425
87.547615 219.914108 1.973109 0.378332
87.547615 219.914108 1.919317 0.346670
87.547615 219.914108 1.865499 0.413703
87.547615 219.914108 1.811633 0.404913
87.547615 219.914108 1.757703 0.396811
87.547615 219.914108 1.703690 0.438270
87.547615 219.914108 1.649575 0.396170
87.547615 219.914108 1.595339 0.362600
87.547615 219.914108 1.540962 0.402655
87.547615 219.914108 1.486427 0.412345
87.547615 219.914108 1.431712 0.396429
87.547615 219.914108 1.376799 0.396094
87.547615 219.914108 1.321668 0.404532
87.547615 219.914108 1.266298 0.389990
87.547615 219.914108 1.210668 0.369802
87.547615 219.914108 1.154758 0.407843
87.547615 219.914108 1.098546 0.394934
87.547615 219.914108 1.042010 0.418128
87.547615 219.914108 0.985128 0.418875
87.547615 219.914108 0.927877 0.392035
87.507172 219.914108 3.072848 0.390112
87.507172 219.914108 3.015559 0.388113
87.507172 219.914108 2.958638 0.406058
87.507172 219.914108 2.902064 0.401648
87.507172 219.914108 2.845814 0.391073
87.507172 219.914108 2.789865 0.431647
87.507172 219.914108 2.734198 0.407843
87.507172 219.914108 2.678790 0.412345
87.507172 219.914108 2.623622 0.429572
87.507172 219.914108 2.568672 0.425986
87.507172 219.914108 2.513921 0.360204
87.507172 219.914108 2.459348 0.365087
87.507172 219.914108 2.404935 0.341085
87.507172 219.914108 2.350662 0.405463
87.507172 219.914108 2.296510 0.390005
87.507172 219.914108 2.242460 0.419333
87.507172 219.914108 2.188494 0.386587
87.507172 219.914108 2.134592 0.420661
87.507172 219.914108 2.080737 0.408484
87.507172 219.914108 2.026909 0.402640
87.507172 219.914108 1.973091 0.369451
87.507172 219.914108 1.919263 0.397223
87.507172 219.914108 1.865408 0.395834
87.507172 219.914108 1.811506 0.391333
87.507172 219.914108 1.757540 0.439063
87.507172 219.914108 1.703490 0.417868
87.507172 219.914108 1.649338 0.411063
87.507172 219.914108 1.595065 0.400229
87.507172 219.914108 1.540652 0.392172
87.507172 219.914108 1.486079 0.397131
87.507172 219.914108 1.431328 0.389212
87.507172 219.914108 1.376378 0.413535
87.507172 219.914108 1.321209 0.396902
87.507172 219.914108 1.265802 0.409079
87.507172 219.914108 1.210135 0.407980
87.507172 219.914108 1.154186 0.396811
87.507172 219.914108 1.097936 0.378302
87.507172 219.914108 1.041362 0.419608
87.507172 219.914108 0.984441 0.413626
87.507172 219.914108 0.927152 0.389044
87.466667 219.914108 3.073678 0.398611
87.466667 219.914108 3.016343 0.400183
87.466667 219.914108 2.959379 0.407843
87.466667 219.914108 2.902761 0.393622
87.466667 219.914108 2.846467 0.408301
87.466667 219.914108 2.790476 0.407614
87.466667 219.914108 2.734766 0.408255
87.466667 219.914108 2.679315 0.412573
87.466667 219.914108 2.624104 0.413825
87.466667 219.914108 2.569111 0.401404
87.466667 219.914108 2.514318 0.363607
87.466667 219.914108 2.459703 0.329320
87.466667 219.914108 2.405248 0.352941
87.466667 219.914108 2.350933 0.401312
87.466667 219.914108 2.296739 0.368475
87.466667 219.914108 2.242648 0.380484
87.466667 219.914108 2.188640 0.402167
87.466667 219.914108 2.134696 0.435660
87.466667 219.914108 2.080799 0.403632
87.466667 219.914108 2.026930 0.414649
87.466667 219.914108 1.973070 0.361913
87.466667 219.914108 1.919201 0.393393
87.466667 219.914108 1.865304 0.405310
87.466667 219.914108 1.811360 0.396353
87.466667 219.914108 1.757352 0.411521
87.466667 219.914108 1.703261 0.397498
87.466667 219.914108 1.649067 0.417868
87.466667 219.914108 1.594752 0.408530
87.466667 219.914108 1.540297 0.374548
87.466667 219.914108 1.485682 0.398520
87.466667 219.914108 1.430889 0.358495
87.466667 219.914108 1.375896 0.387274
87.466667 219.914108 1.320685 0.396353
87.466667 219.914108 1.265234 0.398764
87.466667 219.914108 1.209524 0.390600
87.466667 219.914108 1.153533 0.407843
87.466667 219.914108 1.097239 0.401968
87.466667 219.914108 1.040621 0.393042
87.466667 219.914108 0.983657 0.416114
87.466667 219.914108 0.926322 0.406378
87.426102 219.914108 3.074612 0.391913
87.426102 219.914108 3.017228 0.403815
87.426102 219.914108 2.960213 0.384985
87.426102 219.914108 2.903546 0.366430
87.426102 219.914108 2.847204 0.391424
87.426102 219.914108 2.791164 0.408942
87.426102 219.914108 2.735405 0.400076
87.426102 219.914108 2.679906 0.402472
87.426102 219.914108 2.624647 0.407294
87.426102 219.914108 2.569607 0.400488
87.426102 219.914108 2.514765 0.386496
87.426102 219.914108 2.460103 0.359884
87.426102 219.914108 2.405601 0.402609
87.426102 219.914108 2.351238 0.382284
87.426102 219.914108 2.296997 0.388067
87.426102 219.914108 2.242859 0.404715
87.426102 219.914108 2.188804 0.396185
87.426102 219.914108 2.134814 0.446159
87.426102 219.914108 2.080870 0.423102
87.426102 219.914108 2.026953 0.389059
87.426102 219.914108 1.973047 0.367834
87.426102 219.914108 1.919130 0.378180
87.426102 219.914108 1.865186 0.415106
87.426102 219.914108 1.811196 0.423346
87.426102 219.914108 1.757141 0.442283
87.426102 219.914108 1.703002 0.418647
87.426102 219.914108 1.648762 0.355428
87.426102 219.914108 1.594399 0.411429
87.426102 219.914108 1.539897 0.406836
87.426102 219.914108 1.485235 0.394400
87.426102 219.914108 1.430393 0.395132
87.426102 219.914108 1.375353 0.372381
87.426102 219.914108 1.320094 0.405310
87.426102 219.914108 1.264595 0.392615
87.426102 219.914108 1.208836 0.391989
87.426102 219.914108 1.152796 0.434836
87.426102 219.914108 1.096454 0.376547
87.426102 219.914108 1.039787 0.413184
87.426102 219.914108 0.982772 0.434043
87.426102 219.914108 0.925388 0.422599
87.385452 219.914108 3.075652 0.398764
87.385452 219.914108 3.018212 0.398230
87.385452 219.914108 2.961143 0.395712
87.385452 219.914108 2.904420 0.397787
87.385452 219.914108 2.848023 0.414466
87.385452 219.914108 2.791929 0.393317
87.385452 219.914108 2.736116 0.361898
87.385452 219.914108 2.680564 0.405447
87.385452 219.914108 2.625251 0.398001
87.385452 219.914108 2.570158 0.377615
87.385452 219.914108 2.515263 0.389822
87.385452 219.914108 2.460548 0.373709
87.385452 219.914108 2.405993 0.387823
87.385452 219.914108 2.351578 0.395010
87.385452 219.914108 2.297285 0.396902
87.385452 219.914108 2.243094 0.410056
87.385452 219.914108 2.188987 0.332662
87.385452 219.914108 2.134944 0.449073
87.385452 219.914108 2.080948 0.450370
87.385452 219.914108 2.026980 0.395712
87.385452 219.914108 1.973020 0.358007
87.385452 219.914108 1.919052 0.399603
87.385452 219.914108 1.865056 0.441337
87.385452 219.914108 1.811013 0.429633
87.385452 219.914108 1.756906 0.435019
87.385452 219.914108 1.702715 0.403525
87.385452 219.914108 1.648422 0.351781
87.385452 219.914108 1.594007 0.393606
87.385452 219.914108 1.539452 0.408301
87.385452 219.914108 1.484737 0.368444
87.385452 219.914108 1.429842 0.408240
87.385452 219.914108 1.374749 0.392233
87.385452 219.914108 1.319436 0.413916
87.385452 219.914108 1.263884 0.419959
87.385452 219.914108 1.208071 0.399100
87.385452 219.914108 1.151977 0.429725
87.385452 219.914108 1.095580 0.366842
87.385452 219.914108 1.038857 0.445380
87.385452 219.914108 0.981788 0.430518
87.385452 219.914108 0.924349 0.433768
87.344727 219.914108 3.076797 0.415137
87.344727 219.914108 3.019296 0.416846
87.344727 219.914108 2.962166 0.397818
87.344727 219.914108 2.905384 0.396139
87.344727 219.914108 2.848927 0.413489
87.344727 219.914108 2.792773 0.397101
87.344727 219.914108 2.736900 0.399115
87.344727 219.914108 2.681289 0.336660
87.344727 219.914108 2.625917 0.380514
87.344727 219.914108 2.570765 0.391485
87.344727 219.914108 2.515812 0.366079
87.344727 219.914108 2.461039 0.374075
87.344727 219.914108 2.406425 0.397284
87.344727 219.914108 2.351953 0.380789
87.344727 219.914108 2.297601 0.389685
87.344727 219.914108 2.243353 0.416403
87.344727 219.914108 2.189188 0.379171
87.344727 219.914108 2.135088 0.422065
87.344727 219.914108 2.081034 0.436179
87.344727 219.914108 2.027008 0.422232
87.344727 219.914108 1.972992 0.399145
87.344727 219.914108 1.918966 0.403326
87.344727 219.914108 1.864912 0.419425
87.344727 219.914108 1.810812 0.422400
87.344727 219.914108 1.756647 0.427878
87.344727 219.914108 1.702399 0.375937
87.344727 219.914108 1.648047 0.395010
87.344727 219.914108 1.593575 0.411429
87.344727 219.914108 1.538961 0.415442
87.344727 219.914108 1.484188 0.379538
87.344727 219.914108 1.429235 0.357168
87.344727 219.914108 1.374083 0.414374
87.344727 219.914108 1.318711 0.431373
87.344727 219.914108 1.263100 0.431373
87.344727 219.914108 1.207227 0.441642
87.344727 219.914108 1.151074 0.433768
87.344727 219.914108 1.094616 0.419608
87.344727 219.914108 1.037834 0.434211
87.344727 219.914108 0.980704 0.442786
87.344727 219.914108 0.923203 0.443809
87.303909 219.914108 3.078049 0.414099
87.303909 219.914108 3.020481 0.400519
87.303909 219.914108 2.963284 0.394369
87.303909 219.914108 2.906436 0.405921
87.303909 219.914108 2.849913 0.399252
87.303909 219.914108 2.793694 0.394354
87.303909 219.914108 2.737757 0.390509
87.303909 219.914108 2.682081 0.418265
87.303909 219.914108 2.626645 0.373892
87.303909 219.914108 2.571429 0.393851
87.303909 219.914108 2.516412 0.378973
87.303909 219.914108 2.461575 0.370596
87.303909 219.914108 2.406898 0.361120
87.303909 219.914108 2.352362 0.363470
87.303909 219.914108 2.297947 0.388693
87.303909 219.914108 2.243636 0.399756
87.303909 219.914108 2.189408 0.403769
87.303909 219.914108 2.135245 0.414832
87.303909 219.914108 2.081128 0.442176
87.303909 219.914108 2.027040 0.390234
87.303909 219.914108 1.972960 0.407614
87.303909 219.914108 1.918872 0.441520
87.303909 219.914108 1.864755 0.431281
87.303909 219.914108 1.810592 0.400381
87.303909 219.914108 1.756364 0.400793
87.303909 219.914108 1.702053 0.362615
87.303909 219.914108 1.647638 0.374441
87.303909 219.914108 1.593102 0.396170
87.303909 219.914108 1.538425 0.381415
87.303909 219.914108 1.483588 0.345998
87.303909 219.914108 1.428571 0.413260
87.303909 219.914108 1.373355 0.403021
87.303909 219.914108 1.317919 0.393057
87.303909 219.914108 1.262243 0.444358
87.303909 219.914108 1.206306 0.432822
87.303909 219.914108 1.150087 0.407843
87.303909 219.914108 1.093564 0.453193
87.303909 219.914108 1.036716 0.414389
87.303909 219.914108 0.979519 0.439261
87.303909 219.914108 0.921951 0.436377
87.262993 219.914108 3.079408 0.394202
87.262993 219.914108 3.021768 0.412604
87.262993 219.914108 2.964499 0.406088
87.262993 219.914108 2.907579 0.407477
87.262993 219.914108 2.850985 0.407004
87.262993 219.914108 2.794695 0.402197
87.262993 219.914108 2.738687 0.398688
87.262993 219.914108 2.682941 0.353353
87.262993 219.914108 2.627435 0.366155
87.262993 219.914108 2.572149 0.404974
87.262993 219.914108 2.517063 0.392020
87.262993 219.914108 2.462157 0.401083
87.262993 219.914108 2.407411 0.387381
87.262993 219.914108 2.352806 0.413916
87.262993 219.914108 2.298323 0.353948
87.262993 219.914108 2.243943 0.380453
87.262993 219.914108 2.189646 0.385977
87.262993 219.914108 2.135415 0.417792
87.262993 219.914108 2.081230 0.409369
87.262993 219.914108 2.027074 0.372778
87.262993 219.914108 1.972926 0.388235
87.262993 219.914108 1.918769 0.414237
87.262993 219.914108 1.864585 0.399115
87.262993 219.914108 1.810354 0.374365
87.262993 219.914108 1.756057 0.388235
87.262993 219.914108 1.701677 0.395850
87.262993 219.914108 1.647194 0.405753
87.262993 219.914108 1.592589 0.403113
87.262993 219.914108 1.537843 0.394385
87.262993 219.914108 1.482937 0.414603
87.262993 219.914108 1.427851 0.429343
87.262993 219.914108 1.372565 0.413733
87.262993 219.914108 1.317059 0.449271
87.262993 219.914108 1.261313 0.394476
87.262993 219.914108 1.205305 0.416800
87.262993 219.914108 1.149015 0.423835
87.262993 219.914108 1.092421 0.466545
87.262993 219.914108 1.035501 0.398016
87.262993 219.914108 0.978232 0.416205
87.262993 219.914108 0.920592 0.439811
87.221970 219.914108 3.080875 0.361578
87.221970 219.914108 3.023156 0.353536
87.221970 219.914108 2.965810 0.351324
87.221970 219.914108 2.908812 0.351461
87.221970 219.914108 2.852141 0.349691
87.221970 219.914108 2.795775 0.344808
87.221970 219.914108 2.739691 0.337072
87.221970 219.914108 2.683869 0.323995
87.221970 219.914108 2.628287 0.335241
87.221970 219.914108 2.572926 0.333791
87.221970 219.914108 2.517765 0.338796
87.221970 219.914108 2.462785 0.327276
87.221970 219.914108 2.407964 0.342885
87.221970 219.914108 2.353285 0.335409
87.221970 219.914108 2.298728 0.300282
87.221970 219.914108 2.244274 0.348348
87.221970 219.914108 2.189904 0.334127
87.221970 219.914108 2.135599 0.347967
87.221970 219.914108 2.081341 0.320806
87.221970 219.914108 2.027111 0.318700
87.221970 219.914108 1.972889 0.298390
87.221970 219.914108 1.918659 0.290364
87.221970 219.914108 1.864401 0.287236
87.221970 219.914108 1.810096 0.294911
87.221970 219.914108 1.755726 0.305150
87.221970 219.914108 1.701272 0.230426
87.221970 219.914108 1.646715 0.266987
87.221970 219.914108 1.592036 0.307042
87.221970 219.914108 1.537215 0.310979
87.221970 219.914108 1.482235 0.317830
87.221970 219.914108 1.427074 0.331563
87.221970 219.914108 1.371713 0.350545
87.221970 219.914108 1.316131 0.333822
87.221970 219.914108 1.260309 0.363577
87.221970 219.914108 1.204225 0.363302
87.221970 219.914108 1.147859 0.378836
87.221970 219.914108 1.091188 0.380438
87.221970 219.914108 1.034190 0.408148
87.221970 219.914108 0.976844 0.377981
87.221970 219.914108 0.919125 0.415930
87.180824 219.914108 3.082450 0.388235
87.180824 219.914108 3.024647 0.356390
87.180824 219.914108 2.967217 0.358923
87.180824 219.914108 2.910137 0.376440
87.180824 219.914108 2.853384 0.388235
87.180824 219.914108 2.796934 0.368521
87.180824 219.914108 2.740769 0.388235
87.180824 219.914108 2.684865 0.376501
87.180824 219.914108 2.629203 0.346105
87.180824 219.914108 2.573761 0.385534
87.180824 219.914108 2.518520 0.388235
87.180824 219.914108 2.463459 0.384863
87.180824 219.914108 2.408559 0.380148
87.180824 219.914108 2.353800 0.404593
87.180824 219.914108 2.299164 0.380575
87.180824 219.914108 2.244630 0.415961
87.180824 219.914108 2.190181 0.416602
87.180824 219.914108 2.135797 0.408026
87.180824 219.914108 2.081460 0.376638
87.180824 219.914108 2.027150 0.413977
87.180824 219.914108 1.972850 0.386206
87.180824 219.914108 1.918540 0.364706
87.180824 219.914108 1.864203 0.417243
87.180824 219.914108 1.809819 0.419608
87.180824 219.914108 1.755370 0.419608
87.180824 219.914108 1.700836 0.450980
87.180824 219.914108 1.646200 0.419608
87.180824 219.914108 1.591441 0.450980
87.180824 219.914108 1.536541 0.413825
87.180824 219.914108 1.481480 0.400565
87.180824 219.914108 1.426239 0.449699
87.180824 219.914108 1.370797 0.414252
87.180824 219.914108 1.315135 0.418051
87.180824 219.914108 1.259231 0.419608
87.180824 219.914108 1.203066 0.383764
87.180824 219.914108 1.146617 0.378302
87.180824 219.914108 1.089863 0.383139
87.180824 219.914108 1.032783 0.417151
87.180824 219.914108 0.975353 0.418051
87.180824 219.914108 0.917550 0.380819
87.139565 219.914108 3.084134 0.373617
87.139565 219.914108 3.026242 0.387457
87.139565 219.914108 2.968722 0.373342
87.139565 219.914108 2.911553 0.395285
87.139565 219.914108 2.854711 0.382605
87.139565 219.914108 2.798175 0.393927
87.139565 219.914108 2.741921 0.373068
87.139565 219.914108 2.685931 0.388235
87.139565 219.914108 2.630182 0.388602
87.139565 219.914108 2.574654 0.360296
87.139565 219.914108 2.519327 0.353094
87.139565 219.914108 2.464180 0.401602
87.139565 219.914108 2.409195 0.396078
87.139565 219.914108 2.354351 0.387961
87.139565 219.914108 2.299629 0.398535
