# This PCD file was generated using the MATLABÂ® pcwrite function
# from Computer Vision System ToolboxÂ®.
# .PCD v.7 - Point Cloud Data file format
VERSION .7
FIELDS x y z intensity
SIZE 4 4 4 4
TYPE F F F F
COUNT 1 1 1 1
WIDTH 1203
HEIGHT 1
VIEWPOINT 0 0 0 1 0 0 0
POINTS 1203
DATA ascii
110.226601 155.686539 2.563041 0.913725
110.138718 155.730774 2.188304 0.913725
110.691170 155.452698 1.815745 0.643290
110.686897 155.454849 1.447077 0.948486
110.689026 155.453781 1.078330 1.000000
110.815552 155.390091 0.715713 0.175250
110.695229 155.450653 0.340075 0.759945
111.065872 155.264084 -0.000033 0.454368
114.891235 153.338562 -0.000031 0.423743
117.698586 151.925461 -0.000029 0.449241
119.847214 150.843933 -0.000028 0.491737
121.545143 149.989258 -0.000028 0.445335
122.921150 149.296631 -0.000027 0.343786
124.059227 148.723785 -0.000026 0.432685
125.016571 148.241898 -0.000006 0.710628
125.833153 147.830856 -0.000005 0.710185
126.538193 147.475967 -0.000005 0.707759
127.153275 147.166367 -0.000005 0.717433
127.694771 146.893799 -0.000005 0.738720
128.175278 146.651932 -0.000004 0.727031
128.604706 146.435776 -0.000004 0.716945
128.990906 146.241379 -0.000004 0.715267
nan nan nan 0.000000
nan nan nan 0.000000
nan nan nan 0.000000
nan nan nan 0.000000
nan nan nan 0.000000
nan nan nan 0.000000
120.810593 150.544830 5.019203 0.859785
120.847176 150.525970 4.784558 0.753552
120.857635 150.520569 4.556458 0.549020
120.810593 150.544830 4.338519 0.883268
120.194427 150.862610 4.200027 0.888518
118.336021 151.821030 4.200028 0.871870
115.984329 153.033844 4.200028 0.899596
112.911667 154.618500 4.200030 0.884428
108.724777 156.777771 4.200031 0.903136
97.840118 162.391266 4.521235 0.729458
97.840118 162.391266 3.960064 0.737163
97.840118 162.391266 3.399565 0.733257
110.897308 155.657349 2.551046 0.961730
97.840134 162.391266 2.279817 0.722683
111.276550 155.461761 1.819131 0.399176
111.240387 155.480423 1.456534 0.788266
111.240379 155.480423 1.094016 0.870588
111.334496 155.431885 0.736042 0.937255
111.333511 155.432388 0.374102 0.758740
111.775917 155.204224 0.047554 0.462959
114.995758 153.543686 -0.000031 0.455604
117.789085 152.103088 -0.000030 0.458717
119.926987 151.000519 -0.000029 0.471031
121.616455 150.129227 -0.000028 0.382971
122.985596 149.423126 -0.000027 0.485588
124.117996 148.839127 -0.000027 0.400641
125.070557 148.347855 -0.000006 0.718883
125.883072 147.928833 -0.000006 0.719127
126.584595 147.567032 -0.000005 0.715633
127.196609 147.251404 -0.000005 0.717220
127.735397 146.973541 -0.000005 0.747158
128.213516 146.726959 -0.000004 0.730266
128.640793 146.506607 -0.000005 0.722240
129.025070 146.308426 -0.000004 0.719753
nan nan nan 0.000000
nan nan nan 0.000000
nan nan nan 0.000000
nan nan nan 0.000000
nan nan nan 0.000000
nan nan nan 0.000000
120.810593 150.732544 5.034715 0.905882
120.851616 150.710876 4.798034 0.734035
120.852676 150.710312 4.570442 0.586435
120.810593 150.732544 4.350533 0.869978
120.274384 151.015778 4.200027 0.885390
118.425476 151.992401 4.200027 0.906447
116.085793 153.228256 4.200029 0.899718
113.028831 154.843002 4.200030 0.864652
108.863358 157.043274 4.200032 0.898817
97.545776 163.021408 4.553819 0.674510
97.840111 162.865936 3.970135 0.717021
97.840118 162.865921 3.406755 0.724971
111.487434 155.657196 2.540771 0.955962
97.840126 162.865921 2.281254 0.717647
111.872795 155.453629 1.822616 0.880705
111.253685 155.780655 1.454037 0.729778
111.260338 155.777145 1.090101 0.610269
111.916801 155.430389 0.759742 0.938231
111.914017 155.431854 0.404467 0.815091
112.344948 155.204239 0.083935 0.481209
115.102280 153.747772 -0.000031 0.411093
117.881332 152.279831 -0.000030 0.462440
120.008316 151.156311 -0.000029 0.427909
121.689133 150.268478 -0.000028 0.409186
123.051285 149.548965 -0.000027 0.367086
124.178001 148.953812 -0.000007 0.720974
125.125587 148.453293 -0.000006 0.723491
125.933945 148.026306 -0.000005 0.730465
126.631882 147.657639 -0.000005 0.725185
127.240768 147.336014 -0.000005 0.729046
127.776810 147.052872 -0.000005 0.744137
128.252472 146.801620 -0.000004 0.728298
128.677582 146.577072 -0.000004 0.734539
129.059891 146.375122 -0.000005 0.718837
nan nan nan 0.000000
nan nan nan 0.000000
nan nan nan 0.000000
nan nan nan 0.000000
nan nan nan 0.000000
nan nan nan 0.000000
120.810593 150.922211 5.050681 0.905882
120.856262 150.897522 4.811883 0.714519
120.847672 150.902161 4.584830 0.690562
120.810593 150.922211 4.362900 0.845594
120.355835 151.168167 4.200027 0.903426
118.516602 152.162903 4.200028 0.902495
116.189178 153.421661 4.200029 0.902647
113.148209 155.066330 4.200031 0.891722
109.004517 157.307404 4.200032 0.894041
103.022980 160.542450 4.200033 0.869123
97.840118 163.345551 3.980500 0.717128
97.840118 163.345551 3.414156 0.722454
112.002525 155.685959 2.532116 0.782147
97.840118 163.345551 2.282735 0.732326
111.872787 155.756134 1.821682 0.777264
97.840134 163.345535 1.151700 0.688090
97.840134 163.345535 0.585843 0.733898
112.286835 155.532196 0.772503 0.919661
112.287331 155.531921 0.421101 0.919661
112.664078 155.328171 0.100020 0.464134
115.210785 153.950806 -0.000031 0.417914
117.975311 152.455643 -0.000030 0.436515
120.091156 151.311310 -0.000029 0.436072
121.763184 150.407013 -0.000028 0.385763
123.118202 149.674164 -0.000027 0.452781
124.239029 149.067978 -0.000007 0.721004
125.181656 148.558167 -0.000006 0.713069
125.985779 148.123276 -0.000005 0.741878
126.680061 147.747772 -0.000005 0.734844
127.285759 147.420181 -0.000005 0.735317
127.818993 147.131790 -0.000004 0.732235
128.292175 146.875885 -0.000004 0.726116
128.715057 146.647171 -0.000005 0.746319
129.095352 146.441483 -0.000004 0.719402
nan nan nan 0.000000
nan nan nan 0.000000
nan nan nan 0.000000
nan nan nan 0.000000
nan nan nan 0.000000
nan nan nan 0.000000
120.810593 151.113907 5.067115 0.905882
120.861168 151.085907 4.826105 0.695003
120.846344 151.094116 4.598983 0.789639
120.810593 151.113907 4.375628 0.822065
120.438782 151.319748 4.200027 0.905745
118.609406 152.332474 4.200028 0.764416
116.294441 153.614029 4.200029 0.897856
113.269775 155.288483 4.200030 0.847211
109.148285 157.570129 4.200031 0.853880
103.198784 160.863739 4.200034 0.841810
97.840118 163.830292 3.991168 0.723766
97.840118 163.830292 3.421774 0.727153
97.840111 163.830292 2.852868 0.725017
97.840118 163.830292 2.284257 0.705898
97.840118 163.830292 1.715742 0.722988
97.840126 163.830276 1.147130 0.706325
97.840126 163.830276 0.578225 0.733761
112.287994 155.831985 0.765952 0.920760
112.288223 155.831863 0.412656 0.917586
112.788216 155.555069 0.100019 0.479286
115.321304 154.152756 -0.000031 0.430076
118.071007 152.630539 -0.000030 0.419455
120.175514 151.465485 -0.000029 0.445212
121.838585 150.544815 -0.000028 0.464729
123.186348 149.798706 -0.000028 0.467384
124.301170 149.181534 -0.000007 0.719280
125.238739 148.662506 -0.000006 0.711772
126.038559 148.219727 -0.000005 0.746197
126.729118 147.837433 -0.000005 0.741878
127.331573 147.503922 -0.000005 0.735470
127.861954 147.210297 -0.000005 0.717708
128.332596 146.949753 -0.000004 0.721889
128.753204 146.716904 -0.000005 0.747677
129.131485 146.507492 -0.000004 0.718502
nan nan nan 0.000000
nan nan nan 0.000000
nan nan nan 0.000000
nan nan nan 0.000000
nan nan nan 0.000000
nan nan nan 0.000000
120.810593 151.307709 5.084024 0.905882
120.865944 151.276337 4.840779 0.667674
120.846115 151.287582 4.613351 0.847272
120.854500 151.282837 4.381745 0.841337
120.523216 151.470505 4.200026 0.806806
118.703865 152.501144 4.200027 0.895720
116.401596 153.805359 4.200028 0.790158
113.393509 155.509430 4.200030 0.898100
109.294632 157.831421 4.200031 0.900191
103.377762 161.183289 4.200032 0.905882
97.840118 164.320313 4.002146 0.715633
97.840111 164.320328 3.429613 0.742351
97.840118 164.320328 2.857571 0.746120
97.840118 164.320328 2.285824 0.709041
97.840118 164.320328 1.714175 0.708522
97.840118 164.320313 1.142428 0.725216
97.840118 164.320313 0.570387 0.726604
97.840134 164.320313 -0.002145 0.709651
106.328514 159.511703 -0.000035 0.451987
112.914597 155.780731 0.100018 0.473579
115.433784 154.353622 -0.000031 0.461204
118.168419 152.804474 -0.000030 0.454231
120.261383 151.618820 -0.000029 0.506325
121.915337 150.681870 -0.000029 0.469825
123.255707 149.922562 -0.000028 0.437766
124.364418 149.294479 -0.000006 0.719585
125.296852 148.766266 -0.000006 0.722423
126.092285 148.315659 -0.000006 0.746761
126.779060 147.926605 -0.000005 0.747326
127.378212 147.587189 -0.000005 0.728634
127.905678 147.288376 -0.000004 0.721508
128.373749 147.023224 -0.000004 0.724239
128.792053 146.786255 -0.000005 0.742672
129.168243 146.573151 -0.000004 0.729900
nan nan nan 0.000000
nan nan nan 0.000000
nan nan nan 0.000000
nan nan nan 0.000000
nan nan nan 0.000000
nan nan nan 0.000000
120.810593 151.503662 5.101422 0.905882
120.871124 151.468582 4.855816 0.654902
120.845909 151.483185 4.628130 0.896315
120.938721 151.429413 4.381718 0.843442
120.609116 151.620422 4.200027 0.897292
118.799965 152.668884 4.200028 0.894118
116.510620 153.995636 4.200029 0.896498
113.519409 155.729156 4.200030 0.850248
109.443520 158.091263 4.200031 0.801862
103.559845 161.501068 4.200032 0.900542
97.840111 164.815842 4.013440 0.711666
97.840118 164.815842 3.437678 0.730495
97.840111 164.815842 2.862408 0.729000
97.840111 164.815842 2.287436 0.721523
97.840111 164.815842 1.712563 0.713848
97.840118 164.815842 1.137590 0.687617
97.840118 164.815842 0.562322 0.724987
98.093567 164.668961 -0.000010 0.444785
106.494034 159.800598 -0.000035 0.451713
113.043167 156.005157 0.100017 0.465492
115.548248 154.553375 -0.000031 0.427100
118.267525 152.977448 -0.000031 0.418479
120.348755 151.771301 -0.000030 0.416724
121.993431 150.818161 -0.000029 0.487282
123.326286 150.045731 -0.000028 0.377829
124.428772 149.406799 -0.000007 0.715831
125.355980 148.869446 -0.000006 0.720714
126.146950 148.411057 -0.000005 0.745663
126.829872 148.015274 -0.000005 0.752880
127.425667 147.669998 -0.000005 0.718502
127.950172 147.366028 -0.000005 0.724895
128.415619 147.096283 -0.000004 0.727749
128.831573 146.855225 -0.000005 0.733989
129.205658 146.638428 -0.000004 0.738872
nan nan nan 0.000000
nan nan nan 0.000000
nan nan nan 0.000000
nan nan nan 0.000000
nan nan nan 0.000000
nan nan nan 0.000000
120.810585 151.701859 5.119320 0.862409
120.876762 151.662643 4.871215 0.654902
120.845749 151.681030 4.643325 0.937255
120.916351 151.639175 4.399059 0.691752
120.696487 151.769501 4.200027 0.901625
118.897720 152.835663 4.200027 0.756848
116.621506 154.184845 4.200029 0.830030
113.647461 155.947632 4.200030 0.904295
109.594971 158.349640 4.200031 0.892851
103.745010 161.817047 4.200033 0.865187
97.840111 165.317032 4.025060 0.694301
97.840118 165.317017 3.445974 0.732631
97.840118 165.317032 2.867386 0.702892
97.840118 165.317032 2.289096 0.713283
106.317070 160.292526 1.775400 0.074510
106.317070 160.292526 1.326123 0.586725
106.317062 160.292526 0.876617 0.434119
106.317070 160.292526 0.426724 0.050980
106.662514 160.087769 -0.000027 0.507927
113.173958 156.228287 0.100017 0.487968
115.664658 154.751984 -0.000031 0.468528
118.368332 153.149445 -0.000031 0.418692
120.437630 151.922928 -0.000029 0.414649
122.072868 150.953674 -0.000029 0.453834
123.398064 150.168198 -0.000028 0.494209
124.494232 149.518478 -0.000006 0.717113
125.416115 148.972061 -0.000006 0.712963
126.202545 148.505920 -0.000006 0.738781
126.881554 148.103455 -0.000005 0.758129
127.473923 147.752335 -0.000005 0.728481
127.995422 147.443237 -0.000004 0.729717
128.458191 147.168945 -0.000005 0.730816
128.871765 146.923813 -0.000005 0.727871
129.243698 146.703354 -0.000004 0.743511
77.827850 177.952896 19.700384 0.383139
77.827866 177.952896 18.755182 0.391699
77.827843 177.952911 17.816082 0.399771
77.827850 177.952911 16.882692 0.383368
77.749512 178.000381 15.973495 0.237705
77.827873 177.952881 15.031586 0.403326
120.810585 151.902390 5.137729 0.813367
120.884918 151.857330 4.886585 0.655177
120.845657 151.881134 4.658942 0.937255
120.915871 151.838577 4.413295 0.698283
120.810593 151.902390 4.196332 0.807843
118.997116 153.001480 4.200027 0.894652
116.734253 154.372925 4.200029 0.899123
113.777641 156.164841 4.200031 0.845090
109.748924 158.606522 4.200031 0.836500
106.707901 160.449585 4.008701 0.913725
106.707901 160.449585 3.561608 0.937255
97.840118 165.824081 3.454508 0.729091
97.840118 165.824081 2.872504 0.724239
97.840118 165.824081 2.290802 0.732876
106.601303 160.514191 1.776250 0.086275
106.601303 160.514191 1.328674 0.086137
106.601303 160.514191 0.880867 0.083604
106.601303 160.514191 0.432677 0.079469
106.833694 160.373352 -0.000027 0.504677
112.120522 157.169159 -0.000033 0.426596
115.783005 154.949448 -0.000032 0.443427
118.470825 153.320450 -0.000031 0.423072
120.527977 152.073669 -0.000029 0.432197
122.153625 151.088409 -0.000028 0.379324
123.471046 150.289963 -0.000029 0.449592
124.560783 149.629517 -0.000007 0.720424
125.477249 149.074066 -0.000006 0.712261
126.259071 148.600220 -0.000005 0.726848
126.934090 148.191116 -0.000005 0.753506
127.522995 147.834198 -0.000005 0.739544
128.041428 147.519989 -0.000005 0.723842
128.501480 147.241165 -0.000005 0.734295
128.912628 146.991989 -0.000005 0.726955
129.282379 146.767883 -0.000005 0.741878
79.092239 177.952896 19.419062 0.402213
78.963234 178.032822 18.526373 0.678431
79.092239 177.952896 17.564709 0.397436
79.092232 177.952896 16.646152 0.413840
78.963211 178.032837 15.764087 0.678431
79.092255 177.952896 14.824468 0.417609
120.810585 152.105316 5.156664 0.816907
120.898636 152.050751 4.901340 0.662898
120.845993 152.083374 4.674927 0.924498
120.918221 152.038620 4.427474 0.737011
120.810593 152.105301 4.209586 0.855100
119.098122 153.166306 4.200027 0.895674
116.848839 154.559906 4.200028 0.901625
113.909966 156.380753 4.200030 0.903120
109.905411 158.861877 4.200032 0.846937
107.342804 160.449585 3.976777 0.937255
107.342789 160.449600 3.536790 0.937255
107.182610 160.548843 3.103500 0.998550
107.182602 160.548843 2.661948 0.837842
106.975777 160.676987 2.222216 0.094118
106.975777 160.676987 1.777783 0.094118
106.975777 160.676987 1.333273 0.094118
106.975777 160.676987 0.888535 0.094118
106.975777 160.677002 0.443415 0.094118
107.008354 160.656799 0.000021 0.498497
112.262772 157.401306 -0.000033 0.445594
115.903290 155.145737 -0.000032 0.440787
118.574982 153.490433 -0.000031 0.448386
120.619804 152.223511 -0.000029 0.444602
122.235695 151.222351 -0.000029 0.335439
123.545219 150.411011 -0.000028 0.488304
124.628418 149.739883 -0.000006 0.715801
125.539398 149.175461 -0.000006 0.719905
126.316521 148.693985 -0.000005 0.728283
126.987495 148.278259 -0.000005 0.747295
127.572861 147.915588 -0.000004 0.753292
128.088196 147.596298 -0.000004 0.712016
128.545486 147.312973 -0.000005 0.738613
128.954163 147.059769 -0.000005 0.735576
129.321701 146.832047 -0.000004 0.738491
80.317177 177.952896 19.148170 0.404715
80.190964 178.032837 18.269365 0.678431
80.317169 177.952911 17.322657 0.434913
80.317169 177.952911 16.418385 0.405478
80.190933 178.032837 15.550037 0.678431
80.317192 177.952896 14.625030 0.396292
120.810585 152.310715 5.176136 0.849607
120.909203 152.248260 4.917171 0.666758
120.845917 152.288345 4.691442 0.899229
120.917824 152.242813 4.442513 0.684047
120.810593 152.310715 4.223216 0.880354
119.200737 153.330139 4.200027 0.766522
116.965240 154.745758 4.200029 0.791867
114.044403 156.595352 4.200029 0.837018
110.064392 159.115677 4.200031 0.893019
107.957901 160.449585 3.946034 0.925490
107.957893 160.449600 3.512891 0.937255
107.801163 160.548843 3.086339 0.995895
107.801170 160.548843 2.651653 0.839216
107.598801 160.676987 2.218761 0.094118
107.598801 160.676987 1.781239 0.094118
107.598801 160.676987 1.343642 0.094118
107.598801 160.676987 0.905820 0.094118
107.598801 160.676987 0.467622 0.094118
107.598778 160.677002 0.028897 0.251194
112.407295 157.632050 -0.000034 0.478065
116.241219 155.204239 0.021746 0.481376
118.680817 153.659378 -0.000031 0.433783
120.713089 152.372452 -0.000030 0.466850
122.319077 151.355469 -0.000029 0.469230
123.620575 150.531311 -0.000028 0.455695
124.697136 149.849579 -0.000006 0.708263
125.602524 149.276245 -0.000006 0.721080
126.374893 148.787155 -0.000005 0.736004
127.041748 148.364868 -0.000005 0.744930
127.623528 147.996460 -0.000005 0.744549
128.135696 147.672134 -0.000004 0.693904
128.590179 147.384338 -0.000005 0.744152
128.996353 147.127136 -0.000004 0.736187
129.361649 146.895813 -0.000004 0.737896
81.504715 177.952896 18.887178 0.406729
81.381165 178.032837 18.021757 0.678431
81.504700 177.952911 17.089447 0.449577
81.381157 178.032837 16.231228 0.513024
81.504730 177.952881 15.313531 0.375753
81.504715 177.952896 14.432882 0.401160
120.810585 152.518692 5.196160 0.888869
120.918625 152.448776 4.933710 0.654902
120.846008 152.495773 4.708392 0.874235
120.905579 152.457214 4.459929 0.628443
120.810593 152.518692 4.237232 0.905119
119.304962 153.492950 4.200027 0.901244
117.083466 154.930450 4.200029 0.895949
114.180923 156.808640 4.200030 0.901213
110.225853 159.367905 4.200031 0.799283
108.554222 160.449585 3.916416 0.928801
108.554207 160.449600 3.489865 0.937255
108.400833 160.548843 3.069804 1.000000
108.400833 160.548843 2.641735 0.830213
108.156494 160.706955 2.215793 0.094118
108.156494 160.706955 1.784207 0.094118
108.156487 160.706955 1.352548 0.094118
108.156487 160.706955 0.920668 0.094118
108.156487 160.706955 0.488416 0.094118
108.156471 160.706970 0.055644 0.223529
112.554085 157.861343 -0.000033 0.456809
116.660355 155.204239 0.051854 0.494118
118.788300 153.827286 -0.000031 0.427314
120.807846 152.520462 -0.000029 0.478569
122.403763 151.487762 -0.000029 0.466941
123.697113 150.650864 -0.000028 0.454322
124.766930 149.958603 -0.000006 0.712902
125.666641 149.376419 -0.000005 0.723064
126.434174 148.879761 -0.000005 0.729030
127.096848 148.450943 -0.000005 0.741863
127.674988 148.076843 -0.000005 0.742214
128.183945 147.747513 -0.000004 0.691432
128.635590 147.455261 -0.000005 0.752209
129.039215 147.194077 -0.000004 0.729961
129.402206 146.959183 -0.000004 0.740078
82.535843 178.032837 18.673414 0.516091
82.656738 177.952911 17.747261 0.397772
82.656746 177.952911 16.864639 0.401373
82.535828 178.032837 16.019209 0.678431
82.656754 177.952896 15.115187 0.401663
82.656761 177.952896 14.247655 0.391531
82.535828 178.032837 13.410362 0.678431
120.916504 152.659302 4.953029 0.654200
120.846306 152.705704 4.725786 0.854063
120.892799 152.674973 4.477896 0.592645
120.810585 152.729324 4.251644 0.905882
119.410782 153.654739 4.200027 0.897398
117.203514 155.113968 4.200029 0.849256
114.319542 157.020569 4.200030 0.826917
110.389801 159.618530 4.200030 0.897795
109.132721 160.449585 3.887864 0.949020
109.132706 160.449600 3.467669 0.937255
108.982590 160.548843 3.053866 0.996933
108.982582 160.548843 2.632175 0.866209
108.743385 160.706970 2.212578 0.094118
108.743385 160.706970 1.787422 0.094118
108.743378 160.706985 1.362193 0.094118
108.743385 160.706970 0.936746 0.094118
108.743393 160.706970 0.510935 0.094118
108.743385 160.706970 0.084611 0.223529
112.703110 158.089203 -0.000034 0.423285
117.066971 155.204239 0.080878 0.477501
118.897423 153.994125 -0.000031 0.417517
120.904037 152.667542 -0.000030 0.416083
122.489746 151.619232 -0.000029 0.446510
123.774811 150.769669 -0.000029 0.393561
124.837784 150.066940 -0.000006 0.721325
125.731743 149.475937 -0.000006 0.726741
126.494354 148.971771 -0.000005 0.741344
127.152794 148.536484 -0.000005 0.743847
127.727226 148.156723 -0.000005 0.745693
128.232925 147.822403 -0.000005 0.697337
128.681686 147.525726 -0.000005 0.756985
129.082718 147.260605 -0.000005 0.710796
129.443405 147.022156 -0.000005 0.739223
83.656700 178.032837 18.430220 0.678431
83.775070 177.952911 17.517567 0.418662
83.775070 177.952911 16.647825 0.409659
83.656693 178.032837 15.814723 0.678431
83.775093 177.952896 14.923888 0.411734
83.775085 177.952896 14.069012 0.408499
83.656693 178.032852 13.243936 0.678431
120.917320 152.870636 4.972301 0.663844
120.845764 152.918961 4.743826 0.815320
120.879341 152.896286 4.496449 0.565682
120.810593 152.942719 4.266463 0.905882
119.518188 153.815475 4.200027 0.782147
117.325348 155.296310 4.200028 0.897520
114.460236 157.231125 4.200030 0.898375
110.556160 159.867554 4.200031 0.882612
109.694275 160.449585 3.860328 0.937255
109.694267 160.449600 3.446261 0.937255
109.547310 160.548843 3.038495 0.986557
109.547302 160.548843 2.622954 0.857603
109.357559 160.676971 2.209126 0.094118
109.357559 160.676971 1.790873 0.094118
109.357559 160.676971 1.372549 0.094118
109.357559 160.676971 0.954010 0.094118
109.357559 160.676971 0.535111 0.094118
110.476059 159.921661 0.195303 0.895262
112.854370 158.315567 -0.000033 0.454246
117.375557 155.262405 0.100006 0.487114
119.008186 154.159882 -0.000031 0.444907
121.001678 152.813675 -0.000030 0.507927
122.577026 151.749832 -0.000029 0.450690
123.853683 150.887711 -0.000028 0.456733
124.909706 150.174576 -0.000006 0.734569
125.797813 149.574829 -0.000006 0.724727
126.555443 149.063202 -0.000005 0.754864
127.209572 148.621460 -0.000005 0.750118
127.780251 148.236084 -0.000005 0.743267
128.282639 147.896820 -0.000005 0.719646
128.728470 147.595749 -0.000005 0.760922
129.126892 147.326691 -0.000004 0.694881
129.485199 147.084717 -0.000004 0.736538
84.790565 178.001724 18.181252 0.247608
84.861343 177.952911 17.295937 0.385580
84.861343 177.952911 16.438618 0.396490
84.790550 178.001740 15.605390 0.250553
84.861359 177.952896 14.739302 0.399603
84.861359 177.952896 13.896635 0.396628
84.790558 178.001724 13.073554 0.251896
120.810593 153.158951 5.013689 0.859785
120.846390 153.134262 4.762156 0.794522
120.872681 153.116135 4.514352 0.549020
120.810593 153.158951 4.281700 0.905882
119.627159 153.975159 4.200027 0.895033
117.448959 155.477448 4.200029 0.897902
114.602989 157.440292 4.200029 0.898299
110.724998 160.114914 4.200031 0.900160
110.239746 160.449585 3.833759 0.937255
110.239738 160.449600 3.425605 0.937255
110.095856 160.548828 3.023661 0.992020
110.095848 160.548843 2.614056 0.897246
110.026039 160.596985 2.205217 0.362127
110.026039 160.596985 1.794782 0.362127
110.026039 160.596985 1.384278 0.223529
110.026047 160.596985 0.973562 0.223529
110.026047 160.596985 0.562494 0.223529
110.944641 159.963425 0.216739 0.633234
113.007851 158.540451 -0.000033 0.470680
117.498878 155.443008 0.100010 0.476814
119.120560 154.324554 -0.000031 0.413153
121.100746 152.958832 -0.000030 0.481636
122.665565 151.879578 -0.000029 0.445640
123.933701 151.004959 -0.000029 0.457542
124.982674 150.281494 -0.000006 0.737484
125.864853 149.673065 -0.000006 0.724681
126.617424 149.154022 -0.000005 0.758785
127.267189 148.705872 -0.000005 0.743236
127.834053 148.314911 -0.000005 0.741268
128.333084 147.970734 -0.000005 0.738720
128.775940 147.665314 -0.000005 0.752453
129.171692 147.392349 -0.000004 0.677943
129.527618 147.146881 -0.000004 0.733364
85.917122 177.952911 17.932791 0.395697
85.917122 177.952911 17.081984 0.390005
85.854630 177.996918 16.254480 0.465751
85.917130 177.952896 15.396473 0.403906
85.917137 177.952896 14.561109 0.413214
85.803619 178.032837 13.756904 0.678431
85.917137 177.952896 12.903517 0.375204
120.810593 153.378128 5.034381 0.905882
120.846558 153.352798 4.781089 0.753552
120.865967 153.339127 4.532751 0.549020
120.810585 153.378143 4.297367 0.905882
119.737701 154.133743 4.200027 0.901350
117.574356 155.657349 4.200028 0.784253
114.747787 157.648041 4.200030 0.832700
110.896240 160.360611 4.200031 0.824018
110.769890 160.449600 3.808109 0.937255
110.769882 160.449600 3.405665 0.937255
110.628983 160.548828 3.009343 0.984619
110.628983 160.548828 2.605467 0.912657
110.489639 160.646973 2.202914 0.094118
110.489639 160.646973 1.797085 0.094118
110.489647 160.646973 1.391185 0.094118
110.532181 160.617004 0.986781 0.353780
110.532181 160.617004 0.581006 0.223529
110.947021 160.324844 0.204667 0.626505
113.163521 158.763809 -0.000034 0.417563
117.789200 155.506042 0.117251 0.419608
119.234550 154.488113 -0.000031 0.428992
121.201233 153.103012 -0.000030 0.379141
122.755386 152.008453 -0.000030 0.481407
124.014870 151.121429 -0.000029 0.417868
125.056686 150.387695 -0.000006 0.741833
125.932861 149.770615 -0.000005 0.731838
126.680290 149.244217 -0.000005 0.755657
127.325623 148.789719 -0.000005 0.720226
127.888626 148.393219 -0.000004 0.740307
128.384262 148.044144 -0.000005 0.745800
128.824081 147.734390 -0.000004 0.746044
129.217148 147.457565 -0.000004 0.678767
129.570648 147.208603 -0.000004 0.729503
86.943863 177.952911 17.714500 0.393469
86.943863 177.952911 16.875347 0.383413
86.832672 178.032867 16.073534 0.678431
86.943893 177.952896 15.212927 0.389654
86.943878 177.952896 14.389010 0.413596
86.832687 178.032852 13.595826 0.678431
86.943893 177.952896 12.754128 0.410666
120.810585 153.600372 5.055656 0.905882
120.851959 153.570618 4.799579 0.734035
120.859612 153.565125 4.551592 0.549020
120.810585 153.600372 4.313474 0.896651
119.849785 154.291260 4.200027 0.780606
117.959251 155.650681 4.168761 0.733364
117.959251 155.650681 3.878084 0.807797
117.959251 155.650681 3.588056 0.826154
117.959251 155.650681 3.298575 0.807797
117.959251 155.650681 3.009541 0.799435
117.959251 155.650681 2.720853 0.807797
117.959251 155.650681 2.432413 0.804669
117.959251 155.650681 2.144121 0.808850
117.959251 155.650681 1.855878 0.819699
117.959251 155.650681 1.567586 0.828183
117.959259 155.650681 1.279146 0.839170
117.959251 155.650681 0.990459 0.839261
117.959251 155.650681 0.701424 0.870512
117.959251 155.650681 0.411944 0.704585
118.078339 155.565048 0.134425 0.388235
119.350143 154.650543 -0.000031 0.475135
121.303131 153.246201 -0.000030 0.513054
122.846458 152.136444 -0.000029 0.415137
124.097183 151.237091 -0.000029 0.480751
125.131744 150.493164 -0.000006 0.742657
126.001816 149.867523 -0.000005 0.726589
126.744041 149.333801 -0.000005 0.743343
127.384888 148.873001 -0.000005 0.713298
127.943970 148.470978 -0.000004 0.726635
128.436157 148.117065 -0.000005 0.743084
128.872910 147.802994 -0.000004 0.742214
129.263245 147.522324 -0.000004 0.699748
129.614273 147.269913 -0.000004 0.729122
87.942955 177.952911 17.503576 0.388571
87.942963 177.952911 16.675688 0.422187
87.896515 177.987000 15.866568 0.237919
87.942978 177.952896 15.035583 0.406653
87.942978 177.952896 14.222723 0.377050
87.896515 177.987000 13.425297 0.239994
87.942978 177.952896 12.609783 0.408743
120.810585 153.825775 5.077529 0.905882
120.858749 153.790421 4.818341 0.695003
120.852539 153.794983 4.571071 0.586435
120.810593 153.825775 4.330034 0.883268
119.963417 154.447647 4.200027 0.905516
117.830406 156.013428 4.200028 0.896651
115.043457 158.059250 4.200030 0.846754
111.245911 160.846909 4.200031 0.868879
111.787170 160.449585 3.759400 0.937255
111.787155 160.449600 3.367797 0.937255
111.651978 160.548828 2.982152 0.982879
111.651978 160.548828 2.589156 0.932937
111.518288 160.646973 2.197448 0.094118
111.518288 160.646973 1.802551 0.094118
111.518288 160.646973 1.407586 0.094118
111.586372 160.596985 1.015183 0.264393
111.559097 160.617004 0.619233 0.223529
111.559105 160.617004 0.223916 0.223529
113.481407 159.205902 -0.000034 0.479530
118.078323 155.831436 0.121070 0.421607
119.467331 154.811813 -0.000030 0.465400
121.406425 153.388382 -0.000030 0.444709
122.938797 152.263519 -0.000029 0.507866
124.180748 151.351837 -0.000007 0.750393
125.207832 150.597885 -0.000006 0.727398
126.071716 149.963730 -0.000005 0.730709
126.808670 149.422760 -0.000005 0.714061
127.444962 148.955673 -0.000005 0.716716
128.000061 148.548187 -0.000005 0.711635
128.488754 148.189468 -0.000005 0.739773
128.922409 147.871124 -0.000005 0.736538
129.309952 147.586639 -0.000004 0.723064
129.658508 147.330780 -0.000004 0.734524
88.915665 177.952911 17.299702 0.408743
88.915665 177.952911 16.482698 0.438727
88.808960 178.032867 15.702053 0.678431
88.915680 177.952896 14.864161 0.414923
88.915680 177.952896 14.061992 0.403906
88.808960 178.032852 13.289743 0.678431
88.915680 177.952896 12.470262 0.412619
120.810593 154.054443 5.100019 0.905882
120.865311 154.013428 4.837693 0.675700
120.846603 154.027451 4.590885 0.690562
120.810585 154.054443 4.347062 0.869978
120.078575 154.602921 4.200027 0.902342
117.961029 156.189575 4.200028 0.834348
115.194313 158.262650 4.200030 0.900191
111.424316 161.087463 4.200031 0.902510
112.275604 160.449585 3.736262 0.937255
112.275604 160.449600 3.349810 0.937255
112.143158 160.548828 2.969236 0.992157
112.143158 160.548828 2.581409 0.947738
112.012192 160.646973 2.194852 0.094118
112.012192 160.646973 1.805148 0.094118
112.012192 160.646973 1.415377 0.094118
112.078896 160.596985 1.028134 0.223529
112.052177 160.617004 0.637391 0.223529
112.052177 160.617004 0.247272 0.223529
113.643990 159.424286 0.000002 0.570565
118.009743 156.153076 0.100030 0.470253
119.586075 154.971954 -0.000031 0.475776
121.511116 153.529541 -0.000030 0.454063
123.032364 152.389679 -0.000029 0.440513
124.265312 151.465851 -0.000007 0.759441
125.284943 150.701859 -0.000006 0.704067
126.142563 150.059250 -0.000005 0.739834
126.874168 149.511078 -0.000005 0.693721
127.505844 149.037766 -0.000005 0.717998
128.056915 148.624847 -0.000005 0.705287
128.542053 148.261337 -0.000005 0.743725
128.972565 147.938766 -0.000005 0.739422
129.357315 147.650482 -0.000005 0.746868
129.703323 147.391220 -0.000004 0.746059
89.863213 177.952911 17.102554 0.409857
89.863220 177.952911 16.296078 0.429282
89.758659 178.032867 15.525493 0.678431
89.863235 177.952896 14.698399 0.411521
89.863228 177.952896 13.906564 0.401984
89.758667 178.032852 13.144266 0.678431
89.863228 177.952896 12.335347 0.398932
120.810585 154.286499 5.123144 0.862409
120.871933 154.239578 4.857596 0.654902
120.846512 154.259018 4.610228 0.847272
120.810585 154.286499 4.364570 0.845594
120.195251 154.757065 4.200027 0.838010
118.093399 156.364410 4.200028 0.905226
115.347153 158.464554 4.200030 0.808957
111.605072 161.326233 4.200031 0.829602
112.751419 160.449585 3.713890 0.937255
112.751404 160.449600 3.332416 0.937255
112.621651 160.548828 2.956748 0.992157
112.621651 160.548828 2.573917 0.949310
112.493317 160.646973 2.192341 0.094118
112.493317 160.646973 1.807658 0.094118
112.493317 160.646973 1.422910 0.094118
112.558678 160.596985 1.040657 0.223529
112.532501 160.617004 0.654949 0.223529
112.532501 160.617004 0.269857 0.223529
113.808334 159.641342 0.000004 0.484627
117.209824 157.040115 -0.000032 0.405249
119.706406 155.130890 -0.000031 0.407675
121.617188 153.669662 -0.000030 0.375280
123.127174 152.514938 -0.000029 0.451011
124.350990 151.579041 -0.000006 0.728542
125.363075 150.805069 -0.000006 0.709743
126.214340 150.154083 -0.000006 0.739620
126.940529 149.598740 -0.000005 0.697871
127.567528 149.119263 -0.000005 0.723949
128.114517 148.700943 -0.000005 0.714046
128.596069 148.332687 -0.000005 0.745693
129.023392 148.005905 -0.000005 0.741650
129.405289 147.713867 -0.000004 0.761868
129.748734 147.451218 -0.000005 0.760266
90.786758 177.952911 16.911839 0.405127
90.684311 178.032852 16.147646 0.678431
90.786774 177.952896 15.324384 0.402380
90.786766 177.952896 14.538045 0.364874
90.684311 178.032852 13.782948 0.678431
90.786774 177.952881 12.978567 0.391913
90.786774 177.952881 12.204831 0.402411
120.810585 154.522064 5.146922 0.784558
120.880386 154.467590 4.877728 0.655177
120.845703 154.494659 4.630243 0.896315
120.815796 154.518005 4.381746 0.843565
120.313438 154.910049 4.200027 0.896422
118.227455 156.537964 4.200028 0.837552
115.501968 158.664963 4.200030 0.902556
111.788162 161.563232 4.200031 0.901808
113.215164 160.449600 3.692246 0.937255
113.215164 160.449600 3.315591 0.937255
113.088013 160.548828 2.944665 0.992157
113.088005 160.548828 2.566669 0.956863
112.962257 160.646973 2.189912 0.094118
112.962257 160.646973 1.810087 0.094118
112.962265 160.646957 1.430198 0.094118
113.026306 160.596985 1.052772 0.223529
113.000656 160.617004 0.671934 0.223529
113.000656 160.617004 0.291705 0.223529
113.974785 159.856781 0.000005 0.479301
117.350571 157.222290 -0.000032 0.478920
119.828285 155.288666 -0.000031 0.468071
121.724632 153.808746 -0.000030 0.406409
123.223206 152.639236 -0.000029 0.515114
124.437775 151.691376 -0.000007 0.708034
125.442215 150.907501 -0.000006 0.728145
126.287048 150.248184 -0.000005 0.731579
127.007751 149.685745 -0.000005 0.705989
127.630005 149.200134 -0.000005 0.731441
128.172867 148.776474 -0.000005 0.725872
128.650787 148.403519 -0.000005 0.744396
129.074875 148.072540 -0.000005 0.740093
129.453888 147.776764 -0.000005 0.754025
129.794739 147.510757 -0.000004 0.765164
91.687347 177.952896 16.727280 0.428565
91.649055 177.983398 15.952934 0.256092
91.687363 177.952881 15.159474 0.399588
91.687355 177.952896 14.382866 0.446525
91.649048 177.983398 13.620782 0.258549
91.687363 177.952881 12.842690 0.412650
91.687347 177.952896 12.078533 0.400351
120.810585 154.761276 5.171371 0.851957
120.893288 154.695419 4.897584 0.659037
120.846130 154.732971 4.650602 0.937255
120.931786 154.664764 4.381718 0.845243
120.433121 155.061859 4.200027 0.894118
118.363228 156.710175 4.200028 0.903365
115.658745 158.863815 4.200030 0.889158
111.973564 161.798431 4.200031 0.848737
113.667389 160.449585 3.671303 0.937255
113.667381 160.449600 3.299308 0.937255
113.542778 160.548828 2.932974 0.992157
113.542778 160.548828 2.559656 0.980392
113.419518 160.646973 2.187562 0.094118
113.419518 160.646973 1.812438 0.094118
113.419518 160.646973 1.437249 0.094118
113.482323 160.596970 1.064496 0.223529
113.457161 160.617004 0.688371 0.223529
113.457161 160.617004 0.312848 0.223529
114.143341 160.070587 0.000006 0.474662
117.493088 157.403091 -0.000032 0.432853
119.951706 155.445221 -0.000031 0.479744
121.833435 153.946747 -0.000030 0.452827
123.320450 152.762604 -0.000029 0.473136
124.525665 151.802856 -0.000007 0.716075
125.522354 151.009155 -0.000006 0.739483
126.360672 150.341583 -0.000005 0.726223
127.075821 149.772095 -0.000005 0.701045
127.693275 149.280396 -0.000005 0.728054
128.231964 148.851425 -0.000005 0.744549
128.706192 148.473785 -0.000005 0.737957
129.127014 148.138672 -0.000005 0.734173
129.503098 147.839188 -0.000004 0.746334
129.841324 147.569855 -0.000004 0.763882
92.565994 177.952896 16.548620 0.396109
92.531448 177.980972 15.782722 0.292851
92.566010 177.952881 14.999835 0.415381
92.566010 177.952896 14.232649 0.423926
92.531448 177.980972 13.479016 0.293004
92.566017 177.952881 12.711157 0.404517
92.566010 177.952896 11.956268 0.412665
120.810585 155.004257 5.196516 0.888869
120.909302 154.924042 4.917427 0.666758
120.845787 154.975647 4.671679 0.937255
120.917221 154.917618 4.402946 0.698283
120.554291 155.212494 4.200027 0.782208
118.500679 156.881042 4.200028 0.901900
115.817474 159.061142 4.200030 0.880140
112.161285 162.031784 4.200030 0.903044
114.108612 160.449585 3.651028 0.937255
114.108597 160.449600 3.283547 0.937255
113.986473 160.548828 2.921655 0.992157
113.986473 160.548828 2.552866 0.981949
113.865669 160.646973 2.185287 0.094118
113.865669 160.646973 1.814713 0.094118
113.865669 160.646973 1.444076 0.094118
113.927231 160.596954 1.075845 0.223529
113.902565 160.617004 0.704283 0.223529
113.902565 160.617004 0.333315 0.230793
114.314056 160.282654 0.000013 0.467536
117.637390 157.582474 -0.000031 0.422202
120.076668 155.600555 -0.000031 0.473625
121.943588 154.083694 -0.000030 0.425956
123.418907 152.884995 -0.000029 0.443046
124.614639 151.913467 -0.000007 0.735637
125.603485 151.110031 -0.000006 0.745830
126.435211 150.434250 -0.000005 0.731533
127.144737 149.857773 -0.000005 0.712291
127.757332 149.360031 -0.000006 0.718349
128.291779 148.925797 -0.000005 0.742428
128.762283 148.543518 -0.000005 0.734020
129.179794 148.204300 -0.000004 0.733364
129.552917 147.901123 -0.000004 0.738903
129.888489 147.628479 -0.000004 0.761257
93.423660 177.952911 16.375618 0.400885
93.389740 177.981018 15.618845 0.276081
93.423676 177.952881 14.845248 0.412192
93.423676 177.952896 14.087186 0.438865
93.389740 177.981018 13.342531 0.278050
93.423676 177.952881 12.583784 0.435538
93.423676 177.952896 11.837873 0.427207
93.389740 177.981018 11.102719 0.280995
120.916351 155.163467 4.939640 0.675074
120.845940 155.221832 4.693264 0.899229
120.916206 155.163589 4.422551 0.721813
120.676926 155.361938 4.200027 0.896941
118.639793 157.050568 4.200028 0.876295
115.978127 159.256897 4.200030 0.902602
114.539299 160.449585 3.995067 0.937255
114.539284 160.449585 3.631395 0.937255
114.539276 160.449600 3.268284 0.949020
114.419571 160.548828 2.910695 0.980392
114.419571 160.548828 2.546292 0.975845
114.301163 160.646973 2.183083 0.094118
114.301163 160.646973 1.816917 0.094118
114.301163 160.646973 1.450687 0.094118
114.361496 160.596954 1.086835 0.223529
114.337326 160.617004 0.719691 0.223529
114.337326 160.617004 0.353135 0.235294
114.486893 160.493011 0.000024 0.529458
117.783432 157.760422 -0.000032 0.428580
120.203133 155.754669 -0.000031 0.424689
122.055077 154.219543 -0.000030 0.452705
123.518562 153.006424 -0.000029 0.406180
124.704697 152.023209 -0.000006 0.740047
125.685608 151.210098 -0.000006 0.751781
126.510658 150.526184 -0.000005 0.733410
127.214493 149.942764 -0.000005 0.719875
127.822174 149.439041 -0.000005 0.708904
128.352325 148.999573 -0.000005 0.737072
128.819046 148.612701 -0.000005 0.738491
129.233215 148.269394 -0.000005 0.731624
129.603348 147.962570 -0.000004 0.732219
129.936218 147.686646 -0.000004 0.746029
94.166702 178.032867 16.240343 0.644800
94.261261 177.952881 15.449318 0.420981
94.261261 177.952881 14.695500 0.392538
94.261253 177.952896 13.946279 0.403754
94.166695 178.032867 13.226820 0.678431
94.261276 177.952881 12.460402 0.401633
94.261261 177.952896 11.723186 0.405676
94.166687 178.032867 11.009856 0.678431
120.916298 155.412674 4.963912 0.651255
120.845718 155.472366 4.715534 0.854063
120.917908 155.411316 4.442266 0.684047
120.810585 155.502075 4.198628 0.842527
118.780563 157.218704 4.200029 0.898985
116.140678 159.451065 4.200030 0.792554
114.959892 160.449570 3.971809 0.916991
114.959877 160.449585 3.612376 0.937255
114.959869 160.449600 3.253498 0.949020
114.842529 160.548828 2.900079 0.980392
114.842529 160.548828 2.539923 0.995956
114.726456 160.646973 2.180949 0.094118
114.726456 160.646973 1.819051 0.094118
114.726456 160.646973 1.457091 0.094118
114.726456 160.646973 1.094945 0.094118
114.761909 160.617004 0.734616 0.223529
114.761909 160.616989 0.372334 0.235294
114.785583 160.596970 0.011728 0.350423
117.931221 157.936935 -0.000032 0.423285
120.331116 155.907532 -0.000031 0.443626
122.167892 154.354294 -0.000030 0.378943
123.619400 153.126862 -0.000029 0.388205
124.795822 152.132050 -0.000006 0.723400
125.768707 151.309341 -0.000005 0.740261
126.587006 150.617371 -0.000005 0.722606
127.285072 150.027069 -0.000005 0.720043
127.887779 149.517395 -0.000005 0.703944
128.413605 149.072754 -0.000005 0.727565
128.876495 148.681320 -0.000005 0.745678
129.287277 148.333954 -0.000004 0.727092
129.654373 148.023529 -0.000004 0.725475
129.984528 147.744339 -0.000004 0.731640
94.986923 178.032867 16.077587 0.678431
95.079636 177.952881 15.295606 0.348943
95.079628 177.952896 14.550405 0.362463
95.070450 177.960815 13.812399 0.460960
94.986923 178.032867 13.098508 0.678431
95.079636 177.952896 12.340848 0.381445
95.079620 177.952896 11.612060 0.354711
94.986908 178.032867 10.906882 0.678431
120.810585 155.757202 5.010045 0.859785
120.846405 155.726303 4.738273 0.834745
120.903488 155.677078 4.465211 0.628443
120.810585 155.757202 4.217142 0.855100
118.922989 157.385468 4.200028 0.894499
116.305153 159.643616 4.200029 0.899382
115.370819 160.449585 3.949273 0.925490
115.370819 160.449585 3.593949 0.937255
115.370804 160.449600 3.239172 0.946349
115.255775 160.548828 2.889792 0.992157
115.255775 160.548828 2.533753 0.992157
115.141991 160.646973 2.178881 0.094118
115.141991 160.646973 1.821119 0.094118
115.141991 160.646973 1.463295 0.094118
115.141991 160.646973 1.105289 0.094118
115.176743 160.616989 0.749079 0.223529
115.176743 160.616989 0.390937 0.223529
115.199966 160.596970 0.034453 0.284474
118.080734 158.112000 -0.000032 0.423148
120.460587 156.059113 -0.000031 0.485634
122.282036 154.487930 -0.000029 0.459861
123.721420 153.246307 -0.000028 0.438926
124.888016 152.239990 -0.000006 0.735073
125.852776 151.407776 -0.000006 0.746456
126.664246 150.707809 -0.000005 0.716182
127.356476 150.110687 -0.000006 0.720470
127.954163 149.595123 -0.000005 0.710323
128.475586 149.145325 -0.000005 0.713268
128.934616 148.749374 -0.000005 0.753552
129.341965 148.397995 -0.000004 0.721233
129.705994 148.083969 -0.000004 0.717433
130.033386 147.801559 -0.000004 0.718990
95.788681 178.032867 15.919839 0.678431
95.879578 177.952881 15.146615 0.419547
95.879578 177.952896 14.409765 0.409247
95.788689 178.032867 13.703962 0.678431
95.879578 177.952896 12.949232 0.394049
95.879578 177.952896 12.224971 0.383383
95.879570 177.952896 11.504349 0.377310
95.788681 178.032867 10.807073 0.678431
120.810585 156.016708 5.035901 0.905882
120.846344 155.985245 4.761806 0.794522
120.882751 155.953201 4.489839 0.565682
120.810585 156.016708 4.236186 0.905364
119.067039 157.550812 4.200028 0.811063
116.471497 159.834564 4.200029 0.841718
115.772522 160.449585 3.927429 0.928161
115.772507 160.449585 3.576086 0.937255
115.772491 160.449600 3.225286 0.930495
115.659729 160.548813 2.879821 0.992157
115.659729 160.548828 2.527771 0.989990
115.548180 160.646973 2.176876 0.094118
115.548180 160.646973 1.823123 0.094118
115.548180 160.646973 1.469310 0.094118
115.548187 160.646973 1.115315 0.094118
115.582245 160.616989 0.763097 0.226886
115.582253 160.616989 0.408968 0.223529
115.582245 160.616989 0.054292 0.223529
118.231956 158.285583 -0.000031 0.398383
120.591545 156.209442 -0.000030 0.432883
122.397484 154.620438 -0.000029 0.463630
123.824600 153.364746 -0.000028 0.429648
124.981270 152.347031 -0.000006 0.747890
125.937813 151.505386 -0.000005 0.751873
126.742363 150.797470 -0.000005 0.731868
127.428703 150.193588 -0.000006 0.720104
128.021286 149.672180 -0.000006 0.711162
128.538284 149.217300 -0.000005 0.701213
128.993408 148.816849 -0.000005 0.749599
129.397278 148.461487 -0.000004 0.723201
129.758209 148.143906 -0.000004 0.707454
130.082825 147.858292 -0.000004 0.706249
96.572754 178.032867 15.766898 0.678431
96.661880 177.952881 15.002170 0.437278
96.661865 177.952896 14.273415 0.396719
96.572754 178.032867 13.575367 0.678431
96.661873 177.952896 12.828929 0.415213
96.661873 177.952881 12.112628 0.410056
96.661865 177.952896 11.399921 0.398047
96.572754 178.032867 10.710305 0.678431
120.810585 156.280716 5.062502 0.905882
120.847397 156.247681 4.785810 0.753552
120.873154 156.224579 4.513268 0.549020
120.810585 156.280731 4.255781 0.905882
119.212715 157.714722 4.200028 0.904601
116.639709 160.023865 4.200030 0.900633
116.165344 160.449585 3.906253 0.935042
116.165329 160.449585 3.558770 0.937255
116.165321 160.449600 3.211823 0.937255
116.054764 160.548828 2.870154 0.992157
116.054756 160.548828 2.521972 0.992157
115.945404 160.646973 2.174932 0.094118
115.945396 160.646973 1.825067 0.094118
115.945396 160.646973 1.475141 0.094118
115.945396 160.646973 1.125035 0.094118
115.978806 160.616989 0.776687 0.234241
115.978798 160.616989 0.426449 0.223529
115.978798 160.616989 0.075670 0.223529
118.384888 158.457657 -0.000031 0.425132
120.723969 156.358459 -0.000031 0.429221
122.514221 154.751801 -0.000029 0.470802
123.928940 153.482162 -0.000029 0.413016
125.075562 152.453140 -0.000006 0.746441
126.023804 151.602142 -0.000005 0.734768
126.821365 150.886383 -0.000005 0.752865
127.501740 150.275772 -0.000006 0.717403
128.089188 149.748581 -0.000005 0.711208
128.601669 149.288635 -0.000005 0.698344
129.052856 148.883743 -0.000004 0.740551
129.453217 148.524429 -0.000005 0.730739
129.811020 148.203323 -0.000004 0.711604
130.132797 147.914536 -0.000004 0.697169
97.339844 178.032867 15.618581 0.678431
97.427231 177.952896 14.862087 0.391546
97.427216 177.952896 14.141188 0.386648
97.339851 178.032867 13.450661 0.678431
97.427231 177.952881 12.712260 0.422141
97.427216 177.952896 12.003678 0.365743
97.339851 178.032867 11.319800 0.678431
97.339844 178.032867 10.616468 0.678431
120.810585 156.549438 5.089876 0.899077
120.855545 156.508270 4.809181 0.714519
120.864258 156.500305 4.537239 0.549020
120.810585 156.549438 4.275943 0.905882
119.359985 157.877213 4.200027 0.897993
116.809776 160.211487 4.200029 0.900664
116.549660 160.449585 3.885715 0.937255
116.549652 160.449585 3.541976 0.937255
116.549644 160.449600 3.198767 0.937255
116.441238 160.548828 2.860779 0.992157
116.441238 160.548828 2.516349 0.989624
116.334015 160.646973 2.173048 0.094118
116.334015 160.646973 1.826951 0.094118
116.334015 160.646973 1.480796 0.094118
116.334015 160.646973 1.134462 0.094118
116.366768 160.616989 0.789866 0.223529
116.366768 160.616989 0.443402 0.223529
116.366760 160.616989 0.096402 0.223529
118.539490 158.628235 -0.000031 0.524361
120.857849 156.506165 -0.000030 0.437186
122.632240 154.882019 -0.000029 0.391470
124.034431 153.598557 -0.000029 0.491188
125.170898 152.558319 -0.000006 0.737484
126.110733 151.698059 -0.000005 0.705180
126.901230 150.974487 -0.000005 0.764706
127.575584 150.357239 -0.000005 0.717784
128.157822 149.824295 -0.000005 0.715724
128.665771 149.359360 -0.000005 0.707179
129.112946 148.950043 -0.000005 0.729046
129.509766 148.586823 -0.000004 0.734310
129.864395 148.262222 -0.000004 0.725780
130.183334 147.970291 -0.000004 0.702571
98.176346 177.952896 15.444125 0.405509
98.176346 177.952896 14.726209 0.403677
98.176338 177.952896 14.012921 0.408850
98.090683 178.032867 13.329689 0.678431
98.176346 177.952896 12.599093 0.388006
98.176346 177.952896 11.897997 0.409216
98.090668 178.032867 11.221343 0.678431
98.176346 177.952896 10.506088 0.397162
120.810585 156.823029 5.118044 0.869093
120.863724 156.773422 4.833245 0.675700
120.856171 156.780457 4.561753 0.549020
120.810585 156.823029 4.296692 0.905882
119.508835 158.038254 4.200028 0.818006
116.981667 160.397461 4.200030 0.820356
116.925827 160.449585 3.865794 0.937255
116.925819 160.449585 3.525686 0.938079
116.925819 160.449585 3.186102 0.937255
116.925819 160.449585 2.846925 0.937255
116.925827 160.449585 2.508038 0.937255
116.925819 160.449585 2.169327 0.948196
116.925819 160.449585 1.830673 0.926772
116.925827 160.449585 1.491961 0.938079
116.925827 160.449585 1.153075 0.938079
116.925827 160.449585 0.813898 0.937255
116.925827 160.449585 0.474314 0.937255
116.925827 160.449585 0.134206 0.949020
118.695755 158.797287 -0.000031 0.421317
120.993179 156.652557 -0.000030 0.449332
122.751534 155.011078 -0.000030 0.474449
124.141068 153.713898 -0.000028 0.365652
125.267258 152.662567 -0.000006 0.734310
126.198601 151.793121 -0.000005 0.714778
126.981956 151.061829 -0.000006 0.753429
127.650215 150.437988 -0.000005 0.733761
128.227188 149.899353 -0.000005 0.727138
128.730560 149.429443 -0.000005 0.718212
129.173691 149.015762 -0.000004 0.715404
129.566925 148.648666 -0.000004 0.728710
129.918350 148.320587 -0.000004 0.745830
130.234406 148.025543 -0.000004 0.715404
98.909874 177.952881 15.304843 0.404379
98.909866 177.952896 14.594368 0.397803
98.909866 177.952896 13.888471 0.412329
98.825867 178.032867 13.212320 0.678431
98.909882 177.952881 12.489288 0.399191
98.909874 177.952896 11.795452 0.390753
98.825867 178.032867 11.125813 0.678431
98.909866 177.952896 10.417966 0.404440
120.810577 157.101669 5.147039 0.812161
120.872108 157.043091 4.857989 0.654902
120.847267 157.066742 4.587111 0.690562
120.810585 157.101669 4.318048 0.896651
119.659271 158.197815 4.200028 0.898207
117.155380 160.581711 4.200030 0.899596
117.294167 160.449585 3.846464 0.948013
117.294167 160.449585 3.509879 0.937255
117.294167 160.449585 3.173813 0.937255
117.294174 160.449585 2.838150 0.937255
117.294174 160.449570 2.502774 0.937255
117.294174 160.449570 2.167572 0.937255
117.294174 160.449570 1.832427 0.937255
