# This PCD file was generated using the MATLABÂ® pcwrite function
# from Computer Vision System ToolboxÂ®.
# .PCD v.7 - Point Cloud Data file format
VERSION .7
FIELDS x y z intensity
SIZE 4 4 4 4
TYPE F F F F
COUNT 1 1 1 1
WIDTH 1265
HEIGHT 1
VIEWPOINT 0 0 0 1 0 0 0
POINTS 1265
DATA ascii
123.864807 126.552750 4.610868 0.321569
nan nan nan 0.000000
124.710915 125.931694 3.953816 0.290196
124.681717 125.953125 3.695037 0.263783
124.559372 126.042923 3.444221 0.411383
124.246368 126.272675 3.203858 0.273533
123.691086 126.680252 2.967485 0.487343
124.326431 126.213905 2.665023 0.291661
123.675087 126.692001 2.414789 0.960220
124.173538 126.326134 2.134200 0.340124
123.660431 126.702759 1.861633 0.966751
123.659317 126.703568 1.584826 0.777508
123.662941 126.700912 1.308033 0.377646
124.432167 126.136299 1.074661 0.459556
123.917015 126.514420 0.772049 0.364706
123.677658 126.690109 0.476898 0.558236
123.694313 126.677887 0.200494 0.905791
124.332977 126.209099 0.000010 0.425483
126.272095 124.785782 0.000008 0.466407
127.804459 123.661018 0.000007 0.443885
129.046295 122.749504 0.000006 0.404730
130.073395 121.995605 0.000006 0.394949
130.937302 121.361496 0.000005 0.348119
131.674240 120.820572 0.000000 0.654612
132.310562 120.353516 0.000002 0.658534
132.865677 119.946060 0.000000 0.666239
133.354370 119.587349 -0.000000 0.639597
133.788040 119.269035 -0.000001 0.660609
134.175598 118.984566 -0.000002 0.632258
134.555054 118.706039 0.010004 1.000000
nan nan nan 0.000000
nan nan nan 0.000000
nan nan nan 0.000000
nan nan nan 0.000000
nan nan nan 0.000000
nan nan nan 0.000000
124.232269 126.533653 5.675204 0.365484
nan nan nan 0.000000
nan nan nan 0.000000
nan nan nan 0.000000
124.063087 126.660408 4.598977 0.694575
124.693962 126.187744 4.234921 0.299260
86.506027 154.799011 8.669903 0.145678
88.217453 153.516769 7.593553 0.666835
124.328827 126.461311 3.475550 0.315435
123.553474 127.042221 3.263713 0.862013
122.819664 127.592010 3.024477 0.259190
123.921486 126.766502 2.686448 0.911467
124.288330 126.491653 2.402772 0.215076
124.540794 126.302505 2.132177 0.277729
123.833832 126.832169 1.862041 1.000000
123.894951 126.786385 1.587574 0.223529
123.882988 126.795349 1.311978 0.240665
124.469879 126.355637 1.070059 0.321569
123.700653 126.931961 0.747131 0.286763
123.716003 126.920456 0.469223 0.235752
121.936523 128.253677 0.000011 0.475685
124.451736 126.369232 0.000010 0.426017
126.376778 124.926941 0.000008 0.437598
127.898026 123.787186 0.000007 0.453498
129.130859 122.863525 0.000006 0.441382
130.150513 122.099579 0.000005 0.442390
131.008133 121.457024 0.000005 0.472923
131.739746 120.908882 0.000003 0.662531
132.371445 120.435608 0.000002 0.659525
132.922531 120.022720 0.000001 0.642069
133.407684 119.659233 -0.000000 0.640772
133.838196 119.336678 -0.000001 0.665064
134.222946 119.048416 -0.000003 0.629541
134.599655 118.766182 0.010002 1.000000
nan nan nan 0.000000
nan nan nan 0.000000
nan nan nan 0.000000
nan nan nan 0.000000
nan nan nan 0.000000
nan nan nan 0.000000
nan nan nan 0.000000
nan nan nan 0.000000
nan nan nan 0.000000
nan nan nan 0.000000
124.185333 126.823891 4.599127 0.368185
124.087791 126.898476 4.336847 0.148531
124.572723 126.527664 3.999906 0.272679
123.662117 127.223976 3.829631 0.782849
124.502907 126.581055 3.470752 0.185016
123.834785 127.091942 3.252254 0.289738
123.936829 127.013916 2.967641 0.664332
124.095078 126.892906 2.684414 0.937255
123.833435 127.092972 2.417022 0.140230
124.555206 126.541061 2.133044 0.285405
124.074417 126.908707 1.862994 0.584726
124.129601 126.866508 1.590299 0.268009
123.666847 127.220360 1.297938 0.647822
124.474281 126.602943 1.063377 0.315190
124.426628 126.639381 0.791682 0.388296
123.725883 127.175217 0.458703 0.306737
123.814240 127.107651 0.186701 0.285817
124.572052 126.528183 0.000010 0.442161
126.482841 125.067070 0.000008 0.382239
127.992828 123.912437 0.000007 0.447349
129.216522 122.976715 0.000006 0.472221
130.228638 122.202797 0.000006 0.442817
131.079910 121.551849 0.000005 0.444892
131.806122 120.996536 0.000006 0.649470
132.433121 120.517097 0.000002 0.662425
132.980133 120.098824 0.000000 0.644663
133.461685 119.730591 -0.000000 0.666133
133.889023 119.403824 -0.000001 0.659098
134.270920 119.111801 -0.000002 0.629160
134.644836 118.825882 0.010001 1.000000
nan nan nan 0.000000
nan nan nan 0.000000
nan nan nan 0.000000
nan nan nan 0.000000
nan nan nan 0.000000
nan nan nan 0.000000
nan nan nan 0.000000
124.293152 126.998680 5.436501 0.250843
nan nan nan 0.000000
124.607880 126.753082 4.823788 0.406638
nan nan nan 0.000000
123.998466 127.228638 4.367296 0.312505
124.274818 127.012993 4.052349 0.228428
90.310127 153.517029 7.451775 0.727245
90.535057 153.341507 6.589294 0.741176
123.597321 127.541672 3.279552 0.806607
124.270599 127.016281 2.955597 0.390143
90.302437 153.523026 4.092839 0.730663
90.300499 153.524536 3.255463 0.647669
124.619423 126.744080 2.133524 0.968627
125.082184 126.382965 1.870318 0.329229
124.344391 126.958702 1.592530 0.968627
124.300827 126.992691 1.318920 0.575143
123.971024 127.250053 1.026981 0.235294
113.966354 135.057098 0.000018 0.436118
124.721001 126.664818 0.538002 0.905882
124.424744 126.895996 0.238946 0.281041
124.693924 126.685944 0.000010 0.455421
126.590271 125.206146 0.000008 0.440894
128.088852 124.036743 0.000007 0.456550
129.303314 123.089050 0.000006 0.394842
130.307770 122.305237 0.000005 0.457618
131.152618 121.645966 0.000005 0.428946
131.873367 121.083534 0.000011 0.646586
132.495605 120.597977 0.000002 0.654780
133.038467 120.174355 0.000000 0.663142
133.516388 119.801407 -0.000000 0.656260
133.940491 119.470467 -0.000002 0.647578
134.319519 119.174706 -0.000002 0.647913
134.690598 118.885132 0.010000 1.000000
nan nan nan 0.000000
nan nan nan 0.000000
nan nan nan 0.000000
nan nan nan 0.000000
nan nan nan 0.000000
nan nan nan 0.000000
nan nan nan 0.000000
nan nan nan 0.000000
124.478363 127.112419 5.145819 0.261051
124.474762 127.115288 4.869264 0.338903
124.471100 127.118202 4.593596 0.968627
84.966904 158.573776 9.960117 0.678431
124.311607 127.245201 4.063661 0.279408
124.244270 127.298820 3.794413 0.566171
124.176605 127.352699 3.523544 0.190066
124.992882 126.702728 3.184287 0.289860
123.270905 128.073868 3.021609 0.593500
91.309952 153.523071 4.066938 0.731106
123.645859 127.775314 2.428170 0.303746
124.724762 126.916222 2.133680 0.469993
125.097305 126.619583 1.869437 0.229877
90.465958 154.195099 0.738933 0.577050
124.603081 127.013115 1.326277 0.266667
123.431335 127.946121 0.987792 0.749996
123.951416 127.532005 0.737201 0.396216
119.008537 131.467819 0.000014 0.448432
122.358711 128.800217 0.000011 0.406104
124.817329 126.842514 0.000010 0.454932
126.699066 125.344162 0.000008 0.408484
128.186096 124.160103 0.000007 0.497276
129.391190 123.200531 0.000006 0.468467
130.387894 122.406898 0.000005 0.412222
131.226242 121.739365 0.000005 0.482628
131.941437 121.169884 0.000011 0.656168
132.558868 120.678246 0.000001 0.656352
133.097549 120.249306 0.000000 0.649027
133.571793 119.871696 -0.000001 0.640909
133.992630 119.536598 -0.000002 0.662242
134.368729 119.237129 -0.000002 0.649668
134.736938 118.943932 0.009999 1.000000
nan nan nan 0.000000
nan nan nan 0.000000
nan nan nan 0.000000
nan nan nan 0.000000
nan nan nan 0.000000
nan nan nan 0.000000
nan nan nan 0.000000
nan nan nan 0.000000
124.665909 127.222389 5.134106 0.273991
nan nan nan 0.000000
124.658768 127.228188 4.583934 0.885054
86.076920 158.573166 9.863436 0.678431
124.456261 127.392708 4.061665 0.240620
124.648125 127.236832 3.764258 0.291905
92.298325 153.518723 6.497767 0.662638
124.927155 127.010147 3.198671 0.306676
125.102493 126.867691 2.921516 0.143206
124.253151 127.557724 2.693824 0.490349
123.684631 128.019608 2.430583 0.314107
91.450516 154.207489 2.415337 0.651072
125.112816 126.859306 1.868532 0.311604
91.465645 154.195206 0.754230 0.611765
93.286240 152.716110 0.000033 0.443763
124.469124 127.382256 1.041071 0.203052
124.267395 127.546150 0.751199 0.220584
124.058060 127.716217 0.453362 0.292165
122.502991 128.979599 0.000012 0.470878
124.942276 126.997856 0.000010 0.476066
126.809212 125.481102 0.000008 0.454368
128.284546 124.282501 0.000008 0.432044
129.480164 123.311150 0.000007 0.387427
130.469025 122.507767 0.000005 0.355734
131.300781 121.832031 0.000005 0.423758
132.010254 121.255623 -0.000007 0.656519
132.622925 120.757889 0.000001 0.647242
133.157379 120.323677 0.000000 0.656123
133.627884 119.941422 -0.000000 0.661814
134.045410 119.602219 -0.000002 0.643015
134.418549 119.299072 -0.000002 0.652018
134.783859 119.002274 0.009998 1.000000
nan nan nan 0.000000
nan nan nan 0.000000
nan nan nan 0.000000
nan nan nan 0.000000
nan nan nan 0.000000
nan nan nan 0.000000
124.976234 127.228638 5.647691 0.297307
124.855553 127.328667 5.398289 0.312795
nan nan nan 0.000000
nan nan nan 0.000000
87.865044 157.988510 10.578497 0.905425
87.160385 158.572571 9.769815 0.678431
90.101135 156.135101 8.473232 0.184894
93.259377 153.517365 7.255762 0.729198
93.257629 153.518829 6.444290 0.698741
124.855988 127.328308 3.213817 0.263493
125.158920 127.077217 2.925610 0.253803
93.252426 153.523132 4.017582 0.726360
91.927063 154.621674 3.244076 0.511223
124.760437 127.407509 2.135527 0.410101
124.753578 127.413193 1.864415 0.256428
124.498848 127.624321 1.586701 0.937255
115.008438 135.490509 0.907480 0.334554
125.489517 126.803200 1.094077 0.260792
125.315842 126.947159 0.821405 0.285618
119.351883 131.890427 0.000014 0.465400
122.649033 129.157562 0.000012 0.441550
125.068748 127.151962 0.000010 0.423575
126.920692 125.616959 0.000009 0.471687
128.384186 124.403931 0.000008 0.418708
129.570221 123.420883 0.000007 0.463996
130.551147 122.607834 0.000006 0.493568
131.376221 121.923965 0.000005 0.409323
132.080017 121.340614 -0.000005 0.665248
132.687759 120.836891 0.000002 0.665141
133.217926 120.397461 0.000000 0.639185
133.684647 120.010605 -0.000001 0.664332
134.098831 119.667313 -0.000002 0.656947
134.468964 119.360519 -0.000002 0.636728
134.831360 119.060150 0.009998 1.000000
nan nan nan 0.000000
nan nan nan 0.000000
nan nan nan 0.000000
nan nan nan 0.000000
nan nan nan 0.000000
nan nan nan 0.000000
nan nan nan 0.000000
nan nan nan 0.000000
nan nan nan 0.000000
125.033371 127.442940 4.838281 0.302571
88.915451 157.982635 10.477349 0.912612
88.218445 158.571991 9.679132 0.621607
90.101143 156.980072 8.526651 0.199512
94.196182 153.517487 7.194502 0.722805
114.980949 135.942810 4.429304 0.333333
94.192825 153.520325 5.591927 0.707729
94.191139 153.521759 4.792545 0.714580
94.189461 153.523178 3.994062 0.727550
93.373138 154.213409 3.217156 0.644450
115.740021 135.300980 2.213961 0.371084
124.921593 127.537453 1.864736 0.308080
125.292076 127.224190 1.603689 0.318379
115.110306 135.833435 0.902831 0.345403
124.613831 127.797684 1.034024 0.277790
114.806076 136.090683 0.000018 0.447745
119.526642 132.099182 0.000014 0.433478
122.796806 129.334076 0.000012 0.464912
125.196716 127.304825 0.000010 0.480949
127.033508 125.751709 0.000009 0.420050
128.485016 124.524376 0.000008 0.387060
129.661331 123.529732 0.000007 0.504677
130.634247 122.707092 0.000006 0.397803
131.452560 122.015152 0.000006 0.453605
132.150635 121.424896 0.000003 0.650813
132.753357 120.915253 0.000002 0.654505
133.279190 120.470642 -0.000000 0.644785
133.742096 120.079224 -0.000001 0.667048
134.152878 119.731888 -0.000002 0.652949
134.519989 119.421471 -0.000003 0.633143
134.879425 119.117554 0.009999 1.000000
nan nan nan 0.000000
nan nan nan 0.000000
nan nan nan 0.000000
nan nan nan 0.000000
nan nan nan 0.000000
nan nan nan 0.000000
nan nan nan 0.000000
nan nan nan 0.000000
nan nan nan 0.000000
nan nan nan 0.000000
89.945328 157.973587 10.378717 0.910323
115.195534 136.194443 5.763461 0.321569
115.560150 135.879944 5.270227 0.231601
115.250519 136.147003 4.866797 0.266545
115.712456 135.748566 4.380089 0.324788
95.108231 153.520416 5.550877 0.238300
115.970490 135.526016 3.497421 0.352941
115.974251 135.522766 3.069057 0.163821
115.790985 135.680847 2.646040 0.596872
94.311768 154.207382 2.400974 0.678431
115.917320 135.571869 1.785770 0.248600
115.227638 136.166748 1.339350 0.315084
94.441223 154.095734 0.000033 0.442283
115.173706 136.213257 0.454337 0.276509
115.022285 136.343872 0.000018 0.435538
123.921249 128.668213 0.401719 0.245808
122.946312 129.509140 0.000012 0.454994
125.326180 127.456413 0.000010 0.418921
127.147636 125.885345 0.000009 0.459831
128.587036 124.643822 0.000008 0.417609
129.753525 123.637680 0.000007 0.479713
130.718307 122.805527 0.000006 0.413123
131.529800 122.105591 0.000006 0.434028
132.222046 121.508507 0.000003 0.636713
132.819733 120.992973 0.000001 0.646616
133.341171 120.543221 0.000000 0.676204
133.800217 120.147278 -0.000001 0.669276
134.207565 119.795921 -0.000002 0.638743
134.571609 119.481918 -0.000003 0.683406
134.928040 119.174484 0.009999 1.000000
nan nan nan 0.000000
nan nan nan 0.000000
nan nan nan 0.000000
nan nan nan 0.000000
nan nan nan 0.000000
nan nan nan 0.000000
nan nan nan 0.000000
125.406113 127.651619 5.363791 0.163607
nan nan nan 0.000000
nan nan nan 0.000000
125.396042 127.660477 4.548444 0.277729
90.249786 158.582214 9.508013 0.931136
116.008232 135.919891 5.239535 0.321569
115.921364 135.996307 4.815211 0.290196
96.004623 153.519104 6.293637 0.678431
115.711861 136.180634 3.962995 0.305699
115.936104 135.983353 3.512383 0.445655
115.782387 136.118591 3.086605 0.402975
116.166443 135.780701 2.641768 0.325551
116.638542 135.365341 2.209783 0.740673
116.753975 135.263779 1.791223 0.321569
116.328659 135.637970 1.362473 0.290196
115.492996 136.373199 0.900776 0.285176
115.545052 136.327393 0.463737 0.906615
115.240990 136.594910 0.000018 0.430808
119.882286 132.511490 0.000014 0.438132
123.097527 129.682709 0.000012 0.440604
125.457130 127.606728 0.000011 0.403662
127.263077 126.017860 0.000009 0.398047
128.690216 124.762260 0.000008 0.473777
129.846771 123.744720 0.000007 0.463798
130.803345 122.903130 0.000006 0.437873
131.607910 122.195259 0.000006 0.437568
132.294266 121.591408 0.000003 0.673426
132.886856 121.070038 0.000001 0.662562
133.403854 120.615189 0.000000 0.662165
133.858994 120.214752 -0.000001 0.661021
134.262878 119.859421 -0.000002 0.644678
134.623825 119.541855 -0.000003 0.660731
134.977219 119.230934 0.010000 1.000000
nan nan nan 0.000000
nan nan nan 0.000000
nan nan nan 0.000000
nan nan nan 0.000000
nan nan nan 0.000000
nan nan nan 0.000000
nan nan nan 0.000000
nan nan nan 0.000000
nan nan nan 0.000000
nan nan nan 0.000000
90.249786 159.468613 10.473590 0.905882
90.249786 159.468613 9.573794 0.914641
90.249786 159.468613 8.676625 0.876982
96.881172 153.517807 7.021825 0.714305
115.752167 136.583527 4.417716 0.464973
115.840195 136.504532 3.970026 0.767590
116.262527 136.125549 3.505526 0.335012
115.651993 136.673431 3.101860 0.968627
116.666656 135.762894 2.634193 0.532433
116.447830 135.959259 2.213298 0.203128
116.194130 136.186920 1.784470 0.281529
115.837250 136.507172 1.343922 0.697673
115.870483 136.477356 0.907749 0.367391
116.083939 136.285797 0.483474 0.285740
115.241287 137.041977 -0.017481 0.752941
120.063126 132.714996 0.000015 0.439765
123.250443 129.854797 0.000012 0.456718
125.589546 127.755753 0.000010 0.435019
127.379807 126.149231 0.000009 0.467399
128.794540 124.879677 0.000008 0.472023
129.941055 123.850830 0.000007 0.415335
130.889313 122.999893 0.000007 0.414359
131.686905 122.284164 0.000006 0.421073
132.367294 121.673599 0.000003 0.670375
132.954742 121.146439 0.000001 0.640085
133.467255 120.686531 0.000000 0.644144
133.918442 120.281654 -0.000001 0.663279
134.318817 119.922363 -0.000002 0.645075
134.676620 119.601280 -0.000003 0.652628
135.026947 119.286903 0.010001 1.000000
nan nan nan 0.000000
nan nan nan 0.000000
nan nan nan 0.000000
nan nan nan 0.000000
nan nan nan 0.000000
nan nan nan 0.000000
nan nan nan 0.000000
nan nan nan 0.000000
nan nan nan 0.000000
nan nan nan 0.000000
90.249794 160.370789 10.549318 0.882445
116.323174 136.507065 5.692473 0.285023
90.249786 160.370789 8.736294 0.869429
97.737221 153.517899 6.967730 0.698039
116.979431 135.906433 4.319339 0.497124
116.917969 135.962677 3.901470 0.270237
116.466682 136.375717 3.506293 0.334218
116.525833 136.321579 3.072929 0.272801
115.939331 136.858368 2.659223 0.937255
115.807755 136.978806 2.220883 0.336049
116.055428 136.752121 1.781313 0.309575
116.800797 136.069916 1.363709 0.206775
115.547775 137.216751 0.883666 0.287129
115.901672 136.892853 0.458592 0.289723
115.685722 137.090500 0.000018 0.447013
120.245949 132.916733 0.000015 0.442664
123.405037 130.025375 0.000013 0.435752
125.723419 127.903473 0.000011 0.468727
127.497818 126.279449 0.000009 0.441352
128.900024 124.996071 0.000008 0.414054
130.036392 123.956017 0.000007 0.429023
130.976242 123.095810 0.000007 0.425544
131.766785 122.372276 0.000008 0.650111
132.441132 121.755074 0.000003 0.632883
133.023376 121.222168 0.000001 0.662226
133.531342 120.757256 -0.000000 0.657969
133.978531 120.347961 -0.000001 0.656519
134.375366 119.984764 -0.000002 0.664988
134.759888 119.632835 0.010001 1.000000
135.077225 119.342377 0.010001 1.000000
nan nan nan 0.000000
nan nan nan 0.000000
nan nan nan 0.000000
nan nan nan 0.000000
nan nan nan 0.000000
nan nan nan 0.000000
nan nan nan 0.000000
nan nan nan 0.000000
nan nan nan 0.000000
nan nan nan 0.000000
90.249786 161.289307 10.627254 0.862135
90.249779 161.289322 9.711142 0.870588
116.355263 136.920959 5.280423 0.892958
97.827103 154.216202 7.002529 0.706157
116.467224 136.816437 4.391014 0.684779
116.782921 136.521759 3.929698 0.290196
105.356560 147.187775 4.216819 0.863050
116.626923 136.667374 3.078182 0.237812
97.099899 154.895020 3.171325 0.549020
116.058098 137.198349 2.220655 0.945190
116.399002 136.880127 1.782396 0.664546
116.531013 136.756897 1.350661 0.319539
116.737701 136.563965 0.926778 0.264302
108.814049 143.960358 0.000024 0.444648
115.911713 137.334991 0.000019 0.439109
120.430748 133.116669 0.000015 0.438437
123.561295 130.194427 0.000013 0.458061
125.858734 128.049866 0.000011 0.466590
127.617111 126.408501 0.000009 0.413520
129.006653 125.111420 0.000008 0.417670
130.132736 124.060265 0.000007 0.435828
131.064117 123.190872 0.000007 0.490272
131.847519 122.459595 0.000011 0.646937
132.515762 121.835823 0.000002 0.642527
133.092743 121.297218 0.000001 0.668223
133.596130 120.827339 -0.000001 0.655756
134.039276 120.413681 -0.000001 0.671275
134.432526 120.046600 -0.000002 0.655299
134.813568 119.690910 0.010003 1.000000
135.128052 119.397354 0.010002 1.000000
nan nan nan 0.000000
nan nan nan 0.000000
nan nan nan 0.000000
nan nan nan 0.000000
nan nan nan 0.000000
nan nan nan 0.000000
nan nan nan 0.000000
nan nan nan 0.000000
nan nan nan 0.000000
nan nan nan 0.000000
nan nan nan 0.000000
90.249786 162.224838 9.782837 0.876692
90.249802 162.224823 8.860903 0.905882
116.643623 137.097900 4.833208 0.304051
97.831078 155.007446 6.268933 0.201892
116.481239 137.252487 3.972204 0.202777
106.045013 147.187775 4.193854 0.830640
117.329781 136.444672 3.056438 0.321569
97.101677 155.701828 3.182168 0.673167
116.697128 137.046967 2.216932 0.834592
115.829330 137.873108 1.775225 0.290196
116.258430 137.464600 1.337233 0.318379
116.741653 137.004578 0.916978 0.266667
109.107803 144.272003 0.000024 0.446052
116.140099 137.577255 0.000019 0.451743
120.617493 133.314774 0.000014 0.437491
123.719208 130.361938 0.000013 0.443473
125.995483 128.194931 0.000011 0.421378
127.737656 126.536385 0.000009 0.412741
129.114395 125.225716 0.000009 0.473548
130.230118 124.163559 0.000008 0.472755
131.152908 123.285065 0.000007 0.448386
131.972931 122.504395 0.010005 1.000000
132.591171 121.915825 0.000002 0.662760
133.162857 121.371590 0.000001 0.651759
133.661591 120.896790 -0.000000 0.658106
134.100662 120.478798 -0.000001 0.637400
134.490280 120.107880 -0.000002 0.652918
134.867828 119.748459 0.010004 1.000000
135.179413 119.451836 0.010002 1.000000
nan nan nan 0.000000
nan nan nan 0.000000
nan nan nan 0.000000
nan nan nan 0.000000
nan nan nan 0.000000
nan nan nan 0.000000
nan nan nan 0.000000
nan nan nan 0.000000
nan nan nan 0.000000
nan nan nan 0.000000
nan nan nan 0.000000
90.249794 163.177994 9.856644 0.928252
116.940643 137.264053 5.261965 0.586862
97.829010 155.819397 7.096696 0.722072
97.832047 155.816437 6.309319 0.678431
116.925453 137.278809 3.954394 0.172885
106.274437 147.619797 4.199997 0.872068
117.212448 137.000168 3.071811 0.269551
97.103485 156.523804 3.193328 0.669825
97.107384 156.520020 2.397695 0.692851
117.409843 136.808517 1.787512 0.289433
117.613663 136.610626 1.368042 0.333639
116.596893 137.597794 0.900102 0.258778
116.475311 137.715851 0.451846 0.246876
116.370850 137.817261 0.000019 0.446250
120.806183 133.511032 0.000015 0.428397
123.878754 130.527893 0.000013 0.450965
126.133652 128.338638 0.000011 0.422507
127.859459 126.663063 0.000010 0.477104
129.223267 125.338951 0.000009 0.459281
130.328506 124.265884 0.000008 0.496788
131.242615 123.378380 0.000007 0.453498
132.054947 122.589699 0.010004 1.000000
132.667389 121.995087 0.000002 0.658396
133.233688 121.445267 0.000000 0.633326
133.727737 120.965591 -0.000000 0.662043
134.162674 120.543312 -0.000002 0.655451
134.548645 120.168587 -0.000002 0.663996
134.922638 119.805473 0.010005 1.000000
135.231293 119.505806 0.010003 1.000000
nan nan nan 0.000000
nan nan nan 0.000000
nan nan nan 0.000000
nan nan nan 0.000000
nan nan nan 0.000000
nan nan nan 0.000000
nan nan nan 0.000000
nan nan nan 0.000000
nan nan nan 0.000000
nan nan nan 0.000000
nan nan nan 0.000000
90.249786 164.149521 9.932636 0.916655
117.230972 137.434158 5.253275 0.258076
117.225975 137.439102 4.817842 0.387884
97.832748 156.641266 6.350929 0.688106
107.386597 147.181534 4.764935 0.779873
106.604218 147.956207 4.199999 0.875517
97.839157 156.634918 3.974687 0.728206
97.105316 157.361526 3.204820 0.560342
97.109268 157.357620 2.401524 0.466300
117.122955 137.541107 1.782814 0.296941
97.117004 157.349960 0.795501 0.612100
97.290436 157.178223 0.000034 0.442893
109.704445 144.886520 0.000024 0.438727
116.603943 138.055008 0.000019 0.438682
123.283386 131.441360 0.232084 0.225055
124.039925 130.692276 0.000013 0.458701
126.273041 128.481171 -0.000013 0.726223
127.982491 126.788551 0.000010 0.430411
129.333237 125.451118 0.000009 0.431281
130.427887 124.367249 0.000008 0.484916
131.333252 123.470810 0.000007 0.417166
132.137787 122.674194 0.010006 1.000000
132.744354 122.073601 0.000002 0.654017
133.305237 121.518242 0.000000 0.654643
133.794556 121.033745 -0.000001 0.668208
134.225342 120.607216 -0.000001 0.652110
134.607605 120.228714 -0.000003 0.666484
134.978012 119.861946 0.010005 1.000000
135.283707 119.559265 0.010003 1.000000
nan nan nan 0.000000
nan nan nan 0.000000
nan nan nan 0.000000
nan nan nan 0.000000
nan nan nan 0.000000
nan nan nan 0.000000
nan nan nan 0.000000
nan nan nan 0.000000
nan nan nan 0.000000
nan nan nan 0.000000
nan nan nan 0.000000
90.249802 165.140106 10.010894 0.919814
117.519745 137.603394 5.244949 0.305974
117.514832 137.608368 4.810627 0.329366
97.833740 157.481964 6.393750 0.709499
108.036255 147.179657 4.737763 0.811399
106.937302 148.289368 4.200000 0.873228
97.842941 157.472672 3.993991 0.725109
97.474159 157.845062 3.206412 0.603540
97.478081 157.841110 2.402055 0.570123
122.384300 132.691254 1.829610 0.321569
97.487915 157.831177 0.793969 0.537438
97.714554 157.602325 0.000034 0.444327
110.007278 145.189346 0.000025 0.444678
116.839355 138.290451 0.000019 0.451728
121.189301 133.897949 0.000015 0.460105
124.202477 130.855286 -0.000014 0.721141
126.414001 128.622131 -0.000013 0.741024
128.106750 126.912819 0.000010 0.467323
129.444305 125.562187 0.000009 0.441978
130.528259 124.467636 0.000008 0.459586
131.424774 123.562340 0.000007 0.401511
132.178833 122.800911 0.000003 0.643153
132.822098 122.151352 0.000002 0.660685
133.377502 121.590515 0.000000 0.646006
133.862045 121.101234 -0.000001 0.661006
134.288605 120.670494 -0.000002 0.629480
134.667145 120.288261 -0.000003 0.653544
135.033936 119.917870 0.010006 1.000000
135.336655 119.612206 0.010003 1.000000
78.789093 177.952881 25.191307 0.409079
78.789093 177.952881 23.952892 0.450294
78.789108 177.952866 22.722460 0.413931
78.789116 177.952850 21.499517 0.407843
78.789131 177.952835 20.283577 0.397406
78.789124 177.952850 19.074175 0.378958
78.789093 177.952881 17.870842 0.411337
78.789108 177.952866 16.673119 0.430289
78.711456 178.032822 15.497471 0.575982
78.789116 177.952850 14.292733 0.402029
123.305222 132.109741 5.121652 0.316426
78.789124 177.952850 11.929526 0.406119
123.356781 132.056656 4.452365 0.203922
97.831619 158.342712 7.248729 0.717067
97.834740 158.339493 6.437856 0.740307
108.673439 147.177704 4.711371 0.834928
107.273643 148.619217 4.200001 0.863691
97.844009 158.329941 4.014005 0.732525
97.845932 158.327972 3.208071 0.716014
122.666428 132.767593 2.169453 0.594415
97.844116 158.329834 1.597338 0.729320
97.843323 158.330658 0.791853 0.731136
123.618439 131.787201 1.197178 0.223529
110.313065 145.489197 0.000025 0.447639
117.077072 138.523560 0.000019 0.451041
121.383682 134.088562 0.000015 0.449760
124.366852 131.016479 -0.000014 0.730877
126.556343 128.761719 -0.000013 0.743862
128.232239 127.035866 0.000010 0.397467
129.556458 125.672165 0.000009 0.475547
130.629608 124.567024 0.000008 0.482826
131.517197 123.652977 0.000007 0.451835
132.263748 122.884186 0.000003 0.659052
132.900604 122.228333 0.000002 0.673747
133.450470 121.662079 0.000000 0.642771
133.930191 121.168060 -0.000001 0.645823
134.352509 120.733154 -0.000002 0.642847
134.727264 120.347221 -0.000002 0.645655
135.090424 119.973251 0.010007 1.000000
135.390106 119.664627 0.010003 1.000000
79.993843 177.952881 24.973406 0.397131
79.993851 177.952866 23.746624 0.417395
79.993866 177.952850 22.527754 0.372412
79.993866 177.952850 21.316301 0.388235
79.993881 177.952835 20.111788 0.407843
79.993881 177.952820 18.913746 0.398856
79.993858 177.952850 17.721722 0.431373
79.993851 177.952866 16.535252 0.428183
79.993866 177.952850 15.353903 0.444770
123.809784 131.935379 5.388465 0.309316
79.993866 177.952850 13.004814 0.396689
123.656525 132.096329 4.761883 0.317800
123.566589 132.190781 4.447563 0.320348
97.832596 159.217804 7.302471 0.730831
97.835739 159.214508 6.483294 0.724193
109.298569 147.175705 4.685735 0.878798
107.613205 148.945770 4.200003 0.875212
97.845078 159.204697 4.034623 0.721569
123.539825 132.218903 2.488763 0.538231
122.780258 133.016632 2.170112 0.657496
124.109787 131.620300 1.842507 0.583871
123.562630 132.194946 1.511885 0.262928
98.575096 158.437988 0.000034 0.440452
123.646683 132.106674 0.866004 0.618936
117.317078 138.754318 0.000019 0.444587
121.579933 134.277267 0.000015 0.436301
124.532799 131.176041 -0.000013 0.735302
126.700043 128.899902 -0.000012 0.727382
128.358917 127.157677 0.000010 0.449973
129.669678 125.781044 0.000009 0.458778
130.731934 124.665413 0.000008 0.464256
131.610504 123.742699 0.000007 0.417899
132.349472 122.966614 0.000003 0.664866
132.979858 122.304543 0.000002 0.654505
133.524139 121.732918 0.000000 0.641947
133.998993 121.234215 -0.000001 0.631968
134.417007 120.795181 -0.000002 0.645716
134.787964 120.405586 -0.000003 0.651560
135.147430 120.028069 0.010007 1.000000
135.444077 119.716515 0.010003 1.000000
81.176277 177.952881 24.761738 0.414511
81.101646 178.032822 23.573278 0.674006
81.176300 177.952850 22.338612 0.401328
81.176300 177.952850 21.138325 0.391669
81.176315 177.952850 19.944916 0.405371
81.176308 177.952850 18.757912 0.404395
81.176292 177.952866 17.576866 0.444083
81.176300 177.952850 16.401333 0.413214
123.657333 132.451096 5.788670 0.302190
81.176300 177.952850 14.065031 0.400946
123.747040 132.355011 5.105772 0.781399
124.437920 131.615005 4.662864 0.258824
81.176300 177.952850 10.591168 0.404425
97.833344 160.111374 7.357881 0.711269
124.217789 131.850784 3.742148 0.181979
124.482651 131.567093 3.401689 0.234012
123.227791 132.911179 3.174009 0.968627
123.810684 132.286835 2.810328 0.290196
124.364815 131.693298 2.470140 0.424659
124.571709 131.471695 2.154711 0.264485
124.437248 131.615723 1.843999 0.259220
124.675568 131.360443 1.538802 0.278431
124.087387 131.990463 1.202945 0.309377
123.582932 132.530792 0.849850 0.495415
117.559326 138.982712 0.000020 0.435935
121.778023 134.464035 0.000015 0.441138
124.700302 131.333954 -0.000013 0.729656
126.845100 129.036652 -0.000012 0.702861
128.486786 127.278236 0.000010 0.447761
129.783981 125.888802 0.000009 0.399237
130.835236 124.762794 0.000008 0.438468
131.704697 123.831497 0.000008 0.390936
132.436005 123.048195 0.000003 0.652735
133.059860 122.379974 0.000002 0.657725
133.598511 121.803024 -0.000000 0.652873
134.068436 121.299690 -0.000001 0.649256
134.482132 120.856575 -0.000002 0.654963
134.849243 120.463356 -0.000003 0.650141
135.204971 120.082321 0.010007 1.000000
135.498550 119.767876 0.010002 1.000000
82.337234 177.952881 24.556078 0.396231
82.264038 178.032837 23.378366 0.678431
82.337250 177.952850 22.154852 0.407767
82.264030 178.032852 20.989208 0.678431
82.337265 177.952850 19.782782 0.410895
82.264030 178.032852 18.627338 0.678431
82.337234 177.952881 17.436131 0.391836
82.405418 177.878387 16.254545 0.241672
82.337250 177.952866 15.111322 0.400214
123.983818 132.457596 5.424836 0.258824
124.470070 131.926407 5.005078 0.321569
124.363113 132.043243 4.703671 0.276310
124.404709 131.997803 4.377335 0.263813
124.438828 131.960541 4.054395 0.192554
124.471024 131.925369 3.733699 0.256092
110.514313 147.171860 4.636639 0.934554
124.066116 132.367706 3.129622 0.331624
97.843590 161.013535 4.077940 0.717601
124.232437 132.186005 2.479009 0.584344
124.864105 131.495956 2.153528 0.276967
124.313080 132.097900 1.841130 0.347845
124.363029 132.043350 1.524788 0.454551
124.242798 132.174683 1.201971 0.303059
123.465294 133.024033 0.829584 0.278859
123.445686 133.045456 0.492777 0.290196
124.805977 131.559464 0.302076 0.290196
124.869347 131.490234 -0.000013 0.725490
126.991486 129.171982 -0.000012 0.726589
128.615829 127.397537 0.000010 0.410849
129.899323 125.995422 0.000010 0.453254
130.939468 124.859161 0.000009 0.408789
131.799744 123.919373 0.000008 0.443565
132.523315 123.128929 0.000003 0.657038
133.140594 122.454613 0.000001 0.653223
133.673553 121.872406 -0.000000 0.653910
134.138504 121.364479 -0.000001 0.636667
134.547836 120.917320 -0.000002 0.626291
134.911072 120.520523 -0.000003 0.646815
135.263046 120.136017 0.010007 1.000000
135.553513 119.818703 0.010002 1.000000
83.477501 177.952881 24.356251 0.409674
83.405739 178.032837 23.188967 0.678431
83.477531 177.952850 21.976294 0.416571
83.405716 178.032867 20.820976 0.678431
83.477539 177.952850 19.625240 0.405264
83.405731 178.032852 18.480036 0.678431
83.477509 177.952881 17.299377 0.401633
83.405746 178.032837 16.162521 0.678431
83.477524 177.952850 14.995168 0.417716
83.477524 177.952866 13.850102 0.400305
124.427582 132.327087 5.045754 0.312764
124.616577 132.116516 4.690719 0.284321
124.656830 132.071671 4.366048 0.252476
97.835381 161.955612 7.473796 0.713634
124.422394 132.332886 3.757831 0.321569
124.319641 132.447357 3.446474 0.851865
124.428093 132.326523 3.117077 0.857679
124.430939 132.323364 2.797499 0.271107
125.065666 131.616150 2.459729 0.258824
125.161140 131.509781 2.152290 0.811887
124.014343 132.787521 1.836472 0.378744
123.732773 133.101227 1.501084 0.232624
123.726639 133.108078 1.167982 0.345098
124.632286 132.099030 0.896938 0.877821
123.687210 133.152008 0.497688 0.584115
123.892326 132.923462 0.184936 0.413977
125.039917 131.644836 -0.000013 0.710613
127.139198 129.305862 -0.000012 0.737575
128.746033 127.515556 0.000010 0.404685
130.015701 126.100922 0.000009 0.414832
131.044647 124.954491 0.000009 0.418448
131.895660 124.006310 0.000008 0.431724
132.611435 123.208801 0.000003 0.669810
133.222061 122.528458 0.000001 0.668513
133.749283 121.941040 -0.000000 0.664256
134.209229 121.428574 -0.000001 0.645060
134.614151 120.977425 -0.000002 0.649195
134.973465 120.577080 -0.000003 0.653040
135.321655 120.189133 0.010006 1.000000
135.608994 119.868988 0.010002 1.000000
84.597855 177.952881 24.162041 0.404074
84.527489 178.032852 23.004906 0.678431
84.597870 177.952866 21.802769 0.387274
84.527481 178.032867 20.657478 0.678431
84.597885 177.952850 19.472126 0.407782
84.527481 178.032867 18.336870 0.678431
84.597855 177.952881 17.166473 0.408255
84.527489 178.032852 16.039494 0.678431
84.597870 177.952866 14.882278 0.397040
84.527481 178.032867 13.761901 0.658579
84.597870 177.952850 12.616150 0.409537
84.597870 177.952866 11.488840 0.445777
124.396667 132.724335 4.431119 0.594293
97.836426 162.908173 7.534465 0.717235
124.550812 132.549164 3.763337 0.329992
124.764091 132.306778 3.422866 0.258732
124.411003 132.708038 3.130673 0.968627
124.848206 132.211197 2.785680 0.215686
125.205734 131.804886 2.460672 0.313359
124.308678 132.824326 2.162428 0.462745
125.113632 131.909561 1.845547 0.321569
124.307495 132.825668 1.512626 0.989456
124.302513 132.831329 1.187278 0.961395
124.432869 132.683197 0.870845 0.649912
125.163857 131.852478 0.612821 0.405814
125.246643 131.758392 0.312627 0.260166
125.212006 131.797760 -0.000012 0.726253
127.288208 129.438293 -0.000012 0.751934
128.877396 127.632294 0.000011 0.459998
130.133118 126.205261 0.000010 0.476860
131.150757 125.048790 0.000009 0.452155
131.992416 124.092293 0.000008 0.408942
132.700333 123.287804 0.000002 0.651789
133.304245 122.601494 0.000002 0.654902
133.825668 122.008934 -0.000000 0.656138
134.280563 121.491974 -0.000002 0.656138
134.681030 121.036873 -0.000002 0.646555
135.036407 120.633018 -0.000003 0.654871
135.380768 120.241676 0.010005 1.000000
135.664948 119.918716 0.010002 1.000000
85.699005 177.952881 23.973278 0.400641
85.699020 177.952881 22.799908 0.402838
85.699020 177.952881 21.634098 0.407843
85.630020 178.032867 20.498566 0.678431
85.699051 177.952850 19.323313 0.390600
85.630020 178.032867 18.197725 0.678431
85.699020 177.952866 17.037292 0.409491
85.630035 178.032837 15.919913 0.678431
124.908844 132.501617 5.667549 0.303456
85.630035 178.032852 13.661716 0.678431
85.699020 177.952866 12.525731 0.396338
85.699036 177.952866 11.408022 0.411521
85.699036 177.952850 10.293573 0.403204
124.990936 132.406448 4.051540 0.341787
124.870369 132.546204 3.748038 0.384024
124.914001 132.495621 3.425455 0.369848
124.956390 132.446503 3.105205 0.294301
97.841110 163.878006 4.148096 0.731289
124.676430 132.771027 2.481805 0.238605
125.081955 132.300949 2.156520 0.321569
124.539734 132.929474 1.838047 0.265019
124.256599 133.257675 1.505573 0.213657
124.499672 132.975922 1.187949 0.653971
124.238625 133.278519 0.844416 0.259068
124.786659 132.643234 0.563048 0.296620
122.588440 135.191376 0.000016 0.445991
125.385574 131.948990 -0.000012 0.734981
127.438522 129.569260 -0.000012 0.751690
129.009903 127.747742 0.000011 0.419226
130.251541 126.308449 0.000010 0.452628
131.257782 125.142044 0.000009 0.448875
132.089966 124.177383 -0.000003 0.641871
132.789993 123.365929 0.000002 0.658442
133.387146 122.673721 0.000001 0.650889
133.902725 122.076073 -0.000001 0.655787
134.352524 121.554672 -0.000001 0.658473
134.748505 121.095657 -0.000002 0.649332
135.127945 120.655815 0.010010 1.000000
135.440399 120.293633 0.010005 1.000000
135.721405 119.967903 0.010001 1.000000
86.781677 177.952896 23.789793 0.412558
86.781693 177.952866 22.626211 0.399908
86.781693 177.952866 21.470142 0.391424
86.781708 177.952850 20.321102 0.393622
86.781708 177.952850 19.178652 0.410880
86.714050 178.032852 18.062460 0.678431
86.781685 177.952881 16.911724 0.404623
86.714066 178.032837 15.803671 0.678431
86.781700 177.952866 14.665896 0.393423
86.714050 178.032852 13.564338 0.678431
86.781693 177.952866 12.437836 0.396963
86.714050 178.032852 11.341160 0.678431
125.432259 132.250305 4.329139 0.260121
97.838371 164.878845 7.661628 0.636698
124.905937 132.872650 3.764274 0.720638
112.829384 147.152634 4.545579 0.562997
124.940979 132.831207 3.119076 0.749783
124.608536 133.224304 2.815919 0.716442
124.557976 133.284103 2.490977 0.293446
125.101814 132.641037 2.158128 0.311147
124.735924 133.073685 1.838163 0.244617
124.668648 133.153229 1.512388 0.519097
124.613525 133.218414 1.184333 0.946014
124.585892 133.251083 0.855713 0.937255
125.596710 132.055847 0.620415 0.316197
124.531624 133.315262 0.193921 0.260502
125.560616 132.098511 -0.000012 0.744198
127.590111 129.698730 -0.000012 0.739483
129.143524 127.861885 0.000011 0.469993
130.370987 126.410469 0.000010 0.420401
131.365723 125.234238 0.000009 0.496223
132.230942 124.211159 0.009989 1.000000
132.880432 123.443169 0.000002 0.656123
133.470749 122.745132 0.000001 0.640589
133.980438 122.142456 -0.000000 0.647807
134.425095 121.616661 -0.000001 0.653315
134.816559 121.153786 -0.000002 0.666148
135.191666 120.710236 0.010010 1.000000
135.500534 120.345001 0.010005 1.000000
135.778320 120.016533 0.009999 1.000000
87.846497 177.952896 23.611403 0.414099
87.846512 177.952881 22.457354 0.404761
87.846519 177.952866 21.310745 0.397620
87.846519 177.952866 20.171118 0.404013
87.846527 177.952866 19.038017 0.402152
87.846497 177.952896 17.911011 0.400381
87.846512 177.952881 16.789646 0.407568
87.823235 177.980957 15.679541 0.309590
87.846504 177.952881 14.562206 0.400977
124.966118 133.176361 5.410536 0.463478
87.846504 177.952881 12.352385 0.401572
125.021698 133.109314 4.745151 0.278035
124.781578 133.398956 4.457024 0.263600
124.880852 133.279205 4.114445 0.852857
125.081841 133.036758 3.765203 0.285023
113.388420 147.142273 4.523945 0.549020
125.203011 132.890594 3.113451 0.665904
124.351593 133.917648 2.838722 0.290196
106.306122 155.685471 3.058367 0.800793
125.047089 133.078690 2.160554 1.000000
125.013306 133.119431 1.839099 0.943389
124.960693 133.182907 1.515623 0.852323
125.113495 132.998581 1.200359 0.324758
124.644531 133.564285 0.846429 0.905547
125.813553 132.154114 0.624182 0.258824
124.840858 133.327454 0.207564 0.371756
125.737129 132.246307 -0.000012 0.731945
127.742958 129.826721 -0.000012 0.722957
129.278275 127.974701 0.000011 0.466957
130.491425 126.511307 0.000010 0.387274
131.474564 125.325371 0.000009 0.471092
132.329758 124.293770 0.010004 1.000000
132.971603 123.519516 0.000002 0.651118
133.555054 122.815720 0.000001 0.644343
134.058792 122.208069 -0.000001 0.643931
134.498276 121.677933 -0.000002 0.638407
134.885162 121.211235 -0.000003 0.668238
135.255905 120.764030 0.010009 1.000000
135.561172 120.395782 0.010005 1.000000
135.835724 120.064598 0.009998 1.000000
88.829178 178.032852 23.464846 0.678431
88.894150 177.952881 22.293180 0.404166
88.894157 177.952881 21.155767 0.406439
88.894165 177.952881 20.025286 0.398352
88.894165 177.952881 18.901283 0.400351
88.894150 177.952881 17.783316 0.407309
88.894135 177.952911 16.670959 0.422858
88.829178 178.032852 15.580796 0.678431
88.894157 177.952881 14.461389 0.405814
88.829163 178.032867 13.377619 0.678431
125.174194 133.304138 5.078017 0.652659
125.170959 133.308121 4.751740 0.704799
88.894165 177.952881 10.091524 0.407904
125.164436 133.316147 4.101535 0.379416
113.892830 147.187775 5.066045 0.905882
124.924133 133.611877 3.475549 0.375433
125.843658 132.480255 3.080275 0.266911
125.144203 133.341049 2.807670 0.279988
124.403961 134.252045 2.507542 0.437766
125.337692 133.102936 2.159470 0.769131
125.814659 132.515945 1.845480 0.223529
106.924347 155.763672 0.948146 0.379217
111.955933 149.571457 0.507707 0.839216
125.259537 133.199112 0.877260 0.266667
124.693237 133.896042 0.502859 0.363867
125.556374 132.833801 0.267822 0.290196
125.915077 132.392365 -0.000012 0.707256
127.897057 129.953186 -0.000012 0.712856
129.414124 128.086197 0.000011 0.454566
130.612839 126.610962 0.000010 0.422293
131.584290 125.415428 0.000009 0.435508
132.387741 124.426651 0.000003 0.652216
133.063538 123.594971 0.000002 0.659312
133.640045 122.885483 0.000000 0.642191
134.137802 122.272903 -0.000000 0.677791
134.572052 121.738487 -0.000002 0.654261
134.954346 121.268013 -0.000003 0.654643
135.320663 120.817192 0.010009 1.000000
135.622314 120.445953 0.010005 1.000000
135.893600 120.112091 0.010001 1.000000
89.861526 178.032867 23.295998 0.678431
89.925217 177.952881 22.133535 0.400534
89.861511 178.032867 21.028925 0.678431
89.925224 177.952881 19.883488 0.390112
89.925224 177.952881 18.768326 0.413611
89.925209 177.952896 17.659153 0.433890
89.925209 177.952896 16.555546 0.390951
89.925217 177.952881 15.457081 0.399252
89.925217 177.952881 14.363361 0.391775
125.618561 133.134216 5.349098 0.513512
125.384895 133.427612 5.073534 0.546929
125.381706 133.431625 4.747732 0.437446
89.925217 177.952881 10.027874 0.396078
89.925217 177.952881 8.951904 0.402823
125.372101 133.443695 3.774779 0.318135
114.486885 147.111801 4.481697 0.581353
125.730225 132.994003 3.101887 0.392157
89.925209 177.952896 4.668307 0.392554
89.861511 178.032867 3.602625 0.678431
125.406326 133.400711 2.160708 0.733104
125.837112 132.859787 1.843818 0.258824
89.925224 177.952881 0.399382 0.396124
125.334229 133.491241 1.192399 0.290196
125.264885 133.578323 0.863867 0.290196
119.575615 140.722107 0.000021 0.437339
123.426773 135.886353 0.000017 0.445899
126.094452 132.536652 -0.000012 0.735195
128.052399 130.078140 -0.000011 0.726345
129.551056 128.196350 0.000011 0.458167
130.735229 126.709419 0.000010 0.424933
131.694901 125.504402 0.000010 0.451926
132.488602 124.507797 0.000003 0.650828
133.156204 123.669510 0.000002 0.659098
133.725708 122.954399 0.000000 0.664851
134.217438 122.336967 -0.000000 0.677272
134.646423 121.798309 -0.000002 0.664576
135.024078 121.324104 -0.000003 0.670924
135.385956 120.869713 0.010008 1.000000
135.683945 120.495537 0.010004 1.000000
135.951950 120.159012 0.010002 1.000000
90.918350 177.980988 23.114626 0.305074
90.940285 177.952881 21.978300 0.408988
90.918343 177.980988 20.866856 0.306813
90.940292 177.952866 19.745600 0.406744
90.918350 177.980988 18.646374 0.306813
90.940277 177.952896 17.538418 0.412970
90.940277 177.952881 16.443314 0.409033
90.940285 177.952881 15.353321 0.406470
90.940285 177.952881 14.268033 0.394583
90.918350 177.980988 13.191975 0.309422
90.940277 177.952881 12.109962 0.408652
90.918350 177.980988 11.040381 0.309422
90.940300 177.952866 9.965971 0.401312
90.918350 177.980988 8.901343 0.311101
114.951660 147.187775 5.018470 0.849271
115.025864 147.092697 4.461133 0.635157
111.178696 152.021973 4.200014 0.878660
125.849693 133.224426 2.790295 0.290196
90.918350 177.980988 3.588974 0.312779
90.940285 177.952881 2.529365 0.388235
125.859459 133.211914 1.842099 0.405753
126.049667 132.968201 1.532314 0.159197
103.114716 162.354126 0.000036 0.444572
125.902069 133.157318 0.897111 0.290547
125.376724 133.830429 0.530997 0.259831
123.640572 136.054916 0.000017 0.452567
126.275238 132.679184 -0.000012 0.737652
128.208954 130.201569 -0.000011 0.727169
129.689056 128.305145 0.000011 0.454871
130.858582 126.806671 0.000010 0.466011
131.806381 125.592300 0.000009 0.420462
132.590256 124.587936 0.000003 0.653513
133.249588 123.743141 0.000001 0.657618
133.812057 123.022476 0.000000 0.652705
134.297699 122.400246 -0.000001 0.636423
134.721359 121.857407 -0.000002 0.664622
135.094345 121.379509 -0.000003 0.637644
135.451752 120.921585 0.010008 1.000000
135.746048 120.544510 0.010002 1.000000
136.010742 120.205368 0.010003 1.000000
91.878723 178.032883 22.972120 0.678431
91.939911 177.952881 21.827333 0.401755
91.878731 178.032867 20.739519 0.678431
91.939911 177.952881 19.611507 0.402060
91.878723 178.032883 18.534023 0.678431
91.939896 177.952881 17.421001 0.394797
91.939896 177.952881 16.334175 0.402487
91.939911 177.952881 15.252419 0.450782
91.939896 177.952881 14.175334 0.429725
125.807739 133.669418 5.391359 0.316548
91.939896 177.952881 12.033564 0.401205
125.801506 133.677551 4.740535 0.279896
91.939911 177.952881 9.905779 0.410239
91.878723 178.032883 8.854768 0.677256
115.550079 147.081696 4.986031 0.669978
115.549088 147.082977 4.441813 0.678431
111.551483 152.309998 4.200016 0.880232
91.939911 177.952881 4.627727 0.394720
91.878731 178.032867 3.578251 0.678431
91.939911 177.952881 2.525363 0.407782
91.939911 177.952881 1.474635 0.427893
126.029037 133.380051 1.525666 0.242313
103.589333 162.720810 0.000036 0.444862
126.256416 133.082748 0.909749 0.258824
120.100548 141.131775 0.000021 0.447623
123.856018 136.221359 0.000017 0.448371
126.457413 132.819931 -0.000012 0.722087
128.366714 130.323456 -0.000011 0.727504
129.828003 128.412766 -0.000011 0.744518
130.982880 126.902710 0.000010 0.426490
131.918716 125.679085 0.000010 0.441245
132.692688 124.667084 0.000003 0.647120
133.343704 123.815857 0.000001 0.653986
133.899063 123.089699 0.000000 0.648768
134.378571 122.462730 -0.000001 0.671153
134.796890 121.915756 -0.000002 0.654246
135.165161 121.434227 -0.000003 0.647181
135.518051 120.972816 0.010008 1.000000
135.808624 120.592880 0.009998 1.000000
136.069992 120.251137 0.010004 1.000000
92.924622 177.952881 22.790743 0.408164
92.924622 177.952881 21.680517 0.442176
92.864685 178.032883 20.600758 0.678431
92.924637 177.952881 19.481096 0.436713
92.864685 178.032883 18.411592 0.678431
92.924622 177.952896 17.306810 0.404486
92.924614 177.952896 16.228035 0.406836
92.924629 177.952881 15.154286 0.403769
92.924622 177.952881 14.085173 0.422858
92.924637 177.952881 13.020296 0.397177
92.924622 177.952881 11.959269 0.399725
92.864685 178.032883 10.912878 0.678431
92.924622 177.952881 9.847240 0.407248
92.864677 178.032883 8.804008 0.678431
116.058014 147.081696 4.963921 0.661570
116.057037 147.082993 4.423735 0.678431
111.956093 152.555649 4.197798 0.741588
92.924622 177.952881 4.608267 0.407935
92.864685 178.032867 3.566563 0.678431
92.924637 177.952866 2.521473 0.403861
106.158478 160.292496 1.622966 0.082292
106.158470 160.292496 0.868768 0.441947
106.158478 160.292496 0.114184 0.134936
114.543594 149.102661 0.000026 0.437430
125.569794 134.388351 0.511778 0.258305
124.073082 136.385696 0.000017 0.455238
126.640961 132.958893 -0.000012 0.734859
128.525665 130.443787 -0.000011 0.731579
129.968124 128.518845 -0.000011 0.743526
131.108124 126.997513 0.000010 0.461555
132.031891 125.764771 0.000010 0.403555
132.795898 124.745216 0.000002 0.654765
133.438522 123.887642 0.000001 0.651606
133.986725 123.156067 -0.000000 0.653269
134.460052 122.524422 -0.000001 0.661814
134.872986 121.973366 -0.000003 0.654246
135.236511 121.488243 -0.000003 0.659022
135.584854 121.023392 0.010007 1.000000
135.871674 120.640625 0.009996 1.000000
136.129684 120.296326 0.010005 1.000000
93.894958 177.952881 22.639898 0.392065
93.894958 177.952881 21.537725 0.416831
93.836243 178.032867 20.465799 0.678431
93.894966 177.952881 19.354267 0.368566
93.836243 178.032867 18.292519 0.678431
93.894958 177.952896 17.195755 0.391775
93.836250 178.032867 16.142523 0.678431
93.894966 177.952881 15.058850 0.402441
93.894958 177.952896 13.997496 0.377768
93.894958 177.952896 12.940341 0.390066
93.894958 177.952881 11.887012 0.395346
93.836235 178.032883 10.848210 0.678431
93.894958 177.952881 9.790301 0.384924
93.836227 178.032883 8.754642 0.678431
116.558533 147.081696 4.942415 0.664500
116.557983 147.082428 4.406107 0.744793
112.396149 152.751480 4.192989 0.671321
106.744751 160.449539 3.878512 0.936980
93.836235 178.032883 3.555198 0.678431
110.241409 155.686554 2.336900 0.913237
106.601334 160.644897 1.622839 0.079606
106.601318 160.644897 0.868390 0.077867
110.427841 155.432617 0.325231 0.741176
114.859825 149.395584 -0.002123 0.474510
120.633415 141.531082 0.000021 0.459785
124.291512 136.548203 -0.000012 0.738613
126.825867 133.096039 -0.000012 0.730541
128.685776 130.562561 -0.000011 0.731472
130.109283 128.623535 -0.000011 0.715190
131.234283 127.091095 0.000011 0.434684
132.145935 125.849304 0.000015 0.652644
132.899872 124.822334 0.000003 0.651682
133.534042 123.958488 0.000001 0.656016
134.075043 123.221565 -0.000000 0.645762
134.542145 122.585304 -0.000001 0.636133
