# This PCD file was generated using the MATLABÂ® pcwrite function
# from Computer Vision ToolboxÂ®.
# .PCD v.7 - Point Cloud Data file format
VERSION .7
FIELDS x y z intensity
SIZE 4 4 4 4
TYPE F F F F
COUNT 1 1 1 1
WIDTH 1208
HEIGHT 1
VIEWPOINT 0 0 0 1 0 0 0
POINTS 1208
DATA ascii
nan nan nan 0.000000
350.130280 -579.389526 2.878025 1.000000
350.130280 -579.389526 2.715792 1.000000
350.130280 -579.389526 2.555126 1.000000
350.130280 -579.389526 2.395666 1.000000
350.130280 -579.389526 2.237060 1.000000
350.130280 -579.389526 2.078964 1.000000
350.130280 -579.389526 1.921036 1.000000
350.130280 -579.389526 1.762940 1.000000
350.130280 -579.389526 1.604334 1.000000
350.130280 -579.389526 1.444874 1.000000
350.130280 -579.389526 1.284208 1.000000
350.130280 -579.389526 1.121975 1.000000
350.130280 -579.389526 0.957797 1.000000
350.130280 -579.389526 0.791281 1.000000
nan nan nan 0.000000
nan nan nan 0.000000
350.120026 -579.354248 2.875329 1.000000
350.120026 -579.354248 2.713593 1.000000
350.120026 -579.354248 2.553421 1.000000
350.120026 -579.354248 2.394451 1.000000
350.120026 -579.354248 2.236332 1.000000
350.120026 -579.354248 2.078721 1.000000
350.120026 -579.354248 1.921279 1.000000
350.120026 -579.354248 1.763668 1.000000
350.120026 -579.354248 1.605549 1.000000
350.120026 -579.354248 1.446579 1.000000
350.120026 -579.354248 1.286407 1.000000
350.120026 -579.354248 1.124671 1.000000
350.120026 -579.354248 0.960997 1.000000
350.120026 -579.354248 0.794993 1.000000
nan nan nan 0.000000
nan nan nan 0.000000
350.109833 -579.319153 2.872691 1.000000
350.109833 -579.319153 2.711443 1.000000
350.109833 -579.319153 2.551754 1.000000
350.109833 -579.319153 2.393263 1.000000
350.109833 -579.319153 2.235620 1.000000
350.109833 -579.319153 2.078484 1.000000
350.109833 -579.319153 1.921516 1.000000
350.109833 -579.319153 1.764380 1.000000
350.109833 -579.319153 1.606737 1.000000
350.109833 -579.319153 1.448246 1.000000
350.109833 -579.319153 1.288557 1.000000
350.109833 -579.319153 1.127309 1.000000
350.109833 -579.319153 0.964128 1.000000
350.109833 -579.319153 0.798624 1.000000
nan nan nan 0.000000
nan nan nan 0.000000
350.099701 -579.284302 2.870111 1.000000
350.099701 -579.284302 2.709341 1.000000
350.099701 -579.284302 2.550123 1.000000
350.099701 -579.284302 2.392100 1.000000
350.099701 -579.284302 2.234924 1.000000
350.099701 -579.284302 2.078252 1.000000
350.099701 -579.284302 1.921748 1.000000
350.099701 -579.284302 1.765076 1.000000
350.099701 -579.284302 1.607899 1.000000
350.099701 -579.284302 1.449877 1.000000
350.099701 -579.284302 1.290659 1.000000
350.099701 -579.284302 1.129888 1.000000
350.099701 -579.284302 0.967190 1.000000
350.099701 -579.284302 0.802175 1.000000
nan nan nan 0.000000
nan nan nan 0.000000
350.089630 -579.249634 2.867590 1.000000
350.089630 -579.249634 2.707284 1.000000
350.089630 -579.249634 2.548528 1.000000
350.089630 -579.249634 2.390964 1.000000
350.089630 -579.249634 2.234243 1.000000
350.089630 -579.249634 2.078025 1.000000
350.089630 -579.249634 1.921975 1.000000
350.089630 -579.249634 1.765757 1.000000
350.089630 -579.249634 1.609036 1.000000
350.089630 -579.249634 1.451471 1.000000
350.089630 -579.249634 1.292715 1.000000
350.089630 -579.249634 1.132410 1.000000
350.089630 -579.249634 0.970183 1.000000
350.089630 -579.249634 0.805647 1.000000
nan nan nan 0.000000
nan nan nan 0.000000
350.079620 -579.215149 2.865125 1.000000
350.079620 -579.215149 2.705275 1.000000
350.079620 -579.215149 2.546970 1.000000
350.079620 -579.215149 2.389853 1.000000
350.079620 -579.215149 2.233577 1.000000
350.079620 -579.215149 2.077804 1.000000
350.079620 -579.215149 1.922197 1.000000
350.079620 -579.215149 1.766423 1.000000
350.079620 -579.215149 1.610147 1.000000
350.079620 -579.215149 1.453030 1.000000
350.079620 -579.215149 1.294725 1.000000
350.079620 -579.215149 1.134875 1.000000
350.079620 -579.215149 0.973109 1.000000
350.079620 -579.215149 0.809040 1.000000
nan nan nan 0.000000
nan nan nan 0.000000
350.069672 -579.180847 2.862715 1.000000
350.069672 -579.180847 2.703311 1.000000
350.069672 -579.180847 2.545447 1.000000
350.069672 -579.180847 2.388767 1.000000
350.069672 -579.180847 2.232927 1.000000
350.069672 -579.180847 2.077587 1.000000
350.069672 -579.180847 1.922413 1.000000
350.069672 -579.180847 1.767073 1.000000
350.069672 -579.180847 1.611233 1.000000
350.069672 -579.180847 1.454553 1.000000
350.069672 -579.180847 1.296689 1.000000
350.069672 -579.180847 1.137285 1.000000
350.069672 -579.180847 0.975970 1.000000
350.069672 -579.180847 0.812357 1.000000
nan nan nan 0.000000
nan nan nan 0.000000
350.059753 -579.146790 2.860361 1.000000
350.059753 -579.146790 2.701391 1.000000
350.059753 -579.146790 2.543958 1.000000
350.059753 -579.146790 2.387706 1.000000
350.059753 -579.146790 2.232291 1.000000
350.059753 -579.146790 2.077375 1.000000
350.059753 -579.146790 1.922625 1.000000
350.059753 -579.146790 1.767709 1.000000
350.059753 -579.146790 1.612293 1.000000
350.059753 -579.146790 1.456042 1.000000
350.059753 -579.146790 1.298609 1.000000
350.059753 -579.146790 1.139639 1.000000
350.059753 -579.146790 0.978764 1.000000
350.059753 -579.146790 0.815598 1.000000
nan nan nan 0.000000
nan nan nan 0.000000
350.049896 -579.112854 2.858061 1.000000
350.049927 -579.112854 2.699516 1.000000
350.049896 -579.112854 2.542504 1.000000
350.049896 -579.112854 2.386670 1.000000
350.049896 -579.112854 2.231670 1.000000
350.049896 -579.112854 2.077168 1.000000
350.049896 -579.112854 1.922832 1.000000
350.049896 -579.112854 1.768330 1.000000
350.049896 -579.112854 1.613330 1.000000
350.049896 -579.112854 1.457496 1.000000
350.049896 -579.112854 1.300483 1.000000
350.049896 -579.112854 1.141938 1.000000
350.049896 -579.112854 0.981494 1.000000
350.049896 -579.112854 0.818764 1.000000
nan nan nan 0.000000
nan nan nan 0.000000
350.040100 -579.079163 2.855815 1.000000
350.040100 -579.079163 2.697686 1.000000
350.040100 -579.079163 2.541084 1.000000
350.040100 -579.079163 2.385658 1.000000
350.040100 -579.079163 2.231064 1.000000
350.040100 -579.079163 2.076966 1.000000
350.040100 -579.079163 1.923034 1.000000
350.040100 -579.079163 1.768936 1.000000
350.040100 -579.079163 1.614342 1.000000
350.040100 -579.079163 1.458916 1.000000
350.040100 -579.079163 1.302314 1.000000
350.040100 -579.079163 1.144184 1.000000
350.040100 -579.079163 0.984159 1.000000
350.040100 -579.079163 0.821855 1.000000
nan nan nan 0.000000
nan nan nan 0.000000
350.030365 -579.045593 2.853623 1.000000
350.030365 -579.045593 2.695898 1.000000
350.030365 -579.045593 2.539698 1.000000
350.030365 -579.045593 2.384670 1.000000
350.030365 -579.045593 2.230472 1.000000
350.030365 -579.045593 2.076769 1.000000
350.030365 -579.045593 1.923231 1.000000
350.030365 -579.045593 1.769528 1.000000
350.030365 -579.045593 1.615330 1.000000
350.030365 -579.045593 1.460302 1.000000
350.030365 -579.045593 1.304102 1.000000
350.030365 -579.045593 1.146377 1.000000
350.030365 -579.045593 0.986762 1.000000
350.030365 -579.045593 0.824874 1.000000
nan nan nan 0.000000
nan nan nan 0.000000
350.020660 -579.012207 2.851482 1.000000
350.020660 -579.012207 2.694154 1.000000
350.020660 -579.012207 2.538345 1.000000
350.020660 -579.012207 2.383706 1.000000
350.020660 -579.012207 2.229894 1.000000
350.020660 -579.012207 2.076577 1.000000
350.020660 -579.012207 1.923423 1.000000
350.020660 -579.012207 1.770106 1.000000
350.020660 -579.012207 1.616294 1.000000
350.020660 -579.012207 1.461655 1.000000
350.020660 -579.012207 1.305846 1.000000
350.020660 -579.012207 1.148517 1.000000
350.020660 -579.012207 0.989302 1.000000
350.020660 -579.012207 0.827820 1.000000
nan nan nan 0.000000
nan nan nan 0.000000
350.011017 -578.979004 2.849395 1.000000
350.011017 -578.979004 2.692451 1.000000
350.011017 -578.979004 2.537025 1.000000
350.011017 -578.979004 2.382765 1.000000
350.011017 -578.979004 2.229331 1.000000
350.011017 -578.979004 2.076389 1.000000
350.011017 -578.979004 1.923611 1.000000
350.011017 -578.979004 1.770669 1.000000
350.011017 -578.979004 1.617235 1.000000
350.011017 -578.979004 1.462975 1.000000
350.011017 -578.979004 1.307548 1.000000
350.011017 -578.979004 1.150605 1.000000
350.011017 -578.979004 0.991781 1.000000
350.011017 -578.979004 0.830695 1.000000
nan nan nan 0.000000
nan nan nan 0.000000
350.001434 -578.945923 2.847358 1.000000
350.001434 -578.945923 2.690791 1.000000
350.001404 -578.945923 2.535737 1.000000
350.001404 -578.945923 2.381847 1.000000
350.001404 -578.945923 2.228781 1.000000
350.001404 -578.945923 2.076206 1.000000
350.001404 -578.945923 1.923794 1.000000
350.001404 -578.945923 1.771219 1.000000
350.001404 -578.945923 1.618153 1.000000
350.001404 -578.945923 1.464263 1.000000
350.001404 -578.945923 1.309209 1.000000
350.001404 -578.945923 1.152642 1.000000
350.001404 -578.945923 0.994198 1.000000
350.001404 -578.945923 0.833498 1.000000
nan nan nan 0.000000
nan nan nan 0.000000
349.991852 -578.913025 2.845372 1.000000
349.991852 -578.913025 2.689172 1.000000
349.991852 -578.913025 2.534482 1.000000
349.991852 -578.913025 2.380952 1.000000
349.991852 -578.913025 2.228244 1.000000
349.991852 -578.913025 2.076027 1.000000
349.991852 -578.913025 1.923973 1.000000
349.991852 -578.913025 1.771756 1.000000
349.991852 -578.913025 1.619048 1.000000
349.991852 -578.913025 1.465518 1.000000
349.991852 -578.913025 1.310827 1.000000
349.991852 -578.913025 1.154627 1.000000
349.991852 -578.913025 0.996555 1.000000
349.991852 -578.913025 0.836232 1.000000
nan nan nan 0.000000
nan nan nan 0.000000
349.982361 -578.880310 2.843437 1.000000
349.982361 -578.880310 2.687594 1.000000
349.982361 -578.880310 2.533258 1.000000
349.982361 -578.880310 2.380080 1.000000
349.982361 -578.880310 2.227722 1.000000
349.982361 -578.880310 2.075853 1.000000
349.982361 -578.880310 1.924147 1.000000
349.982361 -578.880310 1.772278 1.000000
349.982361 -578.880310 1.619920 1.000000
349.982361 -578.880310 1.466742 1.000000
349.982361 -578.880310 1.312405 1.000000
349.982361 -578.880310 1.156563 1.000000
349.982361 -578.880310 0.998853 1.000000
349.982361 -578.880310 0.838896 1.000000
nan nan nan 0.000000
349.972870 -578.847717 2.998909 1.000000
349.972870 -578.847717 2.841551 1.000000
349.972870 -578.847717 2.686057 1.000000
349.972870 -578.847717 2.532066 1.000000
349.972870 -578.847717 2.379230 1.000000
349.972870 -578.847717 2.227213 1.000000
349.972870 -578.847717 2.075683 1.000000
349.972870 -578.847717 1.924317 1.000000
349.972870 -578.847717 1.772787 1.000000
349.972870 -578.847717 1.620770 1.000000
349.972870 -578.847717 1.467934 1.000000
349.972870 -578.847717 1.313943 1.000000
349.972870 -578.847717 1.158448 1.000000
349.972870 -578.847717 1.001091 1.000000
349.972870 -578.847717 0.841492 1.000000
nan nan nan 0.000000
349.963440 -578.815247 2.996729 1.000000
349.963440 -578.815247 2.839715 1.000000
349.963440 -578.815247 2.684560 1.000000
349.963440 -578.815247 2.530905 1.000000
349.963440 -578.815247 2.378402 1.000000
349.963440 -578.815247 2.226717 1.000000
349.963440 -578.815247 2.075518 1.000000
349.963440 -578.815247 1.924482 1.000000
349.963440 -578.815247 1.773283 1.000000
349.963440 -578.815247 1.621597 1.000000
349.963440 -578.815247 1.469095 1.000000
349.963440 -578.815247 1.315440 1.000000
349.963440 -578.815247 1.160285 1.000000
349.963440 -578.815247 1.003270 1.000000
349.963440 -578.815247 0.844020 1.000000
nan nan nan 0.000000
349.954071 -578.782959 2.994607 1.000000
349.954071 -578.782959 2.837927 1.000000
349.954071 -578.782959 2.683103 1.000000
349.954071 -578.782959 2.529774 1.000000
349.954071 -578.782959 2.377597 1.000000
349.954071 -578.782959 2.226234 1.000000
349.954071 -578.782959 2.075357 1.000000
349.954071 -578.782959 1.924642 1.000000
349.954071 -578.782959 1.773766 1.000000
349.954071 -578.782959 1.622403 1.000000
349.954071 -578.782959 1.470225 1.000000
349.954071 -578.782959 1.316897 1.000000
349.954071 -578.782959 1.162073 1.000000
349.954071 -578.782959 1.005392 1.000000
349.954071 -578.782959 0.846481 1.000000
nan nan nan 0.000000
349.944733 -578.750732 2.992542 1.000000
349.944702 -578.750732 2.836188 1.000000
349.944702 -578.750732 2.681684 1.000000
349.944702 -578.750732 2.528675 1.000000
349.944702 -578.750732 2.376813 1.000000
349.944702 -578.750732 2.225765 1.000000
349.944702 -578.750793 2.075201 1.000000
349.944702 -578.750793 1.924799 1.000000
349.944702 -578.750793 1.774235 1.000000
349.944702 -578.750793 1.623187 1.000000
349.944702 -578.750793 1.471325 1.000000
349.944702 -578.750793 1.318315 1.000000
349.944702 -578.750793 1.163812 1.000000
349.944702 -578.750793 1.007457 1.000000
349.944702 -578.750793 0.848876 1.000000
nan nan nan 0.000000
349.935394 -578.718689 2.990535 1.000000
349.935394 -578.718689 2.834496 1.000000
349.935394 -578.718689 2.680305 1.000000
349.935394 -578.718689 2.527605 1.000000
349.935394 -578.718689 2.376051 1.000000
349.935394 -578.718689 2.225308 1.000000
349.935394 -578.718689 2.075049 1.000000
349.935394 -578.718689 1.924951 1.000000
349.935394 -578.718689 1.774692 1.000000
349.935394 -578.718689 1.623949 1.000000
349.935394 -578.718689 1.472395 1.000000
349.935394 -578.718689 1.319694 1.000000
349.935394 -578.718689 1.165504 1.000000
349.935394 -578.718689 1.009465 1.000000
349.935394 -578.718689 0.851204 1.000000
nan nan nan 0.000000
349.926147 -578.686768 2.988583 1.000000
349.926147 -578.686768 2.832852 1.000000
349.926147 -578.686768 2.678965 1.000000
349.926147 -578.686768 2.526566 1.000000
349.926147 -578.686768 2.375310 1.000000
349.926147 -578.686768 2.224864 1.000000
349.926147 -578.686768 2.074901 1.000000
349.926147 -578.686768 1.925099 1.000000
349.926147 -578.686768 1.775136 1.000000
349.926147 -578.686768 1.624690 1.000000
349.926147 -578.686768 1.473434 1.000000
349.926147 -578.686768 1.321035 1.000000
349.926147 -578.686768 1.167148 1.000000
349.926147 -578.686768 1.011417 1.000000
349.926147 -578.686768 0.853468 1.000000
nan nan nan 0.000000
349.916901 -578.655029 2.986687 1.000000
349.916901 -578.655029 2.831254 1.000000
349.916901 -578.655029 2.677663 1.000000
349.916901 -578.655029 2.525556 1.000000
349.916901 -578.655029 2.374590 1.000000
349.916901 -578.655029 2.224432 1.000000
349.916901 -578.655029 2.074758 1.000000
349.916901 -578.655029 1.925243 1.000000
349.916901 -578.655029 1.775567 1.000000
349.916901 -578.655029 1.625410 1.000000
349.916901 -578.655029 1.474444 1.000000
349.916901 -578.655029 1.322337 1.000000
349.916901 -578.655029 1.168745 1.000000
349.916901 -578.655029 1.013313 1.000000
349.916901 -578.655029 0.855667 1.000000
nan nan nan 0.000000
349.907684 -578.623352 2.984846 1.000000
349.907684 -578.623352 2.829704 1.000000
349.907684 -578.623352 2.676399 1.000000
349.907684 -578.623352 2.524575 1.000000
349.907684 -578.623352 2.373891 1.000000
349.907684 -578.623352 2.224014 1.000000
349.907684 -578.623352 2.074618 1.000000
349.907684 -578.623352 1.925382 1.000000
349.907684 -578.623352 1.775986 1.000000
349.907684 -578.623352 1.626109 1.000000
349.907684 -578.623352 1.475425 1.000000
349.907684 -578.623352 1.323601 1.000000
349.907684 -578.623352 1.170296 1.000000
349.907684 -578.623352 1.015154 1.000000
349.907684 -578.623352 0.857802 1.000000
nan nan nan 0.000000
349.898529 -578.591797 2.983059 1.000000
349.898529 -578.591797 2.828198 1.000000
349.898529 -578.591797 2.675172 1.000000
349.898529 -578.591797 2.523624 1.000000
349.898529 -578.591797 2.373213 1.000000
349.898529 -578.591797 2.223608 1.000000
349.898529 -578.591797 2.074483 1.000000
349.898529 -578.591797 1.925517 1.000000
349.898529 -578.591797 1.776392 1.000000
349.898529 -578.591797 1.626787 1.000000
349.898529 -578.591797 1.476376 1.000000
349.898529 -578.591797 1.324828 1.000000
349.898529 -578.591797 1.171801 1.000000
349.898529 -578.591797 1.016940 1.000000
349.898529 -578.591797 0.859874 1.000000
nan nan nan 0.000000
349.889404 -578.560303 2.981328 1.000000
349.889404 -578.560303 2.826739 1.000000
349.889404 -578.560303 2.673982 1.000000
349.889404 -578.560303 2.522701 1.000000
349.889404 -578.560303 2.372555 1.000000
349.889404 -578.560303 2.223213 1.000000
349.889404 -578.560303 2.074352 1.000000
349.889404 -578.560303 1.925649 1.000000
349.889404 -578.560303 1.776786 1.000000
349.889404 -578.560303 1.627444 1.000000
349.889404 -578.560303 1.477299 1.000000
349.889404 -578.560303 1.326018 1.000000
349.889404 -578.560303 1.173260 1.000000
349.889404 -578.560303 1.018672 1.000000
349.889404 -578.560303 0.861882 1.000000
nan nan nan 0.000000
349.880280 -578.528992 2.979649 1.000000
349.880280 -578.528992 2.825325 1.000000
349.880280 -578.528992 2.672829 1.000000
349.880280 -578.528992 2.521807 1.000000
349.880280 -578.528992 2.371918 1.000000
349.880280 -578.528992 2.222832 1.000000
349.880280 -578.528992 2.074224 1.000000
349.880280 -578.528992 1.925776 1.000000
349.880280 -578.528992 1.777168 1.000000
349.880280 -578.528992 1.628082 1.000000
349.880280 -578.528992 1.478193 1.000000
349.880280 -578.528992 1.327170 1.000000
349.880280 -578.528992 1.174674 1.000000
349.880280 -578.528992 1.020350 1.000000
349.880280 -578.528992 0.863829 1.000000
nan nan nan 0.000000
349.871216 -578.497742 2.978024 1.000000
349.871216 -578.497742 2.823956 1.000000
349.871216 -578.497742 2.671713 1.000000
349.871216 -578.497742 2.520942 1.000000
349.871216 -578.497742 2.371301 1.000000
349.871216 -578.497742 2.222462 1.000000
349.871216 -578.497742 2.074101 1.000000
349.871216 -578.497742 1.925899 1.000000
349.871216 -578.497742 1.777538 1.000000
349.871216 -578.497742 1.628698 1.000000
349.871216 -578.497742 1.479058 1.000000
349.871216 -578.497742 1.328286 1.000000
349.871216 -578.497742 1.176043 1.000000
349.871216 -578.497742 1.021975 1.000000
349.871216 -578.497742 0.865713 1.000000
nan nan nan 0.000000
349.862183 -578.466614 2.976452 1.000000
349.862183 -578.466614 2.822632 1.000000
349.862183 -578.466614 2.670634 1.000000
349.862183 -578.466614 2.520104 1.000000
349.862183 -578.466614 2.370705 1.000000
349.862183 -578.466614 2.222105 1.000000
349.862183 -578.466614 2.073982 1.000000
349.862183 -578.466614 1.926018 1.000000
349.862183 -578.466614 1.777895 1.000000
349.862183 -578.466614 1.629295 1.000000
349.862183 -578.466614 1.479895 1.000000
349.862183 -578.466614 1.329366 1.000000
349.862183 -578.466614 1.177368 1.000000
349.862183 -578.466614 1.023547 1.000000
349.862183 -578.466614 0.867537 1.000000
nan nan nan 0.000000
349.853149 -578.435608 2.974932 1.000000
349.853149 -578.435608 2.821352 1.000000
349.853149 -578.435608 2.669590 1.000000
349.853149 -578.435608 2.519295 1.000000
349.853149 -578.435608 2.370128 1.000000
349.853149 -578.435608 2.221759 1.000000
349.853149 -578.435608 2.073867 1.000000
349.853149 -578.435608 1.926133 1.000000
349.853149 -578.435608 1.778241 1.000000
349.853149 -578.435608 1.629872 1.000000
349.853149 -578.435608 1.480705 1.000000
349.853149 -578.435608 1.330410 1.000000
349.853149 -578.435608 1.178648 1.000000
349.853149 -578.435608 1.025067 1.000000
349.853149 -578.435608 0.869299 1.000000
nan nan nan 0.000000
349.844177 -578.404663 2.973465 1.000000
349.844177 -578.404663 2.820116 1.000000
349.844177 -578.404663 2.668582 1.000000
349.844177 -578.404663 2.518513 1.000000
349.844177 -578.404663 2.369570 1.000000
349.844177 -578.404663 2.221425 1.000000
349.844177 -578.404663 2.073756 1.000000
349.844177 -578.404663 1.926244 1.000000
349.844177 -578.404663 1.778575 1.000000
349.844177 -578.404663 1.630429 1.000000
349.844177 -578.404663 1.481487 1.000000
349.844177 -578.404663 1.331418 1.000000
349.844177 -578.404663 1.179884 1.000000
349.844177 -578.404663 1.026535 1.000000
349.844177 -578.404663 0.871001 1.000000
nan nan nan 0.000000
349.835205 -578.373840 2.972049 1.000000
349.835205 -578.373840 2.818923 1.000000
349.835205 -578.373840 2.667610 1.000000
349.835205 -578.373840 2.517759 1.000000
349.835205 -578.373840 2.369033 1.000000
349.835205 -578.373840 2.221103 1.000000
349.835205 -578.373840 2.073648 1.000000
349.835205 -578.373840 1.926352 1.000000
349.835205 -578.373840 1.778897 1.000000
349.835205 -578.373840 1.630967 1.000000
349.835205 -578.373840 1.482241 1.000000
349.835205 -578.373840 1.332390 1.000000
349.835205 -578.373840 1.181077 1.000000
349.835205 -578.373840 1.027950 1.000000
349.835205 -578.373840 0.872643 1.000000
nan nan nan 0.000000
349.826294 -578.343079 2.970685 1.000000
349.826294 -578.343079 2.817773 1.000000
349.826294 -578.343079 2.666672 1.000000
349.826294 -578.343079 2.517032 1.000000
349.826294 -578.343079 2.368515 1.000000
349.826294 -578.343079 2.220793 1.000000
349.826294 -578.343079 2.073545 1.000000
349.826294 -578.343079 1.926455 1.000000
349.826294 -578.343079 1.779207 1.000000
349.826294 -578.343079 1.631485 1.000000
349.826294 -578.343079 1.482967 1.000000
349.826294 -578.343079 1.333327 1.000000
349.826294 -578.343079 1.182226 1.000000
349.826263 -578.343079 1.029315 1.000000
349.826263 -578.343079 0.874225 1.000000
nan nan nan 0.000000
349.817383 -578.312378 2.969372 1.000000
349.817383 -578.312378 2.816667 1.000000
349.817383 -578.312378 2.665771 1.000000
349.817383 -578.312378 2.516333 1.000000
349.817383 -578.312378 2.368016 1.000000
349.817383 -578.312378 2.220494 1.000000
349.817383 -578.312378 2.073446 1.000000
349.817383 -578.312378 1.926554 1.000000
349.817383 -578.312378 1.779506 1.000000
349.817383 -578.312378 1.631983 1.000000
349.817383 -578.312378 1.483667 1.000000
349.817383 -578.312378 1.334229 1.000000
349.817383 -578.312378 1.183333 1.000000
349.817383 -578.312378 1.030628 1.000000
349.817383 -578.312378 0.875749 1.000000
nan nan nan 0.000000
349.808472 -578.281799 2.968109 1.000000
349.808472 -578.281799 2.815603 1.000000
349.808472 -578.281799 2.664903 1.000000
349.808472 -578.281799 2.515660 1.000000
349.808472 -578.281799 2.367537 1.000000
349.808472 -578.281799 2.220207 1.000000
349.808472 -578.281799 2.073350 1.000000
349.808472 -578.281799 1.926650 1.000000
349.808472 -578.281799 1.779793 1.000000
349.808472 -578.281799 1.632463 1.000000
349.808472 -578.281799 1.484339 1.000000
349.808472 -578.281799 1.335096 1.000000
349.808472 -578.281799 1.184397 1.000000
349.808472 -578.281799 1.031891 1.000000
349.808472 -578.281799 0.877213 1.000000
nan nan nan 0.000000
349.799622 -578.251282 2.966896 1.000000
349.799622 -578.251282 2.814582 1.000000
349.799622 -578.251282 2.664071 1.000000
349.799622 -578.251282 2.515015 1.000000
349.799622 -578.251282 2.367077 1.000000
349.799622 -578.251282 2.219931 1.000000
349.799622 -578.251282 2.073258 1.000000
349.799622 -578.251282 1.926742 1.000000
349.799622 -578.251282 1.780069 1.000000
349.799622 -578.251282 1.632923 1.000000
349.799622 -578.251282 1.484985 1.000000
349.799622 -578.251282 1.335929 1.000000
349.799622 -578.251282 1.185418 1.000000
349.799622 -578.251282 1.033103 1.000000
349.799622 -578.251282 0.878619 1.000000
nan nan nan 0.000000
349.790771 -578.220825 2.965734 1.000000
349.790771 -578.220825 2.813602 1.000000
349.790771 -578.220825 2.663272 1.000000
349.790771 -578.220825 2.514395 1.000000
349.790771 -578.220825 2.366636 1.000000
349.790771 -578.220825 2.219667 1.000000
349.790771 -578.220825 2.073170 1.000000
349.790771 -578.220825 1.926830 1.000000
349.790771 -578.220825 1.780333 1.000000
349.790771 -578.220825 1.633364 1.000000
349.790771 -578.220825 1.485605 1.000000
349.790771 -578.220825 1.336727 1.000000
349.790771 -578.220825 1.186397 1.000000
349.790771 -578.220825 1.034265 1.000000
349.790771 -578.220825 0.879967 1.000000
nan nan nan 0.000000
349.781952 -578.190491 2.964622 1.000000
349.781952 -578.190491 2.812665 1.000000
349.781952 -578.190491 2.662508 1.000000
349.781952 -578.190491 2.513803 1.000000
349.781952 -578.190491 2.366213 1.000000
349.781952 -578.190491 2.219414 1.000000
349.781952 -578.190491 2.073086 1.000000
349.781952 -578.190491 1.926914 1.000000
349.781952 -578.190491 1.780586 1.000000
349.781952 -578.190491 1.633787 1.000000
349.781952 -578.190491 1.486197 1.000000
349.781952 -578.190491 1.337492 1.000000
349.781952 -578.190491 1.187334 1.000000
349.781952 -578.190491 1.035378 1.000000
349.781952 -578.190491 0.881258 1.000000
nan nan nan 0.000000
349.773163 -578.160217 2.963558 1.000000
349.773163 -578.160217 2.811769 1.000000
349.773163 -578.160217 2.661778 1.000000
349.773163 -578.160217 2.513237 1.000000
349.773163 -578.160217 2.365809 1.000000
349.773163 -578.160217 2.219172 1.000000
349.773163 -578.160217 2.073005 1.000000
349.773163 -578.160217 1.926995 1.000000
349.773163 -578.160217 1.780828 1.000000
349.773163 -578.160217 1.634190 1.000000
349.773163 -578.160217 1.486763 1.000000
349.773163 -578.160217 1.338222 1.000000
349.773163 -578.160217 1.188230 1.000000
349.773163 -578.160217 1.036441 1.000000
349.773163 -578.160217 0.882491 1.000000
nan nan nan 0.000000
349.764374 -578.129944 2.962544 1.000000
349.764374 -578.129944 2.810915 1.000000
349.764374 -578.129944 2.661082 1.000000
349.764374 -578.129944 2.512696 1.000000
349.764374 -578.129944 2.365424 1.000000
349.764374 -578.129944 2.218941 1.000000
349.764374 -578.129944 2.072928 1.000000
349.764374 -578.129944 1.927072 1.000000
349.764374 -578.129944 1.781059 1.000000
349.764374 -578.129944 1.634575 1.000000
349.764374 -578.129944 1.487303 1.000000
349.764374 -578.129944 1.338918 1.000000
349.764374 -578.129944 1.189084 1.000000
349.764374 -578.129944 1.037455 1.000000
349.764374 -578.129944 0.883666 1.000000
nan nan nan 0.000000
349.755615 -578.099792 2.961580 1.000000
349.755615 -578.099792 2.810102 1.000000
349.755615 -578.099792 2.660419 1.000000
349.755615 -578.099792 2.512183 1.000000
349.755615 -578.099792 2.365058 1.000000
349.755615 -578.099792 2.218722 1.000000
349.755615 -578.099792 2.072855 1.000000
349.755615 -578.099792 1.927145 1.000000
349.755615 -578.099792 1.781278 1.000000
349.755615 -578.099792 1.634942 1.000000
349.755615 -578.099792 1.487817 1.000000
349.755615 -578.099792 1.339581 1.000000
349.755615 -578.099792 1.189897 1.000000
349.755615 -578.099792 1.038420 1.000000
349.755615 -578.099792 0.884786 1.000000
nan nan nan 0.000000
349.746857 -578.069702 2.960663 1.000000
349.746857 -578.069702 2.809330 1.000000
349.746857 -578.069702 2.659790 1.000000
349.746857 -578.069702 2.511694 1.000000
349.746857 -578.069702 2.364710 1.000000
349.746857 -578.069702 2.218513 1.000000
349.746857 -578.069702 2.072786 1.000000
349.746857 -578.069702 1.927214 1.000000
349.746857 -578.069702 1.781487 1.000000
349.746857 -578.069702 1.635289 1.000000
349.746857 -578.069702 1.488306 1.000000
349.746857 -578.069702 1.340210 1.000000
349.746857 -578.069702 1.190670 1.000000
349.746857 -578.069702 1.039336 1.000000
349.746857 -578.069702 0.885848 1.000000
nan nan nan 0.000000
349.738129 -578.039612 2.959795 1.000000
349.738129 -578.039612 2.808599 1.000000
349.738129 -578.039612 2.659194 1.000000
349.738129 -578.039612 2.511232 1.000000
349.738129 -578.039612 2.364381 1.000000
349.738129 -578.039612 2.218316 1.000000
349.738129 -578.039612 2.072720 1.000000
349.738129 -578.039612 1.927280 1.000000
349.738129 -578.039612 1.781684 1.000000
349.738129 -578.039612 1.635619 1.000000
349.738129 -578.039612 1.488768 1.000000
349.738129 -578.039612 1.340806 1.000000
349.738129 -578.039612 1.191400 1.000000
349.738129 -578.039612 1.040204 1.000000
349.738129 -578.039612 0.886855 1.000000
nan nan nan 0.000000
349.729431 -578.009644 2.958976 1.000000
349.729431 -578.009644 2.807909 1.000000
349.729401 -578.009644 2.658631 1.000000
349.729431 -578.009644 2.510796 1.000000
349.729401 -578.009644 2.364070 1.000000
349.729431 -578.009644 2.218130 1.000000
349.729401 -578.009644 2.072658 1.000000
349.729401 -578.009644 1.927342 1.000000
349.729401 -578.009644 1.781870 1.000000
349.729401 -578.009644 1.635930 1.000000
349.729401 -578.009644 1.489204 1.000000
349.729401 -578.009644 1.341369 1.000000
349.729401 -578.009644 1.192091 1.000000
349.729401 -578.009644 1.041024 1.000000
349.729401 -578.009644 0.887805 1.000000
nan nan nan 0.000000
349.720703 -577.979675 2.958205 1.000000
349.720703 -577.979675 2.807259 1.000000
349.720703 -577.979675 2.658101 1.000000
349.720703 -577.979675 2.510385 1.000000
349.720703 -577.979675 2.363777 1.000000
349.720703 -577.979675 2.217954 1.000000
349.720703 -577.979675 2.072599 1.000000
349.720703 -577.979675 1.927401 1.000000
349.720703 -577.979675 1.782046 1.000000
349.720703 -577.979675 1.636223 1.000000
349.720703 -577.979675 1.489615 1.000000
349.720703 -577.979675 1.341899 1.000000
349.720703 -577.979675 1.192741 1.000000
349.720703 -577.979675 1.041795 1.000000
349.720703 -577.979675 0.888700 1.000000
nan nan nan 0.000000
349.712036 -577.949768 2.957481 1.000000
349.712036 -577.949768 2.806649 1.000000
349.712036 -577.949768 2.657604 1.000000
349.712036 -577.949768 2.509999 1.000000
349.712036 -577.949768 2.363502 1.000000
349.712036 -577.949768 2.217789 1.000000
349.712036 -577.949768 2.072545 1.000000
349.712036 -577.949768 1.927455 1.000000
349.712036 -577.949768 1.782210 1.000000
349.712036 -577.949768 1.636498 1.000000
349.712036 -577.949768 1.490000 1.000000
349.712036 -577.949768 1.342396 1.000000
349.712036 -577.949768 1.193350 1.000000
349.712036 -577.949768 1.042519 1.000000
349.712036 -577.949768 0.889539 1.000000
nan nan nan 0.000000
349.703339 -577.919922 2.956805 1.000000
349.703339 -577.919922 2.806080 1.000000
349.703339 -577.919922 2.657140 1.000000
349.703339 -577.919922 2.509640 1.000000
349.703339 -577.919922 2.363245 1.000000
349.703339 -577.919922 2.217636 1.000000
349.703339 -577.919922 2.072494 1.000000
349.703339 -577.919922 1.927507 1.000000
349.703339 -577.919922 1.782364 1.000000
349.703339 -577.919922 1.636754 1.000000
349.703339 -577.919922 1.490360 1.000000
349.703339 -577.919922 1.342860 1.000000
349.703339 -577.919922 1.193920 1.000000
349.703339 -577.919922 1.043195 1.000000
349.703339 -577.919922 0.890323 1.000000
nan nan nan 0.000000
349.694702 -577.890076 2.956177 1.000000
349.694702 -577.890076 2.805550 1.000000
349.694702 -577.890076 2.656708 1.000000
349.694702 -577.890076 2.509305 1.000000
349.694702 -577.890076 2.363007 1.000000
349.694702 -577.890076 2.217493 1.000000
349.694702 -577.890076 2.072446 1.000000
349.694702 -577.890076 1.927554 1.000000
349.694702 -577.890076 1.782507 1.000000
349.694702 -577.890076 1.636993 1.000000
349.694702 -577.890076 1.490695 1.000000
349.694702 -577.890076 1.343291 1.000000
349.694702 -577.890076 1.194449 1.000000
349.694702 -577.890076 1.043823 1.000000
349.694702 -577.890076 0.891052 1.000000
nan nan nan 0.000000
349.686035 -577.860291 2.955595 1.000000
349.686035 -577.860291 2.805061 1.000000
349.686035 -577.860291 2.656309 1.000000
349.686035 -577.860291 2.508995 1.000000
349.686035 -577.860291 2.362786 1.000000
349.686035 -577.860291 2.217360 1.000000
349.686035 -577.860291 2.072402 1.000000
349.686035 -577.860291 1.927598 1.000000
349.686035 -577.860291 1.782639 1.000000
349.686035 -577.860291 1.637213 1.000000
349.686035 -577.860291 1.491005 1.000000
349.686035 -577.860291 1.343691 1.000000
349.686035 -577.860291 1.194939 1.000000
349.686035 -577.860291 1.044404 1.000000
349.686035 -577.860291 0.891726 1.000000
nan nan nan 0.000000
349.677399 -577.830566 2.955062 1.000000
349.677399 -577.830566 2.804611 1.000000
349.677399 -577.830566 2.655942 1.000000
349.677399 -577.830566 2.508711 1.000000
349.677399 -577.830566 2.362584 1.000000
349.677399 -577.830566 2.217239 1.000000
349.677399 -577.830566 2.072361 1.000000
349.677399 -577.830566 1.927639 1.000000
349.677399 -577.830566 1.782761 1.000000
349.677399 -577.830566 1.637416 1.000000
349.677399 -577.830566 1.491289 1.000000
349.677399 -577.830566 1.344057 1.000000
349.677399 -577.830566 1.195388 1.000000
349.677399 -577.830566 1.044938 1.000000
349.677399 -577.830566 0.892345 1.000000
nan nan nan 0.000000
349.668762 -577.800842 2.954575 1.000000
349.668762 -577.800842 2.804201 1.000000
349.668762 -577.800842 2.655608 1.000000
349.668762 -577.800842 2.508451 1.000000
349.668762 -577.800842 2.362399 1.000000
349.668762 -577.800842 2.217128 1.000000
349.668762 -577.800842 2.072325 1.000000
349.668762 -577.800842 1.927676 1.000000
349.668762 -577.800842 1.782871 1.000000
349.668762 -577.800842 1.637601 1.000000
349.668762 -577.800842 1.491548 1.000000
349.668762 -577.800842 1.344391 1.000000
349.668762 -577.800842 1.195798 1.000000
349.668762 -577.800842 1.045424 1.000000
349.668762 -577.800842 0.892909 1.000000
nan nan nan 0.000000
349.660126 -577.771118 2.954135 1.000000
349.660126 -577.771118 2.803831 1.000000
349.660126 -577.771118 2.655306 1.000000
349.660126 -577.771118 2.508217 1.000000
349.660126 -577.771118 2.362232 1.000000
349.660126 -577.771118 2.217028 1.000000
349.660126 -577.771118 2.072291 1.000000
349.660126 -577.771118 1.927709 1.000000
349.660126 -577.771118 1.782972 1.000000
349.660126 -577.771118 1.637768 1.000000
349.660126 -577.771118 1.491782 1.000000
349.660126 -577.771118 1.344693 1.000000
349.660126 -577.771118 1.196169 1.000000
349.660126 -577.771118 1.045864 1.000000
349.660126 -577.771118 0.893419 1.000000
nan nan nan 0.000000
349.651520 -577.741455 2.953743 1.000000
349.651520 -577.741455 2.803500 1.000000
349.651520 -577.741455 2.655037 1.000000
349.651520 -577.741455 2.508008 1.000000
349.651520 -577.741455 2.362083 1.000000
349.651520 -577.741455 2.216939 1.000000
349.651520 -577.741455 2.072261 1.000000
349.651520 -577.741455 1.927739 1.000000
349.651520 -577.741455 1.783061 1.000000
349.651520 -577.741455 1.637917 1.000000
349.651520 -577.741455 1.491992 1.000000
349.651520 -577.741455 1.344963 1.000000
349.651520 -577.741455 1.196500 1.000000
349.651520 -577.741455 1.046257 1.000000
349.651520 -577.741455 0.893875 1.000000
nan nan nan 0.000000
349.642914 -577.711853 2.953397 1.000000
349.642914 -577.711853 2.803208 1.000000
349.642914 -577.711853 2.654799 1.000000
349.642914 -577.711853 2.507824 1.000000
349.642914 -577.711853 2.361952 1.000000
349.642914 -577.711853 2.216860 1.000000
349.642914 -577.711853 2.072235 1.000000
349.642914 -577.711853 1.927765 1.000000
349.642914 -577.711853 1.783140 1.000000
349.642914 -577.711853 1.638048 1.000000
349.642914 -577.711853 1.492176 1.000000
349.642914 -577.711853 1.345201 1.000000
349.642914 -577.711853 1.196791 1.000000
349.642914 -577.711853 1.046603 1.000000
349.642914 -577.711853 0.894276 1.000000
nan nan nan 0.000000
349.634308 -577.682190 2.953098 1.000000
349.634308 -577.682190 2.802956 1.000000
349.634308 -577.682190 2.654593 1.000000
349.634308 -577.682190 2.507664 1.000000
349.634308 -577.682190 2.361838 1.000000
349.634308 -577.682190 2.216792 1.000000
349.634308 -577.682190 2.072212 1.000000
349.634308 -577.682190 1.927787 1.000000
349.634308 -577.682190 1.783208 1.000000
349.634308 -577.682190 1.638162 1.000000
349.634308 -577.682190 1.492336 1.000000
349.634308 -577.682190 1.345407 1.000000
349.634308 -577.682190 1.197044 1.000000
349.634308 -577.682190 1.046902 1.000000
349.634308 -577.682190 0.894623 1.000000
nan nan nan 0.000000
349.625702 -577.652588 2.952844 1.000000
349.625702 -577.652588 2.802743 1.000000
349.625702 -577.652588 2.654420 1.000000
349.625702 -577.652588 2.507530 1.000000
349.625702 -577.652588 2.361742 1.000000
349.625702 -577.652588 2.216735 1.000000
349.625702 -577.652588 2.072193 1.000000
349.625702 -577.652588 1.927807 1.000000
349.625702 -577.652588 1.783265 1.000000
349.625702 -577.652588 1.638258 1.000000
349.625702 -577.652588 1.492470 1.000000
349.625702 -577.652588 1.345580 1.000000
349.625702 -577.652588 1.197256 1.000000
349.625702 -577.652588 1.047155 1.000000
349.625702 -577.652588 0.894916 1.000000
nan nan nan 0.000000
349.617126 -577.623047 2.952638 1.000000
349.617126 -577.623047 2.802569 1.000000
349.617126 -577.623047 2.654278 1.000000
349.617126 -577.623047 2.507420 1.000000
349.617126 -577.623047 2.361664 1.000000
349.617126 -577.623047 2.216688 1.000000
349.617126 -577.623047 2.072178 1.000000
349.617096 -577.623047 1.927822 1.000000
349.617126 -577.623047 1.783312 1.000000
349.617126 -577.623047 1.638336 1.000000
349.617096 -577.623047 1.492580 1.000000
349.617096 -577.623047 1.345722 1.000000
349.617096 -577.623047 1.197430 1.000000
349.617096 -577.623047 1.047361 1.000000
349.617096 -577.623047 0.895156 1.000000
nan nan nan 0.000000
349.608521 -577.593445 2.952478 1.000000
349.608521 -577.593445 2.802435 1.000000
349.608521 -577.593445 2.654168 1.000000
349.608521 -577.593445 2.507335 1.000000
349.608521 -577.593445 2.361603 1.000000
349.608521 -577.593445 2.216651 1.000000
349.608521 -577.593445 2.072165 1.000000
349.608521 -577.593445 1.927834 1.000000
349.608521 -577.593445 1.783348 1.000000
349.608521 -577.593445 1.638397 1.000000
349.608521 -577.593445 1.492665 1.000000
349.608521 -577.593445 1.345831 1.000000
349.608521 -577.593445 1.197565 1.000000
349.608521 -577.593445 1.047521 1.000000
349.608521 -577.593445 0.895341 1.000000
nan nan nan 0.000000
349.599915 -577.563904 2.952365 1.000000
349.599945 -577.563904 2.802339 1.000000
349.599945 -577.563904 2.654090 1.000000
349.599945 -577.563904 2.507274 1.000000
349.599915 -577.563904 2.361560 1.000000
349.599945 -577.563904 2.216626 1.000000
349.599915 -577.563904 2.072157 1.000000
349.599915 -577.563904 1.927843 1.000000
349.599915 -577.563904 1.783374 1.000000
349.599915 -577.563904 1.638440 1.000000
349.599915 -577.563904 1.492725 1.000000
349.599915 -577.563904 1.345909 1.000000
349.599915 -577.563904 1.197660 1.000000
349.599915 -577.563904 1.047634 1.000000
349.599915 -577.563904 0.895472 1.000000
nan nan nan 0.000000
349.591339 -577.534302 2.952298 1.000000
349.591339 -577.534302 2.802283 1.000000
349.591339 -577.534302 2.654045 1.000000
349.591339 -577.534302 2.507239 1.000000
349.591339 -577.534302 2.361535 1.000000
349.591339 -577.534302 2.216610 1.000000
349.591339 -577.534302 2.072152 1.000000
349.591339 -577.534302 1.927848 1.000000
349.591339 -577.534302 1.783389 1.000000
349.591339 -577.534302 1.638465 1.000000
349.591339 -577.534302 1.492761 1.000000
349.591339 -577.534302 1.345955 1.000000
349.591339 -577.534302 1.197716 1.000000
349.591339 -577.534302 1.047701 1.000000
349.591339 -577.534302 0.895550 1.000000
nan nan nan 0.000000
349.582764 -577.504761 2.952278 1.000000
349.582764 -577.504761 2.802266 1.000000
349.582764 -577.504761 2.654031 1.000000
349.582764 -577.504761 2.507228 1.000000
349.582764 -577.504761 2.361527 1.000000
349.582764 -577.504761 2.216606 1.000000
349.582764 -577.504761 2.072150 1.000000
349.582764 -577.504761 1.927850 1.000000
349.582764 -577.504761 1.783394 1.000000
349.582764 -577.504761 1.638473 1.000000
349.582764 -577.504761 1.492772 1.000000
349.582764 -577.504761 1.345969 1.000000
349.582764 -577.504761 1.197734 1.000000
349.582764 -577.504761 1.047722 1.000000
349.582764 -577.504761 0.895573 1.000000
nan nan nan 0.000000
349.574158 -577.475220 2.952304 1.000000
349.574158 -577.475220 2.802288 1.000000
349.574158 -577.475220 2.654048 1.000000
349.574158 -577.475220 2.507242 1.000000
349.574158 -577.475220 2.361537 1.000000
349.574158 -577.475220 2.216612 1.000000
349.574158 -577.475220 2.072152 1.000000
349.574158 -577.475220 1.927848 1.000000
349.574158 -577.475220 1.783388 1.000000
349.574158 -577.475220 1.638463 1.000000
349.574158 -577.475220 1.492758 1.000000
349.574158 -577.475220 1.345951 1.000000
349.574158 -577.475220 1.197712 1.000000
349.574158 -577.475220 1.047696 1.000000
349.574158 -577.475220 0.895543 1.000000
nan nan nan 0.000000
349.565582 -577.445618 2.952376 1.000000
349.565582 -577.445618 2.802349 1.000000
349.565582 -577.445618 2.654098 1.000000
349.565582 -577.445618 2.507280 1.000000
349.565582 -577.445618 2.361564 1.000000
349.565582 -577.445618 2.216628 1.000000
349.565582 -577.445618 2.072158 1.000000
349.565582 -577.445618 1.927842 1.000000
349.565582 -577.445618 1.783372 1.000000
349.565582 -577.445618 1.638436 1.000000
349.565582 -577.445618 1.492719 1.000000
349.565582 -577.445618 1.345902 1.000000
349.565582 -577.445618 1.197651 1.000000
349.565582 -577.445618 1.047623 1.000000
349.565582 -577.445618 0.895459 1.000000
nan nan nan 0.000000
349.556976 -577.416077 2.952495 1.000000
349.556976 -577.416077 2.802449 1.000000
349.556976 -577.416077 2.654180 1.000000
349.556976 -577.416077 2.507344 1.000000
349.556976 -577.416077 2.361609 1.000000
349.556976 -577.416077 2.216655 1.000000
349.556976 -577.416077 2.072167 1.000000
349.556976 -577.416077 1.927833 1.000000
349.556976 -577.416077 1.783345 1.000000
349.556976 -577.416077 1.638390 1.000000
349.556976 -577.416077 1.492656 1.000000
349.556976 -577.416077 1.345820 1.000000
349.556976 -577.416077 1.197551 1.000000
349.556976 -577.416077 1.047504 1.000000
349.556976 -577.416077 0.895321 1.000000
nan nan nan 0.000000
349.548401 -577.386475 2.952661 1.000000
349.548401 -577.386475 2.802588 1.000000
349.548401 -577.386475 2.654294 1.000000
349.548401 -577.386475 2.507432 1.000000
349.548401 -577.386475 2.361672 1.000000
349.548401 -577.386475 2.216693 1.000000
349.548401 -577.386475 2.072179 1.000000
349.548401 -577.386475 1.927821 1.000000
349.548401 -577.386475 1.783307 1.000000
349.548401 -577.386475 1.638328 1.000000
349.548401 -577.386475 1.492568 1.000000
349.548401 -577.386475 1.345706 1.000000
349.548401 -577.386475 1.197411 1.000000
349.548401 -577.386475 1.047339 1.000000
349.548401 -577.386475 0.895130 1.000000
nan nan nan 0.000000
349.539795 -577.356873 2.952873 1.000000
349.539795 -577.356873 2.802767 1.000000
349.539795 -577.356873 2.654439 1.000000
349.539795 -577.356873 2.507545 1.000000
349.539795 -577.356873 2.361753 1.000000
349.539795 -577.356873 2.216741 1.000000
349.539795 -577.356873 2.072196 1.000000
349.539795 -577.356873 1.927805 1.000000
349.539795 -577.356873 1.783259 1.000000
349.539795 -577.356873 1.638247 1.000000
349.539795 -577.356873 1.492455 1.000000
349.539795 -577.356873 1.345561 1.000000
349.539795 -577.356873 1.197233 1.000000
349.539795 -577.356873 1.047127 1.000000
349.539795 -577.356873 0.894884 1.000000
nan nan nan 0.000000
349.531189 -577.327271 2.953131 1.000000
349.531189 -577.327271 2.802984 1.000000
349.531189 -577.327271 2.654616 1.000000
349.531189 -577.327271 2.507682 1.000000
349.531189 -577.327271 2.361851 1.000000
349.531189 -577.327271 2.216800 1.000000
349.531189 -577.327271 2.072215 1.000000
349.531189 -577.327271 1.927785 1.000000
349.531189 -577.327271 1.783200 1.000000
349.531189 -577.327271 1.638149 1.000000
349.531189 -577.327271 1.492318 1.000000
349.531189 -577.327271 1.345383 1.000000
349.531189 -577.327271 1.197015 1.000000
349.531189 -577.327271 1.046869 1.000000
349.531189 -577.327271 0.894584 1.000000
nan nan nan 0.000000
349.522583 -577.297668 2.953436 1.000000
349.522583 -577.297668 2.803241 1.000000
349.522583 -577.297668 2.654826 1.000000
349.522583 -577.297668 2.507845 1.000000
349.522583 -577.297668 2.361966 1.000000
349.522583 -577.297668 2.216869 1.000000
349.522583 -577.297668 2.072238 1.000000
349.522583 -577.297668 1.927762 1.000000
349.522583 -577.297668 1.783131 1.000000
349.522583 -577.297668 1.638033 1.000000
349.522583 -577.297668 1.492155 1.000000
349.522583 -577.297668 1.345174 1.000000
349.522583 -577.297668 1.196758 1.000000
349.522583 -577.297668 1.046564 1.000000
349.522583 -577.297668 0.894230 1.000000
nan nan nan 0.000000
349.513977 -577.268005 2.953788 1.000000
349.513977 -577.268005 2.803538 1.000000
349.513977 -577.268005 2.655067 1.000000
349.513977 -577.268005 2.508032 1.000000
349.513977 -577.268005 2.362100 1.000000
349.513977 -577.268005 2.216949 1.000000
349.513977 -577.268005 2.072265 1.000000
349.513977 -577.268005 1.927735 1.000000
349.513977 -577.268005 1.783051 1.000000
349.513977 -577.268005 1.637900 1.000000
349.513977 -577.268005 1.491968 1.000000
349.513977 -577.268005 1.344932 1.000000
349.513977 -577.268005 1.196462 1.000000
349.513977 -577.268005 1.046212 1.000000
349.513977 -577.268005 0.893823 1.000000
nan nan nan 0.000000
349.505371 -577.238342 2.954186 1.000000
349.505371 -577.238342 2.803873 1.000000
349.505371 -577.238342 2.655341 1.000000
349.505371 -577.238342 2.508244 1.000000
349.505371 -577.238342 2.362251 1.000000
349.505371 -577.238342 2.217040 1.000000
349.505371 -577.238342 2.072295 1.000000
349.505371 -577.238342 1.927705 1.000000
349.505371 -577.238342 1.782960 1.000000
349.505371 -577.238342 1.637748 1.000000
349.505371 -577.238342 1.491755 1.000000
349.505371 -577.238342 1.344659 1.000000
349.505371 -577.238342 1.196126 1.000000
349.505371 -577.238342 1.045814 1.000000
349.505371 -577.238342 0.893360 1.000000
nan nan nan 0.000000
349.496735 -577.208679 2.954631 1.000000
349.496735 -577.208679 2.804249 1.000000
349.496735 -577.208679 2.655647 1.000000
349.496735 -577.208679 2.508482 1.000000
349.496735 -577.208679 2.362420 1.000000
349.496735 -577.208679 2.217141 1.000000
349.496735 -577.208679 2.072329 1.000000
349.496735 -577.208679 1.927671 1.000000
349.496735 -577.208679 1.782859 1.000000
349.496735 -577.208679 1.637580 1.000000
349.496735 -577.208679 1.491518 1.000000
349.496735 -577.208679 1.344353 1.000000
349.496735 -577.208679 1.195751 1.000000
349.496735 -577.208679 1.045368 1.000000
349.496735 -577.208679 0.892844 1.000000
nan nan nan 0.000000
349.488098 -577.178955 2.955124 1.000000
349.488098 -577.178955 2.804664 1.000000
349.488098 -577.178955 2.655985 1.000000
349.488098 -577.178955 2.508744 1.000000
349.488098 -577.178955 2.362607 1.000000
349.488098 -577.178955 2.217253 1.000000
349.488098 -577.178955 2.072366 1.000000
349.488098 -577.178955 1.927634 1.000000
349.488098 -577.178955 1.782747 1.000000
349.488098 -577.178955 1.637393 1.000000
349.488098 -577.178955 1.491256 1.000000
349.488098 -577.178955 1.344014 1.000000
349.488098 -577.178955 1.195336 1.000000
349.488098 -577.178955 1.044876 1.000000
349.488098 -577.178955 0.892273 1.000000
nan nan nan 0.000000
349.479462 -577.149231 2.955663 1.000000
349.479462 -577.149231 2.805118 1.000000
349.479462 -577.149231 2.656356 1.000000
349.479462 -577.149231 2.509031 1.000000
349.479462 -577.149231 2.362812 1.000000
349.479462 -577.149231 2.217376 1.000000
349.479462 -577.149231 2.072407 1.000000
349.479462 -577.149231 1.927593 1.000000
349.479462 -577.149231 1.782624 1.000000
349.479462 -577.149231 1.637188 1.000000
349.479462 -577.149231 1.490969 1.000000
349.479462 -577.149231 1.343644 1.000000
349.479462 -577.149231 1.194882 1.000000
349.479462 -577.149231 1.044337 1.000000
349.479462 -577.149231 0.891647 1.000000
nan nan nan 0.000000
349.470825 -577.119385 2.956250 1.000000
349.470825 -577.119385 2.805612 1.000000
349.470825 -577.119385 2.656759 1.000000
349.470825 -577.119385 2.509344 1.000000
349.470825 -577.119385 2.363035 1.000000
349.470825 -577.119385 2.217509 1.000000
349.470825 -577.119385 2.072451 1.000000
349.470825 -577.119385 1.927549 1.000000
349.470825 -577.119385 1.782490 1.000000
349.470825 -577.119385 1.636965 1.000000
349.470825 -577.119385 1.490656 1.000000
349.470825 -577.119385 1.343241 1.000000
349.470825 -577.119385 1.194387 1.000000
349.470825 -577.119385 1.043750 1.000000
349.470825 -577.119385 0.890967 1.000000
nan nan nan 0.000000
349.462158 -577.089600 2.956884 1.000000
349.462158 -577.089600 2.806146 1.000000
349.462158 -577.089600 2.657194 1.000000
349.462158 -577.089600 2.509682 1.000000
349.462158 -577.089600 2.363276 1.000000
349.462158 -577.089600 2.217654 1.000000
349.462158 -577.089600 2.072499 1.000000
349.462158 -577.089600 1.927501 1.000000
349.462158 -577.089600 1.782346 1.000000
349.462158 -577.089600 1.636724 1.000000
349.462158 -577.089600 1.490318 1.000000
349.462158 -577.089600 1.342806 1.000000
349.462158 -577.089600 1.193853 1.000000
349.462158 -577.089600 1.043116 1.000000
349.462158 -577.089600 0.890231 1.000000
nan nan nan 0.000000
349.453461 -577.059692 2.957566 1.000000
349.453461 -577.059692 2.806721 1.000000
349.453461 -577.059692 2.657662 1.000000
349.453461 -577.059692 2.510045 1.000000
349.453461 -577.059692 2.363534 1.000000
349.453461 -577.059692 2.217809 1.000000
349.453461 -577.059692 2.072551 1.000000
349.453461 -577.059692 1.927449 1.000000
