# This PCD file was generated using the MATLABÂ® pcwrite function
# from Computer Vision ToolboxÂ®.
# .PCD v.7 - Point Cloud Data file format
VERSION .7
FIELDS x y z intensity
SIZE 4 4 4 4
TYPE F F F F
COUNT 1 1 1 1
WIDTH 1262
HEIGHT 1
VIEWPOINT 0 0 0 1 0 0 0
POINTS 1262
DATA ascii
329.633179 -599.242676 1.767089 1.000000
329.633179 -599.242676 1.300767 1.000000
329.633148 -599.242676 0.832943 1.000000
329.633148 -599.242676 0.362601 1.000000
328.984924 -599.620300 -0.000017 0.532921
326.832245 -600.874207 -0.000015 0.538048
325.336029 -601.745789 -0.000014 0.517571
324.233704 -602.387878 -0.000013 0.547097
nan nan nan 0.000000
nan nan nan 0.000000
nan nan nan 0.000000
nan nan nan 0.000000
nan nan nan 0.000000
nan nan nan 0.000000
329.661713 -599.340881 2.698034 1.000000
329.661713 -599.340881 2.232512 1.000000
329.661713 -599.340881 1.767488 1.000000
329.661713 -599.340881 1.301966 1.000000
329.661713 -599.340881 0.834944 1.000000
329.661713 -599.340881 0.365408 1.000000
329.032013 -599.701782 -0.000017 0.522988
326.870636 -600.940674 -0.000015 0.569772
325.368378 -601.801758 -0.000014 0.558434
324.261597 -602.436157 -0.000013 0.533043
nan nan nan 0.000000
nan nan nan 0.000000
nan nan nan 0.000000
nan nan nan 0.000000
nan nan nan 0.000000
nan nan nan 0.000000
329.690155 -599.438721 2.696873 1.000000
329.690155 -599.438721 2.232125 1.000000
329.690155 -599.438721 1.767875 1.000000
329.690155 -599.438721 1.303127 1.000000
329.690155 -599.438721 0.836881 1.000000
329.690155 -599.438721 0.368127 1.000000
329.078552 -599.783630 -0.000017 0.554009
326.908539 -601.007385 -0.000015 0.569055
325.400330 -601.857971 -0.000014 0.572961
324.289124 -602.484619 -0.000013 0.528145
nan nan nan 0.000000
nan nan nan 0.000000
nan nan nan 0.000000
nan nan nan 0.000000
nan nan nan 0.000000
nan nan nan 0.000000
329.718506 -599.536194 2.695750 1.000000
329.718506 -599.536194 2.231751 1.000000
329.718506 -599.536194 1.768249 1.000000
329.718506 -599.536194 1.304250 1.000000
329.718506 -599.536194 0.838755 1.000000
329.718506 -599.536194 0.370756 1.000000
329.124512 -599.865784 -0.000017 0.530861
326.946014 -601.074341 -0.000015 0.549096
325.431885 -601.914368 -0.000014 0.539666
324.316345 -602.533264 -0.000013 0.539071
nan nan nan 0.000000
nan nan nan 0.000000
nan nan nan 0.000000
nan nan nan 0.000000
nan nan nan 0.000000
nan nan nan 0.000000
329.746765 -599.633423 2.694665 1.000000
329.746765 -599.633423 2.231389 1.000000
329.746765 -599.633423 1.768610 1.000000
329.746765 -599.633423 1.305335 1.000000
329.746765 -599.633423 0.840567 1.000000
329.746765 -599.633423 0.373298 1.000000
329.169861 -599.948242 -0.000017 0.541253
326.983002 -601.141602 -0.000015 0.518395
325.463043 -601.971008 -0.000014 0.528267
324.343231 -602.582092 -0.000013 0.548760
nan nan nan 0.000000
nan nan nan 0.000000
nan nan nan 0.000000
nan nan nan 0.000000
nan nan nan 0.000000
nan nan nan 0.000000
329.774963 -599.730347 2.693616 1.000000
329.774963 -599.730347 2.231040 1.000000
329.774963 -599.730347 1.768960 1.000000
329.774963 -599.730347 1.306384 1.000000
329.774963 -599.730347 0.842317 1.000000
329.774963 -599.730347 0.375754 1.000000
329.214661 -600.031006 -0.000017 0.531151
327.019531 -601.209045 -0.000015 0.536263
325.493835 -602.027832 -0.000014 0.543114
324.369751 -602.631104 -0.000013 0.536980
nan nan nan 0.000000
nan nan nan 0.000000
nan nan nan 0.000000
nan nan nan 0.000000
nan nan nan 0.000000
nan nan nan 0.000000
329.803040 -599.826965 2.692605 1.000000
329.803040 -599.826965 2.230703 1.000000
329.803040 -599.826965 1.769297 1.000000
329.803040 -599.826965 1.307395 1.000000
329.803040 -599.826965 0.844006 1.000000
329.803040 -599.826965 0.378122 1.000000
329.258881 -600.114136 -0.000017 0.521813
327.055573 -601.276794 -0.000015 0.537774
325.524200 -602.084961 -0.000014 0.506798
324.395935 -602.680298 -0.000013 0.513649
nan nan nan 0.000000
nan nan nan 0.000000
nan nan nan 0.000000
nan nan nan 0.000000
nan nan nan 0.000000
nan nan nan 0.000000
329.831055 -599.923340 2.691629 1.000000
329.831055 -599.923340 2.230379 1.000000
329.831055 -599.923340 1.769621 1.000000
329.831055 -599.923340 1.308370 1.000000
329.831055 -599.923340 0.845633 1.000000
329.831055 -599.923340 0.380406 1.000000
329.302521 -600.197510 -0.000017 0.549340
327.091156 -601.344788 -0.000015 0.518090
325.554169 -602.142212 -0.000014 0.531685
324.421783 -602.729675 -0.000013 0.555215
nan nan nan 0.000000
nan nan nan 0.000000
nan nan nan 0.000000
nan nan nan 0.000000
nan nan nan 0.000000
nan nan nan 0.000000
329.859009 -600.019409 2.690690 1.000000
329.859009 -600.019409 2.230066 1.000000
329.859009 -600.019409 1.769934 1.000000
329.859009 -600.019409 1.309309 1.000000
329.859009 -600.019409 0.847200 1.000000
329.859009 -600.019409 0.382604 1.000000
329.345581 -600.281250 -0.000016 0.548379
327.126251 -601.413025 -0.000015 0.561135
325.583740 -602.199707 -0.000014 0.539513
324.447266 -602.779297 -0.000013 0.549065
nan nan nan 0.000000
nan nan nan 0.000000
nan nan nan 0.000000
nan nan nan 0.000000
nan nan nan 0.000000
nan nan nan 0.000000
329.886871 -600.115234 2.689789 1.000000
329.886871 -600.115234 2.229765 1.000000
329.886871 -600.115234 1.770235 1.000000
329.886871 -600.115234 1.310212 1.000000
329.886871 -600.115234 0.848706 1.000000
329.886871 -600.115234 0.384717 1.000000
329.388062 -600.365234 -0.000017 0.552911
327.160889 -601.481506 -0.000015 0.545495
325.612915 -602.257385 -0.000014 0.572869
324.472412 -602.829041 -0.000013 0.533928
nan nan nan 0.000000
nan nan nan 0.000000
nan nan nan 0.000000
nan nan nan 0.000000
nan nan nan 0.000000
nan nan nan 0.000000
329.914642 -600.210815 2.688922 1.000000
329.914642 -600.210815 2.229476 1.000000
329.914642 -600.210815 1.770524 1.000000
329.914642 -600.210815 1.311078 1.000000
329.914642 -600.210815 0.850153 1.000000
329.914642 -600.210815 0.386747 1.000000
329.429932 -600.449524 -0.000017 0.574517
327.195007 -601.550232 -0.000015 0.541650
325.641663 -602.315308 -0.000014 0.529839
324.497223 -602.878967 -0.000012 0.506905
nan nan nan 0.000000
nan nan nan 0.000000
nan nan nan 0.000000
nan nan nan 0.000000
nan nan nan 0.000000
nan nan nan 0.000000
329.942383 -600.306152 2.688090 1.000000
329.942383 -600.306152 2.229200 1.000000
329.942383 -600.306152 1.770800 1.000000
329.942383 -600.306152 1.311909 1.000000
329.942383 -600.306152 0.851540 1.000000
329.942383 -600.306152 0.388693 1.000000
329.471252 -600.534119 -0.000017 0.538705
327.228699 -601.619202 -0.000015 0.547082
325.670044 -602.373413 -0.000014 0.530892
324.521698 -602.929016 -0.000012 0.557107
nan nan nan 0.000000
nan nan nan 0.000000
nan nan nan 0.000000
nan nan nan 0.000000
nan nan nan 0.000000
nan nan nan 0.000000
329.970032 -600.401245 2.687295 1.000000
329.970032 -600.401245 2.228935 1.000000
329.970032 -600.401245 1.771065 1.000000
329.970032 -600.401245 1.312705 1.000000
329.970032 -600.401245 0.852868 1.000000
329.970032 -600.401245 0.390556 1.000000
329.511932 -600.618958 -0.000017 0.519112
327.261871 -601.688416 -0.000015 0.563317
325.697998 -602.431702 -0.000014 0.545266
324.545776 -602.979309 -0.000013 0.551278
nan nan nan 0.000000
nan nan nan 0.000000
nan nan nan 0.000000
nan nan nan 0.000000
nan nan nan 0.000000
nan nan nan 0.000000
329.997620 -600.496155 2.686534 1.000000
329.997620 -600.496155 2.228682 1.000000
329.997620 -600.496155 1.771319 1.000000
329.997620 -600.496155 1.313465 1.000000
329.997620 -600.496155 0.854137 1.000000
329.997620 -600.496155 0.392336 1.000000
329.552063 -600.704163 -0.000017 0.547189
327.294556 -601.757813 -0.000015 0.533578
325.725525 -602.490173 -0.000013 0.548974
324.569550 -603.029724 -0.000013 0.538674
nan nan nan 0.000000
nan nan nan 0.000000
nan nan nan 0.000000
nan nan nan 0.000000
nan nan nan 0.000000
nan nan nan 0.000000
330.025146 -600.590881 2.685809 1.000000
330.025146 -600.590881 2.228440 1.000000
330.025146 -600.590881 1.771560 1.000000
330.025146 -600.590881 1.314190 1.000000
330.025146 -600.590881 0.855347 1.000000
330.025146 -600.590881 0.394034 1.000000
329.591553 -600.789551 -0.000017 0.536797
327.326782 -601.827454 -0.000015 0.548730
325.752655 -602.548828 -0.000013 0.550057
324.592926 -603.080322 -0.000012 0.572732
nan nan nan 0.000000
nan nan nan 0.000000
nan nan nan 0.000000
nan nan nan 0.000000
nan nan nan 0.000000
nan nan nan 0.000000
330.052643 -600.685364 2.685119 1.000000
330.052643 -600.685364 2.228210 1.000000
330.052643 -600.685364 1.771790 1.000000
330.052643 -600.685364 1.314881 1.000000
330.052643 -600.685364 0.856499 1.000000
330.052643 -600.685364 0.395651 1.000000
329.630493 -600.875305 -0.000017 0.548882
327.358490 -601.897339 -0.000014 0.532769
325.779388 -602.607727 -0.000014 0.559121
324.615967 -603.131042 -0.000012 0.545464
nan nan nan 0.000000
nan nan nan 0.000000
nan nan nan 0.000000
nan nan nan 0.000000
nan nan nan 0.000000
nan nan nan 0.000000
330.080048 -600.779663 2.684464 1.000000
330.080048 -600.779663 2.227991 1.000000
330.080048 -600.779663 1.772008 1.000000
330.080048 -600.779663 1.315536 1.000000
330.080078 -600.779663 0.857593 1.000000
330.080048 -600.779663 0.397186 1.000000
329.668793 -600.961243 -0.000017 0.551202
327.389740 -601.967407 -0.000015 0.568063
325.805725 -602.666748 -0.000013 0.531273
324.638672 -603.182007 -0.000012 0.509636
nan nan nan 0.000000
nan nan nan 0.000000
nan nan nan 0.000000
nan nan nan 0.000000
nan nan nan 0.000000
nan nan nan 0.000000
330.107422 -600.873840 2.683843 1.000000
330.107422 -600.873840 2.227785 1.000000
330.107422 -600.873840 1.772215 1.000000
330.107422 -600.873840 1.316157 1.000000
330.107422 -600.873840 0.858630 1.000000
330.107422 -600.873840 0.398640 1.000000
329.706512 -601.047485 -0.000017 0.512932
327.420471 -602.037720 -0.000015 0.531044
325.831604 -602.726013 -0.000013 0.569833
324.661011 -603.233032 -0.000012 0.527825
nan nan nan 0.000000
nan nan nan 0.000000
nan nan nan 0.000000
nan nan nan 0.000000
nan nan nan 0.000000
nan nan nan 0.000000
330.134766 -600.967834 2.683256 1.000000
330.134766 -600.967834 2.227589 1.000000
330.134766 -600.967834 1.772411 1.000000
330.134766 -600.967834 1.316744 1.000000
330.134766 -600.967834 0.859609 1.000000
330.134766 -600.967834 0.400014 1.000000
329.743622 -601.134033 -0.000017 0.554452
327.450745 -602.108276 -0.000014 0.519936
325.857117 -602.785400 -0.000013 0.526177
324.682983 -603.284302 -0.000012 0.518273
nan nan nan 0.000000
nan nan nan 0.000000
nan nan nan 0.000000
nan nan nan 0.000000
nan nan nan 0.000000
nan nan nan 0.000000
330.162048 -601.061646 2.682703 1.000000
330.162048 -601.061646 2.227406 1.000000
330.162048 -601.061646 1.772595 1.000000
330.162048 -601.061646 1.317297 1.000000
330.162048 -601.061646 0.860531 1.000000
330.162048 -601.061646 0.401307 1.000000
329.780121 -601.220764 -0.000017 0.544915
327.480499 -602.179016 -0.000014 0.560555
325.882172 -602.844971 -0.000013 0.564233
324.704620 -603.335693 -0.000012 0.507881
nan nan nan 0.000000
nan nan nan 0.000000
nan nan nan 0.000000
nan nan nan 0.000000
nan nan nan 0.000000
nan nan nan 0.000000
330.189270 -601.155334 2.682185 1.000000
330.189270 -601.155334 2.227233 1.000000
330.189270 -601.155334 1.772767 1.000000
330.189270 -601.155334 1.317815 1.000000
330.189270 -601.155334 0.861396 1.000000
330.189270 -601.155334 0.402522 1.000000
329.816040 -601.307800 -0.000017 0.570504
327.509766 -602.249939 -0.000015 0.544945
325.906830 -602.904724 -0.000013 0.548211
324.725861 -603.387207 -0.000012 0.558587
nan nan nan 0.000000
nan nan nan 0.000000
nan nan nan 0.000000
nan nan nan 0.000000
nan nan nan 0.000000
nan nan nan 0.000000
330.216461 -601.248840 2.681701 1.000000
330.216461 -601.248840 2.227072 1.000000
330.216461 -601.248840 1.772929 1.000000
330.216461 -601.248840 1.318299 1.000000
330.216461 -601.248840 0.862204 1.000000
330.216461 -601.248840 0.403656 1.000000
329.851318 -601.395020 -0.000017 0.557244
327.538544 -602.321045 -0.000015 0.528801
325.931091 -602.964661 -0.000013 0.541253
324.746765 -603.438843 -0.000012 0.559609
nan nan nan 0.000000
nan nan nan 0.000000
nan nan nan 0.000000
nan nan nan 0.000000
nan nan nan 0.000000
nan nan nan 0.000000
330.243622 -601.342224 2.681251 1.000000
330.243622 -601.342224 2.226921 1.000000
330.243622 -601.342224 1.773079 1.000000
330.243622 -601.342224 1.318749 1.000000
330.243622 -601.342224 0.862956 1.000000
330.243622 -601.342224 0.404710 1.000000
329.886017 -601.482544 -0.000016 0.541863
327.566833 -602.392395 -0.000014 0.549599
325.954895 -603.024780 -0.000013 0.568170
324.767303 -603.490662 -0.000012 0.551324
nan nan nan 0.000000
nan nan nan 0.000000
nan nan nan 0.000000
nan nan nan 0.000000
nan nan nan 0.000000
nan nan nan 0.000000
330.270752 -601.435547 2.680834 1.000000
330.270752 -601.435547 2.226782 1.000000
330.270752 -601.435547 1.773217 1.000000
330.270752 -601.435547 1.319166 1.000000
330.270752 -601.435547 0.863652 1.000000
330.270752 -601.435547 0.405686 1.000000
329.920074 -601.570313 -0.000017 0.529442
327.594604 -602.463928 -0.000014 0.561883
325.978302 -603.085022 -0.000013 0.514305
324.787476 -603.542664 -0.000012 0.545052
nan nan nan 0.000000
nan nan nan 0.000000
nan nan nan 0.000000
nan nan nan 0.000000
nan nan nan 0.000000
nan nan nan 0.000000
330.297852 -601.528748 2.680451 1.000000
330.297852 -601.528748 2.226655 1.000000
330.297852 -601.528748 1.773345 1.000000
330.297852 -601.528748 1.319549 1.000000
330.297852 -601.528748 0.864291 1.000000
330.297852 -601.528748 0.406583 1.000000
329.953552 -601.658264 -0.000017 0.539376
327.621857 -602.535645 -0.000014 0.545129
326.001282 -603.145447 -0.000013 0.558358
324.807281 -603.594727 -0.000011 0.530358
nan nan nan 0.000000
nan nan nan 0.000000
nan nan nan 0.000000
nan nan nan 0.000000
nan nan nan 0.000000
nan nan nan 0.000000
330.324921 -601.621826 2.680101 1.000000
330.324921 -601.621826 2.226538 1.000000
330.324921 -601.621826 1.773461 1.000000
330.324921 -601.621826 1.319899 1.000000
330.324921 -601.621826 0.864874 1.000000
330.324921 -601.621826 0.407401 1.000000
329.986389 -601.746521 -0.000017 0.527245
327.648651 -602.607605 -0.000014 0.564538
326.023834 -603.206055 -0.000013 0.527413
324.826752 -603.646973 -0.000012 0.562493
nan nan nan 0.000000
nan nan nan 0.000000
nan nan nan 0.000000
nan nan nan 0.000000
nan nan nan 0.000000
nan nan nan 0.000000
330.351959 -601.714783 2.679785 1.000000
330.351959 -601.714783 2.226433 1.000000
330.351959 -601.714783 1.773567 1.000000
330.351959 -601.714783 1.320215 1.000000
330.351959 -601.714783 0.865402 1.000000
330.351959 -601.714783 0.408141 1.000000
330.018616 -601.834961 -0.000017 0.548287
327.674927 -602.679688 -0.000014 0.546365
326.045959 -603.266785 -0.000013 0.519341
324.845825 -603.699341 -0.000012 0.558328
nan nan nan 0.000000
nan nan nan 0.000000
nan nan nan 0.000000
nan nan nan 0.000000
nan nan nan 0.000000
nan nan nan 0.000000
330.378967 -601.807678 2.679503 1.000000
330.378967 -601.807678 2.226339 1.000000
330.378967 -601.807678 1.773661 1.000000
330.378967 -601.807678 1.320497 1.000000
330.378967 -601.807678 0.865873 1.000000
330.378967 -601.807678 0.408803 1.000000
330.050232 -601.923584 -0.000016 0.543938
327.700684 -602.751953 -0.000014 0.561975
326.067688 -603.327698 -0.000013 0.570718
324.864532 -603.751892 -0.000011 0.551324
nan nan nan 0.000000
nan nan nan 0.000000
nan nan nan 0.000000
nan nan nan 0.000000
nan nan nan 0.000000
nan nan nan 0.000000
330.405945 -601.900513 2.679254 1.000000
330.405945 -601.900513 2.226256 1.000000
330.405945 -601.900513 1.773744 1.000000
330.405945 -601.900513 1.320746 1.000000
330.405945 -601.900513 0.866289 1.000000
330.405945 -601.900513 0.409387 1.000000
330.081207 -602.012451 -0.000017 0.546578
327.725952 -602.824402 -0.000014 0.550439
326.088959 -603.388733 -0.000012 0.544793
324.882904 -603.804504 -0.000011 0.537194
nan nan nan 0.000000
nan nan nan 0.000000
nan nan nan 0.000000
nan nan nan 0.000000
nan nan nan 0.000000
nan nan nan 0.000000
330.432922 -601.993286 2.679038 1.000000
330.432922 -601.993286 2.226184 1.000000
330.432922 -601.993286 1.773816 1.000000
330.432922 -601.993286 1.320962 1.000000
330.432922 -601.993286 0.866650 1.000000
330.432922 -601.993286 0.409892 1.000000
330.111572 -602.101563 -0.000016 0.520226
327.750702 -602.897034 -0.000014 0.514900
326.109802 -603.449951 -0.000012 0.516640
324.900879 -603.857239 -0.000011 0.539803
nan nan nan 0.000000
nan nan nan 0.000000
nan nan nan 0.000000
nan nan nan 0.000000
nan nan nan 0.000000
nan nan nan 0.000000
330.459900 -602.085999 2.678855 1.000000
330.459900 -602.085999 2.226123 1.000000
330.459900 -602.085999 1.773877 1.000000
330.459900 -602.085999 1.321145 1.000000
330.459900 -602.085999 0.866955 1.000000
330.459869 -602.085999 0.410321 1.000000
330.141296 -602.190857 -0.000016 0.530648
327.774933 -602.969849 -0.000014 0.564370
326.130249 -603.511292 -0.000012 0.499489
324.918488 -603.910156 -0.000011 0.550149
nan nan nan 0.000000
nan nan nan 0.000000
nan nan nan 0.000000
nan nan nan 0.000000
nan nan nan 0.000000
nan nan nan 0.000000
330.486816 -602.178711 2.678705 1.000000
330.486816 -602.178711 2.226073 1.000000
330.486816 -602.178711 1.773927 1.000000
330.486816 -602.178711 1.321295 1.000000
330.486816 -602.178711 0.867205 1.000000
330.486816 -602.178711 0.410671 1.000000
330.170441 -602.280396 -0.000016 0.530251
327.798676 -603.042847 -0.000014 0.542290
326.150238 -603.572754 -0.000012 0.565270
324.935730 -603.963135 -0.000011 0.532479
nan nan nan 0.000000
nan nan nan 0.000000
nan nan nan 0.000000
nan nan nan 0.000000
nan nan nan 0.000000
nan nan nan 0.000000
330.513763 -602.271301 2.678589 1.000000
330.513763 -602.271301 2.226034 1.000000
330.513763 -602.271301 1.773965 1.000000
330.513763 -602.271301 1.321411 1.000000
330.513763 -602.271301 0.867399 1.000000
330.513763 -602.271301 0.410944 1.000000
330.198914 -602.370117 -0.000016 0.524575
327.821930 -603.115967 -0.000014 0.544427
326.169800 -603.634338 -0.000012 0.575525
324.952606 -604.016296 -0.000011 0.527733
nan nan nan 0.000000
nan nan nan 0.000000
nan nan nan 0.000000
nan nan nan 0.000000
nan nan nan 0.000000
nan nan nan 0.000000
330.540680 -602.363892 2.678505 1.000000
330.540710 -602.363892 2.226007 1.000000
330.540680 -602.363892 1.773993 1.000000
330.540680 -602.363892 1.321495 1.000000
330.540680 -602.363953 0.867539 1.000000
330.540680 -602.363953 0.411139 1.000000
330.226807 -602.460022 -0.000016 0.529152
327.844635 -603.189270 -0.000014 0.571710
326.188934 -603.696106 -0.000012 0.542565
324.969116 -604.069519 -0.000011 0.535637
nan nan nan 0.000000
nan nan nan 0.000000
nan nan nan 0.000000
nan nan nan 0.000000
nan nan nan 0.000000
nan nan nan 0.000000
330.567627 -602.456482 2.678454 1.000000
330.567627 -602.456482 2.225990 1.000000
330.567627 -602.456482 1.774010 1.000000
330.567627 -602.456482 1.321545 1.000000
330.567627 -602.456482 0.867622 1.000000
330.567596 -602.456482 0.411257 1.000000
330.254028 -602.550110 -0.000016 0.553689
327.866852 -603.262695 -0.000014 0.528389
326.207642 -603.757996 -0.000012 0.521477
324.985229 -604.122864 -0.000011 0.549477
321.020081 -605.334473 2.961506 1.000000
321.020081 -605.334473 2.829046 1.000000
321.020081 -605.334473 2.698447 1.000000
321.020081 -605.334473 2.569395 1.000000
321.020081 -605.334473 2.441589 1.000000
321.020081 -605.334473 2.314743 1.000000
321.020081 -605.334473 2.188576 1.000000
321.020081 -605.334473 2.062814 1.000000
321.020081 -605.334473 1.937186 1.000000
321.020081 -605.334473 1.811424 1.000000
321.020081 -605.334473 1.685257 1.000000
321.020081 -605.334473 1.558411 1.000000
321.020081 -605.334473 1.430605 1.000000
321.020081 -605.334473 1.301553 1.000000
321.020081 -605.334473 1.170953 1.000000
321.020081 -605.334473 1.038494 1.000000
321.027527 -605.360229 2.961518 1.000000
321.027527 -605.360229 2.829057 1.000000
321.027527 -605.360229 2.698456 1.000000
321.027527 -605.360229 2.569402 1.000000
321.027527 -605.360229 2.441595 1.000000
321.027527 -605.360229 2.314747 1.000000
321.027527 -605.360229 2.188578 1.000000
321.027527 -605.360229 2.062814 1.000000
321.027527 -605.360229 1.937186 1.000000
321.027527 -605.360229 1.811422 1.000000
321.027527 -605.360229 1.685253 1.000000
321.027527 -605.360229 1.558405 1.000000
321.027527 -605.360229 1.430598 1.000000
321.027527 -605.360229 1.301544 1.000000
321.027527 -605.360229 1.170943 1.000000
321.027527 -605.360229 1.038482 1.000000
321.034973 -605.385986 2.961576 1.000000
321.034973 -605.385986 2.829107 1.000000
321.034973 -605.385986 2.698498 1.000000
321.034973 -605.385986 2.569436 1.000000
321.034973 -605.385986 2.441622 1.000000
321.034973 -605.385986 2.314766 1.000000
321.034973 -605.385986 2.188590 1.000000
321.034973 -605.385986 2.062818 1.000000
321.034973 -605.385986 1.937182 1.000000
321.034973 -605.385986 1.811410 1.000000
321.034973 -605.385986 1.685234 1.000000
321.034973 -605.385986 1.558378 1.000000
321.034973 -605.385986 1.430564 1.000000
321.034973 -605.385986 1.301502 1.000000
321.034973 -605.385986 1.170892 1.000000
321.034973 -605.385986 1.038424 1.000000
321.042419 -605.411743 2.961681 1.000000
321.042419 -605.411743 2.829198 1.000000
321.042419 -605.411743 2.698575 1.000000
321.042419 -605.411743 2.569499 1.000000
321.042419 -605.411743 2.441670 1.000000
321.042419 -605.411743 2.314801 1.000000
321.042419 -605.411743 2.188610 1.000000
321.042419 -605.411743 2.062825 1.000000
321.042419 -605.411743 1.937175 1.000000
321.042419 -605.411743 1.811390 1.000000
321.042419 -605.411743 1.685199 1.000000
321.042419 -605.411743 1.558330 1.000000
321.042419 -605.411743 1.430501 1.000000
321.042419 -605.411743 1.301425 1.000000
321.042419 -605.411743 1.170802 1.000000
321.042419 -605.411743 1.038318 1.000000
321.049866 -605.437500 2.961833 1.000000
321.049866 -605.437500 2.829329 1.000000
321.049866 -605.437500 2.698685 1.000000
321.049866 -605.437500 2.569589 1.000000
321.049866 -605.437500 2.441740 1.000000
321.049866 -605.437500 2.314850 1.000000
321.049866 -605.437500 2.188640 1.000000
321.049866 -605.437500 2.062835 1.000000
321.049866 -605.437500 1.937165 1.000000
321.049866 -605.437500 1.811360 1.000000
321.049866 -605.437500 1.685150 1.000000
321.049866 -605.437500 1.558260 1.000000
321.049866 -605.437500 1.430411 1.000000
321.049866 -605.437500 1.301314 1.000000
321.049866 -605.437500 1.170670 1.000000
321.049866 -605.437500 1.038166 1.000000
321.057312 -605.463257 2.962033 1.000000
321.057312 -605.463257 2.829501 1.000000
321.057312 -605.463257 2.698830 1.000000
321.057312 -605.463257 2.569707 1.000000
321.057312 -605.463257 2.441831 1.000000
321.057312 -605.463257 2.314915 1.000000
321.057312 -605.463257 2.188679 1.000000
321.057312 -605.463257 2.062848 1.000000
321.057312 -605.463257 1.937152 1.000000
321.057312 -605.463257 1.811321 1.000000
321.057312 -605.463257 1.685084 1.000000
321.057312 -605.463257 1.558169 1.000000
321.057312 -605.463257 1.430293 1.000000
321.057312 -605.463257 1.301170 1.000000
321.057312 -605.463257 1.170499 1.000000
321.057312 -605.463257 1.037967 1.000000
321.064758 -605.489014 2.962279 1.000000
321.064758 -605.489014 2.829713 1.000000
321.064758 -605.489014 2.699009 1.000000
321.064758 -605.489014 2.569853 1.000000
321.064758 -605.489014 2.441944 1.000000
321.064758 -605.489014 2.314996 1.000000
321.064758 -605.489014 2.188727 1.000000
321.064758 -605.489014 2.062864 1.000000
321.064758 -605.489014 1.937136 1.000000
321.064758 -605.489014 1.811273 1.000000
321.064758 -605.489014 1.685004 1.000000
321.064758 -605.489014 1.558056 1.000000
321.064758 -605.489014 1.430147 1.000000
321.064758 -605.489014 1.300991 1.000000
321.064758 -605.489014 1.170286 1.000000
321.064758 -605.489014 1.037721 1.000000
321.072205 -605.514832 2.962572 1.000000
321.072205 -605.514832 2.829966 1.000000
321.072205 -605.514832 2.699222 1.000000
321.072205 -605.514832 2.570026 1.000000
321.072205 -605.514832 2.442079 1.000000
321.072205 -605.514832 2.315092 1.000000
321.072205 -605.514832 2.188785 1.000000
321.072205 -605.514832 2.062883 1.000000
321.072205 -605.514832 1.937117 1.000000
321.072205 -605.514832 1.811215 1.000000
321.072205 -605.514832 1.684908 1.000000
321.072205 -605.514832 1.557921 1.000000
321.072205 -605.514832 1.429973 1.000000
321.072205 -605.514832 1.300778 1.000000
321.072205 -605.514832 1.170033 1.000000
321.072205 -605.514832 1.037427 1.000000
321.079681 -605.540649 2.962913 1.000000
321.079681 -605.540649 2.830260 1.000000
321.079681 -605.540649 2.699469 1.000000
321.079681 -605.540649 2.570228 1.000000
321.079681 -605.540649 2.442235 1.000000
321.079681 -605.540649 2.315203 1.000000
321.079681 -605.540649 2.188852 1.000000
321.079681 -605.540649 2.062906 1.000000
321.079681 -605.540649 1.937094 1.000000
321.079681 -605.540649 1.811148 1.000000
321.079681 -605.540649 1.684796 1.000000
321.079681 -605.540649 1.557765 1.000000
321.079681 -605.540649 1.429772 1.000000
321.079681 -605.540649 1.300531 1.000000
321.079681 -605.540649 1.169740 1.000000
321.079681 -605.540649 1.037087 1.000000
321.087128 -605.566467 2.963300 1.000000
321.087128 -605.566467 2.830594 1.000000
321.087128 -605.566467 2.699751 1.000000
321.087128 -605.566467 2.570457 1.000000
321.087128 -605.566467 2.442414 1.000000
321.087128 -605.566467 2.315331 1.000000
321.087128 -605.566467 2.188928 1.000000
321.087128 -605.566467 2.062931 1.000000
321.087128 -605.566467 1.937069 1.000000
321.087128 -605.566467 1.811072 1.000000
321.087128 -605.566467 1.684669 1.000000
321.087128 -605.566467 1.557586 1.000000
321.087128 -605.566467 1.429542 1.000000
321.087128 -605.566467 1.300249 1.000000
321.087128 -605.566467 1.169406 1.000000
321.087128 -605.566467 1.036699 1.000000
321.094604 -605.592285 2.963735 1.000000
321.094604 -605.592285 2.830969 1.000000
321.094604 -605.592285 2.700067 1.000000
321.094604 -605.592285 2.570715 1.000000
321.094604 -605.592285 2.442613 1.000000
321.094604 -605.592285 2.315473 1.000000
321.094604 -605.592285 2.189013 1.000000
321.094604 -605.592285 2.062959 1.000000
321.094604 -605.592285 1.937041 1.000000
321.094604 -605.592285 1.810987 1.000000
321.094604 -605.592285 1.684527 1.000000
321.094604 -605.592285 1.557387 1.000000
321.094604 -605.592285 1.429285 1.000000
321.094604 -605.592285 1.299933 1.000000
321.094604 -605.592285 1.169031 1.000000
321.094604 -605.592285 1.036264 1.000000
321.102081 -605.618164 2.964218 1.000000
321.102081 -605.618164 2.831385 1.000000
321.102081 -605.618164 2.700417 1.000000
321.102081 -605.618164 2.571001 1.000000
321.102081 -605.618164 2.442835 1.000000
321.102081 -605.618164 2.315631 1.000000
321.102081 -605.618164 2.189107 1.000000
321.102081 -605.618164 2.062991 1.000000
321.102081 -605.618164 1.937009 1.000000
321.102081 -605.618164 1.810892 1.000000
321.102081 -605.618164 1.684369 1.000000
321.102081 -605.618164 1.557165 1.000000
321.102081 -605.618164 1.428999 1.000000
321.102081 -605.618164 1.299582 1.000000
321.102081 -605.618164 1.168615 1.000000
321.102081 -605.618164 1.035782 1.000000
321.109589 -605.644104 2.964747 1.000000
321.109589 -605.644104 2.831842 1.000000
321.109589 -605.644104 2.700802 1.000000
321.109589 -605.644104 2.571314 1.000000
321.109589 -605.644104 2.443078 1.000000
321.109589 -605.644104 2.315804 1.000000
321.109589 -605.644104 2.189211 1.000000
321.109589 -605.644104 2.063025 1.000000
321.109589 -605.644104 1.936975 1.000000
321.109589 -605.644104 1.810788 1.000000
321.109589 -605.644104 1.684196 1.000000
321.109589 -605.644104 1.556922 1.000000
321.109589 -605.644104 1.428685 1.000000
321.109589 -605.644104 1.299198 1.000000
321.109589 -605.644104 1.168158 1.000000
321.109589 -605.644104 1.035252 1.000000
321.117065 -605.670044 2.965325 1.000000
321.117065 -605.670044 2.832340 1.000000
321.117065 -605.670044 2.701222 1.000000
321.117065 -605.670044 2.571656 1.000000
321.117065 -605.670044 2.443343 1.000000
321.117065 -605.670044 2.315993 1.000000
321.117065 -605.670044 2.189325 1.000000
321.117065 -605.670044 2.063063 1.000000
321.117065 -605.670044 1.936937 1.000000
321.117065 -605.670044 1.810675 1.000000
321.117065 -605.670044 1.684007 1.000000
321.117065 -605.670044 1.556656 1.000000
321.117065 -605.670044 1.428344 1.000000
321.117065 -605.670044 1.298778 1.000000
321.117065 -605.670044 1.167660 1.000000
321.117065 -605.670044 1.034675 1.000000
321.124573 -605.695984 2.965950 1.000000
321.124573 -605.695984 2.832879 1.000000
321.124573 -605.695984 2.701676 1.000000
321.124573 -605.695984 2.572027 1.000000
321.124573 -605.695984 2.443631 1.000000
321.124573 -605.695984 2.316198 1.000000
321.124573 -605.695984 2.189447 1.000000
321.124573 -605.695984 2.063104 1.000000
321.124573 -605.695984 1.936896 1.000000
321.124573 -605.695984 1.810553 1.000000
321.124573 -605.695984 1.683802 1.000000
321.124573 -605.695984 1.556369 1.000000
321.124573 -605.695984 1.427973 1.000000
321.124573 -605.695984 1.298324 1.000000
321.124573 -605.695984 1.167121 1.000000
321.124573 -605.695984 1.034049 1.000000
321.132080 -605.721985 2.966624 1.000000
321.132080 -605.721985 2.833460 1.000000
321.132080 -605.721985 2.702165 1.000000
321.132080 -605.721985 2.572425 1.000000
321.132080 -605.721985 2.443940 1.000000
321.132080 -605.721985 2.316418 1.000000
321.132080 -605.721985 2.189579 1.000000
321.132080 -605.721985 2.063148 1.000000
321.132080 -605.721985 1.936852 1.000000
321.132080 -605.721985 1.810421 1.000000
321.132080 -605.721985 1.683582 1.000000
321.132080 -605.721985 1.556060 1.000000
321.132080 -605.721985 1.427574 1.000000
321.132080 -605.721985 1.297835 1.000000
321.132080 -605.721985 1.166540 1.000000
321.132080 -605.721985 1.033376 1.000000
321.139618 -605.748047 2.967345 1.000000
321.139618 -605.748047 2.834082 1.000000
321.139618 -605.748047 2.702689 1.000000
321.139618 -605.748047 2.572853 1.000000
321.139618 -605.748047 2.444271 1.000000
321.139618 -605.748047 2.316654 1.000000
321.139618 -605.748047 2.189721 1.000000
321.139618 -605.748047 2.063195 1.000000
321.139618 -605.748047 1.936805 1.000000
321.139618 -605.748047 1.810279 1.000000
321.139618 -605.748047 1.683346 1.000000
321.139618 -605.748047 1.555729 1.000000
321.139618 -605.748047 1.427147 1.000000
321.139618 -605.748047 1.297311 1.000000
321.139618 -605.748047 1.165918 1.000000
321.139618 -605.748047 1.032655 1.000000
321.147156 -605.774109 2.968115 1.000000
321.147156 -605.774109 2.834745 1.000000
321.147156 -605.774109 2.703248 1.000000
321.147156 -605.774109 2.573308 1.000000
321.147156 -605.774109 2.444625 1.000000
321.147156 -605.774109 2.316906 1.000000
321.147156 -605.774109 2.189872 1.000000
321.147156 -605.774109 2.063245 1.000000
321.147156 -605.774109 1.936755 1.000000
321.147156 -605.774109 1.810128 1.000000
321.147156 -605.774109 1.683094 1.000000
321.147156 -605.774109 1.555375 1.000000
321.147156 -605.774109 1.426691 1.000000
321.147156 -605.774109 1.296752 1.000000
321.147156 -605.774109 1.165254 1.000000
321.147156 -605.774109 1.031885 1.000000
321.154694 -605.800232 2.968933 1.000000
321.154694 -605.800232 2.835451 1.000000
321.154694 -605.800232 2.703842 1.000000
321.154694 -605.800232 2.573793 1.000000
321.154694 -605.800232 2.445000 1.000000
321.154694 -605.800232 2.317174 1.000000
321.154694 -605.800232 2.190032 1.000000
321.154694 -605.800232 2.063299 1.000000
321.154694 -605.800232 1.936701 1.000000
321.154694 -605.800232 1.809968 1.000000
321.154694 -605.800232 1.682826 1.000000
321.154694 -605.800232 1.555000 1.000000
321.154694 -605.800232 1.426207 1.000000
321.154694 -605.800232 1.296157 1.000000
321.154694 -605.800232 1.164549 1.000000
321.154694 -605.800232 1.031067 1.000000
321.162262 -605.826416 2.969800 1.000000
321.162262 -605.826416 2.836198 1.000000
321.162262 -605.826416 2.704472 1.000000
321.162262 -605.826416 2.574306 1.000000
321.162262 -605.826416 2.445398 1.000000
321.162262 -605.826416 2.317458 1.000000
321.162262 -605.826416 2.190202 1.000000
321.162262 -605.826416 2.063355 1.000000
321.162262 -605.826416 1.936645 1.000000
321.162262 -605.826416 1.809798 1.000000
321.162262 -605.826416 1.682542 1.000000
321.162262 -605.826416 1.554601 1.000000
321.162262 -605.826416 1.425694 1.000000
321.162262 -605.826416 1.295528 1.000000
321.162262 -605.826416 1.163802 1.000000
321.162262 -605.826416 1.030200 1.000000
321.169830 -605.852600 2.970716 1.000000
321.169830 -605.852600 2.836987 1.000000
321.169830 -605.852600 2.705137 1.000000
321.169830 -605.852600 2.574848 1.000000
321.169830 -605.852600 2.445819 1.000000
321.169830 -605.852600 2.317758 1.000000
321.169830 -605.852600 2.190382 1.000000
321.169830 -605.852600 2.063415 1.000000
321.169830 -605.852600 1.936585 1.000000
321.169830 -605.852600 1.809618 1.000000
321.169861 -605.852600 1.682242 1.000000
321.169861 -605.852600 1.554181 1.000000
321.169830 -605.852600 1.425151 1.000000
321.169861 -605.852600 1.294863 1.000000
321.169830 -605.852600 1.163012 1.000000
321.169861 -605.852600 1.029284 1.000000
321.177429 -605.878906 2.971681 1.000000
321.177429 -605.878906 2.837820 1.000000
321.177429 -605.878906 2.705838 1.000000
321.177429 -605.878906 2.575420 1.000000
321.177429 -605.878906 2.446262 1.000000
321.177429 -605.878906 2.318074 1.000000
321.177429 -605.878906 2.190571 1.000000
321.177429 -605.878906 2.063478 1.000000
321.177429 -605.878906 1.936522 1.000000
321.177429 -605.878906 1.809429 1.000000
321.177429 -605.878906 1.681926 1.000000
321.177429 -605.878906 1.553738 1.000000
321.177429 -605.878906 1.424580 1.000000
321.177429 -605.878906 1.294162 1.000000
321.177429 -605.878906 1.162180 1.000000
321.177429 -605.878906 1.028319 1.000000
321.185028 -605.905212 2.972695 1.000000
321.185028 -605.905212 2.838694 1.000000
321.185028 -605.905212 2.706575 1.000000
321.185028 -605.905212 2.576021 1.000000
321.185028 -605.905212 2.446728 1.000000
321.185028 -605.905212 2.318406 1.000000
321.185028 -605.905212 2.190770 1.000000
321.185059 -605.905212 2.063545 1.000000
321.185059 -605.905212 1.936455 1.000000
321.185059 -605.905212 1.809230 1.000000
321.185059 -605.905212 1.681594 1.000000
321.185059 -605.905212 1.553272 1.000000
321.185059 -605.905212 1.423979 1.000000
321.185059 -605.905212 1.293425 1.000000
321.185028 -605.905212 1.161306 1.000000
321.185059 -605.905212 1.027305 1.000000
321.192657 -605.931580 2.973758 1.000000
321.192657 -605.931580 2.839612 1.000000
321.192657 -605.931580 2.707348 1.000000
321.192657 -605.931580 2.576651 1.000000
321.192657 -605.931580 2.447217 1.000000
321.192657 -605.931580 2.318754 1.000000
321.192657 -605.931580 2.190979 1.000000
321.192657 -605.931580 2.063614 1.000000
321.192657 -605.931580 1.936386 1.000000
321.192657 -605.931580 1.809021 1.000000
321.192657 -605.931580 1.681246 1.000000
321.192657 -605.931580 1.552783 1.000000
321.192657 -605.931580 1.423349 1.000000
321.192657 -605.931580 1.292652 1.000000
321.192657 -605.931580 1.160388 1.000000
321.192657 -605.931580 1.026241 1.000000
321.200317 -605.958008 2.974872 1.000000
321.200317 -605.958008 2.840572 1.000000
321.200317 -605.958008 2.708157 1.000000
321.200317 -605.958008 2.577310 1.000000
321.200317 -605.958008 2.447728 1.000000
321.200317 -605.958008 2.319118 1.000000
321.200317 -605.958008 2.191197 1.000000
321.200317 -605.958008 2.063687 1.000000
321.200317 -605.958008 1.936313 1.000000
321.200317 -605.958008 1.808803 1.000000
321.200317 -605.958008 1.680882 1.000000
321.200317 -605.958008 1.552272 1.000000
321.200317 -605.958008 1.422690 1.000000
321.200317 -605.958008 1.291843 1.000000
321.200317 -605.958008 1.159428 1.000000
321.200317 -605.958008 1.025127 1.000000
321.207977 -605.984497 2.976037 1.000000
321.207977 -605.984497 2.841576 1.000000
321.207977 -605.984497 2.709002 1.000000
321.207977 -605.984497 2.578000 1.000000
321.207977 -605.984497 2.448263 1.000000
321.207977 -605.984497 2.319499 1.000000
321.207977 -605.984497 2.191425 1.000000
321.207977 -605.984497 2.063763 1.000000
321.207977 -605.984497 1.936237 1.000000
321.207977 -605.984497 1.808574 1.000000
321.207977 -605.984497 1.680500 1.000000
321.207977 -605.984497 1.551737 1.000000
321.207977 -605.984497 1.422000 1.000000
321.207977 -605.984497 1.290997 1.000000
321.207977 -605.984497 1.158424 1.000000
321.207977 -605.984497 1.023963 1.000000
321.215637 -606.011047 2.977251 1.000000
321.215637 -606.011047 2.842623 1.000000
321.215637 -606.011047 2.709885 1.000000
321.215637 -606.011047 2.578719 1.000000
321.215637 -606.011047 2.448820 1.000000
321.215637 -606.011047 2.319897 1.000000
321.215637 -606.011047 2.191664 1.000000
321.215637 -606.011047 2.063842 1.000000
321.215637 -606.011047 1.936158 1.000000
321.215637 -606.011047 1.808336 1.000000
321.215637 -606.011047 1.680103 1.000000
321.215637 -606.011047 1.551179 1.000000
321.215637 -606.011047 1.421281 1.000000
321.215637 -606.011047 1.290115 1.000000
321.215637 -606.011047 1.157377 1.000000
321.215637 -606.011047 1.022749 1.000000
321.223328 -606.037720 2.978516 1.000000
321.223328 -606.037720 2.843714 1.000000
321.223328 -606.037720 2.710804 1.000000
321.223328 -606.037720 2.579468 1.000000
321.223328 -606.037720 2.449402 1.000000
321.223328 -606.037720 2.320311 1.000000
321.223328 -606.037720 2.191912 1.000000
321.223328 -606.037720 2.063925 1.000000
321.223328 -606.037720 1.936075 1.000000
321.223328 -606.037720 1.808088 1.000000
321.223328 -606.037720 1.679689 1.000000
321.223328 -606.037720 1.550598 1.000000
321.223328 -606.037720 1.420532 1.000000
321.223328 -606.037720 1.289196 1.000000
321.223328 -606.037720 1.156286 1.000000
321.223328 -606.037720 1.021483 1.000000
321.231049 -606.064392 2.979832 1.000000
321.231049 -606.064392 2.844849 1.000000
321.231049 -606.064392 2.711760 1.000000
321.231049 -606.064392 2.580247 1.000000
321.231049 -606.064392 2.450006 1.000000
321.231049 -606.064392 2.320742 1.000000
321.231049 -606.064392 2.192170 1.000000
321.231049 -606.064392 2.064011 1.000000
321.231049 -606.064392 1.935989 1.000000
321.231049 -606.064392 1.807830 1.000000
321.231049 -606.064392 1.679258 1.000000
321.231049 -606.064392 1.549994 1.000000
321.231049 -606.064392 1.419752 1.000000
321.231049 -606.064392 1.288240 1.000000
321.231049 -606.064392 1.155151 1.000000
321.231049 -606.064392 1.020167 1.000000
321.238800 -606.091187 2.981200 1.000000
321.238800 -606.091187 2.846028 1.000000
321.238800 -606.091187 2.712754 1.000000
321.238800 -606.091187 2.581058 1.000000
321.238800 -606.091187 2.450634 1.000000
321.238800 -606.091187 2.321190 1.000000
321.238800 -606.091187 2.192438 1.000000
321.238800 -606.091187 2.064100 1.000000
321.238800 -606.091187 1.935900 1.000000
321.238800 -606.091187 1.807562 1.000000
321.238800 -606.091187 1.678810 1.000000
321.238800 -606.091187 1.549366 1.000000
321.238800 -606.091187 1.418942 1.000000
321.238800 -606.091187 1.287246 1.000000
321.238800 -606.091187 1.153972 1.000000
321.238800 -606.091187 1.018800 1.000000
321.246552 -606.118042 2.982620 1.000000
321.246552 -606.118042 2.847252 1.000000
321.246552 -606.118042 2.713785 1.000000
321.246552 -606.118042 2.581898 1.000000
321.246552 -606.118042 2.451286 1.000000
321.246552 -606.118042 2.321655 1.000000
321.246552 -606.118042 2.192717 1.000000
321.246552 -606.118042 2.064193 1.000000
321.246552 -606.118042 1.935807 1.000000
321.246552 -606.118042 1.807283 1.000000
321.246552 -606.118042 1.678345 1.000000
321.246552 -606.118042 1.548714 1.000000
321.246552 -606.118042 1.418102 1.000000
321.246552 -606.118042 1.286215 1.000000
321.246552 -606.118042 1.152748 1.000000
321.246552 -606.118042 1.017380 1.000000
321.254333 -606.144958 2.984092 1.000000
321.254333 -606.144958 2.848521 1.000000
321.254333 -606.144958 2.714854 1.000000
321.254333 -606.144958 2.582770 1.000000
321.254333 -606.144958 2.451962 1.000000
321.254333 -606.144958 2.322136 1.000000
321.254333 -606.144958 2.193005 1.000000
321.254333 -606.144958 2.064289 1.000000
321.254333 -606.144958 1.935711 1.000000
321.254333 -606.144958 1.806995 1.000000
321.254333 -606.144958 1.677864 1.000000
321.254333 -606.144958 1.548038 1.000000
321.254333 -606.144958 1.417230 1.000000
321.254333 -606.144958 1.285146 1.000000
321.254333 -606.144958 1.151479 1.000000
321.254333 -606.144958 1.015908 1.000000
321.262146 -606.171936 2.985616 1.000000
321.262146 -606.171936 2.849835 1.000000
321.262146 -606.171936 2.715961 1.000000
321.262146 -606.171936 2.583672 1.000000
321.262146 -606.171936 2.452662 1.000000
321.262146 -606.171936 2.322635 1.000000
321.262146 -606.171936 2.193304 1.000000
321.262146 -606.171936 2.064389 1.000000
321.262146 -606.171936 1.935611 1.000000
321.262146 -606.171936 1.806696 1.000000
321.262146 -606.171936 1.677365 1.000000
321.262146 -606.171936 1.547338 1.000000
321.262146 -606.171936 1.416328 1.000000
321.262146 -606.171936 1.284039 1.000000
321.262146 -606.171936 1.150165 1.000000
321.262146 -606.171936 1.014384 1.000000
321.269958 -606.199036 2.987193 1.000000
321.269958 -606.199036 2.851195 1.000000
321.269958 -606.199036 2.717106 1.000000
321.269958 -606.199036 2.584606 1.000000
321.269958 -606.199036 2.453387 1.000000
321.269958 -606.199036 2.323151 1.000000
321.269958 -606.199036 2.193614 1.000000
321.269958 -606.199036 2.064492 1.000000
321.269958 -606.199036 1.935508 1.000000
321.269958 -606.199036 1.806386 1.000000
321.269958 -606.199036 1.676848 1.000000
321.269958 -606.199036 1.546613 1.000000
321.269958 -606.199036 1.415394 1.000000
321.269958 -606.199036 1.282893 1.000000
321.269958 -606.199036 1.148805 1.000000
321.269958 -606.199036 1.012807 1.000000
321.277832 -606.226257 2.988823 1.000000
321.277832 -606.226257 2.852601 1.000000
321.277832 -606.226257 2.718291 1.000000
321.277832 -606.226257 2.585572 1.000000
321.277832 -606.226257 2.454135 1.000000
321.277832 -606.226257 2.323685 1.000000
321.277832 -606.226257 2.193933 1.000000
321.277832 -606.226257 2.064598 1.000000
321.277832 -606.226257 1.935402 1.000000
321.277832 -606.226257 1.806067 1.000000
321.277832 -606.226257 1.676315 1.000000
321.277832 -606.226257 1.545864 1.000000
321.277832 -606.226257 1.414428 1.000000
321.277832 -606.226257 1.281709 1.000000
321.277832 -606.226257 1.147399 1.000000
321.277832 -606.226257 1.011176 1.000000
321.285706 -606.253479 2.990508 1.000000
321.285706 -606.253479 2.854053 1.000000
321.285706 -606.253479 2.719514 1.000000
321.285706 -606.253479 2.586569 1.000000
321.285706 -606.253479 2.454909 1.000000
321.285706 -606.253479 2.324236 1.000000
321.285706 -606.253479 2.194264 1.000000
321.285706 -606.253479 2.064708 1.000000
321.285706 -606.253479 1.935292 1.000000
321.285706 -606.253479 1.805736 1.000000
321.285706 -606.253479 1.675763 1.000000
321.285706 -606.253479 1.545091 1.000000
321.285706 -606.253479 1.413431 1.000000
321.285706 -606.253479 1.280486 1.000000
321.285706 -606.253479 1.145947 1.000000
321.285706 -606.253479 1.009492 1.000000
321.293610 -606.280884 2.992246 1.000000
321.293610 -606.280884 2.855552 1.000000
321.293610 -606.280884 2.720777 1.000000
321.293610 -606.280884 2.587599 1.000000
321.293610 -606.280884 2.455707 1.000000
321.293610 -606.280884 2.324805 1.000000
321.293610 -606.280884 2.194605 1.000000
321.293610 -606.280884 2.064822 1.000000
321.293610 -606.280884 1.935178 1.000000
321.293610 -606.280884 1.805395 1.000000
321.293610 -606.280884 1.675194 1.000000
321.293610 -606.280884 1.544293 1.000000
321.293610 -606.280884 1.412401 1.000000
321.293610 -606.280884 1.279223 1.000000
321.293610 -606.280884 1.144448 1.000000
321.293610 -606.280884 1.007754 1.000000
321.301544 -606.308350 2.994039 1.000000
321.301544 -606.308350 2.857098 1.000000
321.301544 -606.308350 2.722080 1.000000
321.301544 -606.308350 2.588660 1.000000
321.301544 -606.308350 2.456531 1.000000
321.301544 -606.308350 2.325392 1.000000
321.301544 -606.308350 2.194956 1.000000
321.301544 -606.308350 2.064939 1.000000
321.301544 -606.308350 1.935061 1.000000
321.301544 -606.308350 1.805044 1.000000
321.301544 -606.308350 1.674607 1.000000
321.301544 -606.308350 1.543469 1.000000
321.301544 -606.308350 1.411339 1.000000
321.301544 -606.308350 1.277920 1.000000
321.301544 -606.308350 1.142902 1.000000
321.301544 -606.308350 1.005961 1.000000
321.309509 -606.335938 2.995887 1.000000
321.309509 -606.335938 2.858692 1.000000
321.309540 -606.335938 2.723422 1.000000
321.309540 -606.335938 2.589755 1.000000
321.309540 -606.335938 2.457380 1.000000
321.309540 -606.335938 2.325998 1.000000
321.309540 -606.335938 2.195319 1.000000
321.309540 -606.335938 2.065060 1.000000
321.309540 -606.335938 1.934940 1.000000
321.309540 -606.335938 1.804681 1.000000
321.309540 -606.335938 1.674002 1.000000
321.309540 -606.335938 1.542620 1.000000
321.309540 -606.335938 1.410245 1.000000
321.309540 -606.335938 1.276577 1.000000
321.309540 -606.335938 1.141308 1.000000
321.309540 -606.335938 1.004112 1.000000
321.317535 -606.363586 2.997791 1.000000
321.317535 -606.363586 2.860333 1.000000
321.317535 -606.363586 2.724805 1.000000
321.317535 -606.363586 2.590882 1.000000
321.317535 -606.363586 2.458254 1.000000
321.317535 -606.363586 2.326621 1.000000
321.317535 -606.363586 2.195692 1.000000
321.317535 -606.363586 2.065184 1.000000
321.317535 -606.363586 1.934816 1.000000
321.317535 -606.363586 1.804308 1.000000
321.317535 -606.363586 1.673379 1.000000
321.317535 -606.363586 1.541746 1.000000
321.317535 -606.363586 1.409117 1.000000
321.317535 -606.363586 1.275195 1.000000
321.317535 -606.363586 1.139667 1.000000
321.317535 -606.363586 1.002209 1.000000
nan nan nan 0.000000
321.325562 -606.391357 2.862023 1.000000
321.325562 -606.391357 2.726229 1.000000
321.325562 -606.391357 2.592043 1.000000
321.325562 -606.391357 2.459154 1.000000
321.325562 -606.391357 2.327262 1.000000
321.325562 -606.391357 2.196076 1.000000
321.325562 -606.391357 2.065312 1.000000
321.325562 -606.391357 1.934688 1.000000
321.325562 -606.391357 1.803923 1.000000
321.325562 -606.391357 1.672738 1.000000
321.325562 -606.391357 1.540846 1.000000
321.325562 -606.391357 1.407957 1.000000
321.325562 -606.391357 1.273771 1.000000
321.325562 -606.391357 1.137977 1.000000
321.325562 -606.391357 1.000249 1.000000
nan nan nan 0.000000
321.333618 -606.419250 2.863761 1.000000
321.333618 -606.419250 2.727694 1.000000
321.333618 -606.419250 2.593237 1.000000
321.333618 -606.419250 2.460080 1.000000
321.333618 -606.419250 2.327922 1.000000
321.333618 -606.419250 2.196472 1.000000
321.333618 -606.419250 2.065444 1.000000
321.333618 -606.419250 1.934556 1.000000
321.333618 -606.419250 1.803528 1.000000
321.333618 -606.419250 1.672078 1.000000
321.333618 -606.419250 1.539920 1.000000
321.333618 -606.419250 1.406763 1.000000
321.333618 -606.419250 1.272306 1.000000
321.333618 -606.419250 1.136238 1.000000
321.333618 -606.419250 0.998232 1.000000
nan nan nan 0.000000
321.341705 -606.447266 2.865550 1.000000
321.341705 -606.447266 2.729200 1.000000
321.341705 -606.447266 2.594465 1.000000
321.341705 -606.447266 2.461032 1.000000
321.341705 -606.447266 2.328601 1.000000
321.341705 -606.447266 2.196879 1.000000
321.341705 -606.447266 2.065579 1.000000
321.341705 -606.447266 1.934421 1.000000
321.341705 -606.447266 1.803121 1.000000
321.341705 -606.447266 1.671399 1.000000
321.341705 -606.447266 1.538967 1.000000
321.341705 -606.447266 1.405535 1.000000
321.341705 -606.447266 1.270800 1.000000
321.341705 -606.447266 1.134450 1.000000
321.341705 -606.447266 0.996159 1.000000
nan nan nan 0.000000
321.349823 -606.475403 2.867387 1.000000
321.349823 -606.475403 2.730748 1.000000
321.349823 -606.475403 2.595727 1.000000
321.349823 -606.475403 2.462011 1.000000
321.349823 -606.475403 2.329299 1.000000
321.349823 -606.475403 2.197297 1.000000
321.349823 -606.475403 2.065719 1.000000
321.349823 -606.475403 1.934281 1.000000
321.349823 -606.475403 1.802703 1.000000
321.349823 -606.475403 1.670701 1.000000
321.349823 -606.475403 1.537988 1.000000
321.349823 -606.475403 1.404272 1.000000
321.349823 -606.475403 1.269251 1.000000
321.349823 -606.475403 1.132612 1.000000
321.349823 -606.475403 0.994027 1.000000
nan nan nan 0.000000
321.358002 -606.503601 2.869276 1.000000
321.358002 -606.503601 2.732339 1.000000
321.358002 -606.503601 2.597024 1.000000
321.358002 -606.503601 2.463017 1.000000
321.358002 -606.503601 2.330015 1.000000
