# This PCD file was generated using the MATLABÂ® pcwrite function
# from Computer Vision ToolboxÂ®.
# .PCD v.7 - Point Cloud Data file format
VERSION .7
FIELDS x y z intensity
SIZE 4 4 4 4
TYPE F F F F
COUNT 1 1 1 1
WIDTH 1224
HEIGHT 1
VIEWPOINT 0 0 0 1 0 0 0
POINTS 1224
DATA ascii
200.344696 -395.661499 7.376386 1.000000
200.344711 -395.661499 6.529447 1.000000
200.344696 -395.661499 5.692537 1.000000
200.344696 -395.661499 4.863716 1.000000
200.344696 -395.661499 4.041115 1.000000
200.344696 -395.661499 3.222918 1.000000
200.344696 -395.661499 2.407348 1.000000
200.344696 -395.661499 1.592652 1.000000
200.344696 -395.661499 0.777082 1.000000
200.240814 -396.152191 0.000011 0.545327
198.789642 -403.006683 0.000007 0.532326
197.981415 -406.824280 0.000005 0.527474
197.465424 -409.261475 0.000004 0.539864
197.106796 -410.955444 0.000003 0.530785
196.842575 -412.203461 0.000003 0.473548
200.477386 -395.867981 8.191826 1.000000
200.477386 -395.867981 7.338826 1.000000
200.477386 -395.867981 6.497803 1.000000
200.477386 -395.867981 5.666739 1.000000
200.477386 -395.867981 4.843709 1.000000
200.477386 -395.867981 4.026855 1.000000
200.477386 -395.867981 3.214374 1.000000
200.477386 -395.867981 2.404502 1.000000
200.477386 -395.867981 1.595498 1.000000
200.477386 -395.867981 0.785626 1.000000
200.407288 -396.188049 0.000011 0.550042
198.908295 -403.032227 0.000008 0.544213
198.073425 -406.844086 0.000006 0.535744
197.540436 -409.277649 0.000005 0.567422
197.169998 -410.969055 0.000004 0.548028
196.897064 -412.215210 0.000003 0.544793
184.935043 -465.316437 13.634521 1.000000
184.935043 -465.316437 12.031723 1.000000
184.935043 -465.316437 10.451429 1.000000
184.935043 -465.316437 8.889853 1.000000
184.935043 -465.316437 7.343367 1.000000
192.849609 -430.349548 2.868840 1.000000
192.849609 -430.349548 2.520559 1.000000
192.849609 -430.349548 2.173396 1.000000
192.849609 -430.349548 1.826604 1.000000
192.849609 -430.349548 1.479441 1.000000
192.849609 -430.349579 1.131159 1.000000
192.849609 -430.349579 0.781003 1.000000
192.849609 -430.349579 0.428199 1.000000
192.849609 -430.349579 0.071952 1.000000
193.144562 -429.046417 0.000004 0.513207
193.426178 -427.802216 0.000002 0.549874
184.544708 -465.561798 13.716335 1.000000
184.544708 -465.561798 12.102266 1.000000
184.544708 -465.561798 10.510860 1.000000
184.544708 -465.561798 8.938302 1.000000
184.544708 -465.561798 7.380942 1.000000
192.794403 -430.260712 2.862756 1.000000
192.794403 -430.260712 2.516913 1.000000
192.794403 -430.260712 2.172181 1.000000
192.794403 -430.260712 1.827819 1.000000
192.794403 -430.260712 1.483086 1.000000
192.794403 -430.260742 1.137243 1.000000
192.794403 -430.260712 0.789539 1.000000
192.794403 -430.260712 0.439206 1.000000
192.794403 -430.260712 0.085454 1.000000
193.081558 -429.031952 0.000004 0.559899
193.371857 -427.789734 0.000002 0.523934
184.148819 -465.810638 13.799886 1.000000
184.148819 -465.810638 12.174308 1.000000
184.148819 -465.810638 10.571552 1.000000
184.148819 -465.810638 8.987779 1.000000
184.148819 -465.810638 7.419314 1.000000
192.739960 -430.173126 2.856798 1.000000
192.739960 -430.173126 2.513344 1.000000
192.739960 -430.173126 2.170992 1.000000
192.739960 -430.173126 1.829008 1.000000
192.739960 -430.173126 1.486656 1.000000
192.739960 -430.173126 1.143202 1.000000
192.739960 -430.173126 0.797899 1.000000
192.739960 -430.173126 0.449985 1.000000
192.739960 -430.173126 0.098676 1.000000
193.018661 -429.016998 0.000004 0.513481
193.317627 -427.776855 0.000003 0.553658
183.747223 -466.063080 13.885221 1.000000
183.747238 -466.063049 12.247884 1.000000
183.747223 -466.063080 10.633537 1.000000
183.747223 -466.063080 9.038313 1.000000
183.747223 -466.063080 7.458505 1.000000
192.686264 -430.086700 2.850962 1.000000
192.686264 -430.086700 2.509847 1.000000
192.686264 -430.086700 2.169828 1.000000
192.686264 -430.086700 1.830172 1.000000
192.686264 -430.086700 1.490153 1.000000
192.686264 -430.086700 1.149037 1.000000
192.686264 -430.086700 0.806086 1.000000
192.686264 -430.086700 0.460542 1.000000
192.686264 -430.086700 0.111625 1.000000
192.955872 -429.001648 0.000005 0.533349
193.263474 -427.763611 0.000003 0.562493
nan nan nan 0.000000
177.107574 -490.673645 17.752594 1.000000
177.107574 -490.673645 15.271093 1.000000
177.107574 -490.673645 12.818982 1.000000
177.107574 -490.673645 10.390571 1.000000
192.633286 -430.001465 2.845247 1.000000
192.633286 -430.001465 2.506423 1.000000
192.633286 -430.001465 2.168687 1.000000
192.633286 -430.001465 1.831313 1.000000
192.633286 -430.001465 1.493577 1.000000
192.633286 -430.001465 1.154752 1.000000
192.633286 -430.001465 0.814105 1.000000
192.633286 -430.001465 0.470881 1.000000
192.633286 -430.001465 0.124308 1.000000
192.893173 -428.985840 0.000005 0.527321
193.209427 -427.749969 0.000003 0.493065
nan nan nan 0.000000
176.735779 -490.086060 17.649929 1.000000
176.735779 -490.086029 15.184599 1.000000
176.735779 -490.086029 12.748472 1.000000
176.735779 -490.086029 10.335885 1.000000
192.581024 -429.917358 2.839648 1.000000
192.581024 -429.917358 2.503068 1.000000
192.581024 -429.917358 2.167570 1.000000
192.581024 -429.917358 1.832430 1.000000
192.581024 -429.917358 1.496931 1.000000
192.581024 -429.917358 1.160352 1.000000
192.581009 -429.917358 0.821960 1.000000
192.581024 -429.917358 0.481010 1.000000
192.581024 -429.917358 0.136733 1.000000
192.830612 -428.969574 0.000005 0.541665
193.155472 -427.735962 0.000003 0.571557
nan nan nan 0.000000
176.368790 -489.506012 17.549353 1.000000
176.368790 -489.506012 15.099867 1.000000
176.368790 -489.506012 12.679394 1.000000
176.368790 -489.505981 10.282312 1.000000
192.529434 -429.834320 2.834163 1.000000
192.529434 -429.834320 2.499782 1.000000
192.529434 -429.834351 2.166475 1.000000
192.529434 -429.834351 1.833525 1.000000
192.529434 -429.834351 1.500217 1.000000
192.529434 -429.834351 1.165836 1.000000
192.529434 -429.834351 0.829655 1.000000
192.529434 -429.834351 0.490932 1.000000
192.529434 -429.834351 0.148903 1.000000
192.768143 -428.952911 0.000005 0.548684
193.101624 -427.721558 0.000003 0.465797
nan nan nan 0.000000
176.006470 -488.933350 17.450798 1.000000
176.006454 -488.933350 15.016840 1.000000
176.006454 -488.933350 12.611708 1.000000
176.006470 -488.933350 10.229821 1.000000
192.478516 -429.752411 2.828790 1.000000
192.478516 -429.752411 2.496563 1.000000
192.478516 -429.752411 2.165403 1.000000
192.478516 -429.752411 1.834597 1.000000
192.478516 -429.752411 1.503437 1.000000
192.478516 -429.752411 1.171209 1.000000
192.478516 -429.752411 0.837193 1.000000
192.478516 -429.752411 0.500653 1.000000
192.478516 -429.752411 0.160827 1.000000
192.705811 -428.935791 0.000005 0.552895
193.047867 -427.706818 0.000003 0.492760
nan nan nan 0.000000
175.648682 -488.367859 17.354237 1.000000
175.648682 -488.367859 14.935486 1.000000
175.648682 -488.367859 12.545387 1.000000
175.648682 -488.367859 10.178388 1.000000
192.428253 -429.671509 2.823526 1.000000
192.428253 -429.671509 2.493409 1.000000
192.428253 -429.671509 2.164352 1.000000
192.428253 -429.671509 1.835648 1.000000
192.428253 -429.671509 1.506591 1.000000
192.428253 -429.671509 1.176474 1.000000
192.428253 -429.671509 0.844580 1.000000
192.428253 -429.671509 0.510177 1.000000
192.428253 -429.671509 0.172510 1.000000
192.643585 -428.918243 0.000005 0.493614
192.994217 -427.691681 0.000003 0.548653
nan nan nan 0.000000
175.295319 -487.809387 17.259611 1.000000
175.295319 -487.809387 14.855768 1.000000
175.295319 -487.809387 12.480401 1.000000
175.295319 -487.809387 10.127986 1.000000
192.378616 -429.591644 2.818367 1.000000
192.378616 -429.591644 2.490318 1.000000
192.378616 -429.591644 2.163323 1.000000
192.378616 -429.591644 1.836677 1.000000
192.378616 -429.591644 1.509681 1.000000
192.378616 -429.591644 1.181632 1.000000
192.378616 -429.591644 0.851817 1.000000
192.378616 -429.591644 0.519509 1.000000
192.378616 -429.591644 0.183957 1.000000
192.581497 -428.900238 0.000005 0.501869
192.940689 -427.676178 0.000003 0.545296
nan nan nan 0.000000
174.946274 -487.257721 17.166878 1.000000
174.946289 -487.257721 14.777645 1.000000
174.946289 -487.257721 12.416710 1.000000
174.946289 -487.257721 10.078591 1.000000
192.329590 -429.512756 2.813313 1.000000
192.329590 -429.512756 2.487290 1.000000
192.329590 -429.512756 2.162314 1.000000
192.329590 -429.512756 1.837686 1.000000
192.329590 -429.512756 1.512710 1.000000
192.329590 -429.512756 1.186687 1.000000
192.329590 -429.512756 0.858909 1.000000
192.329590 -429.512756 0.528653 1.000000
192.329590 -429.512756 0.195174 1.000000
192.519531 -428.881836 0.000005 0.539742
192.887253 -427.660278 0.000003 0.504631
nan nan nan 0.000000
174.601440 -486.712708 17.076000 1.000000
174.601440 -486.712708 14.701079 1.000000
174.601440 -486.712708 12.354291 1.000000
174.601440 -486.712708 10.030185 1.000000
192.281174 -429.434814 2.808359 1.000000
192.281174 -429.434814 2.484322 1.000000
192.281174 -429.434814 2.161325 1.000000
192.281174 -429.434814 1.838675 1.000000
192.281174 -429.434814 1.515678 1.000000
192.281174 -429.434845 1.191641 1.000000
192.281174 -429.434845 0.865859 1.000000
192.281174 -429.434845 0.537615 1.000000
192.281174 -429.434845 0.206167 1.000000
192.457687 -428.862976 0.000005 0.510369
192.833939 -427.644043 0.000003 0.535012
nan nan nan 0.000000
174.260681 -486.174133 16.986923 1.000000
174.260681 -486.174133 14.626042 1.000000
174.260681 -486.174133 12.293117 1.000000
174.260681 -486.174164 9.982741 1.000000
192.233337 -429.357849 2.803504 1.000000
192.233337 -429.357849 2.481413 1.000000
192.233337 -429.357849 2.160356 1.000000
192.233337 -429.357849 1.839644 1.000000
192.233337 -429.357849 1.518587 1.000000
192.233337 -429.357849 1.196496 1.000000
192.233337 -429.357849 0.872671 1.000000
192.233337 -429.357849 0.546398 1.000000
192.233337 -429.357849 0.216940 1.000000
192.395981 -428.843689 0.000005 0.538399
192.780731 -427.627411 0.000003 0.575967
nan nan nan 0.000000
173.923920 -485.641907 16.899624 1.000000
173.923920 -485.641907 14.552493 1.000000
173.923920 -485.641907 12.233155 1.000000
173.923920 -485.641907 9.936239 1.000000
192.186066 -429.281799 2.798746 1.000000
192.186066 -429.281799 2.478562 1.000000
192.186066 -429.281799 2.159407 1.000000
192.186066 -429.281799 1.840593 1.000000
192.186066 -429.281799 1.521437 1.000000
192.186066 -429.281799 1.201253 1.000000
192.186066 -429.281799 0.879346 1.000000
192.186066 -429.281799 0.555005 1.000000
192.186066 -429.281799 0.227498 1.000000
192.334412 -428.823975 0.000005 0.537438
192.727646 -427.610413 0.000003 0.528008
nan nan nan 0.000000
173.591034 -485.115784 16.814049 1.000000
173.591034 -485.115784 14.480395 1.000000
173.591049 -485.115784 12.174384 1.000000
173.591034 -485.115784 9.890657 1.000000
192.139359 -429.206604 2.794082 1.000000
192.139359 -429.206604 2.475768 1.000000
192.139359 -429.206604 2.158476 1.000000
192.139359 -429.206604 1.841524 1.000000
192.139359 -429.206604 1.524232 1.000000
192.139359 -429.206604 1.205917 1.000000
192.139359 -429.206604 0.885889 1.000000
192.139359 -429.206604 0.563442 1.000000
192.139359 -429.206604 0.237847 1.000000
192.272980 -428.803833 0.000005 0.581521
192.674667 -427.593048 0.000004 0.540536
nan nan nan 0.000000
173.261948 -484.595642 16.730164 1.000000
173.261948 -484.595642 14.409724 1.000000
173.261948 -484.595642 12.116773 1.000000
173.261948 -484.595642 9.845978 1.000000
192.093185 -429.132324 2.789511 1.000000
192.093185 -429.132324 2.473030 1.000000
192.093185 -429.132324 2.157564 1.000000
192.093185 -429.132324 1.842436 1.000000
192.093185 -429.132324 1.526970 1.000000
192.093185 -429.132324 1.210488 1.000000
192.093185 -429.132324 0.892303 1.000000
192.093185 -429.132324 0.571712 1.000000
192.093185 -429.132324 0.247992 1.000000
192.211700 -428.783264 0.000006 0.519463
192.621826 -427.575317 0.000004 0.546731
nan nan nan 0.000000
172.936539 -484.081329 16.647934 1.000000
172.936539 -484.081329 14.340450 1.000000
172.936539 -484.081360 12.060296 1.000000
172.936539 -484.081329 9.802179 1.000000
192.047531 -429.058868 2.785030 1.000000
192.047546 -429.058868 2.470345 1.000000
192.047546 -429.058868 2.156670 1.000000
192.047546 -429.058868 1.843330 1.000000
192.047531 -429.058868 1.529655 1.000000
192.047531 -429.058868 1.214969 1.000000
192.047531 -429.058868 0.898589 1.000000
192.047531 -429.058868 0.579818 1.000000
192.047531 -429.058868 0.257935 1.000000
192.150558 -428.762268 0.000006 0.574807
192.569107 -427.557190 0.000003 0.597436
nan nan nan 0.000000
172.614731 -483.572723 16.567326 1.000000
172.614731 -483.572754 14.272540 1.000000
172.614731 -483.572723 12.004934 1.000000
172.614731 -483.572723 9.759242 1.000000
192.002411 -428.986237 2.780638 1.000000
192.002411 -428.986237 2.467713 1.000000
192.002411 -428.986237 2.155793 1.000000
192.002411 -428.986237 1.844207 1.000000
192.002411 -428.986237 1.532287 1.000000
192.002411 -428.986237 1.219361 1.000000
192.002411 -428.986237 0.904752 1.000000
192.002411 -428.986237 0.587764 1.000000
192.002411 -428.986237 0.267682 1.000000
192.089554 -428.740845 0.000006 0.561883
192.516525 -427.538727 0.000004 0.552377
nan nan nan 0.000000
172.296448 -483.069641 16.488297 1.000000
172.296432 -483.069672 14.205965 1.000000
172.296432 -483.069672 11.950659 1.000000
172.296432 -483.069641 9.717151 1.000000
191.957779 -428.914398 2.776332 1.000000
191.957779 -428.914398 2.465133 1.000000
191.957779 -428.914398 2.154934 1.000000
191.957764 -428.914398 1.845066 1.000000
191.957779 -428.914398 1.534867 1.000000
191.957779 -428.914398 1.223668 1.000000
191.957779 -428.914398 0.910793 1.000000
191.957779 -428.914398 0.595554 1.000000
191.957779 -428.914398 0.277238 1.000000
192.028717 -428.718994 0.000006 0.548974
192.464050 -427.519897 0.000004 0.479286
nan nan nan 0.000000
171.981552 -482.571991 16.410824 1.000000
171.981552 -482.571991 14.140695 1.000000
171.981552 -482.571991 11.897449 1.000000
171.981552 -482.571991 9.675882 1.000000
191.913620 -428.843353 2.772111 1.000000
191.913620 -428.843353 2.462604 1.000000
191.913620 -428.843353 2.154091 1.000000
191.913620 -428.843353 1.845909 1.000000
191.913620 -428.843353 1.537396 1.000000
191.913620 -428.843353 1.227889 1.000000
191.913620 -428.843353 0.916716 1.000000
191.913620 -428.843353 0.603190 1.000000
191.913620 -428.843353 0.286604 1.000000
191.968033 -428.696716 0.000006 0.532845
192.411728 -427.500671 0.000004 0.538643
nan nan nan 0.000000
171.670013 -482.079590 16.334873 1.000000
171.670013 -482.079590 14.076703 1.000000
171.670013 -482.079590 11.845283 1.000000
171.670013 -482.079590 9.635426 1.000000
191.869949 -428.773071 2.767973 1.000000
191.869949 -428.773071 2.460125 1.000000
191.869949 -428.773071 2.153265 1.000000
191.869949 -428.773071 1.846735 1.000000
191.869949 -428.773071 1.539875 1.000000
191.869949 -428.773071 1.232027 1.000000
191.869949 -428.773071 0.922522 1.000000
191.869949 -428.773071 0.610677 1.000000
191.869949 -428.773071 0.295788 1.000000
191.907501 -428.674011 0.000006 0.535790
192.359528 -427.481110 0.000004 0.526421
nan nan nan 0.000000
171.361725 -481.592316 16.260403 1.000000
171.361710 -481.592316 14.013967 1.000000
171.361710 -481.592316 11.794137 1.000000
171.361710 -481.592346 9.595762 1.000000
191.826752 -428.703552 2.763916 1.000000
191.826752 -428.703552 2.457694 1.000000
191.826752 -428.703552 2.152456 1.000000
191.826752 -428.703552 1.847544 1.000000
191.826752 -428.703552 1.542306 1.000000
191.826752 -428.703552 1.236084 1.000000
191.826752 -428.703552 0.928214 1.000000
191.826752 -428.703552 0.618017 1.000000
191.826752 -428.703552 0.304792 1.000000
191.847122 -428.650909 0.000006 0.514656
192.307480 -427.461182 0.000004 0.538140
nan nan nan 0.000000
171.056595 -481.110077 16.187395 1.000000
171.056595 -481.110077 13.952457 1.000000
171.056595 -481.110077 11.743996 1.000000
171.056595 -481.110077 9.556873 1.000000
191.783997 -428.634766 2.759938 1.000000
191.783997 -428.634766 2.455311 1.000000
191.783997 -428.634766 2.151662 1.000000
191.783997 -428.634766 1.848338 1.000000
191.783997 -428.634766 1.544689 1.000000
191.783997 -428.634766 1.240062 1.000000
191.783997 -428.634766 0.933795 1.000000
191.783997 -428.634766 0.625212 1.000000
191.783997 -428.634766 0.313619 1.000000
191.786911 -428.627350 0.000006 0.530037
192.255569 -427.440887 0.000004 0.530861
nan nan nan 0.000000
170.754562 -480.632721 16.115814 1.000000
170.754562 -480.632721 13.892156 1.000000
170.754562 -480.632721 11.694832 1.000000
170.754562 -480.632721 9.518747 1.000000
191.741684 -428.566650 2.756038 1.000000
191.741684 -428.566650 2.452974 1.000000
191.741684 -428.566650 2.150883 1.000000
191.741684 -428.566650 1.849117 1.000000
191.741684 -428.566650 1.547026 1.000000
191.741684 -428.566650 1.243962 1.000000
191.741684 -428.566650 0.939267 1.000000
191.741684 -428.566650 0.632268 1.000000
191.741684 -428.566650 0.322273 1.000000
191.741684 -428.566650 0.008562 1.000000
192.203796 -427.420227 0.000004 0.516960
nan nan nan 0.000000
170.455551 -480.160156 16.045633 1.000000
170.455551 -480.160156 13.833031 1.000000
170.455551 -480.160156 11.646634 1.000000
170.455551 -480.160156 9.481365 1.000000
191.699799 -428.499268 2.752214 1.000000
191.699799 -428.499268 2.450683 1.000000
191.699799 -428.499268 2.150120 1.000000
191.699799 -428.499268 1.849880 1.000000
191.699799 -428.499268 1.549317 1.000000
191.699799 -428.499268 1.247785 1.000000
191.699799 -428.499268 0.944631 1.000000
191.699799 -428.499268 0.639185 1.000000
191.699799 -428.499268 0.330757 1.000000
191.699799 -428.499268 0.018634 1.000000
192.152161 -427.399200 0.000004 0.548516
nan nan nan 0.000000
170.159485 -479.692200 15.976822 1.000000
170.159485 -479.692230 13.775061 1.000000
170.159485 -479.692230 11.599374 1.000000
170.159485 -479.692230 9.444715 1.000000
191.658325 -428.432526 2.748466 1.000000
191.658325 -428.432526 2.448437 1.000000
191.658325 -428.432526 2.149372 1.000000
191.658325 -428.432526 1.850628 1.000000
191.658325 -428.432526 1.551563 1.000000
191.658325 -428.432526 1.251534 1.000000
191.658325 -428.432526 0.949890 1.000000
191.658325 -428.432526 0.645966 1.000000
191.658325 -428.432526 0.339077 1.000000
191.658325 -428.432526 0.028508 1.000000
192.100693 -427.377808 0.000005 0.595071
nan nan nan 0.000000
169.866287 -479.228821 15.909363 1.000000
169.866287 -479.228821 13.718224 1.000000
169.866287 -479.228821 11.553039 1.000000
169.866287 -479.228821 9.408780 1.000000
191.617279 -428.366455 2.744790 1.000000
191.617279 -428.366455 2.446235 1.000000
191.617279 -428.366455 2.148639 1.000000
191.617279 -428.366455 1.851361 1.000000
191.617279 -428.366455 1.553765 1.000000
191.617279 -428.366455 1.255210 1.000000
191.617279 -428.366455 0.955047 1.000000
191.617279 -428.366455 0.652616 1.000000
191.617279 -428.366455 0.347232 1.000000
191.617279 -428.366455 0.038190 1.000000
192.049362 -427.356079 0.000004 0.553414
nan nan nan 0.000000
169.575897 -478.769867 15.843214 1.000000
169.575897 -478.769867 13.662498 1.000000
169.575897 -478.769867 11.507611 1.000000
169.575897 -478.769867 9.373549 1.000000
191.576614 -428.301056 2.741186 1.000000
191.576614 -428.301025 2.444076 1.000000
191.576614 -428.301056 2.147920 1.000000
191.576614 -428.301056 1.852080 1.000000
191.576614 -428.301056 1.555924 1.000000
191.576614 -428.301056 1.258813 1.000000
191.576614 -428.301056 0.960104 1.000000
191.576614 -428.301056 0.659135 1.000000
191.576614 -428.301056 0.355229 1.000000
191.576614 -428.301056 0.047681 1.000000
191.998184 -427.333984 0.000005 0.559121
169.288239 -478.315216 17.979776 1.000000
169.288239 -478.315216 15.778367 1.000000
169.288239 -478.315216 13.607867 1.000000
169.288239 -478.315216 11.463074 1.000000
169.288254 -478.315216 9.339005 1.000000
191.536346 -428.236237 2.737653 1.000000
191.536346 -428.236237 2.441959 1.000000
191.536346 -428.236237 2.147214 1.000000
191.536346 -428.236237 1.852785 1.000000
191.536346 -428.236237 1.558041 1.000000
191.536346 -428.236237 1.262346 1.000000
191.536346 -428.236237 0.965060 1.000000
191.536346 -428.236237 0.665527 1.000000
191.536346 -428.236237 0.363069 1.000000
191.536346 -428.236237 0.056988 1.000000
191.947159 -427.311523 0.000005 0.563561
nan nan nan 0.000000
168.666718 -478.608307 15.891054 1.000000
168.666718 -478.608307 13.702803 1.000000
168.666718 -478.608307 11.540462 1.000000
168.666718 -478.608307 9.399029 1.000000
191.496460 -428.172058 2.734190 1.000000
191.496460 -428.172058 2.439884 1.000000
191.496460 -428.172058 2.146523 1.000000
191.496460 -428.172058 1.853477 1.000000
191.496460 -428.172058 1.560116 1.000000
191.496460 -428.172058 1.265810 1.000000
191.496460 -428.172058 0.969921 1.000000
191.496460 -428.172058 0.671793 1.000000
191.496460 -428.172058 0.370757 1.000000
191.496460 -428.172058 0.066112 1.000000
191.896301 -427.288727 0.000005 0.522179
nan nan nan 0.000000
167.995239 -478.992249 16.026745 1.000000
167.995239 -478.992249 13.817117 1.000000
167.995239 -478.992249 11.633658 1.000000
167.995239 -478.992249 9.471302 1.000000
191.456955 -428.108459 2.730793 1.000000
191.456955 -428.108459 2.437849 1.000000
191.456955 -428.108459 2.145845 1.000000
191.456955 -428.108459 1.854155 1.000000
191.456955 -428.108459 1.562151 1.000000
191.456955 -428.108459 1.269206 1.000000
191.456955 -428.108459 0.974685 1.000000
191.456955 -428.108459 0.677937 1.000000
191.456955 -428.108459 0.378293 1.000000
191.456955 -428.108459 0.075058 1.000000
191.845596 -427.265564 0.000005 0.572992
nan nan nan 0.000000
167.310471 -479.383789 16.165812 1.000000
167.310486 -479.383820 13.934279 1.000000
167.310471 -479.383820 11.729177 1.000000
167.310471 -479.383820 9.545382 1.000000
191.417801 -428.045471 2.727463 1.000000
191.417801 -428.045471 2.435854 1.000000
191.417801 -428.045471 2.145181 1.000000
191.417801 -428.045471 1.854819 1.000000
191.417801 -428.045471 1.564146 1.000000
191.417801 -428.045471 1.272536 1.000000
191.417801 -428.045471 0.979357 1.000000
191.417801 -428.045471 0.683961 1.000000
191.417801 -428.045471 0.385682 1.000000
191.417801 -428.045471 0.083828 1.000000
191.795059 -427.242035 0.000005 0.523278
nan nan nan 0.000000
166.611969 -479.783203 16.308372 1.000000
166.611969 -479.783234 14.054380 1.000000
166.611969 -479.783234 11.827083 1.000000
166.611969 -479.783234 9.621312 1.000000
191.378998 -427.983032 2.724199 1.000000
191.378998 -427.983032 2.433898 1.000000
191.378998 -427.983032 2.144530 1.000000
191.378998 -427.983032 1.855471 1.000000
191.378998 -427.983032 1.566101 1.000000
191.378998 -427.983032 1.275800 1.000000
191.378998 -427.983032 0.983937 1.000000
191.378998 -427.983032 0.689866 1.000000
191.378998 -427.983032 0.392925 1.000000
191.378998 -427.983032 0.092426 1.000000
191.744690 -427.218170 0.000005 0.501595
nan nan nan 0.000000
165.899231 -480.190765 16.454540 1.000000
165.899231 -480.190765 14.177517 1.000000
176.438171 -458.538330 8.355381 1.000000
176.438171 -458.538330 6.928861 1.000000
191.340546 -427.921143 2.720999 1.000000
191.340546 -427.921143 2.431981 1.000000
191.340546 -427.921143 2.143891 1.000000
191.340546 -427.921143 1.856109 1.000000
191.340546 -427.921143 1.568019 1.000000
191.340546 -427.921143 1.279000 1.000000
191.340546 -427.921143 0.988426 1.000000
191.340546 -427.921143 0.695655 1.000000
191.340546 -427.921143 0.400027 1.000000
191.340546 -427.921143 0.100855 1.000000
191.694489 -427.193939 0.000005 0.527108
nan nan nan 0.000000
165.171722 -480.606781 16.604448 1.000000
165.171722 -480.606750 14.303812 1.000000
176.244141 -458.256195 8.330503 1.000000
176.244141 -458.256195 6.909569 1.000000
191.302429 -427.859802 2.717862 1.000000
191.302429 -427.859802 2.430101 1.000000
191.302429 -427.859802 2.143265 1.000000
191.302429 -427.859802 1.856735 1.000000
191.302429 -427.859802 1.569898 1.000000
191.302429 -427.859802 1.282138 1.000000
191.302429 -427.859802 0.992827 1.000000
191.302429 -427.859802 0.701330 1.000000
191.302429 -427.859802 0.406988 1.000000
191.302429 -427.859802 0.109119 1.000000
191.644455 -427.169373 0.000006 0.502907
nan nan nan 0.000000
164.428955 -481.031494 16.758217 1.000000
164.428955 -481.031494 14.433361 1.000000
176.051605 -457.976257 8.306126 1.000000
176.051605 -457.976257 6.890663 1.000000
191.264633 -427.798981 2.714787 1.000000
191.264633 -427.798981 2.428259 1.000000
191.264633 -427.798981 2.142651 1.000000
191.264633 -427.798981 1.857349 1.000000
191.264633 -427.798981 1.571741 1.000000
191.264633 -427.798981 1.285213 1.000000
191.264633 -427.798981 0.997142 1.000000
191.264633 -427.798981 0.706893 1.000000
191.264633 -427.798981 0.413813 1.000000
191.264633 -427.798981 0.117219 1.000000
191.594589 -427.144470 0.000005 0.582330
nan nan nan 0.000000
163.670319 -481.465271 16.915997 1.000000
163.670319 -481.465271 14.566283 1.000000
175.860535 -457.698456 8.282240 1.000000
191.227158 -427.738678 2.998628 1.000000
191.227158 -427.738678 2.711772 1.000000
191.227158 -427.738678 2.426453 1.000000
191.227158 -427.738678 2.142050 1.000000
191.227158 -427.738678 1.857951 1.000000
191.227158 -427.738678 1.573547 1.000000
191.227158 -427.738678 1.288227 1.000000
191.227158 -427.738678 1.001372 1.000000
191.227158 -427.738678 0.712347 1.000000
191.227158 -427.738678 0.420502 1.000000
191.227158 -427.738678 0.125159 1.000000
191.544907 -427.119202 0.000005 0.608042
nan nan nan 0.000000
162.895264 -481.908478 17.077930 1.000000
162.895264 -481.908447 14.702708 1.000000
175.670898 -457.422729 8.258839 1.000000
191.190002 -427.678894 2.994483 1.000000
191.190002 -427.678894 2.708818 1.000000
191.190002 -427.678894 2.424683 1.000000
191.190002 -427.678894 2.141460 1.000000
191.190002 -427.678894 1.858540 1.000000
191.190002 -427.678894 1.575317 1.000000
191.190002 -427.678894 1.291182 1.000000
191.190002 -427.678894 1.005517 1.000000
191.190002 -427.678894 0.717692 1.000000
191.190002 -427.678894 0.427058 1.000000
191.190002 -427.678894 0.132942 1.000000
191.495392 -427.093597 0.000005 0.552865
nan nan nan 0.000000
162.103165 -482.361389 17.244164 1.000000
162.103165 -482.361389 14.842756 1.000000
175.482666 -457.149048 8.235913 1.000000
191.153152 -427.619598 2.990420 1.000000
191.153152 -427.619598 2.705922 1.000000
191.153152 -427.619598 2.422948 1.000000
191.153152 -427.619598 2.140882 1.000000
191.153152 -427.619598 1.859118 1.000000
191.153152 -427.619598 1.577052 1.000000
191.153152 -427.619598 1.294078 1.000000
191.153152 -427.619598 1.009580 1.000000
191.153152 -427.619598 0.722932 1.000000
191.153152 -427.619598 0.433485 1.000000
191.153152 -427.619598 0.140570 1.000000
191.446060 -427.067627 0.000005 0.574914
nan nan nan 0.000000
161.293350 -482.824463 17.414871 1.000000
161.293350 -482.824463 14.986569 1.000000
175.295807 -456.877350 8.213458 1.000000
191.116608 -427.560760 2.986437 1.000000
191.116608 -427.560760 2.703083 1.000000
191.116608 -427.560760 2.421247 1.000000
191.116608 -427.560760 2.140316 1.000000
191.116608 -427.560760 1.859685 1.000000
191.116608 -427.560760 1.578753 1.000000
191.116608 -427.560760 1.296916 1.000000
191.116608 -427.560760 1.013562 1.000000
191.116608 -427.560760 0.728066 1.000000
191.116608 -427.560760 0.439784 1.000000
191.116608 -427.560760 0.148046 1.000000
191.396927 -427.041321 0.000005 0.503868
nan nan nan 0.000000
160.124741 -483.918427 17.743050 1.000000
160.124725 -483.918427 15.263059 1.000000
175.110260 -456.607574 8.191464 1.000000
191.080338 -427.502411 2.982535 1.000000
191.080338 -427.502411 2.700302 1.000000
191.080338 -427.502411 2.419580 1.000000
191.080338 -427.502411 2.139760 1.000000
191.080338 -427.502411 1.860240 1.000000
191.080338 -427.502411 1.580420 1.000000
191.080338 -427.502411 1.299698 1.000000
191.080338 -427.502411 1.017465 1.000000
191.080338 -427.502411 0.733098 1.000000
191.080338 -427.502411 0.445956 1.000000
191.080338 -427.502411 0.155374 1.000000
191.347961 -427.014679 0.000005 0.553017
nan nan nan 0.000000
nan nan nan 0.000000
158.097229 -486.508514 15.854030 1.000000
174.926025 -456.339691 8.169924 1.000000
191.044357 -427.444519 2.978710 1.000000
191.044357 -427.444519 2.697576 1.000000
191.044357 -427.444519 2.417947 1.000000
191.044357 -427.444519 2.139216 1.000000
191.044357 -427.444519 1.860784 1.000000
191.044357 -427.444519 1.582053 1.000000
191.044357 -427.444519 1.302424 1.000000
191.044357 -427.444519 1.021289 1.000000
191.044357 -427.444519 0.738030 1.000000
191.044357 -427.444519 0.452006 1.000000
191.044357 -427.444519 0.162553 1.000000
191.299179 -426.987701 0.000006 0.584619
nan nan nan 0.000000
nan nan nan 0.000000
155.880524 -489.340332 16.500866 1.000000
174.743057 -456.073669 8.148832 1.000000
191.008652 -427.387054 2.974963 1.000000
191.008667 -427.387054 2.694905 1.000000
191.008667 -427.387054 2.416347 1.000000
191.008667 -427.387054 2.138683 1.000000
191.008652 -427.387054 1.861317 1.000000
191.008652 -427.387054 1.583653 1.000000
191.008652 -427.387054 1.305095 1.000000
191.008652 -427.387054 1.025037 1.000000
191.008652 -427.387054 0.742862 1.000000
191.008667 -427.387054 0.457933 1.000000
191.008652 -427.387054 0.169589 1.000000
191.250595 -426.960358 0.000006 0.544045
nan nan nan 0.000000
nan nan nan 0.000000
153.446594 -492.449615 17.211819 1.000000
174.561325 -455.809448 8.128183 1.000000
190.973236 -427.330048 2.971291 1.000000
190.973236 -427.330048 2.692288 1.000000
190.973236 -427.330048 2.414779 1.000000
190.973236 -427.330048 2.138161 1.000000
190.973236 -427.330048 1.861839 1.000000
190.973236 -427.330048 1.585221 1.000000
190.973236 -427.330048 1.307711 1.000000
190.973236 -427.330048 1.028709 1.000000
190.973236 -427.330048 0.747596 1.000000
190.973236 -427.330048 0.463740 1.000000
190.973236 -427.330048 0.176482 1.000000
191.202209 -426.932709 0.000006 0.496498
nan nan nan 0.000000
nan nan nan 0.000000
nan nan nan 0.000000
174.380798 -455.546967 8.107967 1.000000
190.938065 -427.273468 2.967694 1.000000
190.938065 -427.273468 2.689724 1.000000
190.938065 -427.273468 2.413243 1.000000
190.938065 -427.273468 2.137649 1.000000
190.938065 -427.273468 1.862351 1.000000
190.938065 -427.273468 1.586757 1.000000
190.938065 -427.273468 1.310276 1.000000
190.938065 -427.273468 1.032306 1.000000
190.938065 -427.273468 0.752234 1.000000
190.938065 -427.273468 0.469429 1.000000
190.938065 -427.273468 0.183235 1.000000
191.154007 -426.904724 0.000006 0.475593
nan nan nan 0.000000
nan nan nan 0.000000
nan nan nan 0.000000
174.201462 -455.286194 8.088181 1.000000
190.903152 -427.217285 2.964170 1.000000
190.903152 -427.217285 2.687213 1.000000
190.903152 -427.217285 2.411738 1.000000
190.903152 -427.217285 2.137148 1.000000
190.903152 -427.217285 1.862852 1.000000
190.903152 -427.217285 1.588262 1.000000
190.903152 -427.217285 1.312787 1.000000
190.903152 -427.217285 1.035830 1.000000
190.903152 -427.217285 0.756778 1.000000
190.903152 -427.217285 0.475003 1.000000
190.903152 -427.217285 0.189850 1.000000
191.106003 -426.876373 0.000006 0.496788
nan nan nan 0.000000
nan nan nan 0.000000
nan nan nan 0.000000
174.023254 -455.027130 8.068821 1.000000
190.868500 -427.161530 2.960719 1.000000
190.868500 -427.161499 2.684752 1.000000
190.868500 -427.161499 2.410264 1.000000
190.868500 -427.161499 2.136657 1.000000
190.868500 -427.161530 1.863343 1.000000
190.868500 -427.161530 1.589736 1.000000
190.868500 -427.161499 1.315247 1.000000
190.868500 -427.161530 1.039281 1.000000
190.868500 -427.161530 0.761228 1.000000
190.868500 -427.161530 0.480462 1.000000
190.868500 -427.161530 0.196331 1.000000
191.058197 -426.847717 0.000006 0.536736
nan nan nan 0.000000
nan nan nan 0.000000
nan nan nan 0.000000
173.846191 -454.769653 8.049871 1.000000
190.834091 -427.106140 2.957339 1.000000
190.834091 -427.106140 2.682343 1.000000
190.834091 -427.106140 2.408821 1.000000
190.834091 -427.106140 2.136176 1.000000
190.834091 -427.106140 1.863824 1.000000
190.834091 -427.106140 1.591179 1.000000
190.834091 -427.106140 1.317656 1.000000
190.834091 -427.106140 1.042661 1.000000
190.834091 -427.106140 0.765587 1.000000
190.834091 -427.106140 0.485809 1.000000
190.834091 -427.106140 0.202677 1.000000
191.010605 -426.818695 0.000006 0.529625
nan nan nan 0.000000
nan nan nan 0.000000
nan nan nan 0.000000
173.670212 -454.513794 8.031336 1.000000
190.799911 -427.051147 2.954028 1.000000
190.799911 -427.051147 2.679984 1.000000
190.799911 -427.051147 2.407407 1.000000
190.799911 -427.051147 2.135705 1.000000
190.799911 -427.051147 1.864295 1.000000
190.799911 -427.051147 1.592593 1.000000
190.799911 -427.051147 1.320016 1.000000
190.799911 -427.051147 1.045972 1.000000
190.799911 -427.051147 0.769855 1.000000
190.799911 -427.051147 0.491045 1.000000
190.799911 -427.051147 0.208892 1.000000
190.963211 -426.789368 0.000006 0.544457
nan nan nan 0.000000
nan nan nan 0.000000
nan nan nan 0.000000
173.495285 -454.259460 8.013208 1.000000
190.765976 -426.996521 2.950787 1.000000
190.765976 -426.996552 2.677674 1.000000
190.765976 -426.996521 2.406023 1.000000
190.765976 -426.996521 2.135244 1.000000
190.765976 -426.996521 1.864756 1.000000
190.765976 -426.996552 1.593977 1.000000
190.765976 -426.996552 1.322326 1.000000
190.765976 -426.996552 1.049213 1.000000
190.765976 -426.996552 0.774035 1.000000
190.765976 -426.996552 0.496171 1.000000
190.765976 -426.996552 0.214978 1.000000
190.916016 -426.759705 0.000007 0.525551
nan nan nan 0.000000
nan nan nan 0.000000
nan nan nan 0.000000
173.321411 -454.006653 7.995475 1.000000
190.732269 -426.942291 2.947613 1.000000
190.732269 -426.942291 2.675412 1.000000
190.732269 -426.942291 2.404668 1.000000
190.732269 -426.942291 2.134793 1.000000
190.732269 -426.942291 1.865207 1.000000
190.732269 -426.942291 1.595332 1.000000
190.732269 -426.942291 1.324588 1.000000
190.732269 -426.942291 1.052386 1.000000
190.732269 -426.942291 0.778127 1.000000
190.732269 -426.942291 0.501191 1.000000
190.732269 -426.942291 0.220935 1.000000
190.869034 -426.729706 0.000006 0.541283
nan nan nan 0.000000
nan nan nan 0.000000
nan nan nan 0.000000
173.148560 -453.755310 7.978140 1.000000
190.698776 -426.888397 2.944507 1.000000
190.698776 -426.888397 2.673198 1.000000
190.698776 -426.888397 2.403341 1.000000
190.698776 -426.888397 2.134351 1.000000
190.698776 -426.888397 1.865649 1.000000
190.698776 -426.888397 1.596659 1.000000
190.698776 -426.888397 1.326802 1.000000
190.698776 -426.888397 1.055493 1.000000
190.698776 -426.888397 0.782132 1.000000
190.698776 -426.888397 0.506104 1.000000
190.698776 -426.888397 0.226767 1.000000
190.822250 -426.699371 0.000006 0.495003
nan nan nan 0.000000
nan nan nan 0.000000
nan nan nan 0.000000
172.976685 -453.505432 7.961194 1.000000
190.665512 -426.834869 2.941467 1.000000
190.665512 -426.834869 2.671031 1.000000
190.665512 -426.834869 2.402043 1.000000
190.665512 -426.834869 2.133919 1.000000
190.665512 -426.834869 1.866082 1.000000
190.665512 -426.834869 1.597957 1.000000
190.665512 -426.834869 1.328969 1.000000
190.665512 -426.834869 1.058533 1.000000
190.665512 -426.834869 0.786052 1.000000
190.665512 -426.834869 0.510913 1.000000
190.665512 -426.834869 0.232475 1.000000
190.775696 -426.668732 0.000007 0.553658
nan nan nan 0.000000
nan nan nan 0.000000
nan nan nan 0.000000
172.805786 -453.256927 7.944633 1.000000
190.632446 -426.781677 2.938491 1.000000
190.632446 -426.781677 2.668910 1.000000
190.632446 -426.781677 2.400772 1.000000
190.632446 -426.781677 2.133495 1.000000
190.632446 -426.781677 1.866505 1.000000
190.632446 -426.781677 1.599228 1.000000
190.632446 -426.781677 1.331090 1.000000
190.632446 -426.781677 1.061508 1.000000
190.632446 -426.781677 0.789889 1.000000
190.632446 -426.781677 0.515619 1.000000
190.632446 -426.781677 0.238061 1.000000
190.729340 -426.637756 0.000006 0.505394
nan nan nan 0.000000
nan nan nan 0.000000
nan nan nan 0.000000
172.635818 -453.009796 7.928450 1.000000
190.599609 -426.728790 2.935580 1.000000
190.599609 -426.728790 2.666835 1.000000
190.599609 -426.728790 2.399529 1.000000
190.599609 -426.728790 2.133081 1.000000
190.599609 -426.728790 1.866919 1.000000
190.599609 -426.728790 1.600471 1.000000
190.599609 -426.728790 1.333165 1.000000
190.599609 -426.728790 1.064420 1.000000
190.599594 -426.728790 0.793643 1.000000
190.599594 -426.728790 0.520223 1.000000
190.599609 -426.728790 0.243526 1.000000
190.683212 -426.606476 0.000007 0.541360
nan nan nan 0.000000
nan nan nan 0.000000
nan nan nan 0.000000
172.466751 -452.764008 7.912644 1.000000
190.566956 -426.676270 2.932733 1.000000
190.566956 -426.676270 2.664805 1.000000
190.566956 -426.676270 2.398313 1.000000
190.566956 -426.676270 2.132676 1.000000
190.566956 -426.676270 1.867324 1.000000
190.566956 -426.676270 1.601687 1.000000
190.566956 -426.676270 1.335194 1.000000
190.566956 -426.676270 1.067267 1.000000
190.566956 -426.676270 0.797314 1.000000
190.566956 -426.676270 0.524727 1.000000
190.566956 -426.676270 0.248872 1.000000
190.637314 -426.574860 0.000007 0.501472
nan nan nan 0.000000
nan nan nan 0.000000
nan nan nan 0.000000
172.298584 -452.519501 7.897211 1.000000
190.534500 -426.624023 2.929947 1.000000
190.534500 -426.624023 2.662820 1.000000
190.534500 -426.624023 2.397123 1.000000
190.534500 -426.624023 2.132280 1.000000
190.534500 -426.624023 1.867720 1.000000
190.534500 -426.624023 1.602876 1.000000
190.534500 -426.624023 1.337179 1.000000
190.534500 -426.624023 1.070052 1.000000
190.534500 -426.624023 0.800906 1.000000
190.534500 -426.624023 0.529132 1.000000
190.534500 -426.624023 0.254102 1.000000
190.591629 -426.542908 0.000007 0.505241
nan nan nan 0.000000
nan nan nan 0.000000
nan nan nan 0.000000
172.131302 -452.276245 7.882141 1.000000
190.502243 -426.572113 2.927224 1.000000
190.502243 -426.572113 2.660879 1.000000
190.502243 -426.572113 2.395961 1.000000
190.502243 -426.572113 2.131892 1.000000
190.502243 -426.572113 1.868107 1.000000
190.502243 -426.572113 1.604039 1.000000
190.502243 -426.572113 1.339121 1.000000
190.502243 -426.572113 1.072776 1.000000
190.502243 -426.572113 0.804418 1.000000
190.502243 -426.572113 0.533440 1.000000
190.502243 -426.572113 0.259215 1.000000
190.546158 -426.510651 0.000007 0.480964
nan nan nan 0.000000
nan nan nan 0.000000
nan nan nan 0.000000
171.964844 -452.034241 7.867434 1.000000
190.470169 -426.520508 2.924561 1.000000
190.470169 -426.520508 2.658981 1.000000
190.470169 -426.520508 2.394823 1.000000
190.470169 -426.520508 2.131514 1.000000
190.470169 -426.520508 1.868486 1.000000
190.470169 -426.520508 1.605177 1.000000
190.470169 -426.520508 1.341019 1.000000
190.470169 -426.520508 1.075439 1.000000
190.470169 -426.520508 0.807851 1.000000
190.470169 -426.520508 0.537652 1.000000
190.470169 -426.520508 0.264214 1.000000
190.500931 -426.478088 0.000007 0.538811
nan nan nan 0.000000
nan nan nan 0.000000
nan nan nan 0.000000
171.799210 -451.793427 7.853085 1.000000
190.438278 -426.469177 2.921958 1.000000
190.438278 -426.469177 2.657126 1.000000
190.438278 -426.469177 2.393712 1.000000
190.438278 -426.469177 2.131143 1.000000
190.438278 -426.469177 1.868856 1.000000
190.438278 -426.469177 1.606288 1.000000
190.438278 -426.469177 1.342874 1.000000
190.438278 -426.469177 1.078042 1.000000
190.438263 -426.469177 0.811207 1.000000
190.438278 -426.469177 0.541768 1.000000
190.438278 -426.469177 0.269101 1.000000
190.455917 -426.445221 0.000007 0.539849
nan nan nan 0.000000
nan nan nan 0.000000
nan nan nan 0.000000
171.634384 -451.553772 7.839089 1.000000
190.406555 -426.418152 2.919415 1.000000
190.406555 -426.418152 2.655313 1.000000
190.406555 -426.418152 2.392626 1.000000
190.406555 -426.418152 2.130782 1.000000
190.406555 -426.418152 1.869218 1.000000
190.406555 -426.418152 1.607374 1.000000
190.406555 -426.418152 1.344687 1.000000
190.406555 -426.418152 1.080585 1.000000
190.406555 -426.418152 0.814487 1.000000
190.406555 -426.418152 0.545791 1.000000
190.406555 -426.418152 0.273875 1.000000
190.411148 -426.412018 0.000007 0.533822
nan nan nan 0.000000
nan nan nan 0.000000
nan nan nan 0.000000
171.470337 -451.315247 7.825445 1.000000
190.375015 -426.367401 2.916930 1.000000
190.375015 -426.367401 2.653542 1.000000
190.375015 -426.367401 2.391565 1.000000
190.375015 -426.367401 2.130428 1.000000
190.375015 -426.367401 1.869572 1.000000
190.375015 -426.367401 1.608435 1.000000
190.375015 -426.367401 1.346457 1.000000
190.375015 -426.367401 1.083070 1.000000
190.375015 -426.367401 0.817690 1.000000
190.375015 -426.367401 0.549722 1.000000
190.375015 -426.367401 0.278541 1.000000
190.375015 -426.367401 0.003498 1.000000
nan nan nan 0.000000
nan nan nan 0.000000
nan nan nan 0.000000
171.307037 -451.077820 7.812145 1.000000
190.343643 -426.316895 2.914503 1.000000
190.343643 -426.316895 2.651812 1.000000
190.343643 -426.316895 2.390528 1.000000
190.343643 -426.316895 2.130083 1.000000
190.343643 -426.316895 1.869917 1.000000
190.343643 -426.316895 1.609472 1.000000
190.343643 -426.316895 1.348187 1.000000
190.343643 -426.316895 1.085497 1.000000
190.343643 -426.316895 0.820820 1.000000
190.343643 -426.316895 0.553560 1.000000
190.343643 -426.316895 0.283097 1.000000
190.343643 -426.316895 0.008783 1.000000
nan nan nan 0.000000
nan nan nan 0.000000
nan nan nan 0.000000
171.144485 -450.841461 7.799189 1.000000
190.312439 -426.266693 2.912133 1.000000
190.312439 -426.266693 2.650123 1.000000
190.312439 -426.266693 2.389516 1.000000
190.312439 -426.266693 2.129746 1.000000
190.312439 -426.266693 1.870254 1.000000
190.312439 -426.266693 1.610484 1.000000
190.312439 -426.266693 1.349877 1.000000
190.312439 -426.266693 1.087867 1.000000
190.312439 -426.266693 0.823876 1.000000
190.312424 -426.266693 0.557308 1.000000
190.312439 -426.266693 0.287546 1.000000
190.312439 -426.266693 0.013942 1.000000
nan nan nan 0.000000
nan nan nan 0.000000
nan nan nan 0.000000
170.982635 -450.606140 7.786571 1.000000
190.281387 -426.216705 2.909820 1.000000
190.281387 -426.216705 2.648474 1.000000
190.281387 -426.216705 2.388528 1.000000
190.281387 -426.216705 2.129417 1.000000
190.281387 -426.216705 1.870583 1.000000
190.281387 -426.216705 1.611472 1.000000
190.281387 -426.216705 1.351526 1.000000
190.281387 -426.216705 1.090180 1.000000
190.281387 -426.216705 0.826859 1.000000
190.281387 -426.216705 0.560968 1.000000
190.281387 -426.216705 0.291890 1.000000
190.281387 -426.216705 0.018980 1.000000
nan nan nan 0.000000
nan nan nan 0.000000
nan nan nan 0.000000
170.821487 -450.371857 7.774290 1.000000
190.250488 -426.166992 2.907562 1.000000
190.250488 -426.166992 2.646865 1.000000
190.250488 -426.166992 2.387564 1.000000
190.250488 -426.166992 2.129096 1.000000
190.250488 -426.166992 1.870904 1.000000
190.250488 -426.166992 1.612436 1.000000
190.250488 -426.166992 1.353134 1.000000
190.250488 -426.166992 1.092438 1.000000
190.250488 -426.166992 0.829770 1.000000
190.250488 -426.166992 0.564538 1.000000
190.250488 -426.166992 0.296128 1.000000
190.250488 -426.166992 0.023895 1.000000
nan nan nan 0.000000
nan nan nan 0.000000
nan nan nan 0.000000
170.661026 -450.138519 7.762340 1.000000
190.219742 -426.117523 2.905360 1.000000
190.219742 -426.117523 2.645295 1.000000
190.219742 -426.117523 2.386623 1.000000
190.219742 -426.117523 2.128783 1.000000
190.219742 -426.117523 1.871217 1.000000
190.219742 -426.117523 1.613376 1.000000
190.219742 -426.117523 1.354704 1.000000
190.219742 -426.117523 1.094640 1.000000
190.219742 -426.117523 0.832609 1.000000
190.219742 -426.117523 0.568022 1.000000
190.219742 -426.117523 0.300263 1.000000
190.219742 -426.117523 0.028690 1.000000
nan nan nan 0.000000
nan nan nan 0.000000
nan nan nan 0.000000
170.501205 -449.906158 7.750718 1.000000
190.189148 -426.068298 2.903212 1.000000
190.189148 -426.068298 2.643765 1.000000
190.189148 -426.068298 2.385706 1.000000
190.189148 -426.068298 2.128477 1.000000
190.189148 -426.068298 1.871523 1.000000
190.189148 -426.068298 1.614293 1.000000
190.189148 -426.068298 1.356235 1.000000
190.189148 -426.068298 1.096788 1.000000
190.189148 -426.068298 0.835379 1.000000
190.189148 -426.068298 0.571419 1.000000
190.189148 -426.068298 0.304295 1.000000
190.189148 -426.068298 0.033367 1.000000
nan nan nan 0.000000
nan nan nan 0.000000
nan nan nan 0.000000
170.342010 -449.674713 7.739426 1.000000
190.158707 -426.019287 2.901118 1.000000
190.158707 -426.019287 2.642272 1.000000
190.158707 -426.019287 2.384813 1.000000
190.158707 -426.019287 2.128179 1.000000
190.158707 -426.019287 1.871821 1.000000
190.158707 -426.019287 1.615187 1.000000
190.158707 -426.019287 1.357727 1.000000
190.158707 -426.019287 1.098882 1.000000
190.158707 -426.019287 0.838078 1.000000
190.158691 -426.019287 0.574730 1.000000
190.158691 -426.019287 0.308226 1.000000
190.158707 -426.019287 0.037926 1.000000
nan nan nan 0.000000
nan nan nan 0.000000
nan nan nan 0.000000
170.183441 -449.444153 7.728455 1.000000
190.128387 -425.970520 2.899078 1.000000
190.128387 -425.970520 2.640818 1.000000
190.128387 -425.970520 2.383941 1.000000
190.128387 -425.970520 2.127889 1.000000
190.128387 -425.970520 1.872111 1.000000
190.128387 -425.970520 1.616059 1.000000
190.128387 -425.970520 1.359182 1.000000
190.128387 -425.970520 1.100922 1.000000
190.128387 -425.970520 0.840710 1.000000
190.128387 -425.970520 0.577958 1.000000
190.128387 -425.970520 0.312056 1.000000
190.128387 -425.970520 0.042369 1.000000
nan nan nan 0.000000
nan nan nan 0.000000
141.360641 -482.477325 17.003437 1.000000
170.025482 -449.214478 7.717803 1.000000
190.098206 -425.921967 2.897090 1.000000
190.098206 -425.921967 2.639401 1.000000
190.098206 -425.921967 2.383092 1.000000
190.098206 -425.921967 2.127606 1.000000
190.098206 -425.921967 1.872394 1.000000
190.098206 -425.921967 1.616908 1.000000
190.098206 -425.921967 1.360598 1.000000
190.098206 -425.921967 1.102910 1.000000
190.098206 -425.921967 0.843272 1.000000
190.098206 -425.921967 0.581101 1.000000
190.098206 -425.921967 0.315788 1.000000
190.098206 -425.921967 0.046697 1.000000
nan nan nan 0.000000
nan nan nan 0.000000
169.868088 -448.985626 9.001059 1.000000
169.868088 -448.985626 7.707467 1.000000
190.068161 -425.873596 2.895155 1.000000
190.068161 -425.873596 2.638022 1.000000
190.068161 -425.873596 2.382266 1.000000
190.068161 -425.873596 2.127331 1.000000
190.068161 -425.873596 1.872669 1.000000
190.068161 -425.873596 1.617734 1.000000
190.068161 -425.873596 1.361978 1.000000
190.068161 -425.873596 1.104845 1.000000
190.068161 -425.873596 0.845768 1.000000
190.068161 -425.873596 0.584162 1.000000
190.068161 -425.873596 0.319421 1.000000
190.068161 -425.873596 0.050910 1.000000
nan nan nan 0.000000
nan nan nan 0.000000
169.711258 -448.757599 8.988768 1.000000
169.711258 -448.757599 7.697447 1.000000
190.038254 -425.825470 2.893271 1.000000
190.038254 -425.825470 2.636680 1.000000
190.038254 -425.825470 2.381461 1.000000
190.038254 -425.825470 2.127063 1.000000
190.038254 -425.825470 1.872937 1.000000
190.038254 -425.825470 1.618538 1.000000
190.038254 -425.825470 1.363320 1.000000
190.038254 -425.825470 1.106728 1.000000
190.038254 -425.825470 0.848196 1.000000
190.038254 -425.825470 0.587141 1.000000
190.038254 -425.825470 0.322957 1.000000
190.038254 -425.825470 0.055012 1.000000
nan nan nan 0.000000
nan nan nan 0.000000
169.554977 -448.530365 8.976860 1.000000
169.554977 -448.530365 7.687739 1.000000
190.008453 -425.777527 2.891439 1.000000
190.008453 -425.777527 2.635374 1.000000
190.008453 -425.777527 2.380679 1.000000
190.008453 -425.777527 2.126802 1.000000
190.008453 -425.777527 1.873198 1.000000
190.008453 -425.777527 1.619321 1.000000
190.008453 -425.777527 1.364626 1.000000
190.008453 -425.777527 1.108561 1.000000
190.008453 -425.777527 0.850559 1.000000
190.008453 -425.777527 0.590039 1.000000
190.008453 -425.777527 0.326397 1.000000
190.008453 -425.777527 0.059001 1.000000
nan nan nan 0.000000
nan nan nan 0.000000
169.399216 -448.303894 8.965330 1.000000
169.399216 -448.303894 7.678341 1.000000
189.978790 -425.729767 2.889658 1.000000
189.978790 -425.729767 2.634104 1.000000
189.978790 -425.729767 2.379918 1.000000
189.978790 -425.729767 2.126549 1.000000
189.978790 -425.729767 1.873451 1.000000
