# This PCD file was generated using the MATLABÂ® pcwrite function
# from Computer Vision ToolboxÂ®.
# .PCD v.7 - Point Cloud Data file format
VERSION .7
FIELDS x y z intensity
SIZE 4 4 4 4
TYPE F F F F
COUNT 1 1 1 1
WIDTH 1255
HEIGHT 1
VIEWPOINT 0 0 0 1 0 0 0
POINTS 1255
DATA ascii
5.159583 -59.455505 2.595344 1.000000
5.159583 -59.455505 2.356696 1.000000
5.159582 -59.455505 2.118814 1.000000
5.159582 -59.455505 1.881186 1.000000
5.159582 -59.455505 1.643304 1.000000
5.159583 -59.455505 1.404656 1.000000
5.159583 -59.455505 1.164723 1.000000
5.159583 -59.455505 0.922976 1.000000
5.159582 -59.455505 0.678869 1.000000
5.159582 -59.455505 0.431837 1.000000
5.159583 -59.455505 0.181288 1.000000
5.212400 -59.464184 3.814361 1.000000
5.212400 -59.464184 3.564411 1.000000
5.212400 -59.464184 3.317969 1.000000
5.212400 -59.464184 3.074447 1.000000
5.212400 -59.464184 2.833278 1.000000
5.212400 -59.464184 2.593919 1.000000
5.212400 -59.464184 2.355842 1.000000
5.212400 -59.464184 2.118529 1.000000
5.212400 -59.464184 1.881471 1.000000
5.212400 -59.464184 1.644158 1.000000
5.212400 -59.464184 1.406080 1.000000
5.212400 -59.464184 1.166722 1.000000
5.212400 -59.464184 0.925553 1.000000
5.212400 -59.464184 0.682031 1.000000
5.212400 -59.464184 0.435590 1.000000
5.212400 -59.464184 0.185640 1.000000
5.264969 -59.472820 3.810118 1.000000
5.264969 -59.472820 3.560752 1.000000
5.264969 -59.472820 3.314887 1.000000
5.264969 -59.472820 3.071934 1.000000
5.264969 -59.472820 2.831330 1.000000
5.264969 -59.472820 2.592530 1.000000
5.264969 -59.472824 2.355010 1.000000
5.264969 -59.472824 2.118252 1.000000
5.264969 -59.472824 1.881748 1.000000
5.264969 -59.472824 1.644990 1.000000
5.264969 -59.472820 1.407469 1.000000
5.264969 -59.472820 1.168670 1.000000
5.264969 -59.472820 0.928066 1.000000
5.264969 -59.472820 0.685113 1.000000
5.264969 -59.472820 0.439248 1.000000
5.264969 -59.472820 0.189882 1.000000
5.317295 -59.481419 3.805983 1.000000
5.317295 -59.481419 3.557186 1.000000
5.317295 -59.481419 3.311883 1.000000
5.317295 -59.481419 3.069486 1.000000
5.317295 -59.481419 2.829430 1.000000
5.317296 -59.481419 2.591177 1.000000
5.317295 -59.481419 2.354199 1.000000
5.317295 -59.481419 2.117982 1.000000
5.317295 -59.481419 1.882018 1.000000
5.317295 -59.481419 1.645801 1.000000
5.317296 -59.481419 1.408823 1.000000
5.317295 -59.481419 1.170570 1.000000
5.317295 -59.481419 0.930515 1.000000
5.317295 -59.481419 0.688117 1.000000
5.317295 -59.481419 0.442814 1.000000
5.317295 -59.481419 0.194018 1.000000
5.369385 -59.489975 3.801954 1.000000
5.369385 -59.489975 3.553712 1.000000
5.369385 -59.489975 3.308957 1.000000
5.369385 -59.489979 3.067100 1.000000
5.369385 -59.489979 2.827580 1.000000
5.369385 -59.489979 2.589858 1.000000
5.369385 -59.489975 2.353409 1.000000
5.369385 -59.489979 2.117719 1.000000
5.369385 -59.489979 1.882281 1.000000
5.369385 -59.489975 1.646591 1.000000
5.369385 -59.489979 1.410142 1.000000
5.369385 -59.489979 1.172420 1.000000
5.369385 -59.489979 0.932900 1.000000
5.369385 -59.489979 0.691044 1.000000
5.369385 -59.489979 0.446288 1.000000
5.369385 -59.489979 0.198047 1.000000
5.421245 -59.498497 3.798029 1.000000
5.421245 -59.498497 3.550329 1.000000
5.421245 -59.498497 3.306106 1.000000
5.421245 -59.498497 3.064776 1.000000
5.421246 -59.498501 2.825778 1.000000
5.421246 -59.498501 2.588573 1.000000
5.421245 -59.498501 2.352639 1.000000
5.421245 -59.498501 2.117462 1.000000
5.421245 -59.498501 1.882538 1.000000
5.421245 -59.498501 1.647361 1.000000
5.421246 -59.498501 1.411426 1.000000
5.421245 -59.498501 1.174222 1.000000
5.421245 -59.498501 0.935224 1.000000
5.421245 -59.498497 0.693894 1.000000
5.421245 -59.498497 0.449671 1.000000
5.421245 -59.498501 0.201971 1.000000
5.472883 -59.506981 3.794211 1.000000
5.472883 -59.506981 3.547036 1.000000
5.472883 -59.506985 3.303332 1.000000
5.472883 -59.506985 3.062514 1.000000
5.472883 -59.506985 2.824024 1.000000
5.472883 -59.506985 2.587323 1.000000
5.472883 -59.506985 2.351890 1.000000
5.472883 -59.506985 2.117213 1.000000
5.472883 -59.506985 1.882787 1.000000
5.472883 -59.506985 1.648110 1.000000
5.472883 -59.506985 1.412676 1.000000
5.472883 -59.506985 1.175976 1.000000
5.472883 -59.506985 0.937486 1.000000
5.472883 -59.506985 0.696668 1.000000
5.472883 -59.506985 0.452964 1.000000
5.472883 -59.506985 0.205790 1.000000
5.524304 -59.515434 3.790494 1.000000
5.524304 -59.515430 3.543832 1.000000
5.524304 -59.515430 3.300632 1.000000
5.524304 -59.515430 3.060314 1.000000
5.524304 -59.515434 2.822317 1.000000
5.524304 -59.515434 2.586107 1.000000
5.524304 -59.515434 2.351161 1.000000
5.524304 -59.515434 2.116970 1.000000
5.524304 -59.515434 1.883030 1.000000
5.524304 -59.515434 1.648839 1.000000
5.524304 -59.515434 1.413893 1.000000
5.524304 -59.515434 1.177683 1.000000
5.524304 -59.515430 0.939686 1.000000
5.524304 -59.515434 0.699368 1.000000
5.524304 -59.515434 0.456168 1.000000
5.524304 -59.515434 0.209506 1.000000
5.575516 -59.523846 3.786881 1.000000
5.575515 -59.523846 3.540716 1.000000
5.575516 -59.523846 3.298008 1.000000
5.575516 -59.523846 3.058174 1.000000
5.575516 -59.523849 2.820657 1.000000
5.575516 -59.523846 2.584924 1.000000
5.575516 -59.523846 2.350452 1.000000
5.575516 -59.523846 2.116734 1.000000
5.575516 -59.523846 1.883266 1.000000
5.575516 -59.523846 1.649547 1.000000
5.575516 -59.523846 1.415076 1.000000
5.575516 -59.523846 1.179342 1.000000
5.575516 -59.523849 0.941826 1.000000
5.575516 -59.523849 0.701993 1.000000
5.575515 -59.523846 0.459284 1.000000
5.575516 -59.523849 0.213120 1.000000
5.626523 -59.532227 3.783369 1.000000
5.626523 -59.532227 3.537688 1.000000
5.626523 -59.532227 3.295456 1.000000
5.626523 -59.532227 3.056094 1.000000
5.626523 -59.532227 2.819045 1.000000
5.626523 -59.532227 2.583775 1.000000
5.626523 -59.532230 2.349764 1.000000
5.626523 -59.532230 2.116505 1.000000
5.626523 -59.532230 1.883495 1.000000
5.626523 -59.532230 1.650236 1.000000
5.626523 -59.532227 1.416226 1.000000
5.626523 -59.532227 1.180955 1.000000
5.626523 -59.532227 0.943906 1.000000
5.626523 -59.532227 0.704544 1.000000
5.626523 -59.532227 0.462313 1.000000
5.626523 -59.532227 0.216632 1.000000
5.677332 -59.540573 3.779956 1.000000
5.677332 -59.540577 3.534745 1.000000
5.677332 -59.540577 3.292977 1.000000
5.677332 -59.540577 3.054073 1.000000
5.677333 -59.540577 2.817477 1.000000
5.677333 -59.540577 2.582657 1.000000
5.677333 -59.540577 2.349094 1.000000
5.677333 -59.540577 2.116282 1.000000
5.677333 -59.540577 1.883718 1.000000
5.677333 -59.540577 1.650905 1.000000
5.677333 -59.540577 1.417343 1.000000
5.677333 -59.540577 1.182523 1.000000
5.677333 -59.540577 0.945927 1.000000
5.677332 -59.540577 0.707023 1.000000
5.677332 -59.540577 0.465255 1.000000
5.677332 -59.540577 0.220044 1.000000
5.727950 -59.548893 3.776644 1.000000
5.727951 -59.548893 3.531889 1.000000
5.727950 -59.548893 3.290571 1.000000
5.727950 -59.548893 3.052112 1.000000
5.727951 -59.548893 2.815956 1.000000
5.727951 -59.548893 2.581573 1.000000
5.727951 -59.548893 2.348445 1.000000
5.727951 -59.548893 2.116066 1.000000
5.727951 -59.548893 1.883935 1.000000
5.727951 -59.548893 1.651555 1.000000
5.727951 -59.548893 1.418427 1.000000
5.727951 -59.548893 1.184044 1.000000
5.727950 -59.548893 0.947888 1.000000
5.727950 -59.548893 0.709429 1.000000
5.727951 -59.548893 0.468111 1.000000
5.727950 -59.548893 0.223356 1.000000
5.778383 -59.557178 3.773430 1.000000
5.778383 -59.557178 3.529118 1.000000
5.778383 -59.557178 3.288237 1.000000
5.778383 -59.557178 3.050209 1.000000
5.778383 -59.557178 2.814480 1.000000
5.778383 -59.557182 2.580521 1.000000
5.778383 -59.557178 2.347814 1.000000
5.778383 -59.557178 2.115855 1.000000
5.778383 -59.557178 1.884145 1.000000
5.778383 -59.557178 1.652185 1.000000
5.778383 -59.557182 1.419479 1.000000
5.778383 -59.557178 1.185520 1.000000
5.778383 -59.557178 0.949792 1.000000
5.778383 -59.557182 0.711764 1.000000
5.778383 -59.557178 0.470882 1.000000
5.778383 -59.557178 0.226570 1.000000
5.828636 -59.565434 3.770314 1.000000
5.828636 -59.565437 3.526431 1.000000
5.828636 -59.565434 3.285973 1.000000
5.828636 -59.565437 3.048363 1.000000
5.828636 -59.565437 2.813049 1.000000
5.828636 -59.565434 2.579501 1.000000
5.828636 -59.565437 2.347203 1.000000
5.828636 -59.565437 2.115652 1.000000
5.828636 -59.565437 1.884348 1.000000
5.828636 -59.565437 1.652797 1.000000
5.828636 -59.565434 1.420499 1.000000
5.828636 -59.565437 1.186951 1.000000
5.828636 -59.565437 0.951638 1.000000
5.828636 -59.565437 0.714027 1.000000
5.828636 -59.565437 0.473569 1.000000
5.828636 -59.565437 0.229686 1.000000
5.878715 -59.573662 3.767294 1.000000
5.878715 -59.573662 3.523828 1.000000
5.878715 -59.573662 3.283780 1.000000
5.878715 -59.573666 3.046575 1.000000
5.878715 -59.573662 2.811662 1.000000
5.878715 -59.573666 2.578512 1.000000
5.878715 -59.573666 2.346611 1.000000
5.878715 -59.573666 2.115455 1.000000
5.878715 -59.573666 1.884545 1.000000
5.878715 -59.573666 1.653389 1.000000
5.878715 -59.573666 1.421487 1.000000
5.878715 -59.573662 1.188338 1.000000
5.878715 -59.573666 0.953425 1.000000
5.878715 -59.573662 0.716220 1.000000
5.878715 -59.573666 0.476172 1.000000
5.878715 -59.573666 0.232706 1.000000
5.928626 -59.581863 3.764371 1.000000
5.928626 -59.581863 3.521307 1.000000
5.928626 -59.581863 3.281656 1.000000
5.928626 -59.581863 3.044844 1.000000
5.928626 -59.581867 2.810320 1.000000
5.928626 -59.581863 2.577556 1.000000
5.928626 -59.581863 2.346038 1.000000
5.928626 -59.581867 2.115263 1.000000
5.928626 -59.581863 1.884736 1.000000
5.928626 -59.581863 1.653962 1.000000
5.928626 -59.581863 1.422444 1.000000
5.928626 -59.581867 1.189680 1.000000
5.928626 -59.581867 0.955156 1.000000
5.928626 -59.581867 0.718344 1.000000
5.928626 -59.581863 0.478693 1.000000
5.928626 -59.581863 0.235629 1.000000
5.978374 -59.590038 3.761543 1.000000
5.978374 -59.590038 3.518869 1.000000
5.978374 -59.590038 3.279602 1.000000
5.978374 -59.590038 3.043169 1.000000
5.978374 -59.590038 2.809021 1.000000
5.978374 -59.590038 2.576630 1.000000
5.978374 -59.590038 2.345483 1.000000
5.978374 -59.590038 2.115079 1.000000
5.978374 -59.590038 1.884921 1.000000
5.978374 -59.590038 1.654517 1.000000
5.978374 -59.590038 1.423370 1.000000
5.978374 -59.590038 1.190979 1.000000
5.978374 -59.590038 0.956831 1.000000
5.978374 -59.590038 0.720398 1.000000
5.978374 -59.590042 0.481131 1.000000
5.978374 -59.590038 0.238457 1.000000
6.027966 -59.598186 3.758810 1.000000
6.027966 -59.598186 3.516512 1.000000
6.027966 -59.598186 3.277617 1.000000
6.027966 -59.598186 3.041551 1.000000
6.027966 -59.598186 2.807766 1.000000
6.027966 -59.598186 2.575735 1.000000
6.027966 -59.598186 2.344947 1.000000
6.027966 -59.598186 2.114900 1.000000
6.027966 -59.598186 1.885100 1.000000
6.027966 -59.598186 1.655053 1.000000
6.027966 -59.598186 1.424264 1.000000
6.027966 -59.598186 1.192234 1.000000
6.027966 -59.598186 0.958450 1.000000
6.027966 -59.598186 0.722383 1.000000
6.027966 -59.598186 0.483488 1.000000
6.027966 -59.598186 0.241190 1.000000
6.077406 -59.606308 3.756171 1.000000
6.077406 -59.606312 3.514237 1.000000
6.077406 -59.606312 3.275700 1.000000
6.077406 -59.606312 3.039987 1.000000
6.077406 -59.606312 2.806553 1.000000
6.077406 -59.606312 2.574871 1.000000
6.077406 -59.606312 2.344429 1.000000
6.077406 -59.606312 2.114728 1.000000
6.077406 -59.606312 1.885272 1.000000
6.077406 -59.606312 1.655570 1.000000
6.077406 -59.606312 1.425128 1.000000
6.077406 -59.606312 1.193447 1.000000
6.077406 -59.606312 0.960013 1.000000
6.077406 -59.606312 0.724301 1.000000
6.077406 -59.606312 0.485764 1.000000
6.077406 -59.606312 0.243829 1.000000
6.126701 -59.614407 3.753625 1.000000
6.126701 -59.614410 3.512041 1.000000
6.126701 -59.614410 3.273850 1.000000
6.126701 -59.614410 3.038480 1.000000
6.126701 -59.614410 2.805384 1.000000
6.126701 -59.614410 2.574038 1.000000
6.126701 -59.614410 2.343930 1.000000
6.126701 -59.614410 2.114562 1.000000
6.126701 -59.614410 1.885438 1.000000
6.126701 -59.614410 1.656070 1.000000
6.126701 -59.614410 1.425962 1.000000
6.126701 -59.614410 1.194616 1.000000
6.126701 -59.614410 0.961520 1.000000
6.126701 -59.614410 0.726150 1.000000
6.126701 -59.614410 0.487959 1.000000
6.126701 -59.614410 0.246375 1.000000
6.175855 -59.622482 3.751172 1.000000
6.175855 -59.622486 3.509926 1.000000
6.175855 -59.622486 3.272068 1.000000
6.175855 -59.622482 3.037027 1.000000
6.175855 -59.622486 2.804257 1.000000
6.175855 -59.622486 2.573235 1.000000
6.175855 -59.622486 2.343449 1.000000
6.175855 -59.622486 2.114401 1.000000
6.175855 -59.622486 1.885599 1.000000
6.175855 -59.622486 1.656551 1.000000
6.175855 -59.622486 1.426765 1.000000
6.175855 -59.622486 1.195742 1.000000
6.175855 -59.622486 0.962973 1.000000
6.175855 -59.622486 0.727932 1.000000
6.175855 -59.622486 0.490074 1.000000
6.175855 -59.622486 0.248829 1.000000
6.224874 -59.630539 3.748810 1.000000
6.224874 -59.630539 3.507890 1.000000
6.224874 -59.630539 3.270352 1.000000
6.224874 -59.630539 3.035629 1.000000
6.224874 -59.630539 2.803173 1.000000
6.224874 -59.630539 2.572462 1.000000
6.224874 -59.630539 2.342986 1.000000
6.224874 -59.630539 2.114247 1.000000
6.224874 -59.630539 1.885753 1.000000
6.224874 -59.630539 1.657014 1.000000
6.224874 -59.630539 1.427538 1.000000
6.224874 -59.630539 1.196827 1.000000
6.224874 -59.630539 0.964371 1.000000
6.224874 -59.630543 0.729648 1.000000
6.224874 -59.630543 0.492110 1.000000
6.224874 -59.630539 0.251190 1.000000
6.273764 -59.638573 3.746540 1.000000
6.273764 -59.638573 3.505933 1.000000
6.273764 -59.638573 3.268703 1.000000
6.273764 -59.638573 3.034284 1.000000
6.273764 -59.638573 2.802130 1.000000
6.273764 -59.638573 2.571719 1.000000
6.273764 -59.638573 2.342541 1.000000
6.273764 -59.638573 2.114099 1.000000
6.273764 -59.638573 1.885901 1.000000
6.273764 -59.638573 1.657459 1.000000
6.273764 -59.638573 1.428281 1.000000
6.273764 -59.638573 1.197870 1.000000
6.273764 -59.638573 0.965716 1.000000
6.273764 -59.638573 0.731297 1.000000
6.273764 -59.638573 0.494068 1.000000
6.273764 -59.638573 0.253460 1.000000
6.322529 -59.646584 3.744360 1.000000
6.322529 -59.646584 3.504053 1.000000
6.322529 -59.646587 3.267120 1.000000
6.322529 -59.646587 3.032994 1.000000
6.322529 -59.646587 2.801130 1.000000
6.322529 -59.646587 2.571005 1.000000
6.322529 -59.646587 2.342113 1.000000
6.322529 -59.646584 2.113956 1.000000
6.322529 -59.646584 1.886044 1.000000
6.322529 -59.646587 1.657887 1.000000
6.322529 -59.646587 1.428995 1.000000
6.322529 -59.646587 1.198871 1.000000
6.322529 -59.646587 0.967007 1.000000
6.322529 -59.646587 0.732880 1.000000
6.322529 -59.646587 0.495947 1.000000
6.322529 -59.646587 0.255640 1.000000
6.371175 -59.654579 3.742271 1.000000
6.371175 -59.654579 3.502252 1.000000
6.371175 -59.654579 3.265603 1.000000
6.371175 -59.654579 3.031756 1.000000
6.371175 -59.654579 2.800170 1.000000
6.371175 -59.654579 2.570322 1.000000
6.371175 -59.654579 2.341704 1.000000
6.371175 -59.654579 2.113820 1.000000
6.371175 -59.654579 1.886180 1.000000
6.371175 -59.654579 1.658296 1.000000
6.371175 -59.654579 1.429678 1.000000
6.371175 -59.654579 1.199830 1.000000
6.371175 -59.654579 0.968244 1.000000
6.371175 -59.654579 0.734397 1.000000
6.371175 -59.654579 0.497748 1.000000
6.371175 -59.654579 0.257729 1.000000
6.419708 -59.662552 3.740272 1.000000
6.419708 -59.662552 3.500528 1.000000
6.419708 -59.662552 3.264151 1.000000
6.419708 -59.662552 3.030572 1.000000
6.419708 -59.662552 2.799252 1.000000
6.419708 -59.662556 2.569667 1.000000
6.419708 -59.662552 2.341311 1.000000
6.419708 -59.662552 2.113689 1.000000
6.419708 -59.662552 1.886311 1.000000
6.419708 -59.662552 1.658689 1.000000
6.419708 -59.662556 1.430333 1.000000
6.419708 -59.662552 1.200748 1.000000
6.419708 -59.662552 0.969428 1.000000
6.419708 -59.662552 0.735850 1.000000
6.419708 -59.662552 0.499472 1.000000
6.419708 -59.662552 0.259728 1.000000
6.468131 -59.670509 3.738362 1.000000
6.468131 -59.670509 3.498881 1.000000
6.468131 -59.670509 3.262763 1.000000
6.468131 -59.670509 3.029441 1.000000
6.468131 -59.670509 2.798375 1.000000
6.468131 -59.670509 2.569042 1.000000
6.468131 -59.670509 2.340937 1.000000
6.468131 -59.670509 2.113564 1.000000
6.468131 -59.670509 1.886436 1.000000
6.468131 -59.670509 1.659063 1.000000
6.468131 -59.670509 1.430958 1.000000
6.468131 -59.670509 1.201625 1.000000
6.468131 -59.670509 0.970559 1.000000
6.468131 -59.670509 0.737237 1.000000
6.468131 -59.670509 0.501119 1.000000
6.468131 -59.670509 0.261639 1.000000
6.516450 -59.678448 3.736541 1.000000
6.516450 -59.678448 3.497311 1.000000
6.516450 -59.678448 3.261440 1.000000
6.516450 -59.678448 3.028363 1.000000
6.516450 -59.678448 2.797538 1.000000
6.516450 -59.678448 2.568445 1.000000
6.516450 -59.678448 2.340580 1.000000
6.516450 -59.678448 2.113445 1.000000
6.516450 -59.678448 1.886555 1.000000
6.516450 -59.678448 1.659420 1.000000
6.516450 -59.678448 1.431554 1.000000
6.516450 -59.678448 1.202462 1.000000
6.516450 -59.678448 0.971637 1.000000
6.516450 -59.678448 0.738560 1.000000
6.516450 -59.678448 0.502689 1.000000
6.516450 -59.678448 0.263459 1.000000
6.564671 -59.686371 3.734807 1.000000
6.564672 -59.686371 3.495817 1.000000
6.564672 -59.686371 3.260181 1.000000
6.564672 -59.686371 3.027337 1.000000
6.564671 -59.686371 2.796742 1.000000
6.564671 -59.686371 2.567878 1.000000
6.564671 -59.686371 2.340240 1.000000
6.564671 -59.686371 2.113332 1.000000
6.564671 -59.686371 1.886668 1.000000
6.564671 -59.686371 1.659760 1.000000
6.564671 -59.686371 1.432122 1.000000
6.564671 -59.686371 1.203258 1.000000
6.564671 -59.686371 0.972664 1.000000
6.564671 -59.686371 0.739819 1.000000
6.564671 -59.686371 0.504184 1.000000
6.564671 -59.686371 0.265193 1.000000
6.612798 -59.694279 3.733162 1.000000
6.612798 -59.694279 3.494398 1.000000
6.612798 -59.694279 3.258986 1.000000
6.612798 -59.694275 3.026362 1.000000
6.612798 -59.694279 2.795986 1.000000
6.612798 -59.694279 2.567339 1.000000
6.612798 -59.694279 2.339917 1.000000
6.612798 -59.694279 2.113225 1.000000
6.612798 -59.694279 1.886775 1.000000
6.612798 -59.694279 1.660083 1.000000
6.612798 -59.694279 1.432660 1.000000
6.612798 -59.694279 1.204014 1.000000
6.612798 -59.694279 0.973638 1.000000
6.612798 -59.694279 0.741014 1.000000
6.612798 -59.694279 0.505602 1.000000
6.612798 -59.694279 0.266838 1.000000
6.660835 -59.702171 3.731604 1.000000
6.660835 -59.702171 3.493055 1.000000
6.660835 -59.702171 3.257854 1.000000
6.660835 -59.702171 3.025439 1.000000
6.660835 -59.702171 2.795271 1.000000
6.660835 -59.702171 2.566830 1.000000
6.660835 -59.702171 2.339611 1.000000
6.660835 -59.702171 2.113123 1.000000
6.660835 -59.702171 1.886877 1.000000
6.660835 -59.702171 1.660389 1.000000
6.660835 -59.702171 1.433170 1.000000
6.660835 -59.702171 1.204729 1.000000
6.660835 -59.702171 0.974561 1.000000
6.660835 -59.702171 0.742146 1.000000
6.660835 -59.702171 0.506946 1.000000
6.660835 -59.702171 0.268396 1.000000
6.708790 -59.710049 3.730134 1.000000
6.708790 -59.710052 3.491786 1.000000
6.708790 -59.710049 3.256786 1.000000
6.708790 -59.710049 3.024568 1.000000
6.708790 -59.710052 2.794595 1.000000
6.708789 -59.710052 2.566348 1.000000
6.708790 -59.710049 2.339323 1.000000
6.708790 -59.710052 2.113027 1.000000
6.708790 -59.710052 1.886973 1.000000
6.708790 -59.710049 1.660677 1.000000
6.708789 -59.710052 1.433652 1.000000
6.708790 -59.710052 1.205405 1.000000
6.708790 -59.710052 0.975432 1.000000
6.708790 -59.710049 0.743214 1.000000
6.708790 -59.710052 0.508214 1.000000
6.708790 -59.710052 0.269867 1.000000
6.756664 -59.717915 3.728750 1.000000
6.756664 -59.717915 3.490593 1.000000
6.756664 -59.717915 3.255780 1.000000
6.756664 -59.717915 3.023749 1.000000
6.756664 -59.717915 2.793960 1.000000
6.756664 -59.717915 2.565895 1.000000
6.756664 -59.717915 2.339052 1.000000
6.756664 -59.717918 2.112936 1.000000
6.756664 -59.717918 1.887064 1.000000
6.756664 -59.717915 1.660948 1.000000
6.756664 -59.717915 1.434105 1.000000
6.756664 -59.717915 1.206040 1.000000
6.756664 -59.717918 0.976251 1.000000
6.756664 -59.717918 0.744220 1.000000
6.756664 -59.717918 0.509407 1.000000
6.756664 -59.717918 0.271251 1.000000
6.804465 -59.725769 3.727452 1.000000
6.804465 -59.725769 3.489474 1.000000
6.804465 -59.725769 3.254838 1.000000
6.804465 -59.725769 3.022980 1.000000
6.804465 -59.725773 2.793364 1.000000
6.804465 -59.725769 2.565470 1.000000
6.804465 -59.725773 2.338797 1.000000
6.804465 -59.725773 2.112852 1.000000
6.804465 -59.725773 1.887148 1.000000
6.804465 -59.725773 1.661203 1.000000
6.804465 -59.725769 1.434530 1.000000
6.804465 -59.725773 1.206636 1.000000
6.804465 -59.725773 0.977020 1.000000
6.804465 -59.725773 0.745162 1.000000
6.804465 -59.725773 0.510526 1.000000
6.804465 -59.725773 0.272549 1.000000
6.852196 -59.733612 3.726239 1.000000
6.852196 -59.733612 3.488429 1.000000
6.852196 -59.733612 3.253958 1.000000
6.852196 -59.733612 3.022263 1.000000
6.852196 -59.733616 2.792807 1.000000
6.852196 -59.733616 2.565073 1.000000
6.852196 -59.733612 2.338559 1.000000
6.852196 -59.733612 2.112772 1.000000
6.852196 -59.733612 1.887228 1.000000
6.852196 -59.733612 1.661441 1.000000
6.852196 -59.733616 1.434926 1.000000
6.852196 -59.733616 1.207193 1.000000
6.852196 -59.733612 0.977737 1.000000
6.852196 -59.733612 0.746042 1.000000
6.852196 -59.733612 0.511571 1.000000
6.852196 -59.733612 0.273761 1.000000
6.899863 -59.741444 3.725114 1.000000
6.899863 -59.741444 3.487458 1.000000
6.899863 -59.741444 3.253139 1.000000
6.899863 -59.741447 3.021596 1.000000
6.899863 -59.741447 2.792290 1.000000
6.899863 -59.741447 2.564705 1.000000
6.899863 -59.741447 2.338338 1.000000
6.899863 -59.741444 2.112699 1.000000
6.899863 -59.741444 1.887301 1.000000
6.899863 -59.741447 1.661661 1.000000
6.899863 -59.741447 1.435295 1.000000
6.899863 -59.741447 1.207710 1.000000
6.899863 -59.741447 0.978404 1.000000
6.899863 -59.741447 0.746860 1.000000
6.899863 -59.741444 0.512542 1.000000
6.899863 -59.741447 0.274887 1.000000
6.947470 -59.749268 3.724073 1.000000
6.947470 -59.749264 3.486562 1.000000
6.947470 -59.749268 3.252384 1.000000
6.947470 -59.749268 3.020980 1.000000
6.947470 -59.749268 2.791812 1.000000
6.947470 -59.749268 2.564364 1.000000
6.947470 -59.749268 2.338134 1.000000
6.947470 -59.749268 2.112631 1.000000
6.947470 -59.749268 1.887369 1.000000
6.947470 -59.749268 1.661865 1.000000
6.947470 -59.749268 1.435635 1.000000
6.947470 -59.749268 1.208188 1.000000
6.947470 -59.749268 0.979020 1.000000
6.947470 -59.749268 0.747617 1.000000
6.947470 -59.749268 0.513439 1.000000
6.947470 -59.749268 0.275927 1.000000
6.995021 -59.757080 3.723118 1.000000
6.995021 -59.757080 3.485737 1.000000
6.995021 -59.757080 3.251689 1.000000
6.995021 -59.757080 3.020414 1.000000
6.995021 -59.757080 2.791373 1.000000
6.995021 -59.757080 2.564051 1.000000
6.995021 -59.757080 2.337947 1.000000
6.995021 -59.757080 2.112568 1.000000
6.995021 -59.757080 1.887431 1.000000
6.995021 -59.757080 1.662053 1.000000
6.995021 -59.757080 1.435948 1.000000
6.995021 -59.757080 1.208627 1.000000
6.995021 -59.757080 0.979586 1.000000
6.995021 -59.757080 0.748311 1.000000
6.995021 -59.757080 0.514263 1.000000
6.995021 -59.757080 0.276883 1.000000
7.042523 -59.764885 3.722248 1.000000
7.042523 -59.764885 3.484987 1.000000
7.042523 -59.764885 3.251057 1.000000
7.042523 -59.764885 3.019898 1.000000
7.042523 -59.764885 2.790974 1.000000
7.042523 -59.764885 2.563767 1.000000
7.042523 -59.764885 2.337776 1.000000
7.042523 -59.764885 2.112512 1.000000
7.042523 -59.764885 1.887488 1.000000
7.042523 -59.764885 1.662224 1.000000
7.042523 -59.764885 1.436233 1.000000
7.042523 -59.764885 1.209026 1.000000
7.042523 -59.764885 0.980102 1.000000
7.042523 -59.764885 0.748943 1.000000
7.042523 -59.764885 0.515013 1.000000
7.042523 -59.764885 0.277753 1.000000
7.089979 -59.772682 3.721462 1.000000
7.089979 -59.772682 3.484309 1.000000
7.089979 -59.772682 3.250486 1.000000
7.089979 -59.772682 3.019433 1.000000
7.089979 -59.772682 2.790613 1.000000
7.089979 -59.772682 2.563509 1.000000
7.089979 -59.772682 2.337622 1.000000
7.089979 -59.772682 2.112461 1.000000
7.089979 -59.772682 1.887540 1.000000
7.089979 -59.772682 1.662378 1.000000
7.089979 -59.772682 1.436490 1.000000
7.089979 -59.772682 1.209387 1.000000
7.089979 -59.772682 0.980567 1.000000
7.089979 -59.772682 0.749513 1.000000
7.089979 -59.772682 0.515691 1.000000
7.089979 -59.772682 0.278539 1.000000
7.137394 -59.780472 3.720761 1.000000
7.137394 -59.780472 3.483705 1.000000
7.137394 -59.780472 3.249977 1.000000
7.137394 -59.780472 3.019018 1.000000
7.137394 -59.780472 2.790291 1.000000
7.137394 -59.780472 2.563280 1.000000
7.137394 -59.780472 2.337485 1.000000
7.137394 -59.780472 2.112414 1.000000
7.137394 -59.780472 1.887585 1.000000
7.137394 -59.780472 1.662515 1.000000
7.137394 -59.780472 1.436720 1.000000
7.137394 -59.780472 1.209709 1.000000
7.137394 -59.780472 0.980982 1.000000
7.137394 -59.780472 0.750023 1.000000
7.137394 -59.780472 0.516295 1.000000
7.137394 -59.780472 0.279240 1.000000
7.184772 -59.788258 3.720144 1.000000
7.184772 -59.788258 3.483173 1.000000
7.184772 -59.788258 3.249529 1.000000
7.184772 -59.788258 3.018653 1.000000
7.184772 -59.788258 2.790008 1.000000
7.184772 -59.788258 2.563078 1.000000
7.184772 -59.788258 2.337364 1.000000
7.184772 -59.788258 2.112374 1.000000
7.184772 -59.788258 1.887626 1.000000
7.184772 -59.788258 1.662636 1.000000
7.184772 -59.788258 1.436922 1.000000
7.184772 -59.788258 1.209992 1.000000
7.184772 -59.788258 0.981347 1.000000
7.184772 -59.788258 0.750471 1.000000
7.184772 -59.788258 0.516827 1.000000
7.184772 -59.788258 0.279856 1.000000
7.232120 -59.796036 3.719611 1.000000
7.232120 -59.796036 3.482714 1.000000
7.232120 -59.796036 3.249142 1.000000
7.232120 -59.796036 3.018337 1.000000
7.232120 -59.796036 2.789763 1.000000
7.232120 -59.796036 2.562904 1.000000
7.232120 -59.796036 2.337259 1.000000
7.232119 -59.796036 2.112339 1.000000
7.232119 -59.796036 1.887661 1.000000
7.232120 -59.796036 1.662741 1.000000
7.232120 -59.796036 1.437096 1.000000
7.232120 -59.796036 1.210237 1.000000
7.232119 -59.796036 0.981663 1.000000
7.232120 -59.796036 0.750858 1.000000
7.232120 -59.796036 0.517287 1.000000
7.232119 -59.796036 0.280389 1.000000
7.279439 -59.803810 3.719163 1.000000
7.279439 -59.803810 3.482327 1.000000
7.279439 -59.803810 3.248816 1.000000
7.279439 -59.803810 3.018072 1.000000
7.279439 -59.803810 2.789557 1.000000
7.279439 -59.803810 2.562757 1.000000
7.279439 -59.803810 2.337171 1.000000
7.279439 -59.803810 2.112310 1.000000
7.279439 -59.803810 1.887690 1.000000
7.279439 -59.803810 1.662828 1.000000
7.279439 -59.803810 1.437243 1.000000
7.279439 -59.803810 1.210443 1.000000
7.279439 -59.803810 0.981928 1.000000
7.279439 -59.803810 0.751184 1.000000
7.279439 -59.803814 0.517673 1.000000
7.279439 -59.803810 0.280838 1.000000
7.326736 -59.811581 3.718798 1.000000
7.326736 -59.811581 3.482013 1.000000
7.326736 -59.811584 3.248552 1.000000
7.326736 -59.811584 3.017856 1.000000
7.326736 -59.811584 2.789390 1.000000
7.326736 -59.811584 2.562638 1.000000
7.326736 -59.811584 2.337100 1.000000
7.326736 -59.811584 2.112286 1.000000
7.326736 -59.811584 1.887714 1.000000
7.326736 -59.811584 1.662900 1.000000
7.326736 -59.811584 1.437362 1.000000
7.326736 -59.811584 1.210611 1.000000
7.326736 -59.811584 0.982144 1.000000
7.326736 -59.811584 0.751448 1.000000
7.326736 -59.811584 0.517987 1.000000
7.326736 -59.811584 0.281202 1.000000
7.374016 -59.819351 3.718517 1.000000
7.374017 -59.819351 3.481771 1.000000
7.374017 -59.819351 3.248348 1.000000
7.374016 -59.819351 3.017690 1.000000
7.374016 -59.819351 2.789261 1.000000
7.374016 -59.819351 2.562546 1.000000
7.374016 -59.819351 2.337045 1.000000
7.374016 -59.819351 2.112268 1.000000
7.374016 -59.819351 1.887732 1.000000
7.374016 -59.819351 1.662955 1.000000
7.374016 -59.819351 1.437454 1.000000
7.374016 -59.819351 1.210739 1.000000
7.374016 -59.819351 0.982311 1.000000
7.374016 -59.819351 0.751652 1.000000
7.374016 -59.819351 0.518229 1.000000
7.374016 -59.819351 0.281483 1.000000
7.421283 -59.827118 3.718321 1.000000
7.421283 -59.827118 3.481601 1.000000
7.421283 -59.827114 3.248205 1.000000
7.421283 -59.827118 3.017573 1.000000
7.421283 -59.827118 2.789171 1.000000
7.421283 -59.827118 2.562481 1.000000
7.421283 -59.827118 2.337006 1.000000
7.421283 -59.827118 2.112255 1.000000
7.421283 -59.827118 1.887745 1.000000
7.421283 -59.827118 1.662994 1.000000
7.421283 -59.827118 1.437518 1.000000
7.421283 -59.827118 1.210829 1.000000
7.421283 -59.827118 0.982427 1.000000
7.421283 -59.827118 0.751795 1.000000
7.421283 -59.827118 0.518399 1.000000
7.421283 -59.827118 0.281679 1.000000
7.468541 -59.834881 3.718208 1.000000
7.468541 -59.834881 3.481503 1.000000
7.468541 -59.834881 3.248123 1.000000
7.468541 -59.834881 3.017506 1.000000
7.468541 -59.834881 2.789118 1.000000
7.468541 -59.834881 2.562444 1.000000
7.468541 -59.834885 2.336984 1.000000
7.468541 -59.834881 2.112248 1.000000
7.468541 -59.834881 1.887752 1.000000
7.468541 -59.834885 1.663016 1.000000
7.468541 -59.834885 1.437556 1.000000
7.468541 -59.834885 1.210882 1.000000
7.468541 -59.834881 0.982494 1.000000
7.468541 -59.834885 0.751877 1.000000
7.468541 -59.834885 0.518497 1.000000
7.468541 -59.834885 0.281793 1.000000
7.515795 -59.842644 3.718179 1.000000
7.515795 -59.842644 3.481478 1.000000
7.515795 -59.842644 3.248102 1.000000
7.515795 -59.842644 3.017489 1.000000
7.515795 -59.842644 2.789105 1.000000
7.515795 -59.842648 2.562435 1.000000
7.515795 -59.842644 2.336978 1.000000
7.515795 -59.842644 2.112246 1.000000
7.515795 -59.842644 1.887754 1.000000
7.515795 -59.842644 1.663022 1.000000
7.515795 -59.842648 1.437565 1.000000
7.515795 -59.842648 1.210895 1.000000
7.515795 -59.842648 0.982511 1.000000
7.515795 -59.842644 0.751898 1.000000
7.515795 -59.842648 0.518522 1.000000
7.515795 -59.842648 0.281822 1.000000
7.563050 -59.850407 3.718233 1.000000
7.563050 -59.850410 3.481526 1.000000
7.563050 -59.850410 3.248141 1.000000
7.563050 -59.850410 3.017521 1.000000
7.563050 -59.850410 2.789130 1.000000
7.563050 -59.850410 2.562453 1.000000
7.563050 -59.850410 2.336989 1.000000
7.563050 -59.850410 2.112249 1.000000
7.563050 -59.850410 1.887751 1.000000
7.563050 -59.850410 1.663011 1.000000
7.563050 -59.850410 1.437547 1.000000
7.563050 -59.850410 1.210870 1.000000
7.563050 -59.850410 0.982479 1.000000
7.563050 -59.850410 0.751859 1.000000
7.563050 -59.850410 0.518474 1.000000
7.563050 -59.850410 0.281767 1.000000
7.610310 -59.858173 3.718371 1.000000
7.610310 -59.858177 3.481645 1.000000
7.610310 -59.858177 3.248241 1.000000
7.610310 -59.858177 3.017603 1.000000
7.610310 -59.858177 2.789194 1.000000
7.610310 -59.858177 2.562498 1.000000
7.610310 -59.858177 2.337016 1.000000
7.610310 -59.858177 2.112258 1.000000
7.610310 -59.858177 1.887741 1.000000
7.610310 -59.858177 1.662984 1.000000
7.610310 -59.858177 1.437502 1.000000
7.610310 -59.858177 1.210806 1.000000
7.610310 -59.858177 0.982397 1.000000
7.610310 -59.858177 0.751758 1.000000
7.610310 -59.858177 0.518355 1.000000
7.610310 -59.858173 0.281629 1.000000
7.657580 -59.865940 3.718594 1.000000
7.657580 -59.865940 3.481836 1.000000
7.657580 -59.865940 3.248403 1.000000
7.657580 -59.865944 3.017735 1.000000
7.657580 -59.865944 2.789295 1.000000
7.657580 -59.865944 2.562571 1.000000
7.657580 -59.865944 2.337060 1.000000
7.657580 -59.865940 2.112273 1.000000
7.657580 -59.865940 1.887727 1.000000
7.657580 -59.865944 1.662940 1.000000
7.657580 -59.865944 1.437429 1.000000
7.657580 -59.865944 1.210704 1.000000
7.657580 -59.865944 0.982265 1.000000
7.657580 -59.865944 0.751597 1.000000
7.657580 -59.865944 0.518164 1.000000
7.657580 -59.865944 0.281406 1.000000
7.704865 -59.873711 3.718900 1.000000
7.704865 -59.873711 3.482100 1.000000
7.704865 -59.873711 3.248625 1.000000
7.704865 -59.873711 3.017916 1.000000
7.704865 -59.873711 2.789436 1.000000
7.704865 -59.873711 2.562671 1.000000
7.704865 -59.873711 2.337120 1.000000
7.704865 -59.873711 2.112293 1.000000
7.704865 -59.873711 1.887707 1.000000
7.704865 -59.873711 1.662880 1.000000
7.704865 -59.873711 1.437329 1.000000
7.704865 -59.873711 1.210564 1.000000
7.704865 -59.873711 0.982084 1.000000
7.704865 -59.873711 0.751375 1.000000
7.704865 -59.873711 0.517900 1.000000
7.704865 -59.873711 0.281101 1.000000
7.752169 -59.881481 3.719290 1.000000
7.752169 -59.881485 3.482436 1.000000
7.752169 -59.881485 3.248909 1.000000
7.752169 -59.881485 3.018147 1.000000
7.752169 -59.881485 2.789615 1.000000
7.752169 -59.881485 2.562798 1.000000
7.752169 -59.881485 2.337196 1.000000
7.752169 -59.881485 2.112319 1.000000
7.752169 -59.881485 1.887682 1.000000
7.752169 -59.881485 1.662804 1.000000
7.752169 -59.881485 1.437201 1.000000
7.752169 -59.881485 1.210385 1.000000
7.752169 -59.881485 0.981854 1.000000
7.752169 -59.881485 0.751092 1.000000
7.752169 -59.881485 0.517565 1.000000
7.752169 -59.881485 0.280711 1.000000
7.799497 -59.889259 3.719763 1.000000
7.799496 -59.889259 3.482845 1.000000
7.799497 -59.889259 3.249253 1.000000
7.799496 -59.889259 3.018427 1.000000
7.799497 -59.889259 2.789833 1.000000
7.799497 -59.889259 2.562953 1.000000
7.799496 -59.889259 2.337289 1.000000
7.799497 -59.889259 2.112349 1.000000
7.799497 -59.889259 1.887651 1.000000
7.799496 -59.889259 1.662711 1.000000
7.799496 -59.889259 1.437047 1.000000
7.799497 -59.889259 1.210167 1.000000
7.799496 -59.889259 0.981573 1.000000
7.799496 -59.889259 0.750748 1.000000
7.799496 -59.889259 0.517156 1.000000
7.799496 -59.889259 0.280237 1.000000
7.846853 -59.897038 3.720321 1.000000
7.846853 -59.897038 3.483326 1.000000
7.846853 -59.897038 3.249658 1.000000
7.846852 -59.897041 3.018758 1.000000
7.846852 -59.897041 2.790089 1.000000
7.846852 -59.897041 2.563136 1.000000
7.846852 -59.897041 2.337399 1.000000
7.846852 -59.897041 2.112386 1.000000
7.846852 -59.897041 1.887614 1.000000
7.846852 -59.897041 1.662601 1.000000
7.846852 -59.897041 1.436864 1.000000
7.846852 -59.897041 1.209911 1.000000
7.846852 -59.897041 0.981242 1.000000
7.846852 -59.897041 0.750342 1.000000
7.846852 -59.897041 0.516675 1.000000
7.846852 -59.897041 0.279679 1.000000
7.894241 -59.904827 3.720963 1.000000
7.894241 -59.904827 3.483880 1.000000
7.894241 -59.904827 3.250124 1.000000
7.894241 -59.904827 3.019138 1.000000
7.894241 -59.904827 2.790384 1.000000
7.894241 -59.904827 2.563346 1.000000
7.894241 -59.904827 2.337524 1.000000
7.894241 -59.904827 2.112428 1.000000
7.894241 -59.904827 1.887572 1.000000
7.894241 -59.904827 1.662475 1.000000
7.894241 -59.904827 1.436654 1.000000
7.894241 -59.904827 1.209616 1.000000
7.894241 -59.904827 0.980862 1.000000
7.894241 -59.904827 0.749876 1.000000
7.894241 -59.904827 0.516121 1.000000
7.894241 -59.904827 0.279037 1.000000
7.941668 -59.912617 3.721690 1.000000
7.941668 -59.912621 3.484506 1.000000
7.941668 -59.912617 3.250652 1.000000
7.941668 -59.912617 3.019568 1.000000
7.941668 -59.912621 2.790718 1.000000
7.941668 -59.912621 2.563584 1.000000
7.941668 -59.912621 2.337667 1.000000
7.941668 -59.912621 2.112475 1.000000
7.941668 -59.912621 1.887525 1.000000
7.941668 -59.912621 1.662333 1.000000
7.941668 -59.912621 1.436416 1.000000
7.941668 -59.912621 1.209282 1.000000
7.941668 -59.912621 0.980432 1.000000
7.941668 -59.912621 0.749348 1.000000
7.941668 -59.912621 0.515494 1.000000
7.941668 -59.912621 0.278310 1.000000
7.989137 -59.920418 3.722501 1.000000
7.989136 -59.920418 3.485205 1.000000
7.989137 -59.920418 3.251242 1.000000
7.989136 -59.920418 3.020049 1.000000
7.989136 -59.920418 2.791090 1.000000
7.989137 -59.920418 2.563850 1.000000
7.989137 -59.920418 2.337826 1.000000
7.989137 -59.920418 2.112528 1.000000
7.989137 -59.920418 1.887472 1.000000
7.989137 -59.920418 1.662174 1.000000
7.989136 -59.920418 1.436150 1.000000
7.989136 -59.920418 1.208910 1.000000
7.989136 -59.920418 0.979951 1.000000
7.989136 -59.920418 0.748758 1.000000
7.989136 -59.920418 0.514795 1.000000
7.989137 -59.920418 0.277499 1.000000
8.036654 -59.928223 3.723397 1.000000
8.036654 -59.928226 3.485978 1.000000
8.036654 -59.928226 3.251893 1.000000
8.036653 -59.928226 3.020579 1.000000
8.036653 -59.928226 2.791502 1.000000
8.036654 -59.928226 2.564143 1.000000
8.036653 -59.928226 2.338002 1.000000
8.036653 -59.928226 2.112587 1.000000
8.036654 -59.928226 1.887413 1.000000
8.036653 -59.928226 1.661998 1.000000
8.036653 -59.928226 1.435857 1.000000
8.036653 -59.928226 1.208498 1.000000
8.036653 -59.928226 0.979421 1.000000
8.036654 -59.928226 0.748107 1.000000
8.036653 -59.928226 0.514022 1.000000
8.036653 -59.928226 0.276603 1.000000
8.084221 -59.936039 3.724378 1.000000
8.084221 -59.936043 3.486824 1.000000
8.084221 -59.936043 3.252605 1.000000
8.084221 -59.936043 3.021160 1.000000
8.084221 -59.936039 2.791953 1.000000
8.084221 -59.936043 2.564464 1.000000
8.084221 -59.936043 2.338194 1.000000
8.084221 -59.936043 2.112651 1.000000
8.084221 -59.936043 1.887349 1.000000
8.084221 -59.936043 1.661806 1.000000
8.084221 -59.936043 1.435536 1.000000
8.084221 -59.936043 1.208048 1.000000
8.084221 -59.936043 0.978840 1.000000
8.084221 -59.936043 0.747395 1.000000
8.084221 -59.936043 0.513176 1.000000
8.084221 -59.936043 0.275622 1.000000
8.131845 -59.943867 3.725445 1.000000
8.131845 -59.943867 3.487744 1.000000
8.131845 -59.943867 3.253380 1.000000
8.131845 -59.943867 3.021792 1.000000
8.131845 -59.943867 2.792442 1.000000
8.131845 -59.943867 2.564813 1.000000
8.131845 -59.943867 2.338403 1.000000
8.131845 -59.943867 2.112721 1.000000
8.131845 -59.943867 1.887280 1.000000
8.131845 -59.943867 1.661597 1.000000
8.131845 -59.943867 1.435186 1.000000
8.131845 -59.943867 1.207558 1.000000
8.131845 -59.943867 0.978208 1.000000
8.131845 -59.943867 0.746620 1.000000
8.131845 -59.943867 0.512257 1.000000
8.131845 -59.943867 0.274556 1.000000
8.179531 -59.951698 3.726597 1.000000
8.179531 -59.951698 3.488737 1.000000
8.179531 -59.951702 3.254216 1.000000
8.179531 -59.951702 3.022474 1.000000
8.179531 -59.951702 2.792971 1.000000
8.179531 -59.951702 2.565190 1.000000
8.179531 -59.951702 2.338629 1.000000
8.179531 -59.951702 2.112796 1.000000
8.179530 -59.951702 1.887204 1.000000
8.179531 -59.951702 1.661371 1.000000
8.179531 -59.951702 1.434810 1.000000
8.179531 -59.951702 1.207029 1.000000
8.179531 -59.951702 0.977526 1.000000
8.179530 -59.951702 0.745784 1.000000
8.179530 -59.951702 0.511264 1.000000
8.179530 -59.951702 0.273404 1.000000
8.227283 -59.959545 3.727834 1.000000
8.227283 -59.959549 3.489804 1.000000
8.227283 -59.959549 3.255116 1.000000
8.227283 -59.959549 3.023207 1.000000
8.227283 -59.959549 2.793540 1.000000
8.227283 -59.959549 2.565595 1.000000
8.227283 -59.959545 2.338872 1.000000
8.227283 -59.959549 2.112877 1.000000
8.227283 -59.959549 1.887123 1.000000
8.227283 -59.959549 1.661128 1.000000
8.227283 -59.959549 1.434404 1.000000
8.227283 -59.959549 1.206461 1.000000
8.227283 -59.959549 0.976794 1.000000
8.227283 -59.959549 0.744885 1.000000
8.227283 -59.959549 0.510197 1.000000
8.227283 -59.959549 0.272166 1.000000
8.275105 -59.967403 3.729158 1.000000
8.275105 -59.967407 3.490945 1.000000
8.275105 -59.967403 3.256077 1.000000
8.275105 -59.967403 3.023991 1.000000
8.275105 -59.967403 2.794147 1.000000
8.275105 -59.967403 2.566029 1.000000
8.275105 -59.967403 2.339132 1.000000
8.275105 -59.967403 2.112963 1.000000
8.275105 -59.967403 1.887037 1.000000
8.275105 -59.967403 1.660868 1.000000
8.275105 -59.967403 1.433971 1.000000
8.275105 -59.967403 1.205853 1.000000
8.275105 -59.967407 0.976009 1.000000
8.275105 -59.967407 0.743923 1.000000
8.275105 -59.967407 0.509055 1.000000
8.275105 -59.967407 0.270843 1.000000
8.323004 -59.975273 3.730568 1.000000
8.323004 -59.975273 3.492161 1.000000
8.323004 -59.975273 3.257102 1.000000
8.323004 -59.975273 3.024826 1.000000
8.323004 -59.975273 2.794795 1.000000
8.323004 -59.975273 2.566490 1.000000
8.323004 -59.975273 2.339408 1.000000
8.323004 -59.975273 2.113055 1.000000
8.323004 -59.975273 1.886945 1.000000
8.323004 -59.975273 1.660592 1.000000
8.323004 -59.975273 1.433509 1.000000
8.323004 -59.975273 1.205205 1.000000
8.323004 -59.975277 0.975174 1.000000
8.323004 -59.975273 0.742898 1.000000
8.323004 -59.975273 0.507839 1.000000
8.323004 -59.975273 0.269432 1.000000
8.370982 -59.983158 3.732065 1.000000
8.370982 -59.983158 3.493452 1.000000
8.370982 -59.983158 3.258189 1.000000
8.370981 -59.983158 3.025712 1.000000
8.370982 -59.983158 2.795483 1.000000
8.370982 -59.983158 2.566980 1.000000
8.370981 -59.983158 2.339702 1.000000
8.370982 -59.983158 2.113153 1.000000
8.370982 -59.983158 1.886847 1.000000
8.370981 -59.983158 1.660298 1.000000
8.370981 -59.983158 1.433019 1.000000
8.370982 -59.983158 1.204517 1.000000
8.370981 -59.983158 0.974288 1.000000
8.370981 -59.983158 0.741811 1.000000
8.370981 -59.983158 0.506548 1.000000
8.370982 -59.983158 0.267935 1.000000
8.419046 -59.991055 3.733649 1.000000
8.419046 -59.991055 3.494818 1.000000
8.419046 -59.991055 3.259339 1.000000
8.419046 -59.991055 3.026650 1.000000
8.419046 -59.991055 2.796210 1.000000
8.419046 -59.991055 2.567499 1.000000
8.419046 -59.991055 2.340013 1.000000
8.419046 -59.991055 2.113256 1.000000
8.419046 -59.991055 1.886743 1.000000
8.419046 -59.991055 1.659987 1.000000
8.419046 -59.991055 1.432501 1.000000
8.419046 -59.991055 1.203790 1.000000
8.419046 -59.991055 0.973350 1.000000
8.419046 -59.991055 0.740661 1.000000
8.419046 -59.991055 0.505182 1.000000
8.419046 -59.991055 0.266351 1.000000
8.467201 -59.998966 3.735322 1.000000
8.467201 -59.998966 3.496259 1.000000
8.467201 -59.998966 3.260554 1.000000
8.467201 -59.998966 3.027640 1.000000
8.467201 -59.998966 2.796978 1.000000
8.467201 -59.998966 2.568046 1.000000
8.467201 -59.998966 2.340341 1.000000
8.467201 -59.998966 2.113366 1.000000
8.467201 -59.998966 1.886634 1.000000
8.467201 -59.998966 1.659659 1.000000
8.467201 -59.998966 1.431953 1.000000
8.467201 -59.998966 1.203022 1.000000
8.467201 -59.998966 0.972359 1.000000
8.467201 -59.998966 0.739446 1.000000
8.467201 -59.998966 0.503741 1.000000
8.467201 -59.998966 0.264679 1.000000
8.515451 -60.006897 3.737081 1.000000
8.515451 -60.006893 3.497777 1.000000
8.515451 -60.006893 3.261832 1.000000
8.515451 -60.006897 3.028682 1.000000
8.515451 -60.006897 2.797786 1.000000
8.515451 -60.006897 2.568622 1.000000
8.515451 -60.006897 2.340686 1.000000
8.515451 -60.006893 2.113481 1.000000
8.515451 -60.006893 1.886519 1.000000
8.515451 -60.006897 1.659314 1.000000
8.515451 -60.006897 1.431378 1.000000
8.515451 -60.006897 1.202214 1.000000
8.515451 -60.006897 0.971317 1.000000
8.515450 -60.006897 0.738168 1.000000
8.515451 -60.006897 0.502224 1.000000
8.515450 -60.006897 0.262920 1.000000
8.563801 -60.014839 3.738928 1.000000
8.563802 -60.014839 3.499370 1.000000
8.563801 -60.014839 3.263175 1.000000
8.563802 -60.014839 3.029777 1.000000
8.563802 -60.014839 2.798635 1.000000
8.563802 -60.014839 2.569227 1.000000
8.563802 -60.014839 2.341048 1.000000
8.563802 -60.014839 2.113601 1.000000
8.563802 -60.014839 1.886399 1.000000
8.563802 -60.014839 1.658952 1.000000
8.563802 -60.014839 1.430772 1.000000
8.563801 -60.014839 1.201365 1.000000
8.563801 -60.014839 0.970223 1.000000
8.563801 -60.014839 0.736825 1.000000
8.563801 -60.014839 0.500630 1.000000
8.563801 -60.014839 0.261072 1.000000
8.612257 -60.022800 3.740865 1.000000
8.612257 -60.022800 3.501040 1.000000
8.612257 -60.022800 3.264582 1.000000
8.612257 -60.022800 3.030924 1.000000
8.612257 -60.022800 2.799525 1.000000
8.612257 -60.022800 2.569861 1.000000
8.612257 -60.022800 2.341428 1.000000
8.612257 -60.022800 2.113728 1.000000
8.612257 -60.022800 1.886272 1.000000
8.612257 -60.022800 1.658572 1.000000
8.612257 -60.022800 1.430138 1.000000
8.612257 -60.022800 1.200475 1.000000
8.612257 -60.022800 0.969076 1.000000
8.612257 -60.022800 0.735418 1.000000
8.612257 -60.022800 0.498960 1.000000
8.612256 -60.022800 0.259135 1.000000
8.660823 -60.030781 3.742892 1.000000
8.660823 -60.030781 3.502787 1.000000
8.660823 -60.030781 3.266054 1.000000
8.660823 -60.030781 3.032124 1.000000
8.660823 -60.030781 2.800455 1.000000
8.660823 -60.030781 2.570525 1.000000
8.660823 -60.030781 2.341825 1.000000
8.660823 -60.030781 2.113860 1.000000
8.660823 -60.030781 1.886140 1.000000
8.660823 -60.030781 1.658175 1.000000
8.660823 -60.030781 1.429475 1.000000
8.660823 -60.030781 1.199545 1.000000
8.660822 -60.030781 0.967876 1.000000
8.660823 -60.030781 0.733946 1.000000
8.660822 -60.030781 0.497213 1.000000
8.660822 -60.030781 0.257108 1.000000
8.709504 -60.038780 3.745008 1.000000
8.709505 -60.038776 3.504612 1.000000
8.709504 -60.038780 3.267591 1.000000
8.709504 -60.038780 3.033378 1.000000
8.709504 -60.038780 2.801427 1.000000
8.709505 -60.038776 2.571218 1.000000
8.709505 -60.038776 2.342240 1.000000
8.709504 -60.038780 2.113998 1.000000
8.709504 -60.038780 1.886001 1.000000
8.709505 -60.038776 1.657759 1.000000
8.709505 -60.038776 1.428782 1.000000
8.709504 -60.038780 1.198573 1.000000
8.709504 -60.038780 0.966623 1.000000
8.709504 -60.038780 0.732409 1.000000
8.709504 -60.038780 0.495388 1.000000
8.709504 -60.038780 0.254992 1.000000
8.758307 -60.046799 3.747215 1.000000
8.758307 -60.046799 3.506515 1.000000
8.758307 -60.046799 3.269194 1.000000
8.758307 -60.046799 3.034684 1.000000
8.758307 -60.046795 2.802441 1.000000
8.758307 -60.046795 2.571940 1.000000
8.758307 -60.046795 2.342673 1.000000
8.758307 -60.046799 2.114143 1.000000
8.758307 -60.046799 1.885857 1.000000
8.758307 -60.046795 1.657327 1.000000
8.758307 -60.046799 1.428060 1.000000
8.758307 -60.046795 1.197559 1.000000
8.758307 -60.046799 0.965316 1.000000
8.758307 -60.046799 0.730806 1.000000
8.758307 -60.046799 0.493486 1.000000
8.758307 -60.046799 0.252785 1.000000
8.807235 -60.054836 3.749513 1.000000
8.807235 -60.054836 3.508496 1.000000
8.807234 -60.054836 3.270863 1.000000
8.807234 -60.054836 3.036045 1.000000
8.807235 -60.054836 2.803496 1.000000
8.807234 -60.054836 2.572692 1.000000
8.807235 -60.054836 2.343124 1.000000
8.807235 -60.054836 2.114293 1.000000
8.807235 -60.054836 1.885707 1.000000
8.807235 -60.054836 1.656876 1.000000
8.807234 -60.054836 1.427308 1.000000
8.807234 -60.054836 1.196504 1.000000
8.807234 -60.054836 0.963956 1.000000
8.807234 -60.054836 0.729137 1.000000
8.807234 -60.054836 0.491504 1.000000
8.807234 -60.054836 0.250488 1.000000
8.856295 -60.062897 3.751902 1.000000
8.856295 -60.062897 3.510556 1.000000
8.856294 -60.062897 3.272598 1.000000
8.856295 -60.062897 3.037459 1.000000
8.856295 -60.062897 2.804593 1.000000
8.856295 -60.062897 2.573474 1.000000
8.856295 -60.062897 2.343592 1.000000
8.856295 -60.062897 2.114449 1.000000
8.856295 -60.062897 1.885551 1.000000
8.856295 -60.062897 1.656408 1.000000
8.856294 -60.062897 1.426526 1.000000
8.856294 -60.062897 1.195407 1.000000
8.856295 -60.062897 0.962541 1.000000
8.856294 -60.062897 0.727402 1.000000
8.856294 -60.062897 0.489444 1.000000
8.856294 -60.062897 0.248099 1.000000
8.905490 -60.070980 3.754383 1.000000
8.905491 -60.070980 3.512695 1.000000
8.905490 -60.070980 3.274401 1.000000
8.905491 -60.070980 3.038929 1.000000
8.905491 -60.070980 2.805733 1.000000
8.905490 -60.070980 2.574286 1.000000
8.905490 -60.070980 2.344079 1.000000
8.905490 -60.070980 2.114611 1.000000
8.905490 -60.070980 1.885389 1.000000
8.905490 -60.070980 1.655921 1.000000
8.905490 -60.070980 1.425714 1.000000
8.905491 -60.070980 1.194267 1.000000
8.905490 -60.070980 0.961071 1.000000
8.905490 -60.070980 0.725599 1.000000
8.905490 -60.070984 0.487305 1.000000
8.905489 -60.070984 0.245618 1.000000
8.954828 -60.079086 3.756957 1.000000
8.954828 -60.079086 3.514915 1.000000
8.954828 -60.079086 3.276271 1.000000
8.954828 -60.079086 3.040453 1.000000
8.954828 -60.079086 2.806915 1.000000
8.954828 -60.079086 2.575129 1.000000
8.954828 -60.079086 2.344584 1.000000
8.954828 -60.079086 2.114779 1.000000
8.954828 -60.079086 1.885221 1.000000
8.954828 -60.079086 1.655416 1.000000
8.954828 -60.079086 1.424871 1.000000
8.954828 -60.079086 1.193085 1.000000
