# This PCD file was generated using the MATLAB® pcwrite function
# from Computer Vision Toolbox®.
# .PCD v.7 - Point Cloud Data file format
VERSION .7
FIELDS x y z intensity
SIZE 4 4 4 4
TYPE F F F F
COUNT 1 1 1 1
WIDTH 1235
HEIGHT 1
VIEWPOINT 0 0 0 1 0 0 0
POINTS 1235
DATA ascii
nan nan nan 0.000000
233.773102 -259.409424 0.000050 0.338567
224.856659 -245.742493 0.000004 0.338323
221.028381 -239.874588 -0.000016 0.337209
218.896057 -236.606201 0.000011 0.339284
217.534851 -234.519775 0.000005 0.336843
216.588745 -233.069595 0.000007 0.339895
215.891724 -232.001205 -0.000004 0.343679
nan nan nan 0.000000
nan nan nan 0.000000
nan nan nan 0.000000
nan nan nan 0.000000
nan nan nan 0.000000
nan nan nan 0.000000
nan nan nan 0.000000
nan nan nan 0.000000
nan nan nan 0.000000
233.534561 -259.563934 0.000048 0.337591
224.713745 -245.835068 0.000003 0.337881
220.926514 -239.940552 -0.000016 0.334798
218.817078 -236.657394 0.000005 0.336004
217.470428 -234.561447 0.000010 0.333471
216.534470 -233.104721 0.000008 0.335073
215.844925 -232.031494 -0.000003 0.337850
nan nan nan 0.000000
nan nan nan 0.000000
nan nan nan 0.000000
nan nan nan 0.000000
nan nan nan 0.000000
nan nan nan 0.000000
nan nan nan 0.000000
nan nan nan 0.000000
nan nan nan 0.000000
233.295349 -259.717438 0.000007 0.337713
224.570175 -245.926636 0.000000 0.336950
220.824188 -240.005844 -0.000021 0.335790
218.737747 -236.708069 -0.000006 0.335546
217.405716 -234.602692 0.000013 0.335561
216.479950 -233.139465 0.000011 0.338186
215.797928 -232.061462 -0.000002 0.343053
nan nan nan 0.000000
nan nan nan 0.000000
nan nan nan 0.000000
nan nan nan 0.000000
nan nan nan 0.000000
nan nan nan 0.000000
nan nan nan 0.000000
nan nan nan 0.000000
nan nan nan 0.000000
232.947083 -259.695862 0.010001 1.000000
224.425980 -246.017227 -0.000005 0.338537
220.721375 -240.070328 -0.000016 0.334081
218.658051 -236.758148 -0.000014 0.338430
217.340729 -234.643494 0.000014 0.341299
216.425217 -233.173859 0.000007 0.336873
215.750717 -232.091110 -0.000003 0.339055
nan nan nan 0.000000
nan nan nan 0.000000
nan nan nan 0.000000
nan nan nan 0.000000
nan nan nan 0.000000
nan nan nan 0.000000
nan nan nan 0.000000
nan nan nan 0.000000
nan nan nan 0.000000
232.813416 -260.018829 -0.000042 0.540108
224.281158 -246.106812 -0.000009 0.337407
220.618134 -240.134155 -0.000016 0.338628
218.577988 -236.807648 -0.000013 0.338766
217.275467 -234.683868 0.000008 0.337743
216.370239 -233.207855 0.000003 0.340902
215.703308 -232.120422 -0.000004 0.327153
nan nan nan 0.000000
nan nan nan 0.000000
nan nan nan 0.000000
nan nan nan 0.000000
nan nan nan 0.000000
nan nan nan 0.000000
nan nan nan 0.000000
nan nan nan 0.000000
nan nan nan 0.000000
232.570602 -260.166565 -0.000042 0.545327
224.135727 -246.195374 -0.000014 0.337285
220.514450 -240.197250 -0.000016 0.333898
218.497559 -236.856567 -0.000011 0.337636
217.209930 -234.723785 0.000001 0.338491
216.315018 -233.241486 -0.000001 0.338582
215.655685 -232.149399 -0.000006 0.339818
nan nan nan 0.000000
nan nan nan 0.000000
nan nan nan 0.000000
nan nan nan 0.000000
nan nan nan 0.000000
nan nan nan 0.000000
nan nan nan 0.000000
nan nan nan 0.000000
nan nan nan 0.000000
232.326782 -260.312622 -0.000042 0.544106
223.989700 -246.282990 -0.000024 0.337469
220.410324 -240.259598 -0.000015 0.335378
218.416794 -236.904907 -0.000006 0.338491
217.144119 -234.763245 -0.000005 0.337316
216.259567 -233.274719 -0.000006 0.338201
215.607880 -232.178055 -0.000008 0.334569
nan nan nan 0.000000
nan nan nan 0.000000
nan nan nan 0.000000
nan nan nan 0.000000
nan nan nan 0.000000
nan nan nan 0.000000
nan nan nan 0.000000
nan nan nan 0.000000
nan nan nan 0.000000
232.081940 -260.456970 -0.000042 0.538262
223.843002 -246.369461 -0.000024 0.337575
220.305756 -240.321243 -0.000015 0.336233
218.335724 -236.952728 -0.000010 0.340291
217.078033 -234.802246 -0.000010 0.335424
216.203873 -233.307556 -0.000006 0.333639
215.559860 -232.206360 -0.000007 0.330037
nan nan nan 0.000000
nan nan nan 0.000000
nan nan nan 0.000000
nan nan nan 0.000000
nan nan nan 0.000000
nan nan nan 0.000000
nan nan nan 0.000000
nan nan nan 0.000000
nan nan nan 0.000000
231.836105 -260.599609 -0.000042 0.535439
223.695709 -246.454910 -0.000023 0.337209
220.200775 -240.382141 -0.000013 0.335775
218.254303 -236.999969 -0.000010 0.341238
217.011658 -234.840759 -0.000011 0.333852
216.147964 -233.339996 -0.000008 0.335821
215.511627 -232.234314 -0.000003 0.317143
nan nan nan 0.000000
nan nan nan 0.000000
nan nan nan 0.000000
nan nan nan 0.000000
nan nan nan 0.000000
nan nan nan 0.000000
nan nan nan 0.000000
nan nan nan 0.000000
nan nan nan 0.000000
231.589264 -260.740479 -0.000041 0.541329
223.547821 -246.539337 -0.000023 0.336706
220.095367 -240.442291 -0.000012 0.336278
218.172546 -237.046616 -0.000010 0.338521
216.945007 -234.878784 -0.000010 0.336522
216.091827 -233.372055 -0.000008 0.340352
215.463211 -232.261932 0.000000 0.342275
nan nan nan 0.000000
nan nan nan 0.000000
nan nan nan 0.000000
nan nan nan 0.000000
nan nan nan 0.000000
nan nan nan 0.000000
nan nan nan 0.000000
nan nan nan 0.000000
nan nan nan 0.000000
231.341446 -260.879669 -0.000041 0.540642
223.399338 -246.622711 -0.000023 0.338384
219.989532 -240.501724 -0.000011 0.337224
218.090469 -237.092712 -0.000007 0.335805
216.878098 -234.916351 -0.000005 0.328466
216.035461 -233.403717 -0.000008 0.335927
215.414612 -232.289215 0.000004 0.335164
nan nan nan 0.000000
nan nan nan 0.000000
nan nan nan 0.000000
nan nan nan 0.000000
nan nan nan 0.000000
nan nan nan 0.000000
nan nan nan 0.000000
nan nan nan 0.000000
nan nan nan 0.000000
231.092667 -261.017120 -0.000041 0.540444
223.191574 -246.597900 0.009997 1.000000
219.883301 -240.560425 -0.000011 0.339513
218.008072 -237.138199 -0.000002 0.338598
216.810913 -234.953415 0.000003 0.337865
215.978867 -233.434967 -0.000007 0.338415
215.365814 -232.316162 0.000006 0.342016
nan nan nan 0.000000
nan nan nan 0.000000
nan nan nan 0.000000
nan nan nan 0.000000
nan nan nan 0.000000
nan nan nan 0.000000
nan nan nan 0.000000
nan nan nan 0.000000
nan nan nan 0.000000
230.842941 -261.152832 -0.000041 0.543053
223.100677 -246.786407 -0.000025 0.539010
219.776657 -240.618362 -0.000010 0.337072
217.925339 -237.183105 0.000004 0.335317
216.743469 -234.990021 0.000009 0.332876
215.922058 -233.465836 -0.000007 0.336507
215.316833 -232.342789 0.000007 0.339132
nan nan nan 0.000000
nan nan nan 0.000000
nan nan nan 0.000000
nan nan nan 0.000000
nan nan nan 0.000000
nan nan nan 0.000000
nan nan nan 0.000000
nan nan nan 0.000000
nan nan nan 0.000000
230.592270 -261.286804 -0.000041 0.543694
222.950500 -246.866653 -0.000024 0.537575
219.669601 -240.675568 -0.000010 0.337072
217.842316 -237.227432 0.000009 0.335485
216.675781 -235.026184 0.000010 0.335882
215.865051 -233.496307 -0.000006 0.338659
215.267670 -232.369049 0.000008 0.341512
nan nan nan 0.000000
nan nan nan 0.000000
nan nan nan 0.000000
nan nan nan 0.000000
nan nan nan 0.000000
nan nan nan 0.000000
nan nan nan 0.000000
nan nan nan 0.000000
nan nan nan 0.000000
230.340668 -261.419006 -0.000041 0.541192
222.799759 -246.945862 -0.000024 0.543999
219.562164 -240.732010 -0.000008 0.334447
217.759003 -237.271240 0.000006 0.336385
216.607849 -235.061874 0.000011 0.335027
215.807816 -233.526367 -0.000005 0.341283
215.218323 -232.394974 0.000009 0.333059
nan nan nan 0.000000
nan nan nan 0.000000
nan nan nan 0.000000
nan nan nan 0.000000
nan nan nan 0.000000
nan nan nan 0.000000
nan nan nan 0.000000
nan nan nan 0.000000
nan nan nan 0.000000
230.088165 -261.549469 -0.000041 0.545937
222.648468 -247.024017 -0.000024 0.549813
219.454315 -240.787720 -0.000007 0.336492
217.675369 -237.314438 0.000008 0.334874
216.539673 -235.097092 0.000013 0.338140
215.750381 -233.556046 -0.000005 0.334524
215.168808 -232.420563 0.000007 0.340810
nan nan nan 0.000000
nan nan nan 0.000000
nan nan nan 0.000000
nan nan nan 0.000000
nan nan nan 0.000000
nan nan nan 0.000000
nan nan nan 0.000000
nan nan nan 0.000000
nan nan nan 0.000000
229.834732 -261.678131 -0.000041 0.540047
222.496628 -247.101120 -0.000024 0.545769
219.346100 -240.842667 -0.000006 0.339818
217.591431 -237.357040 0.000010 0.335637
216.471268 -235.131851 0.000008 0.328405
215.692734 -233.585327 -0.000008 0.335912
215.119110 -232.445816 0.000005 0.336461
nan nan nan 0.000000
nan nan nan 0.000000
nan nan nan 0.000000
nan nan nan 0.000000
nan nan nan 0.000000
nan nan nan 0.000000
nan nan nan 0.000000
nan nan nan 0.000000
nan nan nan 0.000000
229.580429 -261.805054 -0.000041 0.543557
222.344254 -247.177155 -0.000024 0.544167
219.237442 -240.896744 0.000009 0.339345
217.507202 -237.399048 0.000012 0.334539
216.402618 -235.166153 0.000002 0.335332
215.634903 -233.614197 -0.000010 0.335149
215.069229 -232.470703 0.000003 0.338231
nan nan nan 0.000000
nan nan nan 0.000000
nan nan nan 0.000000
nan nan nan 0.000000
nan nan nan 0.000000
nan nan nan 0.000000
nan nan nan 0.000000
nan nan nan 0.000000
nan nan nan 0.000000
229.325226 -261.930206 -0.000041 0.543603
222.191360 -247.252136 -0.000024 0.527550
219.128571 -240.950378 -0.000017 0.336965
217.422668 -237.440475 0.000017 0.337087
216.333740 -235.199966 -0.000004 0.339178
215.576843 -233.642639 -0.000005 0.340993
215.019196 -232.495255 0.000001 0.340078
nan nan nan 0.000000
nan nan nan 0.000000
nan nan nan 0.000000
nan nan nan 0.000000
nan nan nan 0.000000
nan nan nan 0.000000
nan nan nan 0.000000
nan nan nan 0.000000
nan nan nan 0.000000
229.069168 -262.053528 -0.000041 0.543984
222.037949 -247.326019 -0.000024 0.548302
219.019196 -241.002991 -0.000011 0.337057
217.337891 -237.481354 0.000011 0.333227
216.264618 -235.233292 -0.000009 0.336187
215.518600 -233.670685 -0.000001 0.328588
214.968979 -232.519455 -0.000001 0.330968
233.346024 -271.844513 14.872851 1.000000
233.346024 -271.844513 13.099463 1.000000
233.346024 -271.844513 11.350968 1.000000
233.346024 -271.844513 9.623180 1.000000
233.346039 -271.844513 7.912096 1.000000
233.346024 -271.844513 6.213848 1.000000
233.346024 -271.844513 4.524693 1.000000
233.346024 -271.844513 2.840964 1.000000
233.346024 -271.844513 1.159037 1.000000
228.812256 -262.175079 -0.000040 0.540932
221.884018 -247.398849 -0.000024 0.536690
218.909393 -241.054718 0.000014 0.338155
217.252823 -237.521667 0.000002 0.338354
216.195251 -235.266113 -0.000011 0.336583
215.460144 -233.698318 0.000003 0.331624
214.918579 -232.543304 -0.000001 0.335332
232.488907 -270.840698 14.554356 1.000000
232.488907 -270.840698 12.824839 1.000000
232.488907 -270.840698 11.119610 1.000000
232.488922 -270.840698 9.434571 1.000000
232.488922 -270.840698 7.765820 1.000000
232.488922 -270.840698 6.109590 1.000000
232.488922 -270.840729 4.462228 1.000000
232.488922 -270.840698 2.820157 1.000000
232.488922 -270.840698 1.179843 1.000000
228.554489 -262.294830 -0.000040 0.537163
221.729584 -247.470612 -0.000024 0.546578
218.799393 -241.106003 -0.000005 0.338033
217.167496 -237.561371 -0.000006 0.337087
216.125671 -235.298462 -0.000011 0.337514
215.401520 -233.725540 0.000007 0.335027
214.868027 -232.566788 -0.000001 0.343252
231.673157 -269.885345 14.251830 1.000000
231.673157 -269.885345 12.563989 1.000000
231.673157 -269.885345 10.899848 1.000000
231.673157 -269.885345 9.255417 1.000000
231.673157 -269.885345 7.626878 1.000000
231.673157 -269.885345 6.010559 1.000000
231.673157 -269.885345 4.402894 1.000000
231.673157 -269.885345 2.800394 1.000000
231.673157 -269.885345 1.199607 1.000000
228.295914 -262.412811 -0.000040 0.537835
221.574661 -247.541290 -0.000024 0.539986
218.689011 -241.156464 -0.000017 0.336431
217.081879 -237.600510 -0.000016 0.334585
216.055847 -235.330292 -0.000010 0.334325
215.342697 -233.752365 0.000009 0.333608
214.817322 -232.589920 -0.000001 0.331304
230.895737 -268.974854 13.964096 1.000000
230.895737 -268.974854 12.315894 1.000000
230.895721 -268.974854 10.690835 1.000000
230.895737 -268.974854 9.085024 1.000000
230.895737 -268.974854 7.494730 1.000000
230.895737 -268.974854 5.916371 1.000000
230.895737 -268.974854 4.346462 1.000000
230.895737 -268.974854 2.781595 1.000000
230.895737 -268.974854 1.218405 1.000000
228.036499 -262.528961 -0.000040 0.542824
221.419235 -247.610870 -0.000024 0.546426
218.578232 -241.206055 -0.000015 0.336980
216.995956 -237.638962 -0.000014 0.333242
215.985809 -235.361664 -0.000010 0.331563
215.283691 -233.778778 0.000011 0.330159
214.766449 -232.612701 -0.000000 0.334737
230.153992 -268.106171 13.690137 1.000000
230.153976 -268.106171 12.079679 1.000000
230.153992 -268.106171 10.491832 1.000000
230.153992 -268.106171 8.922791 1.000000
230.153992 -268.106201 7.368913 1.000000
230.153992 -268.106201 5.826694 1.000000
230.153992 -268.106171 4.292734 1.000000
230.153992 -268.106171 2.763699 1.000000
230.153992 -268.106171 1.236302 1.000000
227.776291 -262.643280 -0.000040 0.540307
221.263336 -247.679367 -0.000023 0.526574
218.432388 -241.175079 0.009997 1.000000
216.909760 -237.676773 -0.000007 0.334813
215.915558 -235.392517 -0.000010 0.333623
215.224503 -233.804779 0.000010 0.335607
214.715408 -232.635117 0.000001 0.342016
229.445389 -267.276306 13.428986 1.000000
229.445389 -267.276306 11.854505 1.000000
229.445389 -267.276306 10.302128 1.000000
229.445389 -267.276306 8.768134 1.000000
229.445389 -267.276306 7.248971 1.000000
229.445389 -267.276306 5.741206 1.000000
229.445389 -267.276306 4.241514 1.000000
229.445389 -267.276306 2.746637 1.000000
229.445389 -267.276306 1.253362 1.000000
227.515289 -262.755798 -0.000040 0.536873
221.106964 -247.746796 -0.000024 0.537575
218.321442 -241.222794 0.010009 1.000000
216.823303 -237.713989 0.000003 0.335851
215.845093 -235.422897 -0.000009 0.338094
215.165131 -233.830383 0.000008 0.334524
214.664230 -232.657181 -0.000001 0.342000
228.767715 -266.482666 13.179772 1.000000
228.767731 -266.482666 11.639624 1.000000
228.767731 -266.482666 10.121096 1.000000
228.767715 -266.482666 8.620554 1.000000
228.767715 -266.482666 7.134515 1.000000
228.767731 -266.482666 5.659627 1.000000
228.767731 -266.482666 4.192637 1.000000
228.767731 -266.482666 2.730357 1.000000
228.767731 -266.482666 1.269644 1.000000
227.253510 -262.866486 -0.000040 0.539452
220.950119 -247.813110 -0.000024 0.536828
218.243866 -241.350189 -0.000013 0.335637
216.736588 -237.750595 0.000010 0.337987
215.774414 -235.452774 -0.000008 0.337224
215.105606 -233.855576 0.000005 0.341131
214.612885 -232.678894 -0.000000 0.323430
228.118958 -265.722870 12.941725 1.000000
228.118973 -265.722870 11.434368 1.000000
228.118973 -265.722870 9.948177 1.000000
228.118973 -265.722870 8.479586 1.000000
228.118958 -265.722870 7.025187 1.000000
228.118973 -265.722870 5.581705 1.000000
228.118973 -265.722870 4.145948 1.000000
228.118973 -265.722870 2.714806 1.000000
228.118973 -265.722870 1.285195 1.000000
226.990952 -262.975342 -0.000040 0.537270
220.792816 -247.878342 -0.000024 0.538933
218.131760 -241.396698 -0.000016 0.528130
216.649628 -237.786621 0.000015 0.340230
215.703522 -235.482178 -0.000011 0.340093
215.045883 -233.880341 0.000003 0.338216
214.561386 -232.700241 0.000000 0.339605
227.497223 -264.994720 12.714108 1.000000
227.497208 -264.994720 11.238107 1.000000
227.497208 -264.994720 9.782830 1.000000
227.497223 -264.994720 8.344793 1.000000
227.497223 -264.994720 6.920652 1.000000
227.497208 -264.994720 5.507195 1.000000
227.497208 -264.994720 4.101307 1.000000
227.497208 -264.994720 2.699936 1.000000
227.497208 -264.994720 1.300065 1.000000
226.727646 -263.082367 -0.000040 0.546517
220.635056 -247.942444 -0.000023 0.544289
218.019318 -241.442413 -0.000016 0.556161
216.562439 -237.822098 0.000011 0.337423
215.632431 -235.511063 -0.000006 0.340719
214.986008 -233.904694 0.000001 0.335897
214.509750 -232.721237 0.000001 0.341909
226.900803 -264.296234 12.496276 1.000000
226.900787 -264.296204 11.050287 1.000000
226.900803 -264.296234 9.624599 1.000000
226.900787 -264.296204 8.215796 1.000000
226.900803 -264.296234 6.820609 1.000000
226.900787 -264.296204 5.435890 1.000000
226.900787 -264.296204 4.058585 1.000000
226.900787 -264.296204 2.685705 1.000000
226.900787 -264.296204 1.314295 1.000000
226.463623 -263.187561 -0.000040 0.538750
220.476868 -248.005478 -0.000023 0.551278
217.906570 -241.487320 -0.000016 0.544152
216.475006 -237.856979 0.000002 0.338216
215.561127 -235.539429 -0.000002 0.336919
214.925949 -233.928635 -0.000001 0.334554
214.457962 -232.741852 0.000002 0.342855
226.328094 -263.625519 12.287613 1.000000
226.328110 -263.625519 10.870369 1.000000
226.328094 -263.625519 9.473022 1.000000
226.328094 -263.625519 8.092226 1.000000
226.328094 -263.625519 6.724776 1.000000
226.328094 -263.625519 5.367585 1.000000
226.328094 -263.625519 4.017661 1.000000
226.328094 -263.625488 2.672074 1.000000
226.328094 -263.625488 1.327927 1.000000
226.198837 -263.290894 -0.000040 0.535653
220.318237 -248.067383 -0.000023 0.552544
217.793488 -241.531448 -0.000016 0.537820
216.387344 -237.891251 -0.000005 0.340703
215.489639 -235.567307 0.000005 0.337224
214.865723 -233.952133 -0.000001 0.336675
214.406036 -232.762115 0.000003 0.339330
225.777725 -262.980927 12.087570 1.000000
225.777710 -262.980927 10.697882 1.000000
225.777725 -262.980927 9.327707 1.000000
225.777710 -262.980927 7.973762 1.000000
225.777710 -262.980927 6.632901 1.000000
225.777725 -262.980927 5.302102 1.000000
225.777710 -262.980927 3.978428 1.000000
225.777725 -262.980927 2.659005 1.000000
225.777725 -262.980927 1.340995 1.000000
225.777710 -262.980927 0.021571 1.000000
220.159180 -248.128189 -0.000023 0.531807
217.680130 -241.574783 -0.000016 0.540978
216.299438 -237.924896 -0.000010 0.331975
215.417953 -235.594681 0.000010 0.326284
214.805344 -233.975220 -0.000001 0.336965
214.353973 -232.782028 0.000004 0.341527
225.248306 -262.360931 11.895633 1.000000
225.248306 -262.360931 10.532388 1.000000
225.248306 -262.360931 9.188282 1.000000
225.248306 -262.360931 7.860098 1.000000
225.248306 -262.360931 6.544750 1.000000
225.248306 -262.360931 5.239271 1.000000
225.248306 -262.360901 3.940784 1.000000
225.248306 -262.360901 2.646466 1.000000
225.248306 -262.360901 1.353534 1.000000
225.248306 -262.360901 0.059216 1.000000
219.999695 -248.187881 -0.000023 0.530541
217.566452 -241.617340 -0.000016 0.558282
216.211288 -237.957916 -0.000015 0.339574
215.346069 -235.621552 0.000014 0.339651
214.744797 -233.997879 -0.000001 0.332876
214.301758 -232.801559 0.000004 0.329595
224.738632 -261.764038 11.711323 1.000000
224.738647 -261.764038 10.373470 1.000000
224.738632 -261.764008 9.054398 1.000000
224.738632 -261.764038 7.750952 1.000000
224.738632 -261.764038 6.460103 1.000000
224.738632 -261.764038 5.178940 1.000000
224.738632 -261.764008 3.904635 1.000000
224.738632 -261.764008 2.634425 1.000000
224.738632 -261.764008 1.365575 1.000000
224.738632 -261.764008 0.095363 1.000000
219.839798 -248.246460 -0.000023 0.535897
217.452499 -241.659088 -0.000016 0.544106
216.122910 -237.990295 -0.000014 0.335302
215.274017 -235.647949 0.000014 0.337163
214.684082 -234.020126 -0.000001 0.334661
214.249420 -232.820724 0.000005 0.337636
224.492538 -261.879883 11.717841 1.000000
224.492538 -261.879883 10.379088 1.000000
224.492538 -261.879883 9.059134 1.000000
224.492538 -261.879883 7.754812 1.000000
224.492538 -261.879883 6.463095 1.000000
224.492538 -261.879883 5.181074 1.000000
224.492538 -261.879883 3.905914 1.000000
224.492538 -261.879883 2.634851 1.000000
224.492538 -261.879883 1.365149 1.000000
224.492538 -261.879852 0.094085 1.000000
219.679489 -248.303925 -0.000023 0.535012
217.338242 -241.700043 -0.000016 0.555962
216.034286 -238.022049 -0.000014 0.336782
215.201797 -235.673859 0.000011 0.341863
214.623230 -234.041931 0.000000 0.337881
214.196945 -232.839539 0.000006 0.339818
224.271133 -262.068085 11.743979 1.000000
224.271133 -262.068085 10.401627 1.000000
224.271133 -262.068085 9.078122 1.000000
224.271133 -262.068085 7.770291 1.000000
224.271133 -262.068085 6.475101 1.000000
224.271133 -262.068085 5.189630 1.000000
224.271133 -262.068085 3.911041 1.000000
224.271133 -262.068085 2.636558 1.000000
224.271133 -262.068085 1.363441 1.000000
224.271133 -262.068085 0.088959 1.000000
219.518799 -248.360260 -0.000023 0.552651
217.223709 -241.740204 -0.000016 0.544625
215.945465 -238.053192 -0.000013 0.336339
215.129379 -235.699265 0.000008 0.333333
214.562225 -234.063309 0.000001 0.341360
214.144348 -232.857971 0.000007 0.338048
224.048508 -262.257294 11.770734 1.000000
224.048508 -262.257294 10.424696 1.000000
224.048508 -262.257324 9.097555 1.000000
224.048508 -262.257294 7.786134 1.000000
224.048508 -262.257294 6.487389 1.000000
224.048508 -262.257294 5.198387 1.000000
224.048508 -262.257294 3.916289 1.000000
224.048508 -262.257294 2.638306 1.000000
224.048508 -262.257294 1.361694 1.000000
224.048508 -262.257294 0.083712 1.000000
219.357712 -248.415482 -0.000023 0.533944
217.108887 -241.779541 -0.000015 0.531701
215.856415 -238.083710 -0.000013 0.327108
215.056808 -235.724167 0.000004 0.335378
214.501068 -234.084274 0.000002 0.340566
214.091614 -232.876053 0.000008 0.339254
223.824661 -262.447571 11.798114 1.000000
223.824661 -262.447571 10.448305 1.000000
223.824661 -262.447571 9.117447 1.000000
223.824661 -262.447571 7.802349 1.000000
223.824661 -262.447571 6.499963 1.000000
223.824661 -262.447571 5.207350 1.000000
223.824661 -262.447571 3.921659 1.000000
223.824661 -262.447571 2.640095 1.000000
223.824661 -262.447571 1.359905 1.000000
223.824661 -262.447571 0.078342 1.000000
219.196243 -248.469574 -0.000023 0.537865
216.993805 -241.818100 -0.000016 0.547936
215.745926 -238.049469 0.010009 1.000000
214.984039 -235.748550 0.000002 0.332082
214.439758 -234.104797 0.000003 0.337423
214.038757 -232.893753 0.000008 0.337881
223.599533 -262.638916 11.826130 1.000000
223.599533 -262.638916 10.472461 1.000000
223.599533 -262.638947 9.137798 1.000000
223.599533 -262.638916 7.818940 1.000000
223.599533 -262.638916 6.512830 1.000000
223.599533 -262.638916 5.216520 1.000000
223.599533 -262.638916 3.927153 1.000000
223.599533 -262.638916 2.641926 1.000000
223.599533 -262.638916 1.358075 1.000000
223.599533 -262.638916 0.072847 1.000000
219.034393 -248.522537 -0.000022 0.538674
216.878448 -241.855850 -0.000015 0.547173
215.656952 -238.078735 0.009989 1.000000
214.911118 -235.772430 -0.000002 0.338125
214.378326 -234.124908 0.000005 0.332357
213.985779 -232.911102 0.000007 0.335424
223.373108 -262.831390 11.854791 1.000000
223.373108 -262.831390 10.497172 1.000000
223.373108 -262.831390 9.158613 1.000000
223.373108 -262.831390 7.835912 1.000000
223.373108 -262.831390 6.525992 1.000000
223.373108 -262.831390 5.225903 1.000000
223.373108 -262.831390 3.932774 1.000000
223.373108 -262.831390 2.643797 1.000000
223.373108 -262.831390 1.356202 1.000000
223.373108 -262.831390 0.067226 1.000000
218.872192 -248.574371 -0.000023 0.543038
216.762833 -241.892792 -0.000016 0.556558
215.588013 -238.171448 0.000002 0.335149
214.838028 -235.795792 -0.000001 0.333455
214.316742 -234.144577 0.000005 0.339483
213.932693 -232.928070 0.000005 0.333440
223.145340 -263.024994 11.884096 1.000000
223.145355 -263.024994 10.522445 1.000000
223.145340 -263.024994 9.179905 1.000000
223.145340 -263.024994 7.853269 1.000000
223.145340 -263.024994 6.539454 1.000000
223.145340 -263.024994 5.235496 1.000000
223.145340 -263.024994 3.938522 1.000000
223.145355 -263.024994 2.645712 1.000000
223.145340 -263.024994 1.354288 1.000000
223.145340 -263.024994 0.061478 1.000000
218.709625 -248.625061 -0.000022 0.522194
216.646973 -241.928925 -0.000015 0.546578
215.498138 -238.199432 0.000008 0.331426
214.764771 -235.818634 -0.000000 0.333516
214.255020 -234.163818 0.000006 0.341009
213.879471 -232.944672 0.000004 0.337438
222.916214 -263.219757 11.914065 1.000000
222.916214 -263.219757 10.548282 1.000000
222.916214 -263.219757 9.201674 1.000000
222.916214 -263.219757 7.871015 1.000000
222.916214 -263.219727 6.553216 1.000000
222.916214 -263.219727 5.245306 1.000000
222.916214 -263.219727 3.944399 1.000000
222.916214 -263.219757 2.647670 1.000000
222.916214 -263.219757 1.352329 1.000000
222.916214 -263.219727 0.055601 1.000000
218.546707 -248.674622 -0.000022 0.547524
216.530853 -241.964264 -0.000015 0.525475
215.408127 -238.226959 -0.000012 0.534478
214.691345 -235.840958 0.000001 0.333227
214.193176 -234.182632 0.000007 0.332891
213.826157 -232.960892 0.000003 0.313313
222.685669 -263.415710 11.944703 1.000000
222.685684 -263.415710 10.574698 1.000000
222.685684 -263.415710 9.223927 1.000000
222.685684 -263.415710 7.889157 1.000000
222.685684 -263.415710 6.567287 1.000000
222.685684 -263.415710 5.255335 1.000000
222.685669 -263.415680 3.950408 1.000000
222.685684 -263.415710 2.649672 1.000000
222.685684 -263.415710 1.350328 1.000000
222.685669 -263.415680 0.049592 1.000000
218.383453 -248.723038 -0.000022 0.546914
216.414490 -241.998764 -0.000015 0.547601
215.317886 -238.253723 -0.000011 0.541741
214.617783 -235.862778 0.000002 0.341238
214.131195 -234.201019 0.000008 0.332753
213.772705 -232.976746 0.000001 0.328862
222.453705 -263.612885 11.976018 1.000000
222.453705 -263.612885 10.601700 1.000000
222.453705 -263.612885 9.246679 1.000000
222.453705 -263.612885 7.907704 1.000000
222.453705 -263.612885 6.581671 1.000000
222.453705 -263.612885 5.265585 1.000000
222.453705 -263.612885 3.956549 1.000000
222.453705 -263.612885 2.651717 1.000000
222.453705 -263.612885 1.348283 1.000000
222.453705 -263.612885 0.043450 1.000000
218.219864 -248.770325 -0.000022 0.537774
216.297882 -242.032471 -0.000015 0.553414
215.227463 -238.279861 -0.000012 0.537896
214.544067 -235.884079 0.000003 0.336568
214.069092 -234.218964 0.000009 0.335637
213.719162 -232.992233 0.000000 0.336339
222.220245 -263.811310 12.008020 1.000000
222.220245 -263.811310 10.629292 1.000000
222.220245 -263.811310 9.269923 1.000000
222.220245 -263.811310 7.926653 1.000000
222.220245 -263.811310 6.596367 1.000000
222.220245 -263.811310 5.276062 1.000000
222.220245 -263.811310 3.962826 1.000000
222.220245 -263.811310 2.653807 1.000000
222.220245 -263.811310 1.346192 1.000000
222.220245 -263.811310 0.037174 1.000000
218.055939 -248.816467 -0.000022 0.531731
216.181061 -242.065353 -0.000015 0.531731
215.136856 -238.305359 -0.000011 0.551431
214.470200 -235.904861 0.000004 0.335546
214.006851 -234.236481 0.000010 0.332753
213.665512 -233.007339 -0.000001 0.342657
221.985275 -264.011047 12.040717 1.000000
221.985275 -264.011047 10.657486 1.000000
221.985275 -264.011047 9.293674 1.000000
221.985275 -264.011047 7.946017 1.000000
221.985275 -264.011047 6.611384 1.000000
221.985275 -264.011047 5.286766 1.000000
221.985275 -264.011017 3.969239 1.000000
221.985275 -264.011017 2.655944 1.000000
221.985275 -264.011017 1.344056 1.000000
221.985275 -264.011017 0.030761 1.000000
217.891708 -248.861450 -0.000021 0.545083
216.063995 -242.097427 -0.000015 0.527092
215.046066 -238.330231 -0.000011 0.545144
214.396179 -235.925125 0.000006 0.338720
213.944504 -234.253555 0.000008 0.337942
213.611740 -233.022079 -0.000003 0.341222
221.748764 -264.212067 12.074122 1.000000
221.748764 -264.212067 10.686289 1.000000
221.748764 -264.212067 9.317940 1.000000
221.748764 -264.212067 7.965799 1.000000
221.748764 -264.212067 6.626726 1.000000
221.748764 -264.212067 5.297700 1.000000
221.748764 -264.212067 3.975791 1.000000
221.748764 -264.212067 2.658126 1.000000
221.748764 -264.212067 1.341874 1.000000
221.748764 -264.212067 0.024209 1.000000
217.727158 -248.905304 -0.000021 0.544808
215.946716 -242.128677 -0.000015 0.545861
214.955109 -238.354462 -0.000011 0.537057
214.322037 -235.944885 0.000007 0.338613
213.882034 -234.270218 0.000007 0.338430
213.557892 -233.036438 -0.000004 0.338338
221.510651 -264.414459 12.108247 1.000000
221.510651 -264.414490 10.715714 1.000000
221.510651 -264.414459 9.342730 1.000000
221.510651 -264.414459 7.986006 1.000000
221.510651 -264.414459 6.642397 1.000000
221.510651 -264.414459 5.308870 1.000000
221.510651 -264.414459 3.982483 1.000000
221.510651 -264.414459 2.660357 1.000000
221.510651 -264.414459 1.339644 1.000000
221.510651 -264.414459 0.017516 1.000000
217.562317 -248.947998 -0.000021 0.537850
215.829224 -242.159103 -0.000015 0.525185
214.863983 -238.378067 -0.000011 0.553170
214.247742 -235.964111 0.000008 0.331853
213.819458 -234.286423 0.000005 0.332494
213.503922 -233.050415 -0.000006 0.321920
221.270905 -264.618256 12.143097 1.000000
221.270905 -264.618225 10.745762 1.000000
221.270905 -264.618256 9.368045 1.000000
221.270905 -264.618225 8.006644 1.000000
221.270905 -264.618256 6.658404 1.000000
221.270905 -264.618256 5.320279 1.000000
221.270905 -264.618256 3.989319 1.000000
221.270905 -264.618256 2.662633 1.000000
221.270905 -264.618256 1.337367 1.000000
221.270905 -264.618225 0.010681 1.000000
217.397171 -248.989548 -0.000022 0.531685
215.711517 -242.188721 -0.000015 0.555550
214.772705 -238.401031 -0.000011 0.505104
214.173325 -235.982834 0.000009 0.337942
213.756775 -234.302216 0.000003 0.337987
213.449875 -233.064026 -0.000007 0.333165
221.029495 -264.823456 12.178686 1.000000
221.029495 -264.823425 10.776446 1.000000
221.029495 -264.823456 9.393896 1.000000
221.029495 -264.823456 8.027723 1.000000
221.029495 -264.823456 6.674749 1.000000
221.029495 -264.823456 5.331927 1.000000
221.029495 -264.823456 3.996299 1.000000
221.029495 -264.823456 2.664957 1.000000
221.029495 -264.823456 1.335042 1.000000
221.047272 -264.897400 -0.000036 0.540703
217.231750 -249.029922 -0.000021 0.531350
215.593613 -242.217499 -0.000015 0.548516
214.681259 -238.423355 -0.000011 0.546624
214.098785 -236.001022 0.000011 0.334386
213.693970 -234.317551 0.000002 0.337179
213.395721 -233.077255 -0.000008 0.340307
220.786377 -265.030090 12.215026 1.000000
220.786377 -265.030090 10.807783 1.000000
220.786377 -265.030090 9.420297 1.000000
220.786377 -265.030090 8.049242 1.000000
220.786377 -265.030090 6.691440 1.000000
220.786377 -265.030090 5.343825 1.000000
220.786377 -265.030090 4.003426 1.000000
220.786377 -265.030090 2.667332 1.000000
220.786377 -265.030090 1.332668 1.000000
220.770706 -264.962891 -0.000036 0.537682
217.066040 -249.069153 -0.000021 0.547738
215.475510 -242.245453 -0.000015 0.545892
214.589661 -238.445038 -0.000011 0.516228
214.024109 -236.018692 0.000012 0.333104
213.631058 -234.332458 0.000001 0.326818
213.341476 -233.090103 -0.000010 0.340459
220.541504 -265.238251 12.252130 1.000000
220.541504 -265.238251 10.839773 1.000000
220.541504 -265.238220 9.447248 1.000000
220.541504 -265.238251 8.071213 1.000000
220.541504 -265.238251 6.708478 1.000000
220.541504 -265.238251 5.355969 1.000000
220.541504 -265.238220 4.010703 1.000000
220.541504 -265.238251 2.669756 1.000000
220.541504 -265.238220 1.330245 1.000000
220.493683 -265.026428 -0.000036 0.541009
216.900070 -249.107239 -0.000021 0.537041
215.357208 -242.272598 -0.000014 0.555550
214.497925 -238.466095 -0.000011 0.550179
213.937210 -235.982254 0.010010 1.000000
213.568054 -234.346924 -0.000001 0.337743
213.287155 -233.102570 -0.000010 0.331197
220.294830 -265.447906 12.290004 1.000000
220.294830 -265.447906 10.872431 1.000000
220.294830 -265.447906 9.474762 1.000000
220.294830 -265.447906 8.093642 1.000000
220.294830 -265.447906 6.725874 1.000000
220.294830 -265.447906 5.368368 1.000000
220.294830 -265.447906 4.018130 1.000000
220.294830 -265.447906 2.672230 1.000000
220.294830 -265.447906 1.327770 1.000000
220.216232 -265.088074 -0.000036 0.542031
216.733826 -249.144150 -0.000021 0.545174
215.238724 -242.298904 -0.000014 0.535821
214.406036 -238.486496 -0.000011 0.560800
213.862686 -235.998825 0.010008 1.000000
213.504944 -234.360931 -0.000003 0.332448
213.232727 -233.114639 -0.000010 0.343420
220.046310 -265.659149 12.328669 1.000000
220.046310 -265.659149 10.905767 1.000000
220.046310 -265.659149 9.502844 1.000000
220.046310 -265.659149 8.116538 1.000000
220.046310 -265.659149 6.743630 1.000000
220.046310 -265.659149 5.381023 1.000000
220.046310 -265.659149 4.025713 1.000000
220.046310 -265.659149 2.674756 1.000000
220.046310 -265.659149 1.325244 1.000000
219.938339 -265.147736 -0.000036 0.545327
216.567337 -249.179901 -0.000021 0.538918
215.120056 -242.324402 -0.000014 0.529061
214.313995 -238.506256 -0.000011 0.515435
213.788025 -236.014847 0.010009 1.000000
213.441742 -234.374527 -0.000005 0.336263
213.178238 -233.126343 -0.000010 0.334829
219.795898 -265.872009 12.368130 1.000000
219.795898 -265.872009 10.939794 1.000000
219.795898 -265.872009 9.531511 1.000000
219.795898 -265.872009 8.139908 1.000000
219.795898 -265.872009 6.761754 1.000000
219.795898 -265.872009 5.393940 1.000000
219.795898 -265.872009 4.033454 1.000000
219.795898 -265.872009 2.677333 1.000000
219.795898 -265.872009 1.322667 1.000000
219.660034 -265.205475 -0.000035 0.535103
216.400604 -249.214493 -0.000021 0.546807
215.001205 -242.349060 -0.000015 0.533639
214.221832 -238.525375 -0.000010 0.537758
213.724243 -236.084229 0.000006 0.330434
213.378433 -234.387665 -0.000006 0.336126
213.123657 -233.137665 -0.000009 0.342123
219.505859 -265.894653 12.359434 1.000000
219.505859 -265.894653 10.932296 1.000000
219.505859 -265.894653 9.525194 1.000000
219.505859 -265.894653 8.134758 1.000000
219.505859 -265.894653 6.757761 1.000000
219.505859 -265.894653 5.391095 1.000000
219.505859 -265.894653 4.031748 1.000000
219.505859 -265.894653 2.676766 1.000000
219.505859 -265.894653 1.323235 1.000000
219.381348 -265.261261 -0.000035 0.539666
216.233627 -249.247925 -0.000020 0.539223
214.882202 -242.372879 -0.000015 0.535622
214.129532 -238.543854 -0.000010 0.542550
213.649002 -236.099304 0.000004 0.339773
213.315048 -234.400360 -0.000008 0.334646
213.069000 -233.148605 -0.000009 0.331716
219.128311 -265.452606 12.232795 1.000000
219.128311 -265.452606 10.823101 1.000000
219.128311 -265.452606 9.433201 1.000000
219.128311 -265.452606 8.059764 1.000000
219.128311 -265.452606 6.699598 1.000000
219.128311 -265.452606 5.349641 1.000000
219.128311 -265.452606 4.006911 1.000000
219.128311 -265.452606 2.668493 1.000000
219.128311 -265.452606 1.331508 1.000000
219.128311 -265.452606 -0.006911 1.000000
216.066422 -249.280182 -0.000021 0.538064
214.763031 -242.395874 -0.000014 0.536858
214.037109 -238.561691 -0.000011 0.545525
213.573669 -236.113907 -0.000008 0.525139
213.251572 -234.412613 -0.000010 0.338582
213.014267 -233.159164 -0.000008 0.337346
218.759872 -265.021210 12.109699 1.000000
218.759872 -265.021210 10.716967 1.000000
218.759872 -265.021210 9.343784 1.000000
218.759872 -265.021240 7.986869 1.000000
218.759872 -265.021210 6.643066 1.000000
218.759872 -265.021210 5.309346 1.000000
218.759872 -265.021210 3.982769 1.000000
218.759872 -265.021210 2.660450 1.000000
218.759872 -265.021210 1.339549 1.000000
218.759872 -265.021210 0.017231 1.000000
215.899002 -249.311279 -0.000020 0.537240
214.643692 -242.418030 -0.000014 0.540444
213.944565 -238.578873 -0.000010 0.528557
213.498230 -236.127914 -0.000008 0.550698
213.188019 -234.424423 -0.000011 0.334432
212.959457 -233.169342 -0.000008 0.345037
218.400162 -264.600037 11.990009 1.000000
218.400162 -264.600037 10.613764 1.000000
218.400162 -264.600037 9.256842 1.000000
218.400162 -264.600067 7.915990 1.000000
218.400162 -264.600037 6.588096 1.000000
218.400162 -264.600067 5.270167 1.000000
218.400162 -264.600037 3.959294 1.000000
218.400162 -264.600067 2.652632 1.000000
218.400162 -264.600037 1.347368 1.000000
218.400162 -264.600037 0.040705 1.000000
215.731354 -249.341187 -0.000020 0.532921
214.524216 -242.439362 -0.000014 0.529061
213.851898 -238.595413 -0.000010 0.547204
213.422684 -236.141403 -0.000008 0.564233
213.124374 -234.435791 -0.000013 0.344961
212.904587 -233.179138 -0.000007 0.334981
218.048859 -264.188721 11.873599 1.000000
218.048859 -264.188721 10.513390 1.000000
218.048859 -264.188721 9.172278 1.000000
218.048859 -264.188721 7.847054 1.000000
218.048859 -264.188721 6.534632 1.000000
218.048859 -264.188721 5.232060 1.000000
218.048859 -264.188721 3.936463 1.000000
218.048859 -264.188721 2.645027 1.000000
218.048859 -264.188721 1.354974 1.000000
218.048859 -264.188721 0.063537 1.000000
215.563522 -249.369949 -0.000020 0.540398
214.404587 -242.459854 -0.000014 0.544167
213.759125 -238.611313 -0.000010 0.531273
213.347046 -236.154358 -0.000008 0.548943
213.060654 -234.446701 -0.000012 0.333959
212.849640 -233.188553 -0.000006 0.334096
217.705627 -263.786835 11.760339 1.000000
217.705627 -263.786865 10.415732 1.000000
217.705627 -263.786835 9.090004 1.000000
217.705627 -263.786835 7.779980 1.000000
217.705627 -263.786865 6.482615 1.000000
217.705627 -263.786865 5.194985 1.000000
217.705627 -263.786865 3.914250 1.000000
217.705627 -263.786865 2.637628 1.000000
217.705627 -263.786835 1.362372 1.000000
217.705627 -263.786835 0.085750 1.000000
215.395477 -249.397522 -0.000020 0.537545
214.284805 -242.479507 -0.000013 0.541329
213.666229 -238.626556 -0.000010 0.556313
213.271332 -236.166779 -0.000008 0.529595
212.996857 -234.457169 -0.000011 0.341344
212.794632 -233.197571 -0.000007 0.333913
217.370178 -263.394104 11.650116 1.000000
217.370178 -263.394073 10.320693 1.000000
217.370178 -263.394073 9.009938 1.000000
217.370178 -263.394104 7.714708 1.000000
217.370178 -263.394104 6.431994 1.000000
217.370178 -263.394073 5.158904 1.000000
217.370178 -263.394104 3.892632 1.000000
217.370178 -263.394073 2.630427 1.000000
217.370178 -263.394073 1.369573 1.000000
217.370178 -263.394073 0.107367 1.000000
215.227249 -249.423935 -0.000020 0.536706
214.164917 -242.498322 -0.000013 0.539055
213.573242 -238.641159 -0.000010 0.524300
213.195526 -236.178680 -0.000008 0.541985
212.932983 -234.467194 -0.000011 0.342245
212.739563 -233.206223 -0.000006 0.343694
217.042191 -263.010071 11.542813 1.000000
217.042191 -263.010071 10.228171 1.000000
217.042191 -263.010071 8.931993 1.000000
217.042191 -263.010071 7.651163 1.000000
217.042191 -263.010071 6.382713 1.000000
217.042191 -263.010071 5.123779 1.000000
217.042191 -263.010071 3.871587 1.000000
217.042191 -263.010071 2.623417 1.000000
217.042191 -263.010071 1.376583 1.000000
217.042191 -263.010071 0.128412 1.000000
215.058838 -249.449158 -0.000020 0.528161
214.044876 -242.516312 -0.000013 0.525994
213.480148 -238.655090 -0.000010 0.575036
213.119629 -236.190048 -0.000008 0.519905
212.869049 -234.476776 -0.000010 0.338277
212.684433 -233.214478 -0.000006 0.329122
216.721405 -262.634460 11.438324 1.000000
216.721405 -262.634491 10.138080 1.000000
216.721405 -262.634491 8.856091 1.000000
216.721405 -262.634491 7.589286 1.000000
216.721405 -262.634491 6.334724 1.000000
216.721405 -262.634491 5.089577 1.000000
216.721405 -262.634460 3.851094 1.000000
216.721405 -262.634460 2.616591 1.000000
216.721405 -262.634460 1.383409 1.000000
216.721405 -262.634460 0.148905 1.000000
214.890259 -249.473221 -0.000020 0.543694
213.924728 -242.533463 -0.000013 0.548806
213.386978 -238.668396 -0.000010 0.522469
213.043671 -236.200897 -0.000008 0.518212
212.805054 -234.485901 -0.000009 0.342489
212.629257 -233.222351 -0.000006 0.339925
216.407562 -262.266998 11.336548 1.000000
216.407562 -262.266998 10.050325 1.000000
216.407562 -262.266998 8.782161 1.000000
216.407562 -262.266998 7.529016 1.000000
216.407562 -262.266998 6.287982 1.000000
216.407562 -262.266998 5.056259 1.000000
216.407562 -262.266998 3.831134 1.000000
216.407562 -262.266998 2.609941 1.000000
216.407562 -262.266998 1.390058 1.000000
216.407562 -262.266998 0.168866 1.000000
214.721512 -249.496094 -0.000019 0.544945
213.804443 -242.549759 -0.000013 0.538277
213.293701 -238.681030 -0.000010 0.552834
212.967621 -236.211197 -0.000008 0.534295
212.740997 -234.494583 -0.000009 0.330068
212.574020 -233.229843 -0.000006 0.340108
216.100388 -261.907349 11.237391 1.000000
216.100388 -261.907349 9.964826 1.000000
216.100388 -261.907349 8.710134 1.000000
216.100388 -261.907349 7.470295 1.000000
216.100388 -261.907349 6.242443 1.000000
216.100388 -261.907349 5.023801 1.000000
216.100388 -261.907349 3.811686 1.000000
216.100388 -261.907349 2.603465 1.000000
216.100388 -261.907349 1.396535 1.000000
216.100388 -261.907349 0.188313 1.000000
214.552612 -249.517792 -0.000019 0.532464
213.684067 -242.565216 -0.000013 0.544839
213.200333 -238.693024 -0.000010 0.546059
212.891510 -236.220978 -0.000008 0.548196
212.676865 -234.502808 -0.000008 0.342763
212.518738 -233.236938 -0.000005 0.331624
215.799667 -261.555237 11.140757 1.000000
215.799667 -261.555237 9.881504 1.000000
215.799667 -261.555237 8.639935 1.000000
215.799652 -261.555237 7.413069 1.000000
215.799667 -261.555237 6.198061 1.000000
215.799667 -261.555237 4.992168 1.000000
215.799667 -261.555237 3.792734 1.000000
215.799667 -261.555237 2.597151 1.000000
215.799667 -261.555237 1.402849 1.000000
215.799667 -261.555237 0.207265 1.000000
214.383575 -249.538300 -0.000019 0.539712
213.563583 -242.579849 -0.000013 0.540948
213.106888 -238.704376 -0.000010 0.552895
212.815338 -236.230225 -0.000008 0.541299
212.607269 -234.464569 0.010004 1.000000
212.463394 -233.243652 -0.000005 0.341390
215.505142 -261.210419 11.046563 1.000000
215.505142 -261.210419 9.800286 1.000000
215.505142 -261.210419 8.571510 1.000000
215.505142 -261.210419 7.357289 1.000000
215.505157 -261.210419 6.154800 1.000000
215.505157 -261.210419 4.961334 1.000000
215.505142 -261.210419 3.774260 1.000000
215.505142 -261.210419 2.590997 1.000000
215.505142 -261.210419 1.409002 1.000000
215.505142 -261.210419 0.225739 1.000000
214.214386 -249.557648 -0.000019 0.537804
213.442993 -242.593628 -0.000013 0.546639
213.013367 -238.715073 -0.000010 0.519097
212.739090 -236.238937 -0.000008 0.554864
212.543365 -234.471893 0.010000 1.000000
212.408020 -233.249985 -0.000005 0.330816
215.216629 -260.872589 10.954719 1.000000
215.216629 -260.872589 9.721097 1.000000
215.216629 -260.872589 8.504795 1.000000
215.216629 -260.872589 7.302899 1.000000
215.216629 -260.872589 6.112619 1.000000
215.216629 -260.872589 4.931271 1.000000
215.216629 -260.872589 3.756247 1.000000
215.216629 -260.872589 2.584997 1.000000
215.216629 -260.872589 1.415003 1.000000
215.216629 -260.872589 0.243753 1.000000
214.045074 -249.575806 -0.000019 0.550149
213.322311 -242.606567 -0.000013 0.529900
212.919785 -238.725098 -0.000010 0.534783
212.662796 -236.247116 -0.000008 0.539788
212.479401 -234.478714 0.010008 1.000000
212.352585 -233.255936 -0.000006 0.338598
214.933884 -260.541565 10.865150 1.000000
214.933899 -260.541565 9.643867 1.000000
214.933899 -260.541565 8.439734 1.000000
214.933899 -260.541565 7.249858 1.000000
214.933899 -260.541565 6.071484 1.000000
214.933899 -260.541565 4.901951 1.000000
214.933899 -260.541565 3.738681 1.000000
214.933884 -260.541565 2.579146 1.000000
214.933884 -260.541534 1.420854 1.000000
214.933899 -260.541565 0.261319 1.000000
213.875626 -249.592773 -0.000019 0.540810
213.201553 -242.618668 -0.000013 0.550912
212.826111 -238.734482 -0.000010 0.538186
212.586441 -236.254761 -0.000007 0.552590
212.419861 -234.531281 -0.000007 0.337011
212.297119 -233.261490 -0.000005 0.324971
214.656738 -260.217041 10.777780 1.000000
214.656738 -260.217041 9.568534 1.000000
214.656738 -260.217041 8.376265 1.000000
214.656738 -260.217041 7.198118 1.000000
214.656738 -260.217041 6.031357 1.000000
214.656738 -260.217072 4.873351 1.000000
214.656738 -260.217041 3.721545 1.000000
214.656738 -260.217041 2.573438 1.000000
214.656738 -260.217041 1.426562 1.000000
214.656738 -260.217041 0.278455 1.000000
213.706085 -249.608566 -0.000019 0.527245
213.080704 -242.629929 -0.000012 0.540200
212.732391 -238.743210 -0.000009 0.538445
212.510040 -236.261887 -0.000007 0.535042
212.355484 -234.537277 -0.000007 0.336889
212.241623 -233.266663 -0.000005 0.335103
214.384995 -259.898865 10.692534 1.000000
214.384995 -259.898865 9.495031 1.000000
214.384995 -259.898865 8.314341 1.000000
214.384995 -259.898865 7.147636 1.000000
214.384995 -259.898865 5.992206 1.000000
214.384995 -259.898865 4.845447 1.000000
214.384995 -259.898865 3.704826 1.000000
214.384995 -259.898865 2.567870 1.000000
214.384995 -259.898865 1.432130 1.000000
214.384995 -259.898865 0.295173 1.000000
213.536423 -249.623169 -0.000018 0.534005
212.959778 -242.640335 -0.000012 0.547936
212.638611 -238.751282 -0.000009 0.570993
212.433578 -236.268463 -0.000007 0.529824
212.291077 -234.542816 -0.000007 0.333425
212.186081 -233.271439 -0.000005 0.341161
214.118454 -259.586792 10.609343 1.000000
214.118454 -259.586792 9.423300 1.000000
214.118454 -259.586792 8.253910 1.000000
214.118454 -259.586792 7.098371 1.000000
214.118454 -259.586792 5.953998 1.000000
214.118454 -259.586792 4.818214 1.000000
214.118454 -259.586792 3.688510 1.000000
214.118454 -259.586792 2.562434 1.000000
214.118454 -259.586792 1.437565 1.000000
214.118454 -259.586792 0.311489 1.000000
213.366653 -249.636581 -0.000018 0.536294
212.838776 -242.649902 -0.000013 0.536339
212.544785 -238.758698 -0.000009 0.567285
212.357086 -236.274521 -0.000007 0.551812
212.226624 -234.547913 -0.000006 0.546853
212.130524 -233.275833 -0.000006 0.328450
213.856964 -259.280609 10.528141 1.000000
213.856964 -259.280609 9.353285 1.000000
213.856964 -259.280609 8.194924 1.000000
213.856964 -259.280609 7.050284 1.000000
213.856964 -259.280609 5.916706 1.000000
213.856949 -259.280640 4.791633 1.000000
213.856949 -259.280609 3.672584 1.000000
213.856964 -259.280609 2.557130 1.000000
213.856949 -259.280609 1.442870 1.000000
213.856949 -259.280609 0.327415 1.000000
213.196808 -249.648819 -0.000018 0.546258
212.717712 -242.658615 -0.000012 0.519921
212.450897 -238.765472 -0.000009 0.564385
212.280548 -236.280029 -0.000007 0.534737
212.162155 -234.552551 -0.000006 0.537881
212.074921 -233.279846 -0.000006 0.322774
213.600342 -258.980164 10.448866 1.000000
213.600342 -258.980164 9.284931 1.000000
213.600342 -258.980164 8.137339 1.000000
213.600342 -258.980164 7.003338 1.000000
213.600342 -258.980164 5.880299 1.000000
213.600342 -258.980164 4.765683 1.000000
213.600342 -258.980164 3.657037 1.000000
213.600342 -258.980164 2.551952 1.000000
213.600342 -258.980164 1.448049 1.000000
213.600342 -258.980164 0.342963 1.000000
213.026886 -249.659866 -0.000018 0.540719
212.596603 -242.666489 -0.000012 0.538842
212.356964 -238.771576 -0.000009 0.560723
212.203979 -236.285004 -0.000007 0.542138
212.097641 -234.556747 -0.000006 0.555611
212.019302 -233.283463 -0.000006 0.341573
213.348434 -258.685211 10.371453 1.000000
213.348434 -258.685211 9.218184 1.000000
213.348434 -258.685211 8.081107 1.000000
213.348434 -258.685211 6.957495 1.000000
213.348434 -258.685211 5.844745 1.000000
213.348434 -258.685211 4.740342 1.000000
213.348434 -258.685211 3.641855 1.000000
213.348434 -258.685211 2.546894 1.000000
213.348434 -258.685211 1.453106 1.000000
213.348434 -258.685211 0.358145 1.000000
212.856888 -249.669739 -0.000018 0.536049
212.475433 -242.673523 -0.000012 0.574960
212.262985 -238.777023 -0.000009 0.541711
212.127365 -236.289444 -0.000007 0.527260
212.033096 -234.560501 -0.000006 0.600137
211.963654 -233.286682 -0.000005 0.350805
213.101089 -258.395599 10.295847 1.000000
213.101089 -258.395599 9.152992 1.000000
213.101089 -258.395599 8.026184 1.000000
213.101089 -258.395599 6.912721 1.000000
213.101089 -258.395599 5.810020 1.000000
213.101089 -258.395599 4.715592 1.000000
213.101089 -258.395599 3.627026 1.000000
213.101089 -258.395599 2.541955 1.000000
213.101089 -258.395599 1.458045 1.000000
213.101089 -258.395599 0.372973 1.000000
212.686813 -249.678406 -0.000018 0.544427
212.354218 -242.679718 -0.000012 0.531731
212.168991 -238.781830 -0.000009 0.537408
212.050720 -236.293365 -0.000007 0.540932
211.968536 -234.563797 -0.000006 0.552895
211.907974 -233.289520 -0.000006 0.331472
212.858154 -258.111176 10.221991 1.000000
212.858154 -258.111176 9.089312 1.000000
212.858154 -258.111176 7.972535 1.000000
212.858154 -258.111176 6.868986 1.000000
212.858154 -258.111176 5.776100 1.000000
212.858154 -258.111176 4.691417 1.000000
212.858154 -258.111176 3.612541 1.000000
212.858154 -258.111176 2.537130 1.000000
212.858154 -258.111176 1.462870 1.000000
212.858154 -258.111176 0.387459 1.000000
212.516693 -249.685898 -0.000018 0.538689
