# This PCD file was generated using the MATLABÂ® pcwrite function
# from Computer Vision ToolboxÂ®.
# .PCD v.7 - Point Cloud Data file format
VERSION .7
FIELDS x y z intensity
SIZE 4 4 4 4
TYPE F F F F
COUNT 1 1 1 1
WIDTH 1269
HEIGHT 1
VIEWPOINT 0 0 0 1 0 0 0
POINTS 1269
DATA ascii
228.023315 -615.884827 -0.000008 0.540032
229.091751 -617.247437 -0.000005 0.342672
229.878937 -618.251282 -0.000003 0.331930
nan nan nan 0.000000
nan nan nan 0.000000
nan nan nan 0.000000
nan nan nan 0.000000
nan nan nan 0.000000
nan nan nan 0.000000
nan nan nan 0.000000
200.629868 -580.317505 2.914497 1.000000
200.629868 -580.317505 1.085503 1.000000
209.909927 -592.324097 0.000044 0.337713
219.889114 -605.235291 -0.000022 0.541482
224.173950 -610.778992 -0.000015 0.527764
226.560349 -613.866577 -0.000012 0.553429
228.083862 -615.837708 -0.000009 0.527001
229.142776 -617.207703 -0.000001 0.334203
229.922913 -618.217041 -0.000003 0.332555
nan nan nan 0.000000
nan nan nan 0.000000
nan nan nan 0.000000
nan nan nan 0.000000
nan nan nan 0.000000
nan nan nan 0.000000
nan nan nan 0.000000
200.799469 -579.896362 2.918274 1.000000
200.799469 -579.896362 1.081725 1.000000
210.135391 -592.151123 0.000043 0.337987
220.024216 -605.131592 -0.000023 0.546365
224.270233 -610.705139 -0.000015 0.542092
226.635025 -613.809265 -0.000011 0.525032
228.144745 -615.790955 -0.000009 0.562737
229.194077 -617.168396 0.000003 0.339010
229.967133 -618.183105 -0.000003 0.346502
nan nan nan 0.000000
nan nan nan 0.000000
nan nan nan 0.000000
nan nan nan 0.000000
nan nan nan 0.000000
nan nan nan 0.000000
nan nan nan 0.000000
200.970490 -579.471619 2.922129 1.000000
200.970490 -579.471619 1.077870 1.000000
210.361984 -591.979553 0.000036 0.337758
220.160034 -605.028870 -0.000022 0.534356
224.367035 -610.631897 -0.000015 0.531090
226.710098 -613.752502 -0.000011 0.569604
228.205948 -615.744690 -0.000008 0.516716
229.245651 -617.129395 0.000005 0.345724
230.011597 -618.149475 -0.000004 0.332433
nan nan nan 0.000000
nan nan nan 0.000000
nan nan nan 0.000000
nan nan nan 0.000000
nan nan nan 0.000000
nan nan nan 0.000000
nan nan nan 0.000000
201.142975 -579.043335 2.926062 1.000000
201.142975 -579.043335 1.073938 1.000000
210.589844 -591.809692 0.000035 0.339315
220.296555 -604.927124 -0.000022 0.547478
224.464340 -610.559387 -0.000015 0.548287
226.785568 -613.696228 -0.000011 0.518456
228.267471 -615.698853 -0.000008 0.533257
229.297470 -617.090759 0.000003 0.341970
230.056290 -618.116211 -0.000004 0.334081
nan nan nan 0.000000
nan nan nan 0.000000
nan nan nan 0.000000
nan nan nan 0.000000
nan nan nan 0.000000
nan nan nan 0.000000
nan nan nan 0.000000
201.316925 -578.611389 2.930075 1.000000
201.316925 -578.611389 1.069926 1.000000
210.818909 -591.641418 0.000036 0.338582
220.433807 -604.826294 -0.000022 0.548928
224.562164 -610.487488 -0.000015 0.527291
226.861435 -613.640503 -0.000010 0.528679
228.329315 -615.653381 -0.000008 0.528954
229.349564 -617.052490 0.000001 0.338186
230.101212 -618.083191 -0.000005 0.330083
nan nan nan 0.000000
218.095901 -601.281067 8.184482 1.000000
218.095886 -601.281067 7.210242 1.000000
218.095886 -601.281067 6.247542 1.000000
218.095901 -601.281067 5.294144 1.000000
218.095886 -601.281067 4.347903 1.000000
218.095886 -601.281067 3.406728 1.000000
218.095886 -601.281067 2.468575 1.000000
218.095886 -601.281067 1.531426 1.000000
218.095886 -601.281067 0.593272 1.000000
220.571732 -604.726440 -0.000022 0.554437
224.660477 -610.416321 -0.000015 0.545296
226.937683 -613.585327 -0.000011 0.536767
228.391479 -615.608398 -0.000009 0.541436
229.401932 -617.014526 0.000000 0.325048
230.146362 -618.050476 -0.000004 0.342641
218.750946 -601.860229 8.959194 1.000000
218.750946 -601.860229 8.000480 1.000000
218.750946 -601.860229 7.055225 1.000000
218.750946 -601.860229 6.121170 1.000000
218.750946 -601.860229 5.196139 1.000000
218.750946 -601.860229 4.278048 1.000000
218.750946 -601.860229 3.364875 1.000000
218.750946 -601.860229 2.454633 1.000000
218.750946 -601.860229 1.545367 1.000000
218.750946 -601.860229 0.635125 1.000000
220.710373 -604.627563 -0.000022 0.539147
224.759293 -610.345886 -0.000015 0.537453
227.014313 -613.530640 -0.000011 0.515267
228.453949 -615.563843 -0.000008 0.542840
229.454575 -616.977051 0.000005 0.331655
230.191742 -618.018127 -0.000004 0.332708
219.368164 -602.406006 8.758451 1.000000
219.368164 -602.406006 7.827394 1.000000
219.368164 -602.406006 6.909407 1.000000
219.368164 -602.406006 6.002292 1.000000
219.368164 -602.406006 5.103944 1.000000
219.368164 -602.406006 4.212337 1.000000
219.368164 -602.406006 3.325504 1.000000
219.368164 -602.406006 2.441519 1.000000
219.368164 -602.406006 1.558481 1.000000
219.368164 -602.406006 0.674495 1.000000
220.849686 -604.529663 -0.000022 0.536645
224.858597 -610.276062 -0.000015 0.537148
227.091324 -613.476501 -0.000011 0.547021
228.516724 -615.519714 -0.000008 0.522927
229.507477 -616.939880 0.000009 0.336187
230.237350 -617.986084 -0.000004 0.349935
219.950821 -602.921204 8.569273 1.000000
219.950821 -602.921204 7.664275 1.000000
219.950806 -602.921204 6.771985 1.000000
219.950821 -602.921204 5.890260 1.000000
219.950806 -602.921204 5.017059 1.000000
219.950821 -602.921204 4.150410 1.000000
219.950821 -602.921204 3.288401 1.000000
219.950806 -602.921143 2.429161 1.000000
219.950806 -602.921143 1.570840 1.000000
219.950806 -602.921204 0.711599 1.000000
220.989685 -604.432678 -0.000022 0.541329
224.958374 -610.206970 -0.000015 0.526299
227.168716 -613.422913 -0.000010 0.515465
228.579819 -615.476013 -0.000008 0.583001
229.560608 -616.903076 0.000004 0.338079
230.283173 -617.954346 -0.000004 0.336141
220.501755 -603.408325 8.390703 1.000000
220.501740 -603.408325 7.510305 1.000000
220.501740 -603.408325 6.642269 1.000000
220.501755 -603.408325 5.784513 1.000000
220.501740 -603.408325 4.935048 1.000000
220.501740 -603.408325 4.091956 1.000000
220.501755 -603.408325 3.253378 1.000000
220.501740 -603.408325 2.417495 1.000000
220.501740 -603.408325 1.582505 1.000000
220.501740 -603.408325 0.746621 1.000000
221.130356 -604.336731 -0.000022 0.546197
225.058640 -610.138611 -0.000014 0.530465
227.246460 -613.369873 -0.000011 0.518761
228.643204 -615.432800 -0.000008 0.542199
229.614014 -616.866638 0.000005 0.306188
230.329224 -617.922913 -0.000003 0.337896
221.023560 -603.869690 8.221872 1.000000
221.023560 -603.869690 7.364734 1.000000
221.023560 -603.869690 6.519628 1.000000
221.023560 -603.869690 5.684533 1.000000
221.023560 -603.869690 4.857509 1.000000
221.023560 -603.869690 4.036690 1.000000
221.023560 -603.869690 3.220267 1.000000
221.023560 -603.869690 2.406465 1.000000
221.023560 -603.869690 1.593535 1.000000
221.023560 -603.869690 0.779733 1.000000
221.271698 -604.241760 -0.000022 0.529458
225.159378 -610.070862 -0.000015 0.533227
227.324600 -613.317383 -0.000010 0.522622
228.706894 -615.390015 -0.000008 0.548867
229.667694 -616.830566 0.000010 0.327382
230.375488 -617.891846 -0.000002 0.343252
221.518539 -604.307373 8.062023 1.000000
221.518539 -604.307373 7.226904 1.000000
221.518539 -604.307373 6.403511 1.000000
221.518539 -604.307373 5.589871 1.000000
221.518539 -604.307373 4.784094 1.000000
221.518539 -604.307373 3.984364 1.000000
221.518539 -604.307373 3.188916 1.000000
221.518539 -604.307373 2.396022 1.000000
221.518539 -604.307373 1.603978 1.000000
221.518539 -604.307373 0.811084 1.000000
221.518539 -604.307373 0.015635 1.000000
225.260590 -610.003906 -0.000015 0.538308
227.403091 -613.265442 -0.000010 0.555825
228.770889 -615.347656 -0.000008 0.554482
229.721588 -616.794922 0.000007 0.342138
230.421982 -617.861084 0.000000 0.331121
221.988739 -604.723083 7.910463 1.000000
221.988724 -604.723083 7.096227 1.000000
221.988724 -604.723083 6.293419 1.000000
221.988724 -604.723083 5.500121 1.000000
221.988724 -604.723083 4.714489 1.000000
221.988724 -604.723083 3.934753 1.000000
221.988724 -604.723083 3.159192 1.000000
221.988724 -604.723083 2.386122 1.000000
221.988724 -604.723083 1.613879 1.000000
221.988724 -604.723083 0.840808 1.000000
221.988724 -604.723083 0.065246 1.000000
225.362259 -609.937622 -0.000015 0.543633
227.481934 -613.214050 -0.000010 0.511589
228.835175 -615.305725 -0.000008 0.543694
229.775711 -616.759521 -0.000010 0.330205
230.468674 -617.830627 0.000002 0.341772
222.436005 -605.118591 7.766573 1.000000
222.436005 -605.118591 6.972156 1.000000
222.436005 -605.118591 6.188893 1.000000
222.436005 -605.118591 5.414909 1.000000
222.436005 -605.118591 4.648404 1.000000
222.436005 -605.118591 3.887651 1.000000
222.436005 -605.118591 3.130972 1.000000
222.436005 -605.118591 2.376721 1.000000
222.436005 -605.118591 1.623279 1.000000
222.436005 -605.118591 0.869028 1.000000
222.436005 -605.118591 0.112349 1.000000
225.464401 -609.872070 -0.000014 0.536873
227.561157 -613.163147 -0.000010 0.554818
228.899750 -615.264282 -0.000007 0.528237
229.830109 -616.724609 -0.000010 0.332296
230.515594 -617.800537 0.000004 0.347662
222.862045 -605.495300 7.629789 1.000000
222.862045 -605.495300 6.854218 1.000000
222.862045 -605.495300 6.089534 1.000000
222.862045 -605.495300 5.333908 1.000000
222.862045 -605.495300 4.585585 1.000000
222.862045 -605.495300 3.842876 1.000000
222.862045 -605.495300 3.104145 1.000000
222.862045 -605.495300 2.367785 1.000000
222.862045 -605.495300 1.632215 1.000000
222.862045 -605.495300 0.895855 1.000000
222.862045 -605.495300 0.157123 1.000000
225.566986 -609.807190 -0.000014 0.540764
227.640717 -613.112854 -0.000010 0.528252
228.964600 -615.223267 -0.000008 0.543084
229.884766 -616.690063 -0.000004 0.338537
230.562714 -617.770752 0.000005 0.341970
223.268356 -605.854553 7.499603 1.000000
223.268372 -605.854553 6.741966 1.000000
223.268372 -605.854553 5.994966 1.000000
223.268356 -605.854553 5.256813 1.000000
223.268356 -605.854553 4.525795 1.000000
223.268356 -605.854553 3.800261 1.000000
223.268356 -605.854553 3.078611 1.000000
223.268356 -605.854553 2.359280 1.000000
223.268356 -605.854553 1.640720 1.000000
223.268356 -605.854553 0.921388 1.000000
223.268356 -605.854553 0.199739 1.000000
225.670029 -609.743042 -0.000014 0.526635
227.720627 -613.063110 -0.000010 0.536629
229.029755 -615.182739 -0.000007 0.531670
229.939651 -616.655884 -0.000004 0.329488
230.610031 -617.741333 0.000005 0.328679
223.656326 -606.197571 7.375562 1.000000
223.656326 -606.197571 6.635012 1.000000
223.656326 -606.197571 5.904860 1.000000
223.656326 -606.197571 5.183357 1.000000
223.656326 -606.197571 4.468825 1.000000
223.656326 -606.197571 3.759656 1.000000
223.656326 -606.197571 3.054284 1.000000
223.656326 -606.197571 2.351177 1.000000
223.656326 -606.197571 1.648823 1.000000
223.656326 -606.197571 0.945716 1.000000
223.656326 -606.197571 0.240343 1.000000
225.773514 -609.679626 -0.000014 0.554299
227.800888 -613.013977 -0.000010 0.541268
229.095184 -615.142639 -0.000008 0.546548
229.994766 -616.622131 -0.000005 0.339529
230.657562 -617.712158 0.000004 0.329885
224.027206 -606.525513 7.257240 1.000000
224.027206 -606.525513 6.532990 1.000000
224.027206 -606.525513 5.818911 1.000000
224.027191 -606.525513 5.113289 1.000000
224.027206 -606.525513 4.414484 1.000000
224.027206 -606.525513 3.720924 1.000000
224.027206 -606.525513 3.031078 1.000000
224.027206 -606.525513 2.343447 1.000000
224.027206 -606.525513 1.656553 1.000000
224.027206 -606.525513 0.968921 1.000000
224.027206 -606.525513 0.279075 1.000000
225.877441 -609.616943 -0.000014 0.538262
227.881485 -612.965332 -0.000010 0.545113
229.160889 -615.102966 -0.000007 0.522072
230.050125 -616.588745 -0.000005 0.336324
230.705276 -617.683411 0.000002 0.339040
224.382095 -606.839294 7.144266 1.000000
224.382111 -606.839355 6.435577 1.000000
224.382111 -606.839355 5.736842 1.000000
224.382111 -606.839294 5.046384 1.000000
224.382111 -606.839294 4.362598 1.000000
224.382111 -606.839294 3.683942 1.000000
224.382111 -606.839294 3.008921 1.000000
224.382111 -606.839294 2.336067 1.000000
224.382111 -606.839294 1.663933 1.000000
224.382111 -606.839294 0.991079 1.000000
224.382111 -606.839294 0.316057 1.000000
225.981796 -609.554993 -0.000014 0.553460
227.962418 -612.917297 -0.000010 0.527794
229.226868 -615.063782 -0.000007 0.559930
230.105713 -616.555725 -0.000005 0.333562
230.753204 -617.654907 0.000001 0.334371
224.722107 -607.139954 7.036280 1.000000
224.722107 -607.139954 6.342470 1.000000
224.722107 -607.139954 5.658403 1.000000
224.722107 -607.139954 4.982437 1.000000
224.722107 -607.139954 4.313004 1.000000
224.722107 -607.139954 3.648594 1.000000
224.722107 -607.139954 2.987742 1.000000
224.722107 -607.139954 2.329012 1.000000
224.722107 -607.139954 1.670988 1.000000
224.722107 -607.139954 1.012258 1.000000
224.722107 -607.139954 0.351405 1.000000
226.086594 -609.493713 -0.000014 0.551812
228.043686 -612.869751 -0.000010 0.552346
229.293121 -615.025085 -0.000007 0.577264
230.161530 -616.523132 -0.000005 0.339406
230.801331 -617.626770 -0.000001 0.353857
225.048126 -607.428223 6.932971 1.000000
225.048126 -607.428223 6.253394 1.000000
225.048126 -607.428223 5.583358 1.000000
225.048126 -607.428223 4.921258 1.000000
225.048126 -607.428223 4.265557 1.000000
225.048126 -607.428223 3.614777 1.000000
225.048126 -607.428223 2.967480 1.000000
225.048126 -607.428223 2.322263 1.000000
225.048126 -607.428223 1.677737 1.000000
225.048126 -607.428223 1.032519 1.000000
225.048126 -607.428223 0.385223 1.000000
226.191803 -609.433228 -0.000013 0.540749
228.125290 -612.822876 -0.000010 0.542260
229.359650 -614.986816 -0.000007 0.537835
230.217575 -616.490906 -0.000005 0.335378
230.849655 -617.598999 -0.000002 0.340383
225.361069 -607.704895 6.834045 1.000000
225.361069 -607.704895 6.168097 1.000000
225.361069 -607.704895 5.511497 1.000000
225.361069 -607.704895 4.862676 1.000000
225.361069 -607.704895 4.220124 1.000000
225.361069 -607.704895 3.582394 1.000000
225.361069 -607.704895 2.948079 1.000000
225.361069 -607.704895 2.315800 1.000000
225.361069 -607.704895 1.684199 1.000000
225.361069 -607.704895 1.051921 1.000000
225.361069 -607.704895 0.417605 1.000000
226.297440 -609.373474 -0.000014 0.549889
228.207214 -612.776489 -0.000010 0.550546
229.426437 -614.949036 -0.000008 0.560800
230.273834 -616.459045 -0.000005 0.334661
230.898163 -617.571533 -0.000005 0.336812
225.661713 -607.970764 6.739238 1.000000
225.661713 -607.970764 6.086350 1.000000
225.661713 -607.970764 5.442630 1.000000
225.661713 -607.970764 4.806531 1.000000
225.661713 -607.970764 4.176582 1.000000
225.661713 -607.970764 3.551359 1.000000
225.661713 -607.970764 2.929484 1.000000
225.661713 -607.970764 2.309607 1.000000
225.661713 -607.970764 1.690393 1.000000
225.661713 -607.970764 1.070515 1.000000
225.661713 -607.970764 0.448640 1.000000
226.403503 -609.314453 -0.000013 0.551781
228.289459 -612.730713 -0.000009 0.536019
229.493484 -614.911743 -0.000007 0.538262
230.330322 -616.427612 -0.000003 0.337179
230.946869 -617.544434 -0.000005 0.331609
225.950821 -608.226379 6.648298 1.000000
225.950806 -608.226379 6.007938 1.000000
225.950821 -608.226379 5.376568 1.000000
225.950821 -608.226379 4.752677 1.000000
225.950821 -608.226379 4.134816 1.000000
225.950806 -608.226379 3.521591 1.000000
225.950821 -608.226379 2.911649 1.000000
225.950821 -608.226379 2.303666 1.000000
225.950821 -608.226379 1.696334 1.000000
225.950806 -608.226379 1.088351 1.000000
225.950806 -608.226379 0.478408 1.000000
226.509964 -609.256165 -0.000013 0.551476
228.372025 -612.685547 -0.000010 0.534997
229.560791 -614.874878 -0.000007 0.552254
230.387039 -616.396545 -0.000001 0.339529
230.995758 -617.517639 -0.000006 0.337606
226.229034 -608.472351 6.561003 1.000000
226.229034 -608.472351 5.932668 1.000000
226.229034 -608.472351 5.313156 1.000000
226.229034 -608.472351 4.700983 1.000000
226.229034 -608.472351 4.094724 1.000000
226.229034 -608.472351 3.493014 1.000000
226.229034 -608.472351 2.894528 1.000000
226.229034 -608.472351 2.297963 1.000000
226.229034 -608.472351 1.702037 1.000000
226.229034 -608.472351 1.105472 1.000000
226.229034 -608.472351 0.506985 1.000000
226.616821 -609.198608 -0.000013 0.528069
228.454895 -612.640869 -0.000010 0.548318
229.628357 -614.838501 -0.000007 0.517998
230.443954 -616.365906 0.000001 0.341405
231.044830 -617.491211 -0.000007 0.341848
226.497009 -608.709351 6.477138 1.000000
226.497009 -608.709351 5.860357 1.000000
226.497009 -608.709290 5.252237 1.000000
226.497009 -608.709351 4.651319 1.000000
226.497009 -608.709290 4.056208 1.000000
226.497009 -608.709351 3.465563 1.000000
226.497009 -608.709351 2.878080 1.000000
226.497009 -608.709351 2.292484 1.000000
226.497009 -608.709351 1.707516 1.000000
226.497009 -608.709351 1.121920 1.000000
226.497009 -608.709351 0.534437 1.000000
226.724091 -609.141785 -0.000013 0.546288
228.538086 -612.596863 -0.000010 0.537743
229.696167 -614.802612 -0.000007 0.537728
230.501099 -616.335693 0.000003 0.337026
231.094086 -617.465149 -0.000008 0.337972
226.755325 -608.937744 6.396512 1.000000
226.755325 -608.937744 5.790838 1.000000
226.755325 -608.937744 5.193671 1.000000
226.755325 -608.937744 4.603573 1.000000
226.755325 -608.937744 4.019179 1.000000
226.755325 -608.937744 3.439170 1.000000
226.755325 -608.937744 2.862268 1.000000
226.755325 -608.937744 2.287217 1.000000
226.755325 -608.937744 1.712783 1.000000
226.755325 -608.937744 1.137732 1.000000
226.755325 -608.937744 0.560829 1.000000
226.831741 -609.085754 -0.000013 0.546059
228.621582 -612.553406 -0.000009 0.526131
229.764236 -614.767151 -0.000006 0.518608
230.558441 -616.305847 0.000005 0.326268
231.143539 -617.439392 -0.000009 0.341680
227.004517 -609.158081 6.318946 1.000000
227.004517 -609.158081 5.723960 1.000000
227.004517 -609.158081 5.137325 1.000000
227.004517 -609.158081 4.557639 1.000000
227.004517 -609.158081 3.983556 1.000000
227.004517 -609.158020 3.413780 1.000000
227.004517 -609.158020 2.847055 1.000000
227.004517 -609.158081 2.282150 1.000000
227.004517 -609.158081 1.717850 1.000000
227.004517 -609.158020 1.152945 1.000000
227.004517 -609.158020 0.586220 1.000000
227.004517 -609.158081 0.016444 1.000000
228.705383 -612.510498 -0.000009 0.526894
229.832550 -614.732178 -0.000007 0.560418
230.615997 -616.276367 0.000005 0.338994
231.193161 -617.414001 -0.000010 0.327337
227.245071 -609.370728 6.244274 1.000000
227.245071 -609.370728 5.659573 1.000000
227.245071 -609.370728 5.083081 1.000000
227.245071 -609.370728 4.513418 1.000000
227.245071 -609.370728 3.949260 1.000000
227.245071 -609.370728 3.389336 1.000000
227.245071 -609.370728 2.832409 1.000000
227.245071 -609.370728 2.277272 1.000000
227.245071 -609.370728 1.722728 1.000000
227.245071 -609.370728 1.167590 1.000000
227.245071 -609.370728 0.610663 1.000000
227.245071 -609.370728 0.050740 1.000000
228.789474 -612.468201 -0.000009 0.519615
229.901108 -614.697693 -0.000006 0.549935
230.673752 -616.247314 0.000003 0.326772
231.242950 -617.388977 -0.000009 0.342535
227.477463 -609.576233 6.172338 1.000000
227.477463 -609.576233 5.597548 1.000000
227.477463 -609.576233 5.030828 1.000000
227.477463 -609.576233 4.470819 1.000000
227.477463 -609.576233 3.916223 1.000000
227.477463 -609.576233 3.365789 1.000000
227.477463 -609.576233 2.818301 1.000000
227.477463 -609.576233 2.272572 1.000000
227.477463 -609.576233 1.727428 1.000000
227.477463 -609.576233 1.181698 1.000000
227.477463 -609.576233 0.634211 1.000000
227.477463 -609.576233 0.083777 1.000000
228.873856 -612.426514 -0.000009 0.548516
229.969894 -614.663696 -0.000007 0.558419
230.731705 -616.218689 0.000002 0.332860
231.292923 -617.364258 -0.000010 0.334279
227.702118 -609.774902 6.102997 1.000000
227.702118 -609.774902 5.537759 1.000000
227.702118 -609.774902 4.980457 1.000000
227.702118 -609.774902 4.429756 1.000000
227.702133 -609.774902 3.884377 1.000000
227.702118 -609.774902 3.343090 1.000000
227.702133 -609.774902 2.804702 1.000000
227.702118 -609.774902 2.268043 1.000000
227.702118 -609.774902 1.731958 1.000000
227.702133 -609.774902 1.195298 1.000000
227.702118 -609.774902 0.656909 1.000000
227.702133 -609.774902 0.115623 1.000000
228.958527 -612.385376 -0.000009 0.551598
230.038925 -614.630188 -0.000006 0.566308
230.789856 -616.190430 -0.000000 0.328847
231.343063 -617.339905 -0.000009 0.328786
227.919449 -609.967041 6.036119 1.000000
227.919449 -609.967041 5.480094 1.000000
227.919449 -609.967041 4.931876 1.000000
227.919449 -609.967041 4.390151 1.000000
227.919434 -609.967041 3.853662 1.000000
227.919434 -609.967041 3.321198 1.000000
227.919434 -609.967041 2.791585 1.000000
227.919449 -609.967041 2.263674 1.000000
227.919449 -609.967041 1.736327 1.000000
227.919434 -609.967041 1.208414 1.000000
227.919434 -609.967041 0.678801 1.000000
227.919434 -609.967041 0.146338 1.000000
229.043488 -612.344849 -0.000009 0.549493
230.108185 -614.597168 -0.000006 0.523232
230.848190 -616.162598 -0.000002 0.341787
231.393387 -617.315918 -0.000008 0.327749
228.129807 -610.153015 5.971575 1.000000
228.129807 -610.153015 5.424441 1.000000
228.129807 -610.153015 4.884991 1.000000
228.129807 -610.153015 4.351928 1.000000
228.129807 -610.153015 3.824019 1.000000
228.129807 -610.153015 3.300070 1.000000
228.129807 -610.153015 2.778927 1.000000
228.129807 -610.153015 2.259457 1.000000
228.129807 -610.153015 1.740543 1.000000
228.129807 -610.153015 1.221073 1.000000
228.129807 -610.153015 0.699930 1.000000
228.129807 -610.153015 0.175981 1.000000
229.128723 -612.304932 -0.000009 0.547311
230.177673 -614.564636 -0.000006 0.532540
230.906723 -616.135132 -0.000005 0.333333
231.443863 -617.292297 -0.000006 0.336858
228.333557 -610.333191 5.909249 1.000000
228.333557 -610.333191 5.370703 1.000000
228.333557 -610.333191 4.839717 1.000000
228.333557 -610.333191 4.315020 1.000000
228.333557 -610.333191 3.795394 1.000000
228.333557 -610.333191 3.279667 1.000000
228.333557 -610.333191 2.766703 1.000000
228.333557 -610.333191 2.255385 1.000000
228.333557 -610.333191 1.744615 1.000000
228.333557 -610.333191 1.233297 1.000000
228.333557 -610.333191 0.720332 1.000000
228.333557 -610.333191 0.204606 1.000000
229.214233 -612.265625 -0.000009 0.540642
230.247391 -614.532532 -0.000006 0.564141
230.965469 -616.108154 -0.000006 0.342473
231.494507 -617.268982 -0.000004 0.342535
228.531021 -610.507813 5.849034 1.000000
228.531021 -610.507813 5.318783 1.000000
228.531021 -610.507813 4.795976 1.000000
228.531021 -610.507813 4.279362 1.000000
228.531021 -610.507813 3.767739 1.000000
228.531021 -610.507751 3.259957 1.000000
228.531021 -610.507751 2.754893 1.000000
228.531021 -610.507813 2.251451 1.000000
228.531021 -610.507813 1.748549 1.000000
228.531021 -610.507751 1.245107 1.000000
228.531021 -610.507751 0.740042 1.000000
228.531021 -610.507813 0.232261 1.000000
229.300034 -612.226868 -0.000009 0.546136
230.317322 -614.500977 -0.000006 0.555657
231.024384 -616.081543 -0.000007 0.345922
231.545319 -617.246033 -0.000001 0.304936
228.722488 -610.677063 5.790830 1.000000
228.722488 -610.677063 5.268598 1.000000
228.722488 -610.677063 4.753696 1.000000
228.722488 -610.677063 4.244894 1.000000
228.722488 -610.677063 3.741008 1.000000
228.722488 -610.677063 3.240904 1.000000
228.722488 -610.677063 2.743478 1.000000
228.722488 -610.677063 2.247649 1.000000
228.722488 -610.677063 1.752351 1.000000
228.722488 -610.677063 1.256522 1.000000
228.722488 -610.677063 0.759095 1.000000
228.722488 -610.677063 0.258992 1.000000
229.386093 -612.188721 -0.000008 0.533562
230.387482 -614.469849 -0.000006 0.563363
231.083481 -616.055359 -0.000008 0.330083
231.596283 -617.223450 0.000001 0.337484
228.908279 -610.841370 5.734537 1.000000
228.908279 -610.841370 5.220059 1.000000
228.908279 -610.841370 4.712804 1.000000
228.908279 -610.841370 4.211557 1.000000
228.908279 -610.841370 3.715155 1.000000
228.908279 -610.841370 3.222477 1.000000
228.908279 -610.841370 2.732437 1.000000
228.908279 -610.841370 2.243972 1.000000
228.908279 -610.841370 1.756029 1.000000
228.908279 -610.841370 1.267562 1.000000
228.908279 -610.841370 0.777523 1.000000
228.908279 -610.841370 0.284845 1.000000
229.472412 -612.151184 -0.000009 0.537087
230.457855 -614.439270 -0.000006 0.540246
231.142761 -616.029541 -0.000010 0.335225
231.647400 -617.201233 0.000001 0.332128
229.088638 -611.000854 5.680070 1.000000
229.088638 -611.000854 5.173096 1.000000
229.088638 -611.000854 4.673239 1.000000
229.088638 -611.000854 4.179302 1.000000
229.088638 -611.000854 3.690140 1.000000
229.088638 -611.000854 3.204648 1.000000
229.088638 -611.000854 2.721755 1.000000
229.088638 -611.000854 2.240413 1.000000
229.088638 -611.000854 1.759587 1.000000
229.088638 -611.000854 1.278245 1.000000
229.088638 -611.000854 0.795352 1.000000
229.088638 -611.000854 0.309860 1.000000
229.558990 -612.114258 -0.000008 0.537102
230.528442 -614.409180 -0.000006 0.551385
231.202225 -616.004211 -0.000011 0.335607
231.698669 -617.179382 0.000002 0.335485
229.263809 -611.155701 5.627342 1.000000
229.263824 -611.155701 5.127631 1.000000
229.263809 -611.155701 4.634936 1.000000
229.263809 -611.155701 4.148078 1.000000
229.263809 -611.155701 3.665923 1.000000
229.263809 -611.155701 3.187387 1.000000
229.263809 -611.155701 2.711414 1.000000
229.263809 -611.155701 2.236968 1.000000
229.263809 -611.155701 1.763031 1.000000
229.263809 -611.155701 1.288586 1.000000
229.263809 -611.155701 0.812612 1.000000
229.263809 -611.155701 0.334077 1.000000
229.645828 -612.077942 -0.000008 0.552651
230.599228 -614.379578 -0.000005 0.529885
231.261871 -615.979248 -0.000011 0.347494
231.750092 -617.157898 0.000003 0.336004
229.434052 -611.306274 5.576275 1.000000
229.434052 -611.306274 5.083599 1.000000
229.434052 -611.306274 4.597841 1.000000
229.434052 -611.306274 4.117836 1.000000
229.434052 -611.306274 3.642470 1.000000
229.434052 -611.306274 3.170671 1.000000
229.434052 -611.306274 2.701398 1.000000
229.434052 -611.306274 2.233632 1.000000
229.434052 -611.306274 1.766367 1.000000
229.434052 -611.306274 1.298602 1.000000
229.434052 -611.306274 0.829329 1.000000
229.434052 -611.306274 0.357530 1.000000
229.732910 -612.042236 -0.000008 0.525826
230.670227 -614.350464 -0.000006 0.508675
231.321686 -615.954712 -0.000011 0.325048
231.801666 -617.136719 0.000004 0.332067
229.599579 -611.452576 5.526797 1.000000
229.599579 -611.452576 5.040938 1.000000
229.599579 -611.452576 4.561900 1.000000
229.599579 -611.452576 4.088536 1.000000
229.599579 -611.452576 3.619747 1.000000
229.599579 -611.452576 3.154475 1.000000
229.599579 -611.452576 2.691694 1.000000
229.599579 -611.452576 2.230400 1.000000
229.599579 -611.452576 1.769600 1.000000
229.599579 -611.452576 1.308306 1.000000
229.599579 -611.452576 0.845525 1.000000
229.599579 -611.452576 0.380253 1.000000
229.820251 -612.007080 -0.000008 0.535897
230.741425 -614.321838 -0.000005 0.561852
231.381668 -615.930603 -0.000010 0.340795
231.853394 -617.115967 0.000006 0.344717
229.760590 -611.594971 5.478836 1.000000
229.760590 -611.594971 4.999584 1.000000
229.760590 -611.594971 4.527061 1.000000
229.760590 -611.594971 4.060134 1.000000
229.760590 -611.594971 3.597719 1.000000
229.760590 -611.594971 3.138775 1.000000
229.760590 -611.594971 2.682288 1.000000
229.760590 -611.594971 2.227267 1.000000
229.760590 -611.594971 1.772733 1.000000
229.760590 -611.594971 1.317712 1.000000
229.760590 -611.594971 0.861225 1.000000
229.760590 -611.594971 0.402281 1.000000
229.907837 -611.972595 -0.000008 0.538308
230.812820 -614.293701 -0.000006 0.568368
231.441818 -615.906921 -0.000007 0.319097
231.905258 -617.095520 0.000007 0.337514
229.862427 -611.589844 5.470845 1.000000
229.862427 -611.589844 4.992694 1.000000
229.862427 -611.589844 4.521255 1.000000
229.862427 -611.589844 4.055402 1.000000
229.862427 -611.589844 3.594049 1.000000
229.862427 -611.589844 3.136159 1.000000
229.862427 -611.589844 2.680721 1.000000
229.862427 -611.589844 2.226745 1.000000
229.862427 -611.589844 1.773255 1.000000
229.862427 -611.589844 1.319279 1.000000
229.862427 -611.589844 0.863841 1.000000
229.862427 -611.589844 0.405951 1.000000
229.995651 -611.938721 -0.000008 0.527047
230.884415 -614.266052 -0.000005 0.521904
231.502136 -615.883667 -0.000005 0.345968
231.957260 -617.075439 0.000008 0.339315
229.935074 -611.507935 5.483610 1.000000
229.935059 -611.507935 5.003700 1.000000
229.935074 -611.507935 4.530529 1.000000
229.935074 -611.507935 4.062961 1.000000
229.935059 -611.507935 3.599912 1.000000
229.935059 -611.507935 3.140338 1.000000
229.935074 -611.507935 2.683224 1.000000
229.935059 -611.507935 2.227579 1.000000
229.935059 -611.507935 1.772421 1.000000
229.935074 -611.507935 1.316776 1.000000
229.935059 -611.507935 0.859662 1.000000
229.935074 -611.507935 0.400088 1.000000
230.083694 -611.905457 -0.000008 0.525200
230.956192 -614.238953 -0.000005 0.567376
231.562622 -615.860779 -0.000002 0.343496
232.009415 -617.055725 0.000008 0.338552
230.008255 -611.425415 5.496640 1.000000
230.008255 -611.425415 5.014935 1.000000
230.008255 -611.425415 4.539993 1.000000
230.008255 -611.425415 4.070677 1.000000
230.008240 -611.425415 3.605896 1.000000
230.008255 -611.425415 3.144603 1.000000
230.008240 -611.425415 2.685780 1.000000
230.008240 -611.425415 2.228430 1.000000
230.008240 -611.425415 1.771570 1.000000
230.008240 -611.425415 1.314220 1.000000
230.008255 -611.425415 0.855397 1.000000
230.008240 -611.425415 0.394104 1.000000
230.171982 -611.872803 -0.000007 0.516136
231.028168 -614.212341 -0.000005 0.511452
231.623245 -615.838379 0.000001 0.339559
232.061676 -617.036377 0.000006 0.331762
230.081985 -611.342224 5.509941 1.000000
230.081985 -611.342224 5.026403 1.000000
230.081985 -611.342224 4.549655 1.000000
230.081985 -611.342224 4.078554 1.000000
230.081985 -611.342224 3.612005 1.000000
230.081985 -611.342224 3.148957 1.000000
230.081985 -611.342224 2.688388 1.000000
230.081985 -611.342224 2.229299 1.000000
230.081985 -611.342224 1.770701 1.000000
230.081985 -611.342224 1.311611 1.000000
230.081985 -611.342224 0.851043 1.000000
230.081985 -611.342224 0.387995 1.000000
230.260483 -611.840759 -0.000008 0.519982
231.100311 -614.186157 -0.000009 0.332403
231.684036 -615.816406 0.000001 0.317494
232.114090 -617.017395 0.000003 0.315084
230.156281 -611.258423 5.523515 1.000000
230.156281 -611.258423 5.038108 1.000000
230.156281 -611.258423 4.559515 1.000000
230.156281 -611.258423 4.086592 1.000000
230.156281 -611.258423 3.618239 1.000000
230.156281 -611.258423 3.153400 1.000000
230.156281 -611.258423 2.691051 1.000000
230.156281 -611.258423 2.230186 1.000000
230.156281 -611.258423 1.769814 1.000000
230.156281 -611.258423 1.308949 1.000000
230.156281 -611.258423 0.846599 1.000000
230.156281 -611.258423 0.381761 1.000000
230.349213 -611.809326 -0.000008 0.533059
231.172638 -614.160522 -0.000011 0.339696
231.744980 -615.794800 0.000003 0.338628
232.166626 -616.998779 0.000000 0.341070
230.231171 -611.173950 5.537368 1.000000
230.231171 -611.173950 5.050052 1.000000
230.231171 -611.173950 4.569578 1.000000
230.231171 -611.173950 4.094795 1.000000
230.231171 -611.173950 3.624601 1.000000
230.231171 -611.173950 3.157935 1.000000
230.231171 -611.173950 2.693768 1.000000
230.231171 -611.173950 2.231091 1.000000
230.231171 -611.173950 1.768909 1.000000
230.231171 -611.173950 1.306232 1.000000
230.231171 -611.173950 0.842065 1.000000
230.231171 -611.173950 0.375399 1.000000
230.438156 -611.778503 -0.000007 0.515465
231.262985 -614.187500 0.010002 1.000000
231.806076 -615.773682 0.000004 0.336446
232.219299 -616.980530 -0.000003 0.335378
230.306641 -611.088867 5.551503 1.000000
230.306641 -611.088867 5.062239 1.000000
230.306641 -611.088867 4.579846 1.000000
230.306641 -611.088867 4.103166 1.000000
230.306641 -611.088867 3.631093 1.000000
230.306641 -611.088867 3.162562 1.000000
230.306641 -611.088867 2.696540 1.000000
230.306641 -611.088867 2.232014 1.000000
230.306641 -611.088867 1.767986 1.000000
230.306641 -611.088867 1.303460 1.000000
230.306641 -611.088867 0.837438 1.000000
230.306641 -611.088867 0.368907 1.000000
230.527313 -611.748352 -0.000008 0.533455
231.335297 -614.163025 0.010000 1.000000
231.867310 -615.752930 0.000006 0.348592
232.272095 -616.962646 -0.000006 0.344045
230.382736 -611.003052 5.565927 1.000000
230.382736 -611.003052 5.074677 1.000000
230.382736 -611.003052 4.590324 1.000000
230.382736 -611.003052 4.111708 1.000000
230.382736 -611.003052 3.637717 1.000000
230.382736 -611.003052 3.167283 1.000000
230.382736 -611.003052 2.699368 1.000000
230.382736 -611.003052 2.232956 1.000000
230.382736 -611.003052 1.767044 1.000000
230.382736 -611.003052 1.300631 1.000000
230.382736 -611.003052 0.832716 1.000000
230.382736 -611.003052 0.362283 1.000000
230.616684 -611.718811 -0.000007 0.533852
231.407791 -614.139038 0.009998 1.000000
231.928696 -615.732666 0.000007 0.331853
232.325012 -616.945129 -0.000009 0.339620
nan nan nan 0.000000
nan nan nan 0.000000
nan nan nan 0.000000
nan nan nan 0.000000
nan nan nan 0.000000
261.739166 -708.923523 9.263378 1.000000
261.739166 -708.923523 6.351794 1.000000
245.916168 -659.346191 2.597966 1.000000
245.916168 -659.346191 1.402034 1.000000
245.916153 -659.346191 0.204821 1.000000
242.222000 -647.771484 -0.000013 0.538537
240.091629 -641.096497 0.000008 0.536019
238.905136 -637.378967 0.000016 0.527932
238.147690 -635.005676 0.000014 0.522469
237.621231 -633.356140 0.000013 0.600916
237.233368 -632.140869 0.000011 0.530236
nan nan nan 0.000000
nan nan nan 0.000000
nan nan nan 0.000000
nan nan nan 0.000000
nan nan nan 0.000000
261.249390 -709.430664 9.290960 1.000000
261.249420 -709.430664 6.368323 1.000000
245.463898 -658.752075 2.586468 1.000000
245.463898 -658.752075 1.413532 1.000000
245.463898 -658.752075 0.239339 1.000000
242.059601 -647.822693 -0.000014 0.541527
239.975876 -641.132996 0.000008 0.560937
238.815369 -637.407288 0.000016 0.542931
238.074509 -635.028748 0.000014 0.556237
237.559586 -633.375610 0.000012 0.513893
237.180206 -632.157654 0.000011 0.520623
nan nan nan 0.000000
nan nan nan 0.000000
nan nan nan 0.000000
nan nan nan 0.000000
nan nan nan 0.000000
260.755890 -709.941772 9.319117 1.000000
260.755890 -709.941772 6.385190 1.000000
245.028702 -658.180359 2.575431 1.000000
245.028702 -658.180359 1.424568 1.000000
245.028702 -658.180359 0.272471 1.000000
241.896835 -647.872803 -0.000014 0.545937
239.859863 -641.168701 0.000007 0.539498
238.725403 -637.434937 0.000016 0.548806
238.001160 -635.051331 0.000014 0.537331
237.497787 -633.394653 0.000012 0.516625
237.126923 -632.174011 0.000011 0.534066
nan nan nan 0.000000
nan nan nan 0.000000
nan nan nan 0.000000
nan nan nan 0.000000
nan nan nan 0.000000
260.258545 -710.456787 9.347845 1.000000
260.258545 -710.456787 6.402403 1.000000
244.609543 -657.629700 2.564830 1.000000
244.609543 -657.629700 1.435170 1.000000
244.609543 -657.629700 0.304299 1.000000
241.733734 -647.921692 -0.000014 0.530648
239.743622 -641.203552 0.000007 0.544732
238.635254 -637.461975 0.000016 0.569543
237.927673 -635.073364 0.000014 0.534188
237.435867 -633.413208 0.000012 0.556817
237.073532 -632.190063 0.000011 0.479988
nan nan nan 0.000000
nan nan nan 0.000000
nan nan nan 0.000000
nan nan nan 0.000000
nan nan nan 0.000000
259.757233 -710.975952 9.377165 1.000000
259.757233 -710.975952 6.419970 1.000000
244.205536 -657.098999 2.554639 1.000000
244.205536 -657.098999 1.445361 1.000000
244.205536 -657.098999 0.334894 1.000000
241.570297 -647.969543 -0.000015 0.532204
239.627121 -641.237671 0.000007 0.520439
238.544907 -637.488403 0.000016 0.522316
237.854019 -635.094910 0.000014 0.580667
237.373825 -633.431335 0.000012 0.526848
237.020035 -632.205688 0.000011 0.499138
nan nan nan 0.000000
nan nan nan 0.000000
nan nan nan 0.000000
nan nan nan 0.000000
nan nan nan 0.000000
259.251892 -711.499268 9.407080 1.000000
259.251892 -711.499268 6.437892 1.000000
243.815826 -656.587036 2.544835 1.000000
243.815826 -656.587036 1.455165 1.000000
243.815826 -656.587036 0.364328 1.000000
241.406525 -648.016174 -0.000015 0.533410
239.510406 -641.270874 0.000006 0.534783
238.454376 -637.514221 0.000016 0.550683
237.780212 -635.115967 0.000014 0.567254
237.311646 -633.449036 0.000012 0.565103
236.966431 -632.220947 0.000011 0.551736
nan nan nan 0.000000
nan nan nan 0.000000
nan nan nan 0.000000
nan nan nan 0.000000
nan nan nan 0.000000
258.742401 -712.026855 9.437603 1.000000
258.742401 -712.026855 6.456180 1.000000
243.439651 -656.092834 2.535396 1.000000
243.439651 -656.092834 1.464603 1.000000
243.439651 -656.092834 0.392662 1.000000
241.242432 -648.061707 -0.000015 0.543191
239.393448 -641.303345 0.000007 0.544289
238.363678 -637.539368 0.000016 0.567666
237.706268 -635.136475 0.000014 0.533516
237.249359 -633.466309 0.000012 0.511162
236.912720 -632.235840 0.000011 0.533516
nan nan nan 0.000000
nan nan nan 0.000000
nan nan nan 0.000000
nan nan nan 0.000000
nan nan nan 0.000000
nan nan nan 0.000000
nan nan nan 0.000000
243.076263 -655.615479 2.526305 1.000000
243.076263 -655.615479 1.473695 1.000000
243.076248 -655.615479 0.419956 1.000000
241.078033 -648.106079 -0.000015 0.540337
239.276260 -641.334961 0.000006 0.532326
238.272797 -637.563904 0.000016 0.526055
237.632187 -635.156433 0.000014 0.545953
237.186935 -633.483154 0.000012 0.596735
236.858902 -632.250366 0.000011 0.546593
nan nan nan 0.000000
nan nan nan 0.000000
nan nan nan 0.000000
nan nan nan 0.000000
nan nan nan 0.000000
nan nan nan 0.000000
nan nan nan 0.000000
242.724976 -655.153992 2.517543 1.000000
242.724976 -655.153992 1.482458 1.000000
242.724976 -655.153992 0.446264 1.000000
240.913315 -648.149292 -0.000015 0.538476
239.158875 -641.365784 0.000006 0.526574
238.181747 -637.587769 0.000016 0.540261
237.557968 -635.175903 0.000014 0.561807
237.124405 -633.499573 0.000012 0.545007
236.804977 -632.264526 0.000011 0.578500
nan nan nan 0.000000
nan nan nan 0.000000
nan nan nan 0.000000
nan nan nan 0.000000
nan nan nan 0.000000
nan nan nan 0.000000
nan nan nan 0.000000
242.385193 -654.707642 2.509090 1.000000
242.385193 -654.707642 1.490909 1.000000
242.385193 -654.707642 0.471636 1.000000
240.748306 -648.191345 -0.000016 0.536736
239.041260 -641.395752 0.000005 0.540185
238.090546 -637.611023 0.000016 0.549889
237.483612 -635.194885 0.000014 0.556512
237.061768 -633.515564 0.000013 0.533806
236.750961 -632.278320 0.000011 0.492699
nan nan nan 0.000000
nan nan nan 0.000000
nan nan nan 0.000000
nan nan nan 0.000000
nan nan nan 0.000000
nan nan nan 0.000000
nan nan nan 0.000000
242.056320 -654.275574 2.500935 1.000000
242.056320 -654.275574 1.499065 1.000000
242.056320 -654.275574 0.496120 1.000000
240.583008 -648.232239 -0.000016 0.537545
238.923447 -641.424927 0.000005 0.558541
237.999176 -637.633606 0.000016 0.537484
237.409119 -635.213318 0.000014 0.524163
236.999008 -633.531067 0.000013 0.562341
236.696854 -632.291687 0.000011 0.524285
nan nan nan 0.000000
nan nan nan 0.000000
nan nan nan 0.000000
nan nan nan 0.000000
nan nan nan 0.000000
nan nan nan 0.000000
nan nan nan 0.000000
241.737793 -653.857178 2.493059 1.000000
241.737793 -653.857178 1.506940 1.000000
241.737793 -653.857178 0.519763 1.000000
240.417435 -648.272034 -0.000017 0.529442
238.805420 -641.453247 0.000005 0.526711
237.907639 -637.655579 0.000017 0.553475
237.334503 -635.231201 0.000014 0.536919
236.936142 -633.546204 0.000012 0.552773
236.642654 -632.304688 0.000011 0.532418
nan nan nan 0.000000
nan nan nan 0.000000
nan nan nan 0.000000
nan nan nan 0.000000
nan nan nan 0.000000
nan nan nan 0.000000
nan nan nan 0.000000
241.429108 -653.451660 2.485452 1.000000
241.429108 -653.451660 1.514548 1.000000
241.429123 -653.451660 0.542603 1.000000
240.251572 -648.310608 -0.000016 0.539666
238.687210 -641.480774 0.000005 0.531563
237.815964 -637.676941 0.000016 0.556649
237.259766 -635.248596 0.000014 0.546410
236.873184 -633.560852 0.000013 0.561288
236.588364 -632.317322 0.000011 0.565744
nan nan nan 0.000000
nan nan nan 0.000000
nan nan nan 0.000000
nan nan nan 0.000000
nan nan nan 0.000000
nan nan nan 0.000000
nan nan nan 0.000000
241.129807 -653.058472 2.478099 1.000000
241.129807 -653.058472 1.521902 1.000000
241.129807 -653.058472 0.564679 1.000000
240.085464 -648.348083 -0.000017 0.540078
238.568817 -641.507446 0.000005 0.554528
237.724136 -637.697632 0.000016 0.531991
237.184906 -635.265503 0.000014 0.554788
236.810120 -633.575073 0.000012 0.502464
236.533981 -632.329590 0.000011 0.482094
nan nan nan 0.000000
nan nan nan 0.000000
nan nan nan 0.000000
nan nan nan 0.000000
nan nan nan 0.000000
nan nan nan 0.000000
nan nan nan 0.000000
240.839417 -652.676941 2.470986 1.000000
240.839417 -652.676941 1.529013 1.000000
240.839417 -652.676941 0.586030 1.000000
239.919083 -648.384338 -0.000018 0.536446
238.450226 -641.533264 0.000005 0.544167
237.632172 -637.717712 0.000017 0.523354
237.109940 -635.281799 0.000014 0.536782
236.746948 -633.588806 0.000013 0.560693
236.479523 -632.341492 0.000011 0.551904
nan nan nan 0.000000
nan nan nan 0.000000
nan nan nan 0.000000
nan nan nan 0.000000
nan nan nan 0.000000
nan nan nan 0.000000
nan nan nan 0.000000
240.557526 -652.306641 2.464106 1.000000
240.557526 -652.306641 1.535894 1.000000
240.557526 -652.306641 0.606688 1.000000
239.752457 -648.419434 -0.000017 0.540307
238.331467 -641.558350 0.000005 0.540932
237.540070 -637.737122 0.000016 0.562234
237.034851 -635.297668 0.000014 0.513191
236.683701 -633.602173 0.000013 0.511727
236.424988 -632.352966 0.000011 0.468330
nan nan nan 0.000000
nan nan nan 0.000000
nan nan nan 0.000000
nan nan nan 0.000000
nan nan nan 0.000000
nan nan nan 0.000000
nan nan nan 0.000000
240.283722 -651.946960 2.457445 1.000000
240.283722 -651.946960 1.542555 1.000000
240.283722 -651.946960 0.626684 1.000000
239.585587 -648.453430 -0.000018 0.539345
238.212540 -641.582520 0.000004 0.541680
237.447830 -637.755859 0.000016 0.557565
236.959656 -635.312927 0.000014 0.520195
236.620346 -633.615051 0.000013 0.496544
236.370361 -632.364075 0.000011 0.536370
nan nan nan 0.000000
nan nan nan 0.000000
nan nan nan 0.000000
nan nan nan 0.000000
nan nan nan 0.000000
nan nan nan 0.000000
nan nan nan 0.000000
240.017670 -651.597473 2.450994 1.000000
240.017670 -651.597473 1.549006 1.000000
240.017670 -651.597473 0.646050 1.000000
239.418488 -648.486206 -0.000019 0.543465
238.093445 -641.605896 0.000004 0.552361
237.355469 -637.773987 0.000016 0.571191
236.884354 -635.327759 0.000014 0.522515
236.556915 -633.627502 0.000012 0.549371
236.315659 -632.374817 0.000011 0.500587
nan nan nan 0.000000
nan nan nan 0.000000
nan nan nan 0.000000
nan nan nan 0.000000
nan nan nan 0.000000
nan nan nan 0.000000
nan nan nan 0.000000
239.759003 -651.257629 2.444745 1.000000
239.759003 -651.257629 1.555256 1.000000
239.759003 -651.257629 0.664813 1.000000
239.251160 -648.517822 -0.000018 0.553063
237.974182 -641.628418 0.000004 0.558846
237.262970 -637.791443 0.000017 0.551522
236.808945 -635.341980 0.000014 0.531197
236.493378 -633.639465 0.000012 0.526635
236.260895 -632.385193 0.000011 0.505608
nan nan nan 0.000000
nan nan nan 0.000000
nan nan nan 0.000000
nan nan nan 0.000000
nan nan nan 0.000000
nan nan nan 0.000000
nan nan nan 0.000000
239.507401 -650.927124 2.438687 1.000000
239.507401 -650.927124 1.561314 1.000000
239.507401 -650.927124 0.683000 1.000000
239.083618 -648.548279 -0.000019 0.550317
237.854767 -641.650146 0.000005 0.552285
237.170364 -637.808289 0.000016 0.555901
236.733444 -635.355713 0.000014 0.558495
236.429779 -633.651062 0.000013 0.516030
236.206039 -632.395142 0.000011 0.483253
nan nan nan 0.000000
nan nan nan 0.000000
nan nan nan 0.000000
nan nan nan 0.000000
nan nan nan 0.000000
nan nan nan 0.000000
nan nan nan 0.000000
239.262543 -650.605469 2.432812 1.000000
239.262543 -650.605469 1.567188 1.000000
239.262543 -650.605469 0.700635 1.000000
238.915878 -648.577576 -0.000019 0.536614
237.735199 -641.671021 0.000004 0.551888
237.077637 -637.824463 0.000017 0.548638
236.657852 -635.368896 0.000014 0.533272
236.366089 -633.662170 0.000013 0.519753
236.151138 -632.404724 0.000011 0.519768
nan nan nan 0.000000
nan nan nan 0.000000
nan nan nan 0.000000
nan nan nan 0.000000
nan nan nan 0.000000
nan nan nan 0.000000
nan nan nan 0.000000
239.024139 -650.292297 2.427114 1.000000
239.024139 -650.292297 1.572886 1.000000
239.024139 -650.292297 0.717744 1.000000
238.747925 -648.605652 -0.000019 0.545205
237.615494 -641.691040 0.000004 0.525414
236.984802 -637.840027 0.000017 0.544778
236.582169 -635.381531 0.000014 0.517159
236.302338 -633.672852 0.000012 0.519799
236.096161 -632.413940 0.000011 0.567178
nan nan nan 0.000000
nan nan nan 0.000000
nan nan nan 0.000000
nan nan nan 0.000000
nan nan nan 0.000000
nan nan nan 0.000000
nan nan nan 0.000000
238.791931 -649.987244 2.421583 1.000000
238.791931 -649.987244 1.578417 1.000000
238.791931 -649.987244 0.734346 1.000000
238.579773 -648.632629 -0.000019 0.539528
237.495651 -641.710266 0.000004 0.551080
236.891861 -637.854919 0.000016 0.531380
236.506409 -635.393677 0.000014 0.533562
236.238495 -633.683044 0.000013 0.521401
236.041122 -632.422729 0.000011 0.502754
nan nan nan 0.000000
nan nan nan 0.000000
nan nan nan 0.000000
nan nan nan 0.000000
nan nan nan 0.000000
nan nan nan 0.000000
nan nan nan 0.000000
238.565643 -649.689941 2.416214 1.000000
238.565643 -649.689941 1.583786 1.000000
238.565643 -649.689941 0.750463 1.000000
238.411453 -648.658386 -0.000019 0.538354
237.375671 -641.728577 0.000003 0.523674
236.798813 -637.869141 0.000016 0.534600
236.430557 -635.405334 0.000014 0.536553
236.174591 -633.692810 0.000012 0.535546
235.986023 -632.431152 0.000011 0.539864
nan nan nan 0.000000
nan nan nan 0.000000
nan nan nan 0.000000
nan nan nan 0.000000
nan nan nan 0.000000
nan nan nan 0.000000
nan nan nan 0.000000
238.345032 -649.400146 2.411000 1.000000
238.345032 -649.400146 1.589000 1.000000
238.345032 -649.400146 0.766116 1.000000
238.242950 -648.682983 -0.000020 0.545785
237.255585 -641.746155 0.000003 0.549218
236.705673 -637.882751 0.000017 0.534691
236.354630 -635.416382 0.000014 0.539834
236.110626 -633.702148 0.000012 0.554849
235.930862 -632.439209 0.000011 0.537987
nan nan nan 0.000000
nan nan nan 0.000000
nan nan nan 0.000000
nan nan nan 0.000000
nan nan nan 0.000000
nan nan nan 0.000000
nan nan nan 0.000000
238.129868 -649.117493 2.405935 1.000000
238.129868 -649.117493 1.594065 1.000000
238.129868 -649.117493 0.781323 1.000000
238.074280 -648.706360 -0.000020 0.536126
237.135361 -641.762817 0.000003 0.556603
236.612442 -637.895691 0.000016 0.545922
236.278610 -635.426941 0.000014 0.506691
236.046600 -633.711060 0.000012 0.516182
235.875656 -632.446899 0.000011 0.491188
nan nan nan 0.000000
nan nan nan 0.000000
nan nan nan 0.000000
nan nan nan 0.000000
nan nan nan 0.000000
nan nan nan 0.000000
nan nan nan 0.000000
237.919937 -648.841675 2.401013 1.000000
237.919937 -648.841675 1.598987 1.000000
237.919937 -648.841736 0.796102 1.000000
237.905441 -648.728638 -0.000020 0.543084
237.015030 -641.778687 0.000003 0.561669
236.519119 -637.907959 0.000017 0.533974
236.202530 -635.436951 0.000014 0.548058
235.982498 -633.719482 0.000012 0.510979
235.820389 -632.454163 0.000011 0.544961
nan nan nan 0.000000
nan nan nan 0.000000
nan nan nan 0.000000
nan nan nan 0.000000
nan nan nan 0.000000
nan nan nan 0.000000
nan nan nan 0.000000
237.715027 -648.572510 2.396227 1.000000
237.715027 -648.572510 1.603773 1.000000
237.715027 -648.572510 0.810470 1.000000
237.715027 -648.572510 0.014610 1.000000
236.894592 -641.793640 0.000003 0.557946
236.425720 -637.919617 0.000017 0.567575
236.126389 -635.446411 0.000014 0.519005
235.918350 -633.727478 0.000012 0.536660
235.765076 -632.461060 0.000011 0.578363
nan nan nan 0.000000
nan nan nan 0.000000
nan nan nan 0.000000
nan nan nan 0.000000
nan nan nan 0.000000
nan nan nan 0.000000
nan nan nan 0.000000
237.514938 -648.309692 2.391572 1.000000
237.514938 -648.309692 1.608427 1.000000
237.514938 -648.309692 0.824441 1.000000
237.514938 -648.309692 0.037930 1.000000
236.774048 -641.807800 0.000002 0.537835
236.332230 -637.930603 0.000016 0.542092
236.050171 -635.455383 0.000014 0.538949
235.854141 -633.735046 0.000012 0.537926
235.709702 -632.467529 0.000011 0.488838
nan nan nan 0.000000
nan nan nan 0.000000
