# This PCD file was generated using the MATLABÂ® pcwrite function
# from Computer Vision ToolboxÂ®.
# .PCD v.7 - Point Cloud Data file format
VERSION .7
FIELDS x y z intensity
SIZE 4 4 4 4
TYPE F F F F
COUNT 1 1 1 1
WIDTH 1167
HEIGHT 1
VIEWPOINT 0 0 0 1 0 0 0
POINTS 1167
DATA ascii
385.802734 -616.521423 2.145630 1.000000
385.802734 -616.521423 2.048509 1.000000
385.802734 -616.521423 1.951491 1.000000
385.802734 -616.521423 1.854370 1.000000
385.802734 -616.521423 1.756936 1.000000
385.802734 -616.521423 1.658978 1.000000
385.802734 -616.521423 1.560279 1.000000
385.802734 -616.521423 1.460617 1.000000
385.802734 -616.521423 1.359760 1.000000
385.802734 -616.521423 1.257467 1.000000
385.780823 -616.521790 2.744330 1.000000
385.780823 -616.521790 2.641790 1.000000
385.780823 -616.521790 2.540689 1.000000
385.780823 -616.521790 2.440785 1.000000
385.780823 -616.521790 2.341847 1.000000
385.780823 -616.521790 2.243652 1.000000
385.780823 -616.521790 2.145982 1.000000
385.780823 -616.521790 2.048626 1.000000
385.780823 -616.521790 1.951374 1.000000
385.780823 -616.521790 1.854018 1.000000
385.780823 -616.521790 1.756348 1.000000
385.780823 -616.521790 1.658153 1.000000
385.780823 -616.521790 1.559215 1.000000
385.780823 -616.521790 1.459311 1.000000
385.780823 -616.521790 1.358210 1.000000
385.780823 -616.521790 1.255670 1.000000
385.758789 -616.522217 2.746173 1.000000
385.758789 -616.522217 2.643378 1.000000
385.758789 -616.522217 2.542027 1.000000
385.758789 -616.522217 2.441876 1.000000
385.758789 -616.522217 2.342694 1.000000
385.758789 -616.522217 2.244255 1.000000
385.758789 -616.522217 2.146343 1.000000
385.758789 -616.522217 2.048746 1.000000
385.758789 -616.522217 1.951254 1.000000
385.758789 -616.522217 1.853657 1.000000
385.758789 -616.522217 1.755745 1.000000
385.758789 -616.522217 1.657306 1.000000
385.758789 -616.522217 1.558124 1.000000
385.758789 -616.522217 1.457973 1.000000
385.758789 -616.522217 1.356622 1.000000
385.758789 -616.522217 1.253827 1.000000
385.736633 -616.522644 2.748061 1.000000
385.736633 -616.522644 2.645006 1.000000
385.736633 -616.522644 2.543399 1.000000
385.736633 -616.522644 2.442995 1.000000
385.736633 -616.522644 2.343561 1.000000
385.736633 -616.522644 2.244873 1.000000
385.736633 -616.522644 2.146714 1.000000
385.736633 -616.522644 2.048870 1.000000
385.736633 -616.522644 1.951130 1.000000
385.736633 -616.522644 1.853286 1.000000
385.736633 -616.522644 1.755127 1.000000
385.736633 -616.522644 1.656439 1.000000
385.736633 -616.522644 1.557006 1.000000
385.736633 -616.522644 1.456602 1.000000
385.736633 -616.522644 1.354994 1.000000
385.736633 -616.522644 1.251940 1.000000
385.714386 -616.523071 2.749995 1.000000
385.714386 -616.523071 2.646674 1.000000
385.714386 -616.523071 2.544804 1.000000
385.714386 -616.523071 2.444140 1.000000
385.714386 -616.523071 2.344449 1.000000
385.714386 -616.523071 2.245506 1.000000
385.714386 -616.523071 2.147093 1.000000
385.714386 -616.523071 2.048996 1.000000
385.714386 -616.523071 1.951004 1.000000
385.714386 -616.523071 1.852907 1.000000
385.714386 -616.523071 1.754494 1.000000
385.714386 -616.523071 1.655551 1.000000
385.714386 -616.523071 1.555860 1.000000
385.714386 -616.523071 1.455196 1.000000
385.714386 -616.523071 1.353326 1.000000
385.714386 -616.523071 1.250005 1.000000
385.692017 -616.523499 2.751976 1.000000
385.692017 -616.523499 2.648382 1.000000
385.692017 -616.523499 2.546243 1.000000
385.692017 -616.523499 2.445313 1.000000
385.692017 -616.523499 2.345359 1.000000
385.692017 -616.523499 2.246155 1.000000
385.692017 -616.523499 2.147482 1.000000
385.692017 -616.523499 2.049125 1.000000
385.692017 -616.523499 1.950875 1.000000
385.692017 -616.523499 1.852518 1.000000
385.692017 -616.523499 1.753845 1.000000
385.692017 -616.523499 1.654641 1.000000
385.692017 -616.523499 1.554687 1.000000
385.692017 -616.523499 1.453757 1.000000
385.692017 -616.523499 1.351618 1.000000
385.692017 -616.523499 1.248024 1.000000
385.669525 -616.523926 2.754004 1.000000
385.669525 -616.523926 2.650131 1.000000
385.669525 -616.523926 2.547716 1.000000
385.669525 -616.523926 2.446514 1.000000
385.669525 -616.523926 2.346290 1.000000
385.669525 -616.523926 2.246819 1.000000
385.669525 -616.523926 2.147879 1.000000
385.669525 -616.523926 2.049258 1.000000
385.669525 -616.523926 1.950742 1.000000
385.669525 -616.523926 1.852121 1.000000
385.669525 -616.523926 1.753181 1.000000
385.669525 -616.523926 1.653710 1.000000
385.669525 -616.523926 1.553486 1.000000
385.669525 -616.523926 1.452284 1.000000
385.669525 -616.523926 1.349869 1.000000
385.669525 -616.523926 1.245996 1.000000
385.646912 -616.524353 2.756081 1.000000
385.646912 -616.524353 2.651922 1.000000
385.646912 -616.524353 2.549224 1.000000
385.646912 -616.524353 2.447744 1.000000
385.646912 -616.524353 2.347244 1.000000
385.646912 -616.524353 2.247498 1.000000
385.646912 -616.524353 2.148287 1.000000
385.646912 -616.524353 2.049394 1.000000
385.646912 -616.524353 1.950606 1.000000
385.646912 -616.524353 1.851713 1.000000
385.646912 -616.524353 1.752502 1.000000
385.646912 -616.524353 1.652756 1.000000
385.646912 -616.524353 1.552256 1.000000
385.646912 -616.524353 1.450776 1.000000
385.646912 -616.524353 1.348079 1.000000
385.646912 -616.524353 1.243920 1.000000
385.624176 -616.524780 2.758205 1.000000
385.624176 -616.524780 2.653753 1.000000
385.624176 -616.524780 2.550768 1.000000
385.624176 -616.524780 2.449002 1.000000
385.624176 -616.524780 2.348220 1.000000
385.624176 -616.524780 2.248194 1.000000
385.624176 -616.524780 2.148703 1.000000
385.624176 -616.524780 2.049532 1.000000
385.624176 -616.524780 1.950468 1.000000
385.624176 -616.524780 1.851297 1.000000
385.624176 -616.524780 1.751806 1.000000
385.624176 -616.524780 1.651780 1.000000
385.624176 -616.524780 1.550998 1.000000
385.624176 -616.524780 1.449232 1.000000
385.624176 -616.524780 1.346247 1.000000
385.624176 -616.524780 1.241795 1.000000
385.601318 -616.525208 2.760379 1.000000
385.601318 -616.525208 2.655628 1.000000
385.601318 -616.525208 2.552347 1.000000
385.601318 -616.525208 2.450289 1.000000
385.601318 -616.525208 2.349218 1.000000
385.601318 -616.525208 2.248905 1.000000
385.601318 -616.525208 2.149130 1.000000
385.601318 -616.525208 2.049675 1.000000
385.601318 -616.525208 1.950326 1.000000
385.601318 -616.525208 1.850870 1.000000
385.601318 -616.525208 1.751095 1.000000
385.601318 -616.525208 1.650782 1.000000
385.601318 -616.525208 1.549711 1.000000
385.601318 -616.525208 1.447653 1.000000
385.601318 -616.525208 1.344372 1.000000
385.601318 -616.525208 1.239621 1.000000
385.578308 -616.525635 2.762603 1.000000
385.578308 -616.525635 2.657545 1.000000
385.578308 -616.525635 2.553962 1.000000
385.578308 -616.525635 2.451606 1.000000
385.578308 -616.525635 2.350240 1.000000
385.578308 -616.525635 2.249633 1.000000
385.578308 -616.525635 2.149566 1.000000
385.578308 -616.525635 2.049820 1.000000
385.578308 -616.525635 1.950180 1.000000
385.578308 -616.525635 1.850434 1.000000
385.578308 -616.525635 1.750367 1.000000
385.578308 -616.525635 1.649761 1.000000
385.578308 -616.525635 1.548394 1.000000
385.578308 -616.525635 1.446038 1.000000
385.578308 -616.525635 1.342455 1.000000
385.578308 -616.525635 1.237397 1.000000
385.555176 -616.526062 2.764877 1.000000
385.555176 -616.526062 2.659506 1.000000
385.555176 -616.526062 2.555614 1.000000
385.555176 -616.526062 2.452953 1.000000
385.555176 -616.526062 2.351284 1.000000
385.555176 -616.526062 2.250378 1.000000
385.555176 -616.526062 2.150012 1.000000
385.555176 -616.526062 2.049968 1.000000
385.555176 -616.526062 1.950032 1.000000
385.555176 -616.526062 1.849988 1.000000
385.555176 -616.526062 1.749622 1.000000
385.555176 -616.526062 1.648716 1.000000
385.555176 -616.526062 1.547047 1.000000
385.555176 -616.526062 1.444386 1.000000
385.555176 -616.526062 1.340494 1.000000
385.555176 -616.526062 1.235123 1.000000
385.531891 -616.526489 2.767203 1.000000
385.531891 -616.526489 2.661511 1.000000
385.531891 -616.526489 2.557303 1.000000
385.531891 -616.526489 2.454330 1.000000
385.531891 -616.526489 2.352352 1.000000
385.531891 -616.526489 2.251139 1.000000
385.531891 -616.526489 2.150468 1.000000
385.531891 -616.526489 2.050120 1.000000
385.531891 -616.526489 1.949880 1.000000
385.531891 -616.526489 1.849532 1.000000
385.531891 -616.526489 1.748861 1.000000
385.531891 -616.526489 1.647648 1.000000
385.531891 -616.526489 1.545670 1.000000
385.531891 -616.526489 1.442697 1.000000
385.531891 -616.526489 1.338489 1.000000
385.531891 -616.526489 1.232798 1.000000
385.508453 -616.526917 2.769579 1.000000
385.508453 -616.526917 2.663561 1.000000
385.508453 -616.526917 2.559030 1.000000
385.508453 -616.526917 2.455738 1.000000
385.508453 -616.526917 2.353444 1.000000
385.508453 -616.526917 2.251917 1.000000
385.508453 -616.526917 2.150934 1.000000
385.508453 -616.526917 2.050276 1.000000
385.508453 -616.526917 1.949725 1.000000
385.508453 -616.526917 1.849066 1.000000
385.508453 -616.526917 1.748083 1.000000
385.508453 -616.526917 1.646557 1.000000
385.508453 -616.526917 1.544263 1.000000
385.508453 -616.526917 1.440970 1.000000
385.508453 -616.526917 1.336440 1.000000
385.508453 -616.526917 1.230421 1.000000
385.484894 -616.527344 2.772009 1.000000
385.484894 -616.527344 2.665655 1.000000
385.484894 -616.527344 2.560795 1.000000
385.484894 -616.527344 2.457176 1.000000
385.484894 -616.527344 2.354559 1.000000
385.484894 -616.527344 2.252712 1.000000
385.484894 -616.527344 2.151410 1.000000
385.484894 -616.527344 2.050434 1.000000
385.484894 -616.527344 1.949566 1.000000
385.484894 -616.527344 1.848589 1.000000
385.484894 -616.527344 1.747288 1.000000
385.484894 -616.527344 1.645441 1.000000
385.484894 -616.527344 1.542824 1.000000
385.484894 -616.527344 1.439205 1.000000
385.484894 -616.527344 1.334345 1.000000
385.484894 -616.527344 1.227991 1.000000
385.461182 -616.527832 2.774492 1.000000
385.461182 -616.527832 2.667796 1.000000
385.461182 -616.527832 2.562598 1.000000
385.461182 -616.527832 2.458647 1.000000
385.461182 -616.527832 2.355700 1.000000
385.461182 -616.527832 2.253525 1.000000
385.461182 -616.527832 2.151897 1.000000
385.461182 -616.527832 2.050596 1.000000
385.461182 -616.527832 1.949404 1.000000
385.461182 -616.527832 1.848102 1.000000
385.461182 -616.527832 1.746475 1.000000
385.461182 -616.527832 1.644300 1.000000
385.461182 -616.527832 1.541353 1.000000
385.461182 -616.527832 1.437402 1.000000
385.461182 -616.527832 1.332204 1.000000
385.461182 -616.527832 1.225508 1.000000
385.437317 -616.528259 2.777029 1.000000
385.437317 -616.528259 2.669983 1.000000
385.437317 -616.528259 2.564441 1.000000
385.437317 -616.528259 2.460149 1.000000
385.437317 -616.528259 2.356865 1.000000
385.437317 -616.528259 2.254355 1.000000
385.437317 -616.528259 2.152395 1.000000
385.437317 -616.528259 2.050762 1.000000
385.437317 -616.528259 1.949238 1.000000
385.437317 -616.528259 1.847605 1.000000
385.437317 -616.528259 1.745645 1.000000
385.437317 -616.528259 1.643135 1.000000
385.437317 -616.528259 1.539851 1.000000
385.437317 -616.528259 1.435559 1.000000
385.437317 -616.528259 1.330017 1.000000
385.437317 -616.528259 1.222971 1.000000
385.413269 -616.528687 2.779620 1.000000
385.413269 -616.528687 2.672218 1.000000
385.413269 -616.528687 2.566324 1.000000
385.413269 -616.528687 2.461684 1.000000
385.413269 -616.528687 2.358055 1.000000
385.413269 -616.528687 2.255204 1.000000
385.413269 -616.528687 2.152903 1.000000
385.413269 -616.528687 2.050931 1.000000
385.413269 -616.528687 1.949069 1.000000
385.413269 -616.528687 1.847097 1.000000
385.413269 -616.528687 1.744796 1.000000
385.413269 -616.528687 1.641945 1.000000
385.413269 -616.528687 1.538316 1.000000
385.413269 -616.528687 1.433676 1.000000
385.413269 -616.528687 1.327782 1.000000
385.413269 -616.528687 1.220380 1.000000
385.389099 -616.529175 2.782268 1.000000
385.389099 -616.529175 2.674501 1.000000
385.389099 -616.529175 2.568247 1.000000
385.389099 -616.529175 2.463251 1.000000
385.389099 -616.529175 2.359271 1.000000
385.389099 -616.529175 2.256070 1.000000
385.389099 -616.529175 2.153423 1.000000
385.389099 -616.529175 2.051104 1.000000
385.389099 -616.529175 1.948896 1.000000
385.389099 -616.529175 1.846578 1.000000
385.389099 -616.529175 1.743930 1.000000
385.389099 -616.529175 1.640729 1.000000
385.389099 -616.529175 1.536749 1.000000
385.389099 -616.529175 1.431753 1.000000
385.389099 -616.529175 1.325500 1.000000
385.389099 -616.529175 1.217733 1.000000
385.364746 -616.529602 2.784971 1.000000
385.364746 -616.529602 2.676832 1.000000
385.364746 -616.529602 2.570211 1.000000
385.364746 -616.529602 2.464852 1.000000
385.364746 -616.529602 2.360512 1.000000
385.364746 -616.529602 2.256955 1.000000
385.364746 -616.529602 2.153953 1.000000
385.364746 -616.529602 2.051281 1.000000
385.364746 -616.529602 1.948719 1.000000
385.364746 -616.529602 1.846047 1.000000
385.364746 -616.529602 1.743045 1.000000
385.364746 -616.529602 1.639488 1.000000
385.364746 -616.529602 1.535148 1.000000
385.364746 -616.529602 1.429789 1.000000
385.364746 -616.529602 1.323168 1.000000
385.364746 -616.529602 1.215029 1.000000
385.340210 -616.530090 2.787732 1.000000
385.340210 -616.530090 2.679213 1.000000
385.340210 -616.530090 2.572216 1.000000
385.340210 -616.530090 2.466487 1.000000
385.340210 -616.530090 2.361780 1.000000
385.340210 -616.530090 2.257859 1.000000
385.340210 -616.530090 2.154494 1.000000
385.340210 -616.530090 2.051461 1.000000
385.340210 -616.530090 1.948539 1.000000
385.340210 -616.530090 1.845506 1.000000
385.340210 -616.530090 1.742141 1.000000
385.340210 -616.530090 1.638220 1.000000
385.340210 -616.530090 1.533513 1.000000
385.340210 -616.530090 1.427784 1.000000
385.340210 -616.530090 1.320788 1.000000
385.340210 -616.530090 1.212268 1.000000
385.315491 -616.530518 2.790551 1.000000
385.315491 -616.530518 2.681643 1.000000
385.315491 -616.530518 2.574264 1.000000
385.315491 -616.530518 2.468157 1.000000
385.315491 -616.530518 2.363075 1.000000
385.315491 -616.530518 2.258782 1.000000
385.315491 -616.530518 2.155047 1.000000
385.315491 -616.530518 2.051646 1.000000
385.315491 -616.530518 1.948355 1.000000
385.315491 -616.530518 1.844953 1.000000
385.315491 -616.530518 1.741218 1.000000
385.315491 -616.530518 1.636925 1.000000
385.315491 -616.530518 1.531843 1.000000
385.315491 -616.530518 1.425736 1.000000
385.315491 -616.530518 1.318357 1.000000
385.315491 -616.530518 1.209449 1.000000
385.290619 -616.531006 2.793430 1.000000
385.290619 -616.531006 2.684125 1.000000
385.290619 -616.531006 2.576355 1.000000
385.290619 -616.531006 2.469861 1.000000
385.290619 -616.531006 2.364397 1.000000
385.290619 -616.531006 2.259724 1.000000
385.290619 -616.531006 2.155612 1.000000
385.290619 -616.531006 2.051833 1.000000
385.290619 -616.531006 1.948166 1.000000
385.290619 -616.531006 1.844388 1.000000
385.290619 -616.531006 1.740276 1.000000
385.290619 -616.531006 1.635603 1.000000
385.290619 -616.531006 1.530139 1.000000
385.290619 -616.531006 1.423645 1.000000
385.290619 -616.531006 1.315875 1.000000
385.290619 -616.531006 1.206571 1.000000
385.265564 -616.531494 2.796368 1.000000
385.265564 -616.531494 2.686658 1.000000
385.265564 -616.531494 2.578489 1.000000
385.265564 -616.531494 2.471601 1.000000
385.265564 -616.531494 2.365746 1.000000
385.265564 -616.531494 2.260686 1.000000
385.265564 -616.531494 2.156188 1.000000
385.265564 -616.531494 2.052026 1.000000
385.265564 -616.531494 1.947975 1.000000
385.265564 -616.531494 1.843812 1.000000
385.265564 -616.531494 1.739314 1.000000
385.265564 -616.531494 1.634254 1.000000
385.265564 -616.531494 1.528399 1.000000
385.265564 -616.531494 1.421511 1.000000
385.265564 -616.531494 1.313342 1.000000
385.265564 -616.531494 1.203633 1.000000
385.240295 -616.531921 2.799367 1.000000
385.240295 -616.531921 2.689244 1.000000
385.240295 -616.531921 2.580668 1.000000
385.240295 -616.531921 2.473377 1.000000
385.240295 -616.531921 2.367124 1.000000
385.240295 -616.531921 2.261667 1.000000
385.240295 -616.531921 2.156776 1.000000
385.240295 -616.531921 2.052221 1.000000
385.240295 -616.531921 1.947779 1.000000
385.240295 -616.531921 1.843224 1.000000
385.240295 -616.531921 1.738332 1.000000
385.240295 -616.531921 1.632876 1.000000
385.240295 -616.531921 1.526623 1.000000
385.240295 -616.531921 1.419332 1.000000
385.240295 -616.531921 1.310756 1.000000
385.240295 -616.531921 1.200633 1.000000
385.214874 -616.532410 2.802428 1.000000
385.214874 -616.532410 2.691884 1.000000
385.214874 -616.532410 2.582891 1.000000
385.214874 -616.532410 2.475190 1.000000
385.214874 -616.532410 2.368530 1.000000
385.214874 -616.532410 2.262670 1.000000
385.214874 -616.532410 2.157376 1.000000
385.214874 -616.532410 2.052421 1.000000
385.214874 -616.532410 1.947579 1.000000
385.214874 -616.532410 1.842624 1.000000
385.214874 -616.532410 1.737330 1.000000
385.214874 -616.532410 1.631470 1.000000
385.214874 -616.532410 1.524810 1.000000
385.214874 -616.532410 1.417109 1.000000
385.214874 -616.532410 1.308117 1.000000
385.214874 -616.532410 1.197572 1.000000
385.189240 -616.532898 2.805552 1.000000
385.189240 -616.532898 2.694577 1.000000
385.189240 -616.532898 2.585161 1.000000
385.189240 -616.532898 2.477040 1.000000
385.189240 -616.532898 2.369964 1.000000
385.189240 -616.532898 2.263692 1.000000
385.189240 -616.532898 2.157989 1.000000
385.189240 -616.532898 2.052625 1.000000
385.189240 -616.532898 1.947375 1.000000
385.189240 -616.532898 1.842011 1.000000
385.189240 -616.532898 1.736308 1.000000
385.189240 -616.532898 1.630036 1.000000
385.189240 -616.532898 1.522960 1.000000
385.189240 -616.532898 1.414840 1.000000
385.189240 -616.532898 1.305423 1.000000
385.189240 -616.532898 1.194448 1.000000
385.163391 -616.533386 2.808740 1.000000
385.163391 -616.533386 2.697326 1.000000
385.163391 -616.533386 2.587476 1.000000
385.163391 -616.533386 2.478928 1.000000
385.163391 -616.533386 2.371428 1.000000
385.163391 -616.533386 2.264736 1.000000
385.163391 -616.533386 2.158614 1.000000
385.163391 -616.533386 2.052834 1.000000
385.163391 -616.533386 1.947166 1.000000
385.163391 -616.533386 1.841386 1.000000
385.163391 -616.533386 1.735264 1.000000
385.163391 -616.533386 1.628571 1.000000
385.163391 -616.533386 1.521072 1.000000
385.163391 -616.533386 1.412524 1.000000
385.163391 -616.533386 1.302674 1.000000
385.163391 -616.533386 1.191261 1.000000
385.137329 -616.533875 2.811993 1.000000
385.137329 -616.533875 2.700131 1.000000
385.137329 -616.533875 2.589839 1.000000
385.137329 -616.533875 2.480854 1.000000
385.137329 -616.533875 2.372923 1.000000
385.137329 -616.533875 2.265800 1.000000
385.137329 -616.533875 2.159252 1.000000
385.137329 -616.533875 2.053046 1.000000
385.137329 -616.533875 1.946954 1.000000
385.137329 -616.533875 1.840748 1.000000
385.137329 -616.533875 1.734199 1.000000
385.137329 -616.533875 1.627077 1.000000
385.137329 -616.533875 1.519146 1.000000
385.137329 -616.533875 1.410161 1.000000
385.137329 -616.533875 1.299869 1.000000
385.137329 -616.533875 1.188007 1.000000
385.111084 -616.534363 2.815312 1.000000
385.111084 -616.534363 2.702993 1.000000
385.111084 -616.534363 2.592251 1.000000
385.111084 -616.534363 2.482820 1.000000
385.111084 -616.534363 2.374447 1.000000
385.111084 -616.534363 2.266887 1.000000
385.111084 -616.534363 2.159903 1.000000
385.111084 -616.534363 2.053263 1.000000
385.111084 -616.534363 1.946737 1.000000
385.111084 -616.534363 1.840097 1.000000
385.111084 -616.534363 1.733113 1.000000
385.111084 -616.534363 1.625553 1.000000
385.111084 -616.534363 1.517180 1.000000
385.111084 -616.534363 1.407749 1.000000
385.111084 -616.534363 1.297008 1.000000
385.111084 -616.534363 1.184688 1.000000
385.084595 -616.534851 2.818698 1.000000
385.084595 -616.534851 2.705913 1.000000
385.084595 -616.534851 2.594710 1.000000
385.084595 -616.534851 2.484826 1.000000
385.084595 -616.534851 2.376002 1.000000
385.084595 -616.534851 2.267996 1.000000
385.084595 -616.534851 2.160568 1.000000
385.084595 -616.534851 2.053484 1.000000
385.084595 -616.534851 1.946516 1.000000
385.084595 -616.534851 1.839432 1.000000
385.084595 -616.534851 1.732004 1.000000
385.084595 -616.534851 1.623998 1.000000
385.084595 -616.534851 1.515175 1.000000
385.084595 -616.534851 1.405290 1.000000
385.084595 -616.534851 1.294087 1.000000
385.084595 -616.534851 1.181302 1.000000
385.057892 -616.535400 2.822154 1.000000
385.057892 -616.535339 2.708892 1.000000
385.057892 -616.535339 2.597220 1.000000
385.057892 -616.535339 2.486871 1.000000
385.057892 -616.535339 2.377589 1.000000
385.057892 -616.535339 2.269127 1.000000
385.057892 -616.535339 2.161245 1.000000
385.057892 -616.535339 2.053710 1.000000
385.057892 -616.535339 1.946290 1.000000
385.057892 -616.535339 1.838755 1.000000
385.057892 -616.535339 1.730873 1.000000
385.057892 -616.535339 1.622411 1.000000
385.057892 -616.535339 1.513129 1.000000
385.057892 -616.535339 1.402780 1.000000
385.057892 -616.535339 1.291108 1.000000
385.057892 -616.535339 1.177847 1.000000
385.030975 -616.535889 2.825678 1.000000
385.030975 -616.535889 2.711931 1.000000
385.030975 -616.535889 2.599781 1.000000
385.030975 -616.535889 2.488959 1.000000
385.030975 -616.535889 2.379208 1.000000
385.030975 -616.535889 2.270281 1.000000
385.030975 -616.535889 2.161937 1.000000
385.030975 -616.535889 2.053940 1.000000
385.030975 -616.535889 1.946060 1.000000
385.030975 -616.535889 1.838063 1.000000
385.030975 -616.535889 1.729719 1.000000
385.030975 -616.535889 1.620792 1.000000
385.030975 -616.535889 1.511041 1.000000
385.030975 -616.535889 1.400219 1.000000
385.030975 -616.535889 1.288069 1.000000
385.030975 -616.535889 1.174322 1.000000
385.003815 -616.536377 2.829274 1.000000
385.003815 -616.536377 2.715031 1.000000
385.003815 -616.536377 2.602393 1.000000
385.003815 -616.536377 2.491088 1.000000
385.003815 -616.536377 2.380859 1.000000
385.003815 -616.536377 2.271457 1.000000
385.003815 -616.536377 2.162642 1.000000
385.003815 -616.536377 2.054175 1.000000
385.003815 -616.536377 1.945825 1.000000
385.003815 -616.536377 1.837358 1.000000
385.003815 -616.536377 1.728542 1.000000
385.003815 -616.536377 1.619141 1.000000
385.003815 -616.536377 1.508912 1.000000
385.003815 -616.536377 1.397608 1.000000
385.003815 -616.536377 1.284969 1.000000
385.003815 -616.536377 1.170727 1.000000
384.976410 -616.536926 2.832942 1.000000
384.976410 -616.536926 2.718194 1.000000
384.976410 -616.536926 2.605057 1.000000
384.976410 -616.536926 2.493260 1.000000
384.976410 -616.536926 2.382544 1.000000
384.976410 -616.536926 2.272658 1.000000
384.976410 -616.536926 2.163361 1.000000
384.976410 -616.536926 2.054415 1.000000
384.976410 -616.536926 1.945585 1.000000
384.976410 -616.536926 1.836639 1.000000
384.976410 -616.536926 1.727342 1.000000
384.976410 -616.536926 1.617456 1.000000
384.976410 -616.536926 1.506740 1.000000
384.976410 -616.536926 1.394943 1.000000
384.976410 -616.536926 1.281806 1.000000
384.976410 -616.536926 1.167058 1.000000
384.948761 -616.537415 2.836683 1.000000
384.948761 -616.537415 2.721420 1.000000
384.948761 -616.537415 2.607775 1.000000
384.948761 -616.537415 2.495476 1.000000
384.948761 -616.537415 2.384262 1.000000
384.948761 -616.537415 2.273883 1.000000
384.948761 -616.537415 2.164095 1.000000
384.948761 -616.537415 2.054659 1.000000
384.948761 -616.537415 1.945341 1.000000
384.948761 -616.537415 1.835905 1.000000
384.948761 -616.537415 1.726117 1.000000
384.948761 -616.537415 1.615738 1.000000
384.948761 -616.537415 1.504524 1.000000
384.948761 -616.537415 1.392225 1.000000
384.948761 -616.537415 1.278580 1.000000
384.948761 -616.537415 1.163317 1.000000
384.920868 -616.537964 2.840500 1.000000
384.920868 -616.537964 2.724710 1.000000
384.920868 -616.537964 2.610547 1.000000
384.920868 -616.537964 2.497736 1.000000
384.920868 -616.537964 2.386015 1.000000
384.920868 -616.537964 2.275132 1.000000
384.920868 -616.537964 2.164843 1.000000
384.920868 -616.537964 2.054909 1.000000
384.920868 -616.537964 1.945091 1.000000
384.920868 -616.537964 1.835157 1.000000
384.920868 -616.537964 1.724868 1.000000
384.920868 -616.537964 1.613985 1.000000
384.920868 -616.537964 1.502264 1.000000
384.920868 -616.537964 1.389453 1.000000
384.920868 -616.537964 1.275290 1.000000
384.920868 -616.537964 1.159501 1.000000
384.892731 -616.538452 2.844393 1.000000
384.892731 -616.538452 2.728067 1.000000
384.892731 -616.538452 2.613375 1.000000
384.892731 -616.538452 2.500041 1.000000
384.892731 -616.538452 2.387803 1.000000
384.892731 -616.538452 2.276407 1.000000
384.892731 -616.538452 2.165607 1.000000
384.892731 -616.538452 2.055163 1.000000
384.892731 -616.538452 1.944837 1.000000
384.892731 -616.538452 1.834393 1.000000
384.892731 -616.538452 1.723593 1.000000
384.892731 -616.538452 1.612197 1.000000
384.892731 -616.538452 1.499959 1.000000
384.892731 -616.538452 1.386625 1.000000
384.892731 -616.538452 1.271933 1.000000
384.892731 -616.538452 1.155608 1.000000
384.864319 -616.539001 2.848363 1.000000
384.864319 -616.539001 2.731490 1.000000
384.864319 -616.539001 2.616259 1.000000
384.864319 -616.539001 2.502392 1.000000
384.864319 -616.539001 2.389626 1.000000
384.864319 -616.539001 2.277706 1.000000
384.864319 -616.539001 2.166385 1.000000
384.864319 -616.539001 2.055422 1.000000
384.864319 -616.539001 1.944578 1.000000
384.864319 -616.539001 1.833615 1.000000
384.864319 -616.539001 1.722294 1.000000
384.864319 -616.539001 1.610374 1.000000
384.864319 -616.539001 1.497608 1.000000
384.864319 -616.539001 1.383741 1.000000
384.864319 -616.539001 1.268510 1.000000
384.864319 -616.539001 1.151638 1.000000
384.835632 -616.539551 2.852412 1.000000
384.835632 -616.539551 2.734982 1.000000
384.835632 -616.539551 2.619201 1.000000
384.835632 -616.539551 2.504791 1.000000
384.835632 -616.539551 2.391486 1.000000
384.835632 -616.539551 2.279032 1.000000
384.835632 -616.539551 2.167180 1.000000
384.835632 -616.539551 2.055687 1.000000
384.835632 -616.539551 1.944313 1.000000
384.835632 -616.539551 1.832820 1.000000
384.835632 -616.539551 1.720968 1.000000
384.835632 -616.539551 1.608514 1.000000
384.835632 -616.539551 1.495210 1.000000
384.835632 -616.539551 1.380799 1.000000
384.835632 -616.539551 1.265018 1.000000
384.835632 -616.539551 1.147588 1.000000
384.806671 -616.540100 2.856543 1.000000
384.806671 -616.540100 2.738544 1.000000
384.806671 -616.540100 2.622201 1.000000
384.806671 -616.540100 2.507236 1.000000
384.806671 -616.540100 2.393383 1.000000
384.806671 -616.540100 2.280384 1.000000
384.806671 -616.540100 2.167990 1.000000
384.806671 -616.540100 2.055957 1.000000
384.806671 -616.540100 1.944043 1.000000
384.806671 -616.540100 1.832010 1.000000
384.806671 -616.540100 1.719616 1.000000
384.806671 -616.540100 1.606617 1.000000
384.806671 -616.540100 1.492764 1.000000
384.806671 -616.540100 1.377799 1.000000
384.806671 -616.540100 1.261457 1.000000
384.806671 -616.540100 1.143457 1.000000
384.777405 -616.540649 2.860756 1.000000
384.777405 -616.540649 2.742176 1.000000
384.777405 -616.540649 2.625261 1.000000
384.777405 -616.540649 2.509731 1.000000
384.777405 -616.540649 2.395318 1.000000
384.777405 -616.540649 2.281763 1.000000
384.777405 -616.540649 2.168816 1.000000
384.777405 -616.540649 2.056232 1.000000
384.777405 -616.540649 1.943768 1.000000
384.777405 -616.540649 1.831184 1.000000
384.777405 -616.540649 1.718237 1.000000
384.777405 -616.540649 1.604682 1.000000
384.777405 -616.540649 1.490269 1.000000
384.777405 -616.540649 1.374739 1.000000
384.777405 -616.540649 1.257824 1.000000
384.777405 -616.540649 1.139245 1.000000
384.747894 -616.541199 2.865052 1.000000
384.747894 -616.541199 2.745881 1.000000
384.747894 -616.541199 2.628382 1.000000
384.747894 -616.541199 2.512276 1.000000
384.747894 -616.541199 2.397291 1.000000
384.747894 -616.541199 2.283169 1.000000
384.747894 -616.541199 2.169659 1.000000
384.747894 -616.541199 2.056513 1.000000
384.747894 -616.541199 1.943487 1.000000
384.747894 -616.541199 1.830341 1.000000
384.747894 -616.541199 1.716830 1.000000
384.747894 -616.541199 1.602709 1.000000
384.747894 -616.541199 1.487724 1.000000
384.747894 -616.541199 1.371618 1.000000
384.747894 -616.541199 1.254119 1.000000
384.747894 -616.541199 1.134948 1.000000
384.718048 -616.541748 2.869435 1.000000
384.718048 -616.541748 2.749660 1.000000
384.718048 -616.541748 2.631566 1.000000
384.718048 -616.541748 2.514871 1.000000
384.718048 -616.541748 2.399304 1.000000
384.718048 -616.541748 2.284604 1.000000
384.718048 -616.541748 2.170518 1.000000
384.718048 -616.541748 2.056799 1.000000
384.718048 -616.541748 1.943201 1.000000
384.718048 -616.541748 1.829482 1.000000
384.718048 -616.541748 1.715396 1.000000
384.718048 -616.541748 1.600696 1.000000
384.718048 -616.541748 1.485129 1.000000
384.718048 -616.541748 1.368434 1.000000
384.718048 -616.541748 1.250340 1.000000
384.718048 -616.541748 1.130565 1.000000
384.687897 -616.542297 2.873905 1.000000
384.687897 -616.542297 2.753514 1.000000
384.687897 -616.542297 2.634813 1.000000
384.687897 -616.542297 2.517518 1.000000
384.687897 -616.542297 2.401357 1.000000
384.687897 -616.542297 2.286067 1.000000
384.687897 -616.542297 2.171395 1.000000
384.687897 -616.542297 2.057091 1.000000
384.687897 -616.542297 1.942909 1.000000
384.687897 -616.542297 1.828605 1.000000
384.687897 -616.542297 1.713933 1.000000
384.687897 -616.542297 1.598643 1.000000
384.687897 -616.542297 1.482482 1.000000
384.687897 -616.542297 1.365187 1.000000
384.687897 -616.542297 1.246486 1.000000
384.687897 -616.542297 1.126095 1.000000
384.657440 -616.542908 2.878464 1.000000
384.657440 -616.542908 2.757445 1.000000
384.657440 -616.542908 2.638125 1.000000
384.657471 -616.542908 2.520218 1.000000
384.657471 -616.542908 2.403451 1.000000
384.657471 -616.542908 2.287560 1.000000
384.657471 -616.542908 2.172289 1.000000
384.657471 -616.542908 2.057389 1.000000
384.657471 -616.542908 1.942611 1.000000
384.657471 -616.542908 1.827711 1.000000
384.657471 -616.542908 1.712440 1.000000
384.657471 -616.542908 1.596549 1.000000
384.657471 -616.542908 1.479782 1.000000
384.657471 -616.542908 1.361875 1.000000
384.657471 -616.542908 1.242555 1.000000
384.657471 -616.542908 1.121536 1.000000
384.626678 -616.543457 2.883115 1.000000
384.626678 -616.543457 2.761455 1.000000
384.626678 -616.543457 2.641503 1.000000
384.626678 -616.543457 2.522972 1.000000
384.626678 -616.543457 2.405587 1.000000
384.626678 -616.543457 2.289082 1.000000
384.626678 -616.543457 2.173201 1.000000
384.626678 -616.543457 2.057693 1.000000
384.626678 -616.543457 1.942307 1.000000
384.626678 -616.543457 1.826799 1.000000
384.626678 -616.543457 1.710918 1.000000
384.626678 -616.543457 1.594413 1.000000
384.626678 -616.543457 1.477028 1.000000
384.626678 -616.543457 1.358497 1.000000
384.626678 -616.543457 1.238545 1.000000
384.626678 -616.543457 1.116886 1.000000
384.595581 -616.544067 2.887858 1.000000
384.595581 -616.544067 2.765545 1.000000
384.595581 -616.544067 2.644948 1.000000
384.595581 -616.544067 2.525781 1.000000
384.595581 -616.544067 2.407765 1.000000
384.595581 -616.544067 2.290635 1.000000
384.595581 -616.544067 2.174131 1.000000
384.595581 -616.544067 2.058002 1.000000
384.595581 -616.544067 1.941998 1.000000
384.595581 -616.544067 1.825868 1.000000
384.595581 -616.544067 1.709365 1.000000
384.595581 -616.544067 1.592235 1.000000
384.595581 -616.544067 1.474219 1.000000
384.595581 -616.544067 1.355051 1.000000
384.595581 -616.544067 1.234455 1.000000
384.595581 -616.544067 1.112142 1.000000
384.564148 -616.544617 2.892696 1.000000
384.564148 -616.544617 2.769717 1.000000
384.564148 -616.544617 2.648463 1.000000
384.564148 -616.544617 2.528646 1.000000
384.564148 -616.544617 2.409987 1.000000
384.564148 -616.544617 2.292218 1.000000
384.564148 -616.544617 2.175080 1.000000
384.564148 -616.544617 2.058318 1.000000
384.564148 -616.544617 1.941682 1.000000
384.564148 -616.544617 1.824920 1.000000
384.564148 -616.544617 1.707782 1.000000
384.564148 -616.544617 1.590013 1.000000
384.564148 -616.544617 1.471354 1.000000
384.564148 -616.544617 1.351537 1.000000
384.564148 -616.544617 1.230284 1.000000
384.564148 -616.544617 1.107304 1.000000
384.532349 -616.545227 2.897632 1.000000
384.532349 -616.545227 2.773972 1.000000
384.532349 -616.545227 2.652048 1.000000
384.532349 -616.545227 2.531569 1.000000
384.532349 -616.545227 2.412254 1.000000
384.532349 -616.545227 2.293834 1.000000
384.532349 -616.545227 2.176048 1.000000
384.532349 -616.545227 2.058641 1.000000
384.532349 -616.545227 1.941359 1.000000
384.532349 -616.545227 1.823952 1.000000
384.532349 -616.545227 1.706166 1.000000
384.532349 -616.545227 1.587746 1.000000
384.532349 -616.545227 1.468431 1.000000
384.532349 -616.545227 1.347952 1.000000
384.532349 -616.545227 1.226028 1.000000
384.532349 -616.545227 1.102368 1.000000
384.500214 -616.545837 2.902666 1.000000
384.500214 -616.545837 2.778313 1.000000
384.500214 -616.545837 2.655705 1.000000
384.500214 -616.545837 2.534550 1.000000
384.500214 -616.545837 2.414566 1.000000
384.500214 -616.545837 2.295482 1.000000
384.500214 -616.545837 2.177036 1.000000
384.500214 -616.545837 2.058970 1.000000
384.500214 -616.545837 1.941030 1.000000
384.500214 -616.545837 1.822964 1.000000
384.500214 -616.545837 1.704518 1.000000
384.500214 -616.545837 1.585434 1.000000
384.500214 -616.545837 1.465450 1.000000
384.500214 -616.545837 1.344295 1.000000
384.500214 -616.545837 1.221687 1.000000
384.500214 -616.545837 1.097334 1.000000
384.467712 -616.546448 2.907802 1.000000
384.467712 -616.546448 2.782741 1.000000
384.467712 -616.546448 2.659436 1.000000
384.467712 -616.546448 2.537591 1.000000
384.467712 -616.546448 2.416924 1.000000
384.467712 -616.546448 2.297163 1.000000
384.467712 -616.546448 2.178043 1.000000
384.467712 -616.546448 2.059305 1.000000
384.467712 -616.546448 1.940695 1.000000
384.467712 -616.546448 1.821957 1.000000
384.467712 -616.546448 1.702837 1.000000
384.467712 -616.546448 1.583075 1.000000
384.467712 -616.546448 1.462409 1.000000
384.467712 -616.546448 1.340564 1.000000
384.467712 -616.546448 1.217259 1.000000
384.467712 -616.546448 1.092198 1.000000
384.434845 -616.547058 2.913041 1.000000
384.434845 -616.547058 2.787259 1.000000
384.434845 -616.547058 2.663242 1.000000
384.434845 -616.547058 2.540694 1.000000
384.434845 -616.547058 2.419331 1.000000
384.434845 -616.547058 2.298878 1.000000
384.434845 -616.547058 2.179070 1.000000
384.434845 -616.547058 2.059648 1.000000
384.434845 -616.547058 1.940352 1.000000
384.434845 -616.547058 1.820929 1.000000
384.434845 -616.547058 1.701122 1.000000
384.434845 -616.547058 1.580669 1.000000
384.434845 -616.547058 1.459306 1.000000
384.434845 -616.547058 1.336758 1.000000
384.434845 -616.547058 1.212742 1.000000
384.434845 -616.547058 1.086959 1.000000
384.401581 -616.547668 2.918386 1.000000
384.401581 -616.547668 2.791867 1.000000
384.401581 -616.547668 2.667125 1.000000
384.401581 -616.547668 2.543859 1.000000
384.401581 -616.547668 2.421786 1.000000
384.401581 -616.547668 2.300628 1.000000
384.401581 -616.547668 2.180119 1.000000
384.401581 -616.547668 2.059997 1.000000
384.401581 -616.547668 1.940003 1.000000
384.401581 -616.547668 1.819881 1.000000
384.401581 -616.547668 1.699372 1.000000
384.401581 -616.547668 1.578214 1.000000
384.401581 -616.547668 1.456141 1.000000
384.401581 -616.547668 1.332875 1.000000
384.401581 -616.547668 1.208133 1.000000
384.401581 -616.547668 1.081614 1.000000
384.367920 -616.548279 2.923840 1.000000
384.367920 -616.548279 2.796569 1.000000
384.367920 -616.548279 2.671086 1.000000
384.367920 -616.548279 2.547089 1.000000
384.367920 -616.548279 2.424290 1.000000
384.367920 -616.548279 2.302413 1.000000
384.367920 -616.548279 2.181188 1.000000
384.367920 -616.548279 2.060353 1.000000
384.367920 -616.548279 1.939647 1.000000
384.367920 -616.548279 1.818812 1.000000
384.367920 -616.548279 1.697587 1.000000
384.367920 -616.548279 1.575710 1.000000
384.367920 -616.548279 1.452911 1.000000
384.367920 -616.548279 1.328914 1.000000
384.367920 -616.548279 1.203431 1.000000
384.367920 -616.548279 1.076161 1.000000
384.333862 -616.548950 2.929404 1.000000
384.333862 -616.548950 2.801367 1.000000
384.333862 -616.548950 2.675128 1.000000
384.333862 -616.548950 2.550384 1.000000
384.333862 -616.548950 2.426846 1.000000
384.333862 -616.548950 2.304234 1.000000
384.333862 -616.548950 2.182280 1.000000
384.333862 -616.548950 2.060717 1.000000
384.333862 -616.548950 1.939284 1.000000
384.333862 -616.548950 1.817720 1.000000
384.333862 -616.548950 1.695765 1.000000
384.333862 -616.548950 1.573154 1.000000
384.333862 -616.548950 1.449616 1.000000
384.333862 -616.548950 1.324872 1.000000
384.333862 -616.548950 1.198633 1.000000
384.333862 -616.548950 1.070597 1.000000
384.299377 -616.549622 2.935081 1.000000
384.299377 -616.549622 2.806262 1.000000
384.299377 -616.549622 2.679252 1.000000
384.299377 -616.549622 2.553746 1.000000
384.299377 -616.549622 2.429453 1.000000
384.299377 -616.549622 2.306093 1.000000
384.299377 -616.549622 2.183393 1.000000
384.299377 -616.549622 2.061087 1.000000
384.299377 -616.549622 1.938913 1.000000
384.299377 -616.549622 1.816607 1.000000
384.299377 -616.549622 1.693907 1.000000
384.299377 -616.549622 1.570547 1.000000
384.299377 -616.549622 1.446254 1.000000
384.299377 -616.549622 1.320748 1.000000
384.299377 -616.549622 1.193738 1.000000
384.299377 -616.549622 1.064919 1.000000
384.264496 -616.550232 2.940874 1.000000
384.264496 -616.550232 2.811257 1.000000
384.264496 -616.550232 2.683460 1.000000
384.264496 -616.550232 2.557177 1.000000
384.264496 -616.550232 2.432114 1.000000
384.264496 -616.550232 2.307989 1.000000
384.264496 -616.550232 2.184529 1.000000
384.264496 -616.550232 2.061466 1.000000
384.264496 -616.550232 1.938534 1.000000
384.264496 -616.550232 1.815471 1.000000
384.264496 -616.550232 1.692011 1.000000
384.264496 -616.550232 1.567886 1.000000
384.264496 -616.550232 1.442823 1.000000
384.264496 -616.550232 1.316540 1.000000
384.264496 -616.550232 1.188743 1.000000
384.264496 -616.550232 1.059126 1.000000
384.229156 -616.550903 2.946786 1.000000
384.229156 -616.550903 2.816355 1.000000
384.229156 -616.550903 2.687755 1.000000
384.229156 -616.550903 2.560678 1.000000
384.229156 -616.550903 2.434829 1.000000
384.229156 -616.550903 2.309924 1.000000
384.229156 -616.550903 2.185689 1.000000
384.229156 -616.550903 2.061852 1.000000
384.229156 -616.550903 1.938148 1.000000
384.229156 -616.550903 1.814311 1.000000
384.229156 -616.550903 1.690075 1.000000
384.229156 -616.550903 1.565171 1.000000
384.229156 -616.550903 1.439322 1.000000
384.229156 -616.550903 1.312245 1.000000
384.229156 -616.550903 1.183645 1.000000
384.229156 -616.550903 1.053214 1.000000
384.193359 -616.551575 2.952819 1.000000
384.193359 -616.551575 2.821557 1.000000
384.193359 -616.551575 2.692137 1.000000
384.193359 -616.551575 2.564250 1.000000
384.193359 -616.551575 2.437600 1.000000
384.193359 -616.551575 2.311899 1.000000
384.193359 -616.551575 2.186872 1.000000
384.193359 -616.551575 2.062246 1.000000
384.193359 -616.551575 1.937754 1.000000
384.193359 -616.551575 1.813128 1.000000
384.193359 -616.551575 1.688101 1.000000
384.193359 -616.551575 1.562400 1.000000
384.193359 -616.551575 1.435750 1.000000
384.193359 -616.551575 1.307863 1.000000
384.193359 -616.551575 1.178443 1.000000
384.193359 -616.551575 1.047181 1.000000
384.157135 -616.552246 2.958978 1.000000
384.157135 -616.552246 2.826867 1.000000
384.157135 -616.552246 2.696610 1.000000
384.157135 -616.552246 2.567897 1.000000
384.157135 -616.552246 2.440428 1.000000
384.157135 -616.552246 2.313915 1.000000
384.157135 -616.552246 2.188080 1.000000
384.157135 -616.552246 2.062649 1.000000
384.157135 -616.552246 1.937352 1.000000
384.157135 -616.552246 1.811920 1.000000
384.157135 -616.552246 1.686085 1.000000
384.157135 -616.552246 1.559572 1.000000
384.157135 -616.552246 1.432103 1.000000
384.157135 -616.552246 1.303389 1.000000
384.157135 -616.552246 1.173133 1.000000
384.157135 -616.552246 1.041023 1.000000
384.120422 -616.552979 2.965263 1.000000
384.120422 -616.552979 2.832286 1.000000
384.120422 -616.552979 2.701176 1.000000
384.120422 -616.552979 2.571619 1.000000
384.120422 -616.552917 2.443315 1.000000
384.120422 -616.552979 2.315973 1.000000
384.120422 -616.552979 2.189312 1.000000
384.120422 -616.552917 2.063059 1.000000
384.120422 -616.552917 1.936941 1.000000
384.120422 -616.552979 1.810688 1.000000
384.120422 -616.552979 1.684027 1.000000
384.120422 -616.552917 1.556685 1.000000
384.120422 -616.552979 1.428381 1.000000
384.120422 -616.552979 1.298824 1.000000
384.120422 -616.552917 1.167714 1.000000
384.120422 -616.552917 1.034738 1.000000
384.083191 -616.553650 2.971679 1.000000
384.083191 -616.553650 2.837818 1.000000
384.083191 -616.553650 2.705837 1.000000
384.083191 -616.553650 2.575419 1.000000
384.083191 -616.553650 2.446261 1.000000
384.083191 -616.553650 2.318073 1.000000
384.083191 -616.553650 2.190571 1.000000
384.083191 -616.553650 2.063478 1.000000
384.083191 -616.553650 1.936522 1.000000
384.083191 -616.553650 1.809429 1.000000
384.083191 -616.553650 1.681927 1.000000
384.083191 -616.553650 1.553739 1.000000
384.083191 -616.553650 1.424581 1.000000
384.083191 -616.553650 1.294163 1.000000
384.083191 -616.553650 1.162182 1.000000
384.083191 -616.553650 1.028322 1.000000
384.045502 -616.554382 2.978229 1.000000
384.045502 -616.554382 2.843466 1.000000
384.045502 -616.554382 2.710595 1.000000
384.045502 -616.554382 2.579298 1.000000
384.045502 -616.554382 2.449269 1.000000
384.045502 -616.554382 2.320217 1.000000
384.045502 -616.554382 2.191855 1.000000
384.045502 -616.554382 2.063906 1.000000
384.045502 -616.554382 1.936094 1.000000
384.045502 -616.554382 1.808145 1.000000
384.045502 -616.554382 1.679783 1.000000
384.045502 -616.554382 1.550731 1.000000
384.045502 -616.554382 1.420702 1.000000
384.045502 -616.554382 1.289405 1.000000
384.045502 -616.554382 1.156534 1.000000
384.045502 -616.554382 1.021772 1.000000
384.007294 -616.555054 2.984916 1.000000
384.007294 -616.555054 2.849231 1.000000
384.007294 -616.555054 2.715452 1.000000
384.007294 -616.555054 2.583258 1.000000
384.007294 -616.555054 2.452341 1.000000
384.007294 -616.555054 2.322406 1.000000
384.007294 -616.555054 2.193167 1.000000
384.007294 -616.555054 2.064343 1.000000
384.007294 -616.555054 1.935657 1.000000
384.007294 -616.555054 1.806833 1.000000
384.007294 -616.555054 1.677594 1.000000
384.007294 -616.555054 1.547659 1.000000
384.007294 -616.555054 1.416743 1.000000
384.007294 -616.555054 1.284548 1.000000
384.007294 -616.555054 1.150769 1.000000
384.007294 -616.555054 1.015085 1.000000
383.968536 -616.555786 2.991743 1.000000
383.968536 -616.555786 2.855119 1.000000
383.968536 -616.555786 2.720412 1.000000
383.968536 -616.555786 2.587301 1.000000
383.968536 -616.555786 2.455476 1.000000
383.968536 -616.555786 2.324641 1.000000
383.968536 -616.555786 2.194506 1.000000
383.968536 -616.555786 2.064789 1.000000
383.968536 -616.555786 1.935211 1.000000
383.968536 -616.555786 1.805494 1.000000
383.968536 -616.555786 1.675359 1.000000
383.968536 -616.555786 1.544524 1.000000
383.968536 -616.555786 1.412699 1.000000
383.968536 -616.555786 1.279588 1.000000
383.968536 -616.555786 1.144882 1.000000
383.968536 -616.555786 1.008257 1.000000
383.929260 -616.556519 2.998715 1.000000
383.929260 -616.556519 2.861130 1.000000
383.929260 -616.556519 2.725477 1.000000
383.929260 -616.556519 2.591430 1.000000
383.929260 -616.556519 2.458678 1.000000
383.929260 -616.556519 2.326923 1.000000
383.929260 -616.556519 2.195873 1.000000
383.929260 -616.556519 2.065244 1.000000
383.929260 -616.556519 1.934756 1.000000
383.929260 -616.556519 1.804127 1.000000
383.929260 -616.556519 1.673077 1.000000
383.929260 -616.556519 1.541322 1.000000
383.929260 -616.556519 1.408570 1.000000
383.929260 -616.556519 1.274523 1.000000
383.929260 -616.556519 1.138870 1.000000
383.929260 -616.556519 1.001285 1.000000
nan nan nan 0.000000
383.889404 -616.557251 2.867269 1.000000
383.889404 -616.557251 2.730649 1.000000
383.889404 -616.557251 2.595646 1.000000
383.889404 -616.557251 2.461948 1.000000
383.889404 -616.557251 2.329254 1.000000
383.889404 -616.557251 2.197270 1.000000
383.889404 -616.557251 2.065710 1.000000
383.889404 -616.557251 1.934290 1.000000
383.889404 -616.557251 1.802730 1.000000
383.889404 -616.557251 1.670746 1.000000
383.889404 -616.557251 1.538052 1.000000
383.889404 -616.557251 1.404354 1.000000
383.889404 -616.557251 1.269351 1.000000
383.889404 -616.557251 1.132731 1.000000
383.889404 -616.557251 0.994165 1.000000
nan nan nan 0.000000
383.848969 -616.558044 2.873540 1.000000
383.848969 -616.558044 2.735931 1.000000
383.848969 -616.558044 2.599953 1.000000
383.848969 -616.558044 2.465288 1.000000
383.848969 -616.558044 2.331634 1.000000
383.848969 -616.558044 2.198696 1.000000
383.848969 -616.558044 2.066185 1.000000
383.848969 -616.558044 1.933815 1.000000
383.848969 -616.558044 1.801304 1.000000
383.848969 -616.558044 1.668366 1.000000
383.848969 -616.558044 1.534712 1.000000
383.848969 -616.558044 1.400047 1.000000
383.848969 -616.558044 1.264069 1.000000
383.848969 -616.558044 1.126461 1.000000
383.848969 -616.558044 0.986892 1.000000
nan nan nan 0.000000
383.807953 -616.558777 2.879945 1.000000
383.807983 -616.558777 2.741327 1.000000
383.807953 -616.558777 2.604352 1.000000
383.807953 -616.558777 2.468700 1.000000
383.807953 -616.558777 2.334066 1.000000
383.807953 -616.558838 2.200153 1.000000
383.807953 -616.558777 2.066670 1.000000
383.807953 -616.558777 1.933330 1.000000
383.807953 -616.558838 1.799847 1.000000
383.807953 -616.558777 1.665934 1.000000
383.807953 -616.558777 1.531300 1.000000
383.807983 -616.558777 1.395648 1.000000
383.807983 -616.558777 1.258673 1.000000
383.807983 -616.558777 1.120056 1.000000
383.807983 -616.558777 0.979464 1.000000
nan nan nan 0.000000
383.766357 -616.559570 2.886487 1.000000
383.766357 -616.559570 2.746840 1.000000
383.766357 -616.559570 2.608845 1.000000
383.766357 -616.559570 2.472185 1.000000
383.766357 -616.559570 2.336550 1.000000
383.766357 -616.559570 2.201641 1.000000
383.766357 -616.559570 2.067166 1.000000
383.766357 -616.559570 1.932834 1.000000
383.766357 -616.559570 1.798359 1.000000
383.766357 -616.559570 1.663450 1.000000
383.766357 -616.559570 1.527815 1.000000
383.766357 -616.559570 1.391155 1.000000
383.766357 -616.559570 1.253161 1.000000
383.766357 -616.559570 1.113513 1.000000
383.766357 -616.559570 0.971876 1.000000
nan nan nan 0.000000
383.724091 -616.560364 2.893173 1.000000
383.724091 -616.560364 2.752471 1.000000
383.724091 -616.560364 2.613436 1.000000
383.724091 -616.560364 2.475746 1.000000
383.724091 -616.560364 2.339088 1.000000
383.724091 -616.560364 2.203162 1.000000
383.724091 -616.560364 2.067672 1.000000
383.724091 -616.560364 1.932328 1.000000
383.724091 -616.560364 1.796838 1.000000
383.724091 -616.560364 1.660912 1.000000
383.724091 -616.560364 1.524254 1.000000
383.724091 -616.560364 1.386563 1.000000
383.724091 -616.560364 1.247529 1.000000
383.724091 -616.560364 1.106828 1.000000
383.724091 -616.560364 0.964123 1.000000
nan nan nan 0.000000
383.681213 -616.561157 2.900003 1.000000
383.681213 -616.561157 2.758226 1.000000
383.681213 -616.561157 2.618128 1.000000
383.681213 -616.561157 2.479384 1.000000
383.681213 -616.561157 2.341681 1.000000
383.681213 -616.561157 2.204715 1.000000
383.681213 -616.561157 2.068190 1.000000
383.681213 -616.561157 1.931810 1.000000
383.681213 -616.561157 1.795285 1.000000
383.681213 -616.561157 1.658319 1.000000
383.681213 -616.561157 1.520616 1.000000
383.681213 -616.561157 1.381872 1.000000
383.681213 -616.561157 1.241774 1.000000
383.681213 -616.561157 1.099997 1.000000
383.681213 -616.561157 0.956201 1.000000
nan nan nan 0.000000
383.637665 -616.562012 2.906984 1.000000
383.637665 -616.562012 2.764107 1.000000
383.637665 -616.562012 2.622922 1.000000
383.637665 -616.562012 2.483102 1.000000
