# This PCD file was generated using the MATLABÂ® pcwrite function
# from Computer Vision ToolboxÂ®.
# .PCD v.7 - Point Cloud Data file format
VERSION .7
FIELDS x y z intensity
SIZE 4 4 4 4
TYPE F F F F
COUNT 1 1 1 1
WIDTH 1276
HEIGHT 1
VIEWPOINT 0 0 0 1 0 0 0
POINTS 1276
DATA ascii
nan nan nan 0.000000
nan nan nan 0.000000
nan nan nan 0.000000
nan nan nan 0.000000
nan nan nan 0.000000
nan nan nan 0.000000
305.025879 -554.689697 0.000026 0.536995
308.947296 -570.655945 0.010002 1.000000
310.589355 -577.341797 0.000009 0.338659
311.520081 -581.131226 -0.000013 0.340871
312.114288 -583.550659 -0.000007 0.332525
312.527283 -585.232178 -0.000003 0.332677
312.831573 -586.471069 -0.000000 0.336599
nan nan nan 0.000000
nan nan nan 0.000000
nan nan nan 0.000000
nan nan nan 0.000000
nan nan nan 0.000000
nan nan nan 0.000000
nan nan nan 0.000000
nan nan nan 0.000000
nan nan nan 0.000000
305.302124 -554.622864 0.000027 0.542153
309.083740 -570.497681 0.000021 0.543343
310.707336 -577.313232 0.000010 0.338689
311.611572 -581.109131 -0.000013 0.336934
312.188873 -583.532593 -0.000007 0.339330
312.590118 -585.216980 -0.000003 0.333730
312.885742 -586.458008 0.000000 0.333730
nan nan nan 0.000000
nan nan nan 0.000000
nan nan nan 0.000000
nan nan nan 0.000000
nan nan nan 0.000000
nan nan nan 0.000000
nan nan nan 0.000000
nan nan nan 0.000000
nan nan nan 0.000000
305.578827 -554.557922 0.000026 0.541985
309.249542 -570.458801 0.000021 0.549432
310.825500 -577.285522 0.000010 0.336843
311.703217 -581.087646 -0.000012 0.336446
312.263580 -583.515076 -0.000006 0.331731
312.653076 -585.202271 -0.000003 0.339376
312.940002 -586.445251 -0.000000 0.343603
nan nan nan 0.000000
nan nan nan 0.000000
nan nan nan 0.000000
nan nan nan 0.000000
nan nan nan 0.000000
nan nan nan 0.000000
nan nan nan 0.000000
nan nan nan 0.000000
nan nan nan 0.000000
305.855988 -554.494995 0.000026 0.539864
309.415588 -570.421082 0.000021 0.542092
310.943848 -577.258667 0.000010 0.337011
311.795013 -581.066772 -0.000012 0.339757
312.338409 -583.498047 -0.000007 0.341817
312.716095 -585.187927 -0.000002 0.341726
312.994385 -586.432922 0.000000 0.336431
nan nan nan 0.000000
nan nan nan 0.000000
nan nan nan 0.000000
nan nan nan 0.000000
nan nan nan 0.000000
299.283752 -522.749695 7.996040 1.000000
299.283752 -522.749695 5.592482 1.000000
299.283752 -522.749695 3.196639 1.000000
299.283752 -522.749695 0.803361 1.000000
306.133575 -554.433960 0.000027 0.539864
309.581909 -570.384460 0.000021 0.548287
311.080750 -577.317566 0.010011 1.000000
311.886932 -581.046570 -0.000012 0.338247
312.413361 -583.481628 -0.000006 0.341421
312.779236 -585.174011 -0.000002 0.341634
313.048828 -586.420959 0.000000 0.337621
nan nan nan 0.000000
nan nan nan 0.000000
nan nan nan 0.000000
nan nan nan 0.000000
nan nan nan 0.000000
301.023712 -528.582397 7.498571 1.000000
301.023712 -528.582397 5.294426 1.000000
301.023712 -528.582397 3.097357 1.000000
301.023712 -528.582397 0.902643 1.000000
306.411560 -554.374878 0.000026 0.543511
309.748474 -570.349121 0.000021 0.541085
311.198883 -577.292419 0.010005 1.000000
311.979004 -581.026978 -0.000012 0.339254
312.488434 -583.465637 -0.000006 0.343359
312.842499 -585.160583 -0.000002 0.330892
313.103333 -586.409363 0.000000 0.333867
nan nan nan 0.000000
nan nan nan 0.000000
nan nan nan 0.000000
nan nan nan 0.000000
nan nan nan 0.000000
302.497162 -533.521729 7.077547 1.000000
302.497162 -533.521729 5.042171 1.000000
302.497162 -533.521729 3.013333 1.000000
302.497162 -533.521729 0.986667 1.000000
306.689972 -554.317749 0.000026 0.540810
309.915283 -570.314819 0.000021 0.541421
311.300018 -577.182983 0.000012 0.336721
312.071198 -581.008057 -0.000012 0.334630
312.563599 -583.450195 -0.000006 0.335012
312.905823 -585.147583 -0.000002 0.338003
313.157959 -586.398132 0.000001 0.332860
nan nan nan 0.000000
nan nan nan 0.000000
nan nan nan 0.000000
nan nan nan 0.000000
303.761047 -537.758667 8.617500 1.000000
303.761047 -537.758667 6.716626 1.000000
303.761047 -537.758667 4.825927 1.000000
303.761047 -537.758667 2.941303 1.000000
303.761047 -537.758667 1.058696 1.000000
306.968781 -554.262512 0.000026 0.534722
310.082306 -570.281799 0.000021 0.541924
311.419067 -577.159485 0.000018 0.520653
312.163544 -580.989807 -0.000012 0.337896
312.638855 -583.435303 -0.000006 0.338842
312.969238 -585.135071 -0.000002 0.335134
313.212616 -586.387329 0.000001 0.338704
nan nan nan 0.000000
nan nan nan 0.000000
nan nan nan 0.000000
nan nan nan 0.000000
304.857239 -541.433350 8.178614 1.000000
304.857239 -541.433350 6.403809 1.000000
304.857239 -541.433350 4.638507 1.000000
304.857239 -541.433350 2.878873 1.000000
304.857239 -541.433350 1.121126 1.000000
307.247955 -554.209290 0.000026 0.539544
310.249573 -570.249878 0.000020 0.529534
311.538300 -577.136719 0.000018 0.548119
312.256012 -580.972168 -0.000012 0.337575
312.714233 -583.420959 -0.000006 0.333425
313.032745 -585.122925 -0.000002 0.342412
313.267365 -586.376892 0.000001 0.332250
nan nan nan 0.000000
nan nan nan 0.000000
nan nan nan 0.000000
nan nan nan 0.000000
305.817108 -544.651062 7.794593 1.000000
305.817108 -544.651062 6.130098 1.000000
305.817108 -544.651062 4.474515 1.000000
305.817108 -544.651062 2.824250 1.000000
305.817108 -544.651062 1.175750 1.000000
307.527496 -554.157959 0.000026 0.540398
310.417053 -570.219116 0.000020 0.535058
311.657684 -577.114807 0.000018 0.526513
312.360504 -581.021423 0.009979 1.000000
312.789734 -583.407104 -0.000006 0.325597
313.096313 -585.111267 -0.000002 0.331518
313.322205 -586.366821 0.000001 0.331975
nan nan nan 0.000000
nan nan nan 0.000000
nan nan nan 0.000000
nan nan nan 0.000000
306.664673 -547.492371 7.455765 1.000000
306.664673 -547.492371 5.888597 1.000000
306.664673 -547.492371 4.329822 1.000000
306.664673 -547.492371 2.776052 1.000000
306.664673 -547.492371 1.223947 1.000000
307.807404 -554.108643 0.000025 0.538170
310.584778 -570.189575 0.000020 0.538430
311.777191 -577.093750 0.000018 0.551263
312.452759 -581.005188 0.009979 1.000000
312.865295 -583.393799 -0.000005 0.333562
313.159973 -585.100037 -0.000002 0.328344
313.377106 -586.357117 0.000001 0.345220
nan nan nan 0.000000
nan nan nan 0.000000
nan nan nan 0.000000
307.418640 -550.019836 8.646456 1.000000
307.418640 -550.019836 7.154603 1.000000
307.418640 -550.019836 5.673944 1.000000
307.418640 -550.019836 4.201216 1.000000
307.418640 -550.019836 2.733214 1.000000
307.418640 -550.019836 1.266785 1.000000
308.087616 -554.061218 0.000026 0.539391
310.752655 -570.161194 0.000020 0.533028
311.896881 -577.073486 0.000018 0.538659
312.534088 -580.923096 -0.000011 0.338155
312.940948 -583.380981 -0.000005 0.340795
313.223724 -585.089233 -0.000002 0.340078
313.432068 -586.347839 0.000001 0.338964
nan nan nan 0.000000
nan nan nan 0.000000
nan nan nan 0.000000
308.093781 -552.283020 8.299053 1.000000
308.093781 -552.283020 6.885178 1.000000
308.093781 -552.283020 5.481912 1.000000
308.093781 -552.283020 4.086160 1.000000
308.093781 -552.283020 2.694891 1.000000
308.093781 -552.283020 1.305110 1.000000
308.368195 -554.015808 0.000026 0.541375
310.920746 -570.133972 0.000020 0.535470
312.016693 -577.054077 0.000018 0.548180
312.627014 -580.908081 -0.000011 0.338628
313.016693 -583.368713 -0.000005 0.315312
313.287537 -585.078918 -0.000001 0.340932
313.487091 -586.338928 0.000002 0.342626
nan nan nan 0.000000
nan nan nan 0.000000
nan nan nan 0.000000
308.701843 -554.321411 7.986446 1.000000
308.701843 -554.321411 6.642737 1.000000
308.701843 -554.321411 5.309112 1.000000
308.701843 -554.321411 3.982628 1.000000
308.701843 -554.321411 2.660404 1.000000
308.701843 -554.321411 1.339596 1.000000
308.701843 -554.321411 0.017372 1.000000
311.089050 -570.107910 0.000020 0.543862
312.136627 -577.035522 0.000018 0.538659
312.720062 -580.893860 0.000016 0.537774
313.100739 -583.411316 0.009991 1.000000
313.351440 -585.069031 -0.000001 0.337179
313.542175 -586.330383 0.000002 0.338704
nan nan nan 0.000000
nan nan nan 0.000000
309.252441 -556.167114 8.996391 1.000000
309.252441 -556.167175 7.703661 1.000000
309.252441 -556.167114 6.423427 1.000000
309.252441 -556.167114 5.152799 1.000000
309.252441 -556.167175 3.888974 1.000000
309.252441 -556.167175 2.629208 1.000000
309.252441 -556.167175 1.370791 1.000000
309.252441 -556.167175 0.111025 1.000000
311.257507 -570.083008 0.000020 0.542824
312.256683 -577.017822 0.000018 0.534340
312.813202 -580.880127 0.000016 0.527092
313.176270 -583.400085 0.009984 1.000000
313.415375 -585.059570 -0.000001 0.343328
313.597321 -586.322266 0.000001 0.340444
nan nan nan 0.000000
nan nan nan 0.000000
309.753387 -557.846497 8.681114 1.000000
309.753387 -557.846497 7.446639 1.000000
309.753387 -557.846497 6.224096 1.000000
309.753387 -557.846497 5.010724 1.000000
309.753387 -557.846497 3.803851 1.000000
309.753387 -557.846497 2.600854 1.000000
309.753387 -557.846497 1.399146 1.000000
309.753387 -557.846497 0.196147 1.000000
311.426117 -570.059326 0.000020 0.536751
312.376892 -577.000916 0.000018 0.528939
312.906403 -580.867004 0.000016 0.524224
313.251892 -583.389465 0.009983 1.000000
313.479401 -585.050598 -0.000000 0.339498
313.652527 -586.314514 0.000002 0.335439
nan nan nan 0.000000
nan nan nan 0.000000
310.211151 -559.380981 8.393332 1.000000
310.211151 -559.380981 7.212030 1.000000
310.211151 -559.380981 6.042147 1.000000
310.211151 -559.380981 4.881042 1.000000
310.211151 -559.380981 3.726152 1.000000
310.211151 -559.380981 2.574974 1.000000
310.211151 -559.380981 1.425026 1.000000
310.211151 -559.381042 0.273847 1.000000
311.594910 -570.036804 0.000020 0.531884
312.497192 -576.984863 0.000018 0.537545
312.999695 -580.854553 0.000016 0.537606
313.320496 -583.324951 -0.000005 0.336416
313.543488 -585.042053 -0.000001 0.339544
313.707764 -586.307129 0.000002 0.333608
nan nan nan 0.000000
nan nan nan 0.000000
310.631134 -560.788940 8.129596 1.000000
310.631134 -560.788940 6.997025 1.000000
310.631134 -560.788940 5.875401 1.000000
310.631134 -560.788940 4.762193 1.000000
310.631134 -560.788940 3.654945 1.000000
310.631134 -560.788940 2.551254 1.000000
310.631134 -560.788940 1.448746 1.000000
310.631134 -560.788940 0.345054 1.000000
311.763855 -570.015442 0.000020 0.532052
312.617584 -576.969666 0.000018 0.538430
313.093079 -580.842773 0.000016 0.509804
313.396637 -583.315308 -0.000005 0.333120
313.607635 -585.033936 -0.000001 0.342473
313.763062 -586.300171 0.000002 0.340230
nan nan nan 0.000000
nan nan nan 0.000000
310.967499 -561.649902 7.966787 1.000000
310.967499 -561.649902 6.864299 1.000000
310.967499 -561.649902 5.772466 1.000000
310.967499 -561.649902 4.688826 1.000000
310.967499 -561.649902 3.610989 1.000000
310.967499 -561.649902 2.536612 1.000000
310.967499 -561.649902 1.463387 1.000000
310.967499 -561.649902 0.389011 1.000000
311.932953 -569.995300 0.000020 0.531151
312.738098 -576.955261 0.000018 0.545846
313.186554 -580.831604 0.000016 0.551217
313.472839 -583.306335 0.000013 0.478202
313.677124 -585.072266 0.009995 1.000000
313.818420 -586.293579 0.000002 0.327245
nan nan nan 0.000000
nan nan nan 0.000000
311.191162 -561.589172 7.973234 1.000000
311.191162 -561.589172 6.869555 1.000000
311.191162 -561.589172 5.776543 1.000000
311.191162 -561.589172 4.691730 1.000000
311.191162 -561.589172 3.612729 1.000000
311.191162 -561.589172 2.537193 1.000000
311.191162 -561.589172 1.462807 1.000000
311.191162 -561.589172 0.387270 1.000000
312.102173 -569.976318 0.000019 0.540444
312.858734 -576.941772 0.000018 0.543328
313.280090 -580.821167 0.000016 0.538216
313.549103 -583.297791 0.000013 0.551186
313.741058 -585.065063 0.009990 1.000000
313.873810 -586.287354 0.000002 0.334783
nan nan nan 0.000000
nan nan nan 0.000000
311.415344 -561.528320 7.979988 1.000000
311.415344 -561.528320 6.875059 1.000000
311.415344 -561.528320 5.780811 1.000000
311.415344 -561.528320 4.694775 1.000000
311.415344 -561.528320 3.614553 1.000000
311.415344 -561.528320 2.537799 1.000000
311.415344 -561.528320 1.462200 1.000000
311.415344 -561.528320 0.385447 1.000000
312.271515 -569.958557 0.000019 0.543679
312.979431 -576.929077 0.000017 0.540932
313.373718 -580.811279 0.000016 0.517479
313.625427 -583.289734 0.000013 0.542535
313.805023 -585.058350 0.009987 1.000000
313.929260 -586.281494 0.000003 0.340230
nan nan nan 0.000000
nan nan nan 0.000000
311.640045 -561.467285 7.987047 1.000000
311.640045 -561.467285 6.880815 1.000000
311.640045 -561.467285 5.785275 1.000000
311.640045 -561.467285 4.697955 1.000000
311.640045 -561.467285 3.616459 1.000000
311.640045 -561.467285 2.538435 1.000000
311.640045 -561.467285 1.461565 1.000000
311.640045 -561.467285 0.383541 1.000000
312.440979 -569.941895 0.000019 0.544488
313.100220 -576.917236 0.000017 0.532555
313.467377 -580.802124 0.000016 0.546883
313.701782 -583.282288 0.000013 0.528634
313.864685 -585.006042 -0.000000 0.337896
313.984741 -586.276062 0.000003 0.342641
nan nan nan 0.000000
nan nan nan 0.000000
311.865265 -561.406128 7.994415 1.000000
311.865265 -561.406128 6.886824 1.000000
311.865265 -561.406128 5.789934 1.000000
311.865265 -561.406128 4.701277 1.000000
311.865265 -561.406128 3.618449 1.000000
311.865265 -561.406128 2.539097 1.000000
311.865265 -561.406128 1.460902 1.000000
311.865265 -561.406128 0.381551 1.000000
312.610565 -569.926453 0.000019 0.549249
313.221100 -576.906250 0.000017 0.530709
313.561127 -580.793579 0.000016 0.541527
313.778198 -583.275330 0.000013 0.559640
313.929077 -585.000183 0.000000 0.341344
314.043732 -586.310791 0.010005 1.000000
nan nan nan 0.000000
nan nan nan 0.000000
312.091095 -561.344788 8.002096 1.000000
312.091095 -561.344788 6.893084 1.000000
312.091095 -561.344788 5.794791 1.000000
312.091095 -561.344788 4.704737 1.000000
312.091095 -561.344788 3.620522 1.000000
312.091095 -561.344849 2.539788 1.000000
312.091095 -561.344849 1.460212 1.000000
312.091095 -561.344788 0.379477 1.000000
312.780243 -569.912231 0.000019 0.538338
313.342041 -576.896057 0.000017 0.539605
313.654907 -580.785706 0.000016 0.555016
313.854675 -583.268921 0.000013 0.544442
313.993500 -584.994812 0.000011 0.559350
314.098999 -586.306152 0.010000 1.000000
nan nan nan 0.000000
nan nan nan 0.000000
312.317474 -561.283325 8.010088 1.000000
312.317474 -561.283325 6.899601 1.000000
312.317474 -561.283325 5.799845 1.000000
312.317474 -561.283325 4.708339 1.000000
312.317474 -561.283325 3.622681 1.000000
312.317474 -561.283325 2.540506 1.000000
312.317474 -561.283325 1.459493 1.000000
312.317474 -561.283325 0.377319 1.000000
312.950043 -569.899170 0.000019 0.534386
313.463043 -576.886780 0.000017 0.536629
313.748779 -580.778503 0.000016 0.545495
313.931183 -583.263000 0.000013 0.533745
314.057953 -584.989868 0.000011 0.550835
314.154297 -586.301880 0.009996 1.000000
nan nan nan 0.000000
nan nan nan 0.000000
312.544495 -561.221680 8.018397 1.000000
312.544495 -561.221680 6.906373 1.000000
312.544495 -561.221680 5.805098 1.000000
312.544495 -561.221680 4.712085 1.000000
312.544495 -561.221680 3.624924 1.000000
312.544495 -561.221680 2.541255 1.000000
312.544495 -561.221680 1.458745 1.000000
312.544495 -561.221680 0.375076 1.000000
313.119904 -569.887329 0.000019 0.535439
313.584137 -576.878296 0.000017 0.538827
313.842682 -580.771912 0.000016 0.542580
314.007721 -583.257690 0.000013 0.514992
314.122437 -584.985352 0.000011 0.530159
314.209625 -586.297974 0.009991 1.000000
nan nan nan 0.000000
nan nan nan 0.000000
312.772125 -561.159851 8.027025 1.000000
312.772125 -561.159851 6.913406 1.000000
312.772125 -561.159851 5.810550 1.000000
312.772125 -561.159912 4.715970 1.000000
312.772125 -561.159851 3.627253 1.000000
312.772125 -561.159851 2.542030 1.000000
312.772125 -561.159851 1.457970 1.000000
312.772125 -561.159851 0.372747 1.000000
313.289856 -569.876587 0.000020 0.537896
313.705261 -576.870667 0.000017 0.549126
313.936615 -580.765991 0.000016 0.533074
314.084320 -583.252869 0.000013 0.541451
314.186981 -584.981262 0.000011 0.525521
314.262604 -586.254700 0.000003 0.335180
nan nan nan 0.000000
nan nan nan 0.000000
313.000458 -561.097900 8.035970 1.000000
313.000458 -561.097900 6.920699 1.000000
313.000458 -561.097900 5.816207 1.000000
313.000458 -561.097900 4.720003 1.000000
313.000458 -561.097900 3.629668 1.000000
313.000458 -561.097900 2.542834 1.000000
313.000458 -561.097900 1.457165 1.000000
313.000458 -561.097900 0.370332 1.000000
313.459869 -569.867126 0.000020 0.539620
313.826447 -576.863892 0.000017 0.538643
314.030579 -580.760742 0.000016 0.545052
314.160919 -583.248596 0.000013 0.553140
314.251526 -584.977661 0.000011 0.568475
314.318268 -586.251587 0.000004 0.324636
nan nan nan 0.000000
nan nan nan 0.000000
313.229462 -561.035706 8.045237 1.000000
313.229462 -561.035706 6.928253 1.000000
313.229462 -561.035706 5.822065 1.000000
313.229462 -561.035706 4.724178 1.000000
313.229462 -561.035706 3.632169 1.000000
313.229462 -561.035706 2.543668 1.000000
313.229462 -561.035706 1.456332 1.000000
313.229462 -561.035706 0.367830 1.000000
313.629944 -569.858826 0.000020 0.540032
313.947662 -576.857971 0.000018 0.529580
314.124603 -580.756165 0.000016 0.557794
314.237579 -583.244812 0.000013 0.527626
314.316101 -584.974548 0.000011 0.527321
314.373932 -586.248901 0.000003 0.336416
nan nan nan 0.000000
nan nan nan 0.000000
313.459167 -560.973328 8.054826 1.000000
313.459167 -560.973328 6.936072 1.000000
313.459167 -560.973328 5.828128 1.000000
313.459167 -560.973328 4.728500 1.000000
313.459167 -560.973328 3.634759 1.000000
313.459167 -560.973328 2.544530 1.000000
313.459167 -560.973328 1.455470 1.000000
313.459167 -560.973328 0.365241 1.000000
313.800079 -569.851685 0.000020 0.533547
314.068909 -576.852905 0.000017 0.530434
314.218658 -580.752258 0.000016 0.554543
314.314240 -583.241577 0.000013 0.532189
314.380676 -584.971802 0.000011 0.537469
314.429626 -586.246582 0.000010 0.535256
nan nan nan 0.000000
nan nan nan 0.000000
313.689636 -560.910706 8.064744 1.000000
313.689636 -560.910706 6.944158 1.000000
313.689636 -560.910706 5.834399 1.000000
313.689636 -560.910706 4.732969 1.000000
313.689636 -560.910706 3.637437 1.000000
313.689636 -560.910706 2.545423 1.000000
313.689636 -560.910767 1.454577 1.000000
313.689636 -560.910706 0.362563 1.000000
313.970276 -569.845703 0.000019 0.538125
314.190216 -576.848694 0.000017 0.530800
314.312714 -580.748962 0.000016 0.547631
314.390930 -583.238953 0.000013 0.556649
314.445282 -584.969543 0.000011 0.542580
314.485321 -586.244629 0.000010 0.546777
nan nan nan 0.000000
nan nan nan 0.000000
313.920868 -560.847961 8.074991 1.000000
313.920837 -560.847900 6.952511 1.000000
313.920868 -560.847961 5.840877 1.000000
313.920868 -560.847961 4.737587 1.000000
313.920868 -560.847961 3.640203 1.000000
313.920868 -560.847961 2.546343 1.000000
313.920868 -560.847961 1.453656 1.000000
313.920868 -560.847961 0.359797 1.000000
314.140472 -569.841003 0.000019 0.545266
314.311554 -576.845276 0.000017 0.540215
314.406799 -580.746338 0.000016 0.529717
314.467621 -583.236816 0.000013 0.514565
314.509918 -584.967773 0.000011 0.515175
314.541046 -586.243042 0.000010 0.515267
nan nan nan 0.000000
nan nan nan 0.000000
314.152863 -560.784912 8.085569 1.000000
314.152863 -560.784912 6.961133 1.000000
314.152863 -560.784912 5.847566 1.000000
314.152863 -560.784912 4.742352 1.000000
314.152863 -560.784912 3.643059 1.000000
314.152863 -560.784912 2.547295 1.000000
314.152863 -560.784912 1.452705 1.000000
314.152863 -560.784912 0.356941 1.000000
314.310730 -569.837402 0.000019 0.546044
314.432892 -576.842712 0.000017 0.542000
314.500916 -580.744324 0.000016 0.550484
314.544342 -583.235168 0.000013 0.513039
314.574554 -584.966431 0.000011 0.549111
314.596771 -586.241882 0.000010 0.530022
nan nan nan 0.000000
nan nan nan 0.000000
314.385712 -560.721680 8.096481 1.000000
314.385712 -560.721680 6.970029 1.000000
314.385712 -560.721680 5.854465 1.000000
314.385712 -560.721741 4.747271 1.000000
314.385712 -560.721680 3.646006 1.000000
314.385712 -560.721680 2.548277 1.000000
314.385712 -560.721680 1.451724 1.000000
314.385712 -560.721680 0.353994 1.000000
314.480988 -569.835022 0.000019 0.539452
314.554230 -576.841064 0.000017 0.552331
314.595032 -580.743042 0.000016 0.542199
314.621094 -583.234131 0.000013 0.545998
314.639191 -584.965515 0.000010 0.554116
314.652527 -586.241150 0.000009 0.569604
nan nan nan 0.000000
nan nan nan 0.000000
314.619415 -560.658264 8.107731 1.000000
314.619415 -560.658264 6.979201 1.000000
314.619415 -560.658264 5.861577 1.000000
314.619415 -560.658264 4.752341 1.000000
314.619415 -560.658264 3.649043 1.000000
314.619415 -560.658264 2.549289 1.000000
314.619415 -560.658264 1.450711 1.000000
314.619415 -560.658264 0.350956 1.000000
314.651276 -569.833862 0.000019 0.524208
314.675598 -576.840210 0.000017 0.542199
314.689148 -580.742371 0.000016 0.519539
314.697815 -583.233582 0.000013 0.542962
314.703827 -584.965088 0.000011 0.511406
314.708252 -586.240723 0.000009 0.525383
nan nan nan 0.000000
nan nan nan 0.000000
314.853973 -560.594543 8.119323 1.000000
314.853973 -560.594543 6.988651 1.000000
314.853973 -560.594543 5.868906 1.000000
314.853973 -560.594543 4.757564 1.000000
314.853973 -560.594543 3.652173 1.000000
314.853973 -560.594543 2.550332 1.000000
314.853973 -560.594543 1.449669 1.000000
314.853973 -560.594543 0.347827 1.000000
314.821564 -569.833862 0.000019 0.532525
314.796967 -576.840210 0.000017 0.547967
314.783295 -580.742371 0.000015 0.535897
314.774536 -583.233582 0.000013 0.541238
314.768463 -584.965088 0.000011 0.561532
314.764008 -586.240723 0.000010 0.534936
nan nan nan 0.000000
nan nan nan 0.000000
315.089447 -560.530640 8.131255 1.000000
315.089447 -560.530640 6.998379 1.000000
315.089447 -560.530640 5.876451 1.000000
315.089447 -560.530640 4.762941 1.000000
315.089447 -560.530640 3.655394 1.000000
315.089447 -560.530640 2.551404 1.000000
315.089447 -560.530640 1.448596 1.000000
315.089447 -560.530640 0.344605 1.000000
314.991852 -569.835022 0.000019 0.544488
314.918335 -576.841064 0.000017 0.536355
314.877411 -580.743042 0.000016 0.545785
314.851288 -583.234131 0.000013 0.544503
314.833130 -584.965515 0.000011 0.521630
314.819733 -586.241150 0.000009 0.541848
nan nan nan 0.000000
nan nan nan 0.000000
315.325836 -560.466431 8.143538 1.000000
315.325836 -560.466431 7.008392 1.000000
315.325836 -560.466431 5.884216 1.000000
315.325836 -560.466431 4.768476 1.000000
315.325836 -560.466431 3.658710 1.000000
315.325836 -560.466431 2.552509 1.000000
315.325836 -560.466431 1.447492 1.000000
315.325836 -560.466431 0.341290 1.000000
315.162109 -569.837402 0.000019 0.547616
315.039703 -576.842773 0.000017 0.532967
314.971527 -580.744385 0.000016 0.544671
314.928009 -583.235168 0.000013 0.538125
314.897766 -584.966431 0.000011 0.518380
314.875488 -586.241882 0.000010 0.548455
nan nan nan 0.000000
nan nan nan 0.000000
315.563202 -560.401978 8.156169 1.000000
315.563202 -560.401978 7.018686 1.000000
315.563202 -560.401978 5.892201 1.000000
315.563202 -560.401978 4.774167 1.000000
315.563202 -560.401978 3.662121 1.000000
315.563202 -560.401978 2.553644 1.000000
315.563202 -560.401978 1.446355 1.000000
315.563202 -560.401978 0.337879 1.000000
315.332336 -569.841003 0.000018 0.534951
315.161041 -576.845276 0.000017 0.534127
315.065643 -580.746338 0.000016 0.555856
315.004730 -583.236816 0.000013 0.542062
314.962402 -584.967773 0.000011 0.542290
314.931213 -586.243103 0.000010 0.514290
nan nan nan 0.000000
nan nan nan 0.000000
315.801544 -560.337219 8.169151 1.000000
315.801544 -560.337219 7.029273 1.000000
315.801544 -560.337219 5.900411 1.000000
315.801544 -560.337219 4.780018 1.000000
315.801544 -560.337219 3.665627 1.000000
315.801544 -560.337219 2.554812 1.000000
315.801544 -560.337219 1.445188 1.000000
315.801544 -560.337219 0.334374 1.000000
315.502563 -569.845764 0.000019 0.545403
315.282379 -576.848694 0.000017 0.545586
315.159729 -580.748962 0.000016 0.541360
315.081451 -583.238953 0.000013 0.532860
315.027008 -584.969604 0.000010 0.534951
314.986938 -586.244629 0.000010 0.514702
nan nan nan 0.000000
nan nan nan 0.000000
316.040924 -560.272217 8.182493 1.000000
316.040924 -560.272217 7.040148 1.000000
316.040924 -560.272217 5.908846 1.000000
316.040924 -560.272217 4.786031 1.000000
316.040924 -560.272217 3.669227 1.000000
316.040924 -560.272217 2.556012 1.000000
316.040924 -560.272217 1.443988 1.000000
316.040924 -560.272217 0.330772 1.000000
315.672760 -569.851685 0.000018 0.540108
315.403656 -576.852905 0.000017 0.554665
315.253815 -580.752258 0.000016 0.547616
315.158112 -583.241638 0.000013 0.508614
315.091614 -584.971802 0.000011 0.535012
315.042633 -586.246582 0.000009 0.530816
nan nan nan 0.000000
nan nan nan 0.000000
316.281342 -560.206970 8.196193 1.000000
316.281342 -560.206970 7.051318 1.000000
316.281342 -560.206970 5.917509 1.000000
316.281342 -560.206970 4.792205 1.000000
316.281342 -560.206970 3.672926 1.000000
316.281342 -560.206970 2.557245 1.000000
316.281342 -560.206970 1.442756 1.000000
316.281342 -560.206970 0.327072 1.000000
315.842896 -569.858826 0.000019 0.547356
315.524933 -576.858032 0.000016 0.558556
315.347839 -580.756165 0.000015 0.551843
315.234802 -583.244812 0.000013 0.521309
315.156219 -584.974548 0.000011 0.525750
315.098328 -586.248901 0.000009 0.563958
nan nan nan 0.000000
nan nan nan 0.000000
316.522827 -560.141357 8.210261 1.000000
316.522827 -560.141357 7.062785 1.000000
316.522827 -560.141357 5.926401 1.000000
316.522827 -560.141357 4.798544 1.000000
316.522827 -560.141357 3.676725 1.000000
316.522827 -560.141357 2.558509 1.000000
316.522827 -560.141357 1.441491 1.000000
316.522827 -560.141357 0.323275 1.000000
316.012970 -569.867126 0.000018 0.531609
315.646149 -576.863953 0.000016 0.541726
315.441864 -580.760803 0.000015 0.528649
315.311432 -583.248596 0.000013 0.505455
315.220795 -584.977722 0.000010 0.515312
315.153992 -586.251648 0.000009 0.548943
nan nan nan 0.000000
nan nan nan 0.000000
316.765442 -560.075500 8.224693 1.000000
316.765442 -560.075500 7.074552 1.000000
316.765442 -560.075500 5.935527 1.000000
316.765442 -560.075500 4.805048 1.000000
316.765442 -560.075500 3.680622 1.000000
316.765442 -560.075500 2.559808 1.000000
316.765442 -560.075500 1.440193 1.000000
316.765442 -560.075500 0.319377 1.000000
316.182983 -569.876648 0.000018 0.535378
315.767334 -576.870728 0.000017 0.536492
315.535858 -580.766052 0.000015 0.542702
315.388062 -583.252869 0.000013 0.564996
315.285339 -584.981323 0.000010 0.562615
315.209656 -586.254761 0.000010 0.503990
nan nan nan 0.000000
nan nan nan 0.000000
317.009186 -560.009277 8.239500 1.000000
317.009186 -560.009277 7.086622 1.000000
317.009186 -560.009277 5.944888 1.000000
317.009186 -560.009277 4.811719 1.000000
317.009186 -560.009277 3.684619 1.000000
317.009186 -560.009277 2.561139 1.000000
317.009186 -560.009277 1.438861 1.000000
317.009186 -560.009277 0.315380 1.000000
316.352936 -569.887329 0.000019 0.538033
315.888458 -576.878357 0.000016 0.545724
315.629791 -580.771973 0.000016 0.538933
315.464630 -583.257690 0.000013 0.540902
315.349854 -584.985352 0.000011 0.522484
315.265289 -586.258240 0.000009 0.527321
nan nan nan 0.000000
nan nan nan 0.000000
317.254120 -559.942810 8.254681 1.000000
317.254120 -559.942810 7.098998 1.000000
317.254120 -559.942810 5.954485 1.000000
317.254120 -559.942810 4.818560 1.000000
317.254120 -559.942810 3.688718 1.000000
317.254120 -559.942810 2.562505 1.000000
317.254120 -559.942810 1.437496 1.000000
317.254120 -559.942810 0.311282 1.000000
316.522797 -569.899231 0.000018 0.538552
316.009552 -576.886780 0.000016 0.533913
315.723694 -580.778503 0.000016 0.522713
315.541199 -583.263062 0.000013 0.560159
315.414337 -584.989868 0.000011 0.538384
315.320892 -586.262146 0.000009 0.551705
nan nan nan 0.000000
nan nan nan 0.000000
317.500275 -559.875977 8.270243 1.000000
317.500275 -559.875977 7.111685 1.000000
317.500244 -559.875977 5.964324 1.000000
317.500275 -559.875977 4.825574 1.000000
317.500244 -559.875977 3.692919 1.000000
317.500244 -559.875977 2.563903 1.000000
317.500244 -559.875977 1.436096 1.000000
317.500244 -559.875977 0.307079 1.000000
316.692566 -569.912292 0.000018 0.536202
316.130554 -576.896118 0.000016 0.540169
315.817535 -580.785767 0.000016 0.539757
315.617706 -583.268921 0.000013 0.533455
315.478790 -584.994812 0.000010 0.543404
315.376465 -586.266418 0.000009 0.571496
nan nan nan 0.000000
nan nan nan 0.000000
317.747620 -559.808777 8.286190 1.000000
317.747620 -559.808777 7.124686 1.000000
317.747620 -559.808777 5.974407 1.000000
317.747620 -559.808777 4.832760 1.000000
317.747620 -559.808777 3.697225 1.000000
317.747620 -559.808777 2.565338 1.000000
317.747620 -559.808777 1.434662 1.000000
317.747620 -559.808777 0.302774 1.000000
316.862274 -569.926514 0.000018 0.544320
316.251495 -576.906250 0.000016 0.526558
315.911316 -580.793640 0.000015 0.549844
315.694153 -583.275330 0.000013 0.546029
315.543213 -585.000244 0.000010 0.570993
315.432007 -586.271057 0.000010 0.539528
nan nan nan 0.000000
nan nan nan 0.000000
317.996277 -559.741272 8.302526 1.000000
317.996277 -559.741272 7.138003 1.000000
317.996277 -559.741272 5.984735 1.000000
317.996277 -559.741272 4.840122 1.000000
317.996277 -559.741272 3.701636 1.000000
317.996277 -559.741272 2.566806 1.000000
317.996277 -559.741272 1.433193 1.000000
317.996277 -559.741272 0.298364 1.000000
317.031860 -569.941956 0.000018 0.541421
316.372375 -576.917297 0.000016 0.536110
316.005066 -580.802124 0.000015 0.558129
315.770569 -583.282288 0.000013 0.577203
315.607605 -585.006104 0.000011 0.549249
315.487518 -586.276123 0.000009 0.561578
nan nan nan 0.000000
nan nan nan 0.000000
318.246246 -559.673401 8.319256 1.000000
318.246246 -559.673401 7.151642 1.000000
318.246246 -559.673401 5.995313 1.000000
318.246246 -559.673401 4.847660 1.000000
318.246246 -559.673401 3.706154 1.000000
318.246246 -559.673401 2.568311 1.000000
318.246246 -559.673401 1.431689 1.000000
318.246246 -559.673401 0.293846 1.000000
317.201324 -569.958618 0.000018 0.533684
316.493164 -576.929138 0.000017 0.552468
316.098755 -580.811340 0.000015 0.529931
315.846954 -583.289795 0.000012 0.547341
315.671936 -585.012390 0.000010 0.549325
315.542999 -586.281555 0.000009 0.530755
nan nan nan 0.000000
nan nan nan 0.000000
318.497528 -559.605164 8.336387 1.000000
318.497528 -559.605164 7.165606 1.000000
318.497528 -559.605164 6.006143 1.000000
318.497528 -559.605164 4.855380 1.000000
318.497528 -559.605164 3.710778 1.000000
318.497528 -559.605164 2.569851 1.000000
318.497528 -559.605164 1.430148 1.000000
318.497528 -559.605164 0.289222 1.000000
317.370667 -569.976379 0.000018 0.537789
316.613861 -576.941833 0.000016 0.539574
316.192352 -580.821167 0.000015 0.516014
315.923279 -583.297791 0.000013 0.542931
315.736237 -585.019165 0.000011 0.535241
315.598450 -586.287415 0.000010 0.526299
nan nan nan 0.000000
nan nan nan 0.000000
318.750214 -559.536560 8.353918 1.000000
318.750214 -559.536560 7.179899 1.000000
318.750214 -559.536560 6.017228 1.000000
318.750214 -559.536560 4.863279 1.000000
318.750214 -559.536560 3.715511 1.000000
318.750214 -559.536560 2.571429 1.000000
318.750214 -559.536560 1.428571 1.000000
318.750214 -559.536560 0.284489 1.000000
317.539886 -569.995361 0.000018 0.539254
316.734467 -576.955322 0.000016 0.549783
316.285889 -580.831665 0.000015 0.508812
315.999512 -583.306396 0.000012 0.520531
315.800476 -585.026367 0.000011 0.520638
315.653839 -586.293640 0.000009 0.527276
nan nan nan 0.000000
nan nan nan 0.000000
319.004303 -559.467529 8.371858 1.000000
319.004303 -559.467529 7.194526 1.000000
319.004303 -559.467529 6.028571 1.000000
319.004303 -559.467529 4.871366 1.000000
319.004303 -559.467529 3.720356 1.000000
319.004303 -559.467529 2.573042 1.000000
319.004303 -559.467529 1.426958 1.000000
319.004303 -559.467529 0.279644 1.000000
317.708984 -570.015564 0.000017 0.558404
316.854980 -576.969727 0.000016 0.530755
316.379364 -580.842834 0.000015 0.516152
316.075714 -583.315491 0.000013 0.538582
315.864685 -585.034058 0.000010 0.528099
315.709198 -586.300232 0.000009 0.523903
nan nan nan 0.000000
nan nan nan 0.000000
319.259827 -559.398132 8.390213 1.000000
319.259827 -559.398132 7.209490 1.000000
319.259827 -559.398132 6.040176 1.000000
319.259827 -559.398132 4.879636 1.000000
319.259827 -559.398132 3.725311 1.000000
319.259827 -559.398132 2.574693 1.000000
319.259827 -559.398132 1.425307 1.000000
319.259827 -559.398132 0.274689 1.000000
317.877930 -570.036865 0.000018 0.542123
316.975403 -576.984924 0.000016 0.529686
316.472748 -580.854614 0.000015 0.535454
316.151855 -583.325073 0.000013 0.541939
315.928802 -585.042175 0.000010 0.544823
315.764496 -586.307190 0.000010 0.558389
nan nan nan 0.000000
nan nan nan 0.000000
319.516876 -559.328369 8.408987 1.000000
319.516876 -559.328369 7.224793 1.000000
319.516876 -559.328369 6.052046 1.000000
319.516876 -559.328369 4.888096 1.000000
319.516876 -559.328369 3.730381 1.000000
319.516876 -559.328369 2.576381 1.000000
319.516876 -559.328369 1.423618 1.000000
319.516876 -559.328369 0.269619 1.000000
318.046722 -570.059387 0.000018 0.536553
317.095703 -577.000977 0.000016 0.551064
316.566040 -580.867065 0.000015 0.525216
316.227905 -583.335205 0.000012 0.539818
315.992889 -585.050720 0.000010 0.549722
315.819733 -586.314575 0.000009 0.520302
nan nan nan 0.000000
nan nan nan 0.000000
319.775421 -559.258179 8.428186 1.000000
319.775421 -559.258179 7.240446 1.000000
319.775421 -559.258179 6.064185 1.000000
319.775421 -559.258118 4.896749 1.000000
319.775421 -559.258179 3.735564 1.000000
319.775421 -559.258118 2.578109 1.000000
319.775421 -559.258118 1.421891 1.000000
319.775421 -559.258179 0.264436 1.000000
318.215332 -570.083130 0.000018 0.534264
317.215912 -577.017883 0.000016 0.523552
316.659271 -580.880188 0.000015 0.537545
316.303894 -583.345886 0.000013 0.547555
316.056915 -585.059692 0.000010 0.556222
315.874939 -586.322327 0.000010 0.550805
nan nan nan 0.000000
nan nan nan 0.000000
320.035553 -559.187500 8.447820 1.000000
320.035553 -559.187500 7.256451 1.000000
320.035553 -559.187500 6.076597 1.000000
320.035553 -559.187500 4.905594 1.000000
320.035553 -559.187500 3.740863 1.000000
320.035553 -559.187500 2.579874 1.000000
320.035553 -559.187500 1.420126 1.000000
320.035553 -559.187500 0.259135 1.000000
318.383789 -570.107971 0.000018 0.537789
317.335968 -577.035583 0.000017 0.557992
316.752380 -580.893921 0.000015 0.542016
316.379822 -583.357117 0.000012 0.532982
316.120850 -585.069153 0.000010 0.496773
315.930084 -586.330505 0.000009 0.521096
nan nan nan 0.000000
nan nan nan 0.000000
320.297272 -559.116455 8.467885 1.000000
320.297272 -559.116455 7.272808 1.000000
320.297272 -559.116455 6.089283 1.000000
320.297272 -559.116455 4.914637 1.000000
320.297272 -559.116455 3.746281 1.000000
320.297272 -559.116455 2.581678 1.000000
320.297272 -559.116455 1.418322 1.000000
320.297272 -559.116455 0.253718 1.000000
318.552063 -570.134033 0.000017 0.559030
317.455902 -577.054199 0.000016 0.541360
316.845398 -580.908325 0.000015 0.544259
316.455658 -583.368835 0.000012 0.570642
316.184753 -585.079041 0.000010 0.537163
315.985168 -586.338989 0.000009 0.549325
nan nan nan 0.000000
nan nan nan 0.000000
320.560669 -559.044922 8.488392 1.000000
320.560669 -559.044922 7.289528 1.000000
320.560669 -559.044922 6.102250 1.000000
320.560669 -559.044922 4.923880 1.000000
320.560669 -559.044922 3.751818 1.000000
320.560669 -559.044922 2.583522 1.000000
320.560669 -559.044922 1.416477 1.000000
320.560669 -559.044922 0.248181 1.000000
318.720154 -570.161255 0.000017 0.536065
317.575714 -577.073608 0.000016 0.523522
316.938324 -580.923401 0.000015 0.541024
316.531403 -583.381104 0.000013 0.552438
316.248566 -585.089355 0.000010 0.531426
316.040192 -586.347900 0.000009 0.556176
nan nan nan 0.000000
nan nan nan 0.000000
320.825714 -558.972961 8.509350 1.000000
320.825745 -558.972961 7.306613 1.000000
320.825714 -558.972961 6.115499 1.000000
320.825714 -558.972961 4.933323 1.000000
320.825745 -558.972961 3.757478 1.000000
320.825714 -558.972961 2.585407 1.000000
320.825714 -558.972961 1.414593 1.000000
320.825745 -558.972961 0.242522 1.000000
318.888062 -570.189697 0.000018 0.545968
317.695374 -577.093811 0.000016 0.523354
317.031128 -580.939087 0.000015 0.548241
316.607056 -583.393921 0.000012 0.550530
316.312317 -585.100159 0.000010 0.535363
316.095154 -586.357239 0.000009 0.512901
nan nan nan 0.000000
nan nan nan 0.000000
321.092529 -558.900513 8.530764 1.000000
321.092529 -558.900513 7.324070 1.000000
321.092529 -558.900513 6.129038 1.000000
321.092529 -558.900513 4.942973 1.000000
321.092529 -558.900513 3.763259 1.000000
321.092529 -558.900513 2.587334 1.000000
321.092529 -558.900513 1.412667 1.000000
321.092529 -558.900513 0.236740 1.000000
319.055756 -570.219238 0.000017 0.539620
317.814911 -577.114929 0.000016 0.535698
317.123810 -580.955444 0.000015 0.539437
316.682617 -583.407227 0.000012 0.534234
316.375977 -585.111389 0.000010 0.533761
316.150055 -586.366882 0.000009 0.530816
nan nan nan 0.000000
nan nan nan 0.000000
321.361115 -558.827576 8.552639 1.000000
321.361084 -558.827576 7.341902 1.000000
321.361084 -558.827576 6.142868 1.000000
321.361115 -558.827576 4.952830 1.000000
321.361115 -558.827576 3.769165 1.000000
321.361115 -558.827576 2.589301 1.000000
321.361115 -558.827576 1.410699 1.000000
321.361115 -558.827576 0.230835 1.000000
319.223236 -570.250000 0.000017 0.535897
317.934296 -577.136841 0.000016 0.535790
317.216400 -580.972412 0.000015 0.541161
316.758087 -583.421082 0.000012 0.550240
316.439545 -585.123047 0.000010 0.512505
316.204865 -586.376953 0.000009 0.505272
nan nan nan 0.000000
nan nan nan 0.000000
321.631500 -558.754150 8.574979 1.000000
321.631500 -558.754150 7.360119 1.000000
321.631500 -558.754150 6.156994 1.000000
321.631500 -558.754150 4.962898 1.000000
321.631500 -558.754150 3.775198 1.000000
321.631500 -558.754150 2.591309 1.000000
321.631500 -558.754150 1.408690 1.000000
321.631500 -558.754150 0.224802 1.000000
319.390503 -570.281921 0.000017 0.546944
318.053497 -577.159546 0.000016 0.536309
317.308868 -580.990051 0.000015 0.549493
316.833466 -583.435486 0.000012 0.529488
316.503052 -585.135193 0.000010 0.551751
316.259613 -586.387390 0.000009 0.545174
nan nan nan 0.000000
nan nan nan 0.000000
321.903748 -558.680237 8.597800 1.000000
321.903748 -558.680237 7.378721 1.000000
321.903748 -558.680176 6.171422 1.000000
321.903748 -558.680176 4.973183 1.000000
321.903748 -558.680176 3.781358 1.000000
321.903748 -558.680237 2.593362 1.000000
321.903748 -558.680237 1.406638 1.000000
321.903748 -558.680237 0.218641 1.000000
319.557556 -570.315002 0.000017 0.538109
318.172577 -577.183105 0.000016 0.540887
317.401184 -581.008362 0.000015 0.524788
316.908752 -583.450378 0.000012 0.577996
316.566467 -585.147705 0.000010 0.539788
316.314301 -586.398254 0.000010 0.516335
nan nan nan 0.000000
nan nan nan 0.000000
322.177917 -558.605774 8.621103 1.000000
322.177917 -558.605774 7.397717 1.000000
322.177917 -558.605774 6.186154 1.000000
322.177917 -558.605774 4.983683 1.000000
322.177917 -558.605774 3.787650 1.000000
322.177917 -558.605774 2.595458 1.000000
322.177917 -558.605774 1.404542 1.000000
322.177917 -558.605774 0.212350 1.000000
319.724365 -570.349243 0.000018 0.528389
318.291443 -577.207520 0.000016 0.524468
317.493408 -581.027283 0.000015 0.539269
316.983917 -583.465820 0.000012 0.532479
316.629791 -585.160706 0.000010 0.531716
316.368896 -586.409424 0.000009 0.539895
nan nan nan 0.000000
nan nan nan 0.000000
322.454010 -558.530762 8.644894 1.000000
322.454010 -558.530762 7.417111 1.000000
322.454010 -558.530762 6.201196 1.000000
322.454010 -558.530762 4.994403 1.000000
322.454010 -558.530762 3.794072 1.000000
322.454010 -558.530762 2.597597 1.000000
322.454010 -558.530762 1.402403 1.000000
322.454010 -558.530762 0.205927 1.000000
319.890930 -570.384644 0.000017 0.530602
318.410156 -577.232788 0.000016 0.558251
317.585480 -581.046814 0.000015 0.537636
317.058960 -583.481812 0.000012 0.514443
316.693024 -585.174133 0.000010 0.498466
316.423431 -586.421021 0.000009 0.543694
nan nan nan 0.000000
nan nan nan 0.000000
nan nan nan 0.000000
nan nan nan 0.000000
325.591492 -545.664368 7.724348 1.000000
325.591492 -545.664307 6.080029 1.000000
325.591492 -545.664307 4.444518 1.000000
325.591492 -545.664307 2.814258 1.000000
325.591492 -545.664307 1.185742 1.000000
323.617401 -554.495178 0.000021 0.544091
320.057220 -570.421204 0.000017 0.531212
318.528717 -577.258850 0.000016 0.546883
317.677399 -581.067078 0.000015 0.544198
317.133911 -583.498291 0.000012 0.535897
316.756165 -585.188049 0.000010 0.546029
316.477875 -586.432983 0.000009 0.541650
nan nan nan 0.000000
nan nan nan 0.000000
nan nan nan 0.000000
nan nan nan 0.000000
325.964874 -545.591370 7.742052 1.000000
325.964874 -545.591370 6.092648 1.000000
325.964874 -545.591370 4.452079 1.000000
325.964874 -545.591370 2.816775 1.000000
325.964874 -545.591370 1.183224 1.000000
323.894562 -554.558105 0.000020 0.542901
320.223297 -570.458923 0.000017 0.538872
318.647064 -577.285706 0.000015 0.524910
317.769196 -581.087891 0.000015 0.551202
317.208740 -583.515259 0.000012 0.544305
316.819214 -585.202393 0.000010 0.508431
316.532227 -586.445374 0.000009 0.459083
nan nan nan 0.000000
nan nan nan 0.000000
nan nan nan 0.000000
nan nan nan 0.000000
326.340576 -545.517944 7.760148 1.000000
326.340576 -545.517944 6.105547 1.000000
326.340576 -545.517944 4.459806 1.000000
326.340576 -545.517944 2.819350 1.000000
326.340576 -545.517944 1.180651 1.000000
324.171265 -554.623047 0.000021 0.540810
320.389069 -570.497803 0.000017 0.560037
318.765228 -577.313416 0.000015 0.542733
317.860840 -581.109375 0.000015 0.547127
317.283447 -583.532776 0.000012 0.562066
316.882172 -585.217163 0.000010 0.550576
316.586487 -586.458069 0.000009 0.511452
nan nan nan 0.000000
nan nan nan 0.000000
nan nan nan 0.000000
nan nan nan 0.000000
326.718689 -545.444031 7.778640 1.000000
326.718689 -545.444031 6.118729 1.000000
326.718689 -545.443970 4.467705 1.000000
320.889954 -569.172546 2.422146 1.000000
320.889954 -569.172546 1.577855 1.000000
320.889954 -569.172546 0.732659 1.000000
320.554565 -570.537842 0.000017 0.548074
318.883179 -577.341980 0.000016 0.526116
317.952332 -581.131531 0.000014 0.546975
317.358032 -583.550842 0.000012 0.541176
316.945007 -585.232361 0.000010 0.528618
316.640686 -586.471191 0.000009 0.520668
nan nan nan 0.000000
nan nan nan 0.000000
nan nan nan 0.000000
nan nan nan 0.000000
327.099243 -545.369629 7.797536 1.000000
327.099243 -545.369629 6.132196 1.000000
327.099243 -545.369629 4.475772 1.000000
320.989288 -569.514160 2.417114 1.000000
320.989288 -569.514160 1.582885 1.000000
320.989288 -569.514160 0.747762 1.000000
320.719788 -570.579041 0.000017 0.536919
319.000946 -577.371338 0.000016 0.526116
318.043640 -581.154297 0.000014 0.536202
317.432495 -583.569397 0.000012 0.540948
317.007721 -585.247986 0.000010 0.522362
316.694763 -586.484680 0.000009 0.539208
nan nan nan 0.000000
nan nan nan 0.000000
nan nan nan 0.000000
nan nan nan 0.000000
327.482300 -545.294739 7.816840 1.000000
327.482300 -545.294739 6.145955 1.000000
327.482300 -545.294739 4.484015 1.000000
321.086273 -569.847717 2.412222 1.000000
321.086273 -569.847717 1.587778 1.000000
321.086273 -569.847717 0.762450 1.000000
320.884735 -570.621399 0.000017 0.536324
319.118500 -577.401550 0.000016 0.539940
318.134827 -581.177734 0.000014 0.520821
317.506836 -583.588501 0.000012 0.544076
317.070343 -585.264038 0.000010 0.544625
316.748749 -586.498535 0.000009 0.529732
nan nan nan 0.000000
nan nan nan 0.000000
nan nan nan 0.000000
nan nan nan 0.000000
327.867950 -545.219360 7.836558 1.000000
327.867950 -545.219360 6.160008 1.000000
327.867950 -545.219360 4.492435 1.000000
321.181030 -570.173584 2.407463 1.000000
321.181030 -570.173584 1.592538 1.000000
321.181030 -570.173584 0.776738 1.000000
321.049377 -570.664917 0.000017 0.538079
319.235870 -577.432556 0.000015 0.533165
318.225830 -581.201782 0.000014 0.546288
317.581024 -583.608093 0.000012 0.536538
317.132843 -585.280579 0.000010 0.553903
316.802643 -586.512756 0.000010 0.529015
nan nan nan 0.000000
nan nan nan 0.000000
nan nan nan 0.000000
nan nan nan 0.000000
328.256256 -545.143433 7.856695 1.000000
328.256256 -545.143433 6.174362 1.000000
328.256256 -545.143433 4.501036 1.000000
321.273621 -570.492065 2.402832 1.000000
321.273621 -570.492065 1.597169 1.000000
321.273621 -570.492004 0.790642 1.000000
321.213684 -570.709534 0.000017 0.544533
319.352997 -577.464355 0.000015 0.515450
318.316650 -581.226440 0.000014 0.509728
317.655060 -583.628235 0.000012 0.570840
317.195221 -585.297546 0.000010 0.521447
316.856445 -586.527405 0.000009 0.606104
nan nan nan 0.000000
nan nan nan 0.000000
nan nan nan 0.000000
nan nan nan 0.000000
328.647247 -545.067017 7.877263 1.000000
328.647247 -545.067017 6.189019 1.000000
328.647247 -545.067017 4.509818 1.000000
321.364136 -570.803345 2.398324 1.000000
321.364136 -570.803345 1.601677 1.000000
321.364136 -570.803345 0.804176 1.000000
321.364136 -570.803345 0.004106 1.000000
319.469879 -577.497009 0.000015 0.533043
318.407318 -581.251770 0.000014 0.530999
317.728973 -583.648865 0.000012 0.551049
317.257477 -585.314880 0.000010 0.527947
316.910126 -586.542419 0.000009 0.576944
nan nan nan 0.000000
nan nan nan 0.000000
nan nan nan 0.000000
nan nan nan 0.000000
329.041016 -544.990051 7.898263 1.000000
329.041016 -544.990051 6.203987 1.000000
329.041016 -544.990051 4.518785 1.000000
321.452637 -571.107727 2.393934 1.000000
321.452637 -571.107727 1.606066 1.000000
321.452637 -571.107727 0.817353 1.000000
321.452637 -571.107727 0.026099 1.000000
319.586548 -577.530457 0.000015 0.550423
318.497803 -581.277710 0.000014 0.549798
317.802734 -583.669983 0.000012 0.532830
317.319641 -585.332703 0.000010 0.558419
316.963715 -586.557739 0.000009 0.545556
nan nan nan 0.000000
nan nan nan 0.000000
nan nan nan 0.000000
nan nan nan 0.000000
329.437622 -544.912537 7.919700 1.000000
329.437653 -544.912537 6.219268 1.000000
329.437653 -544.912537 4.527941 1.000000
321.539215 -571.405518 2.389659 1.000000
321.539215 -571.405518 1.610341 1.000000
321.539215 -571.405518 0.830187 1.000000
321.539215 -571.405518 0.047519 1.000000
319.702972 -577.564758 0.000015 0.542733
318.588104 -581.304260 0.000014 0.556085
317.876343 -583.691650 0.000011 0.536736
317.381653 -585.350952 0.000010 0.551446
317.017181 -586.573486 0.000009 0.511284
nan nan nan 0.000000
nan nan nan 0.000000
nan nan nan 0.000000
nan nan nan 0.000000
329.837158 -544.834473 7.941586 1.000000
329.837158 -544.834473 6.234866 1.000000
329.837158 -544.834473 4.537287 1.000000
321.623962 -571.696960 2.385494 1.000000
321.623962 -571.696960 1.614505 1.000000
321.623962 -571.696960 0.842689 1.000000
321.623962 -571.696960 0.068386 1.000000
319.819183 -577.599792 0.000015 0.538659
318.678223 -581.331482 0.000014 0.525231
317.949799 -583.713867 0.000011 0.514778
317.443542 -585.369690 0.000010 0.500008
317.070557 -586.589600 0.000009 0.559411
nan nan nan 0.000000
nan nan nan 0.000000
nan nan nan 0.000000
nan nan nan 0.000000
330.239685 -544.755798 7.963927 1.000000
330.239685 -544.755737 6.250789 1.000000
330.239685 -544.755737 4.546826 1.000000
321.706909 -571.982239 2.381437 1.000000
321.706909 -571.982239 1.618563 1.000000
321.706909 -571.982239 0.854871 1.000000
321.706909 -571.982239 0.088719 1.000000
319.935120 -577.635681 0.000016 0.524056
318.768127 -581.359314 0.000014 0.538613
318.023102 -583.736511 0.000011 0.539376
317.505280 -585.388794 0.000010 0.525673
317.123779 -586.606079 0.000009 0.545510
nan nan nan 0.000000
nan nan nan 0.000000
nan nan nan 0.000000
nan nan nan 0.000000
330.645264 -544.676514 7.986728 1.000000
330.645264 -544.676514 6.267042 1.000000
330.645264 -544.676514 4.556564 1.000000
321.788116 -572.261597 2.377481 1.000000
321.788116 -572.261597 1.622519 1.000000
321.788116 -572.261597 0.866746 1.000000
321.788116 -572.261597 0.108538 1.000000
320.050812 -577.672424 0.000015 0.530221
318.857849 -581.387817 0.000014 0.515480
318.096252 -583.759766 0.000012 0.541344
317.566925 -585.408325 0.000010 0.550744
