# This PCD file was generated using the MATLABÂ® pcwrite function
# from Computer Vision ToolboxÂ®.
# .PCD v.7 - Point Cloud Data file format
VERSION .7
FIELDS x y z intensity
SIZE 4 4 4 4
TYPE F F F F
COUNT 1 1 1 1
WIDTH 1161
HEIGHT 1
VIEWPOINT 0 0 0 1 0 0 0
POINTS 1161
DATA ascii
-106.695892 -23.083471 1.148925 1.000000
-106.695892 -23.083471 0.805929 1.000000
-106.695892 -23.083471 0.460339 1.000000
-106.695892 -23.083471 0.111376 1.000000
nan nan nan 0.000000
-109.080650 -23.305370 -0.000010 0.542779
-106.707870 -23.157230 4.595306 1.000000
-106.707863 -23.157230 4.237772 1.000000
-106.707870 -23.157230 3.885256 1.000000
-106.707863 -23.157230 3.536916 1.000000
-106.707863 -23.157230 3.191943 1.000000
-106.707863 -23.157230 2.849557 1.000000
-106.707863 -23.157230 2.509006 1.000000
-106.707863 -23.157230 2.169547 1.000000
-106.707863 -23.157230 1.830453 1.000000
-106.707863 -23.157230 1.490994 1.000000
-106.707863 -23.157230 1.150442 1.000000
-106.707863 -23.157230 0.808057 1.000000
-106.707863 -23.157230 0.463084 1.000000
-106.707863 -23.157230 0.114743 1.000000
-107.804665 -23.251568 -0.000011 0.505699
-109.075684 -23.360889 -0.000010 0.537835
-106.719795 -23.230732 4.590815 1.000000
-106.719795 -23.230732 4.233899 1.000000
-106.719795 -23.230732 3.881994 1.000000
-106.719795 -23.230732 3.534256 1.000000
-106.719795 -23.230732 3.189879 1.000000
-106.719795 -23.230732 2.848087 1.000000
-106.719795 -23.230732 2.508125 1.000000
-106.719795 -23.230730 2.169254 1.000000
-106.719795 -23.230730 1.830746 1.000000
-106.719788 -23.230732 1.491875 1.000000
-106.719788 -23.230732 1.151912 1.000000
-106.719788 -23.230732 0.810120 1.000000
-106.719788 -23.230732 0.465744 1.000000
-106.719788 -23.230732 0.118006 1.000000
-107.799347 -23.315996 -0.000012 0.493568
-109.071098 -23.416443 -0.000010 0.568338
-106.731682 -23.303982 4.586466 1.000000
-106.731682 -23.303982 4.230147 1.000000
-106.731682 -23.303982 3.878834 1.000000
-106.731682 -23.303982 3.531680 1.000000
-106.731682 -23.303982 3.187881 1.000000
-106.731682 -23.303982 2.846663 1.000000
-106.731682 -23.303982 2.507272 1.000000
-106.731682 -23.303982 2.168970 1.000000
-106.731682 -23.303982 1.831030 1.000000
-106.731682 -23.303982 1.492728 1.000000
-106.731682 -23.303982 1.153336 1.000000
-106.731682 -23.303982 0.812118 1.000000
-106.731674 -23.303982 0.468319 1.000000
-106.731682 -23.303982 0.121166 1.000000
-107.794487 -23.380463 -0.000011 0.530465
-109.066902 -23.472027 -0.000010 0.542260
-106.743530 -23.376991 4.582255 1.000000
-106.743530 -23.376989 4.226518 1.000000
-106.743530 -23.376989 3.875776 1.000000
-106.743530 -23.376989 3.529187 1.000000
-106.743530 -23.376989 3.185949 1.000000
-106.743530 -23.376989 2.845285 1.000000
-106.743530 -23.376989 2.506446 1.000000
-106.743530 -23.376989 2.168695 1.000000
-106.743530 -23.376989 1.831305 1.000000
-106.743530 -23.376989 1.493554 1.000000
-106.743530 -23.376989 1.154715 1.000000
-106.743530 -23.376989 0.814051 1.000000
-106.743530 -23.376989 0.470812 1.000000
-106.743530 -23.376989 0.124223 1.000000
-107.790070 -23.444960 -0.000011 0.540887
-109.063095 -23.527639 -0.000010 0.559869
-106.755341 -23.449764 4.578185 1.000000
-106.755341 -23.449764 4.223008 1.000000
-106.755341 -23.449764 3.872818 1.000000
-106.755341 -23.449764 3.526777 1.000000
-106.755341 -23.449764 3.184079 1.000000
-106.755341 -23.449764 2.843952 1.000000
-106.755341 -23.449764 2.505648 1.000000
-106.755341 -23.449764 2.168429 1.000000
-106.755341 -23.449764 1.831571 1.000000
-106.755341 -23.449764 1.494352 1.000000
-106.755341 -23.449764 1.156047 1.000000
-106.755341 -23.449764 0.815921 1.000000
-106.755341 -23.449764 0.473223 1.000000
-106.755341 -23.449764 0.127181 1.000000
-107.786102 -23.509487 -0.000011 0.541131
-109.059677 -23.583277 -0.000010 0.543709
-106.767113 -23.522314 4.574252 1.000000
-106.767113 -23.522314 4.219617 1.000000
-106.767113 -23.522314 3.869962 1.000000
-106.767113 -23.522314 3.524447 1.000000
-106.767113 -23.522314 3.182273 1.000000
-106.767113 -23.522314 2.842665 1.000000
-106.767113 -23.522314 2.504876 1.000000
-106.767113 -23.522314 2.168172 1.000000
-106.767113 -23.522314 1.831828 1.000000
-106.767113 -23.522314 1.495124 1.000000
-106.767113 -23.522314 1.157334 1.000000
-106.767113 -23.522314 0.817727 1.000000
-106.767113 -23.522314 0.475552 1.000000
-106.767113 -23.522314 0.130038 1.000000
-107.782593 -23.574039 -0.000011 0.535088
-109.056648 -23.638937 -0.000010 0.522988
-106.778854 -23.594645 4.570456 1.000000
-106.778854 -23.594645 4.216344 1.000000
-106.778854 -23.594645 3.867205 1.000000
-106.778854 -23.594645 3.522201 1.000000
-106.778854 -23.594645 3.180530 1.000000
-106.778854 -23.594645 2.841423 1.000000
-106.778854 -23.594645 2.504132 1.000000
-106.778854 -23.594645 2.167924 1.000000
-106.778854 -23.594645 1.832076 1.000000
-106.778854 -23.594645 1.495868 1.000000
-106.778854 -23.594645 1.158577 1.000000
-106.778854 -23.594645 0.819470 1.000000
-106.778847 -23.594645 0.477799 1.000000
-106.778847 -23.594645 0.132795 1.000000
-107.779526 -23.638615 -0.000011 0.542718
-109.054008 -23.694616 -0.000010 0.557977
-106.790558 -23.666767 4.566796 1.000000
-106.790558 -23.666765 4.213189 1.000000
-106.790558 -23.666767 3.864546 1.000000
-106.790558 -23.666767 3.520033 1.000000
-106.790558 -23.666767 3.178849 1.000000
-106.790558 -23.666767 2.840225 1.000000
-106.790558 -23.666767 2.503414 1.000000
-106.790558 -23.666765 2.167685 1.000000
-106.790558 -23.666765 1.832315 1.000000
-106.790558 -23.666767 1.496586 1.000000
-106.790558 -23.666767 1.159775 1.000000
-106.790558 -23.666767 0.821151 1.000000
-106.790558 -23.666767 0.479967 1.000000
-106.790558 -23.666767 0.135453 1.000000
-107.776917 -23.703209 -0.000011 0.537530
-109.051758 -23.750311 -0.000010 0.528939
-106.802231 -23.738688 4.563272 1.000000
-106.802231 -23.738688 4.210151 1.000000
-106.802231 -23.738688 3.861986 1.000000
-106.802231 -23.738688 3.517945 1.000000
-106.802231 -23.738688 3.177230 1.000000
-106.802231 -23.738688 2.839071 1.000000
-106.802231 -23.738688 2.502723 1.000000
-106.802231 -23.738688 2.167454 1.000000
-106.802231 -23.738688 1.832545 1.000000
-106.802231 -23.738688 1.497277 1.000000
-106.802231 -23.738688 1.160928 1.000000
-106.802231 -23.738688 0.822770 1.000000
-106.802231 -23.738688 0.482054 1.000000
-106.802231 -23.738688 0.138013 1.000000
-107.774757 -23.767822 -0.000011 0.550011
-109.049896 -23.806023 -0.000010 0.534585
-106.813873 -23.810413 4.559883 1.000000
-106.813873 -23.810413 4.207227 1.000000
-106.813873 -23.810413 3.859524 1.000000
-106.813873 -23.810413 3.515938 1.000000
-106.813873 -23.810413 3.175673 1.000000
-106.813866 -23.810413 2.837961 1.000000
-106.813873 -23.810413 2.502058 1.000000
-106.813866 -23.810413 2.167233 1.000000
-106.813866 -23.810413 1.832767 1.000000
-106.813873 -23.810413 1.497942 1.000000
-106.813866 -23.810413 1.162038 1.000000
-106.813866 -23.810413 0.824327 1.000000
-106.813866 -23.810413 0.484062 1.000000
-106.813866 -23.810413 0.140476 1.000000
-107.773041 -23.832447 -0.000011 0.511650
-109.048416 -23.861746 -0.000010 0.541909
-106.825485 -23.881954 4.556626 1.000000
-106.825485 -23.881954 4.204419 1.000000
-106.825485 -23.881954 3.857158 1.000000
-106.825478 -23.881954 3.514010 1.000000
-106.825478 -23.881954 3.174178 1.000000
-106.825478 -23.881954 2.836895 1.000000
-106.825485 -23.881954 2.501419 1.000000
-106.825478 -23.881954 2.167020 1.000000
-106.825478 -23.881954 1.832980 1.000000
-106.825478 -23.881954 1.498581 1.000000
-106.825478 -23.881954 1.163104 1.000000
-106.825478 -23.881954 0.825822 1.000000
-106.825478 -23.881954 0.485990 1.000000
-106.825478 -23.881954 0.142841 1.000000
-107.771790 -23.897083 -0.000011 0.543038
-109.047333 -23.917477 -0.000010 0.571939
-106.837067 -23.953316 4.553501 1.000000
-106.837067 -23.953316 4.201725 1.000000
-106.837067 -23.953316 3.854888 1.000000
-106.837067 -23.953316 3.512159 1.000000
-106.837067 -23.953316 3.172742 1.000000
-106.837059 -23.953316 2.835873 1.000000
-106.837059 -23.953316 2.500806 1.000000
-106.837059 -23.953316 2.166816 1.000000
-106.837059 -23.953316 1.833184 1.000000
-106.837059 -23.953316 1.499193 1.000000
-106.837059 -23.953316 1.164127 1.000000
-106.837059 -23.953316 0.827257 1.000000
-106.837059 -23.953316 0.487841 1.000000
-106.837059 -23.953316 0.145111 1.000000
-107.770973 -23.961727 -0.000011 0.550683
-109.046638 -23.973215 -0.000010 0.501366
-106.848618 -24.024508 4.550509 1.000000
-106.848618 -24.024508 4.199145 1.000000
-106.848618 -24.024508 3.852715 1.000000
-106.848618 -24.024508 3.510387 1.000000
-106.848618 -24.024508 3.171368 1.000000
-106.848618 -24.024508 2.834893 1.000000
-106.848618 -24.024508 2.500220 1.000000
-106.848618 -24.024508 2.166621 1.000000
-106.848618 -24.024508 1.833379 1.000000
-106.848618 -24.024508 1.499780 1.000000
-106.848610 -24.024508 1.165106 1.000000
-106.848610 -24.024508 0.828631 1.000000
-106.848618 -24.024508 0.489613 1.000000
-106.848618 -24.024508 0.147284 1.000000
-107.770622 -24.026375 -0.000011 0.523735
-109.046326 -24.028955 -0.000010 0.502571
-106.860146 -24.095535 4.547647 1.000000
-106.860146 -24.095537 4.196678 1.000000
-106.860146 -24.095535 3.850636 1.000000
-106.860138 -24.095535 3.508693 1.000000
-106.860138 -24.095535 3.170054 1.000000
-106.860138 -24.095537 2.833956 1.000000
-106.860138 -24.095535 2.499658 1.000000
-106.860146 -24.095535 2.166434 1.000000
-106.860146 -24.095535 1.833566 1.000000
-106.860138 -24.095535 1.500341 1.000000
-106.860138 -24.095537 1.166043 1.000000
-106.860138 -24.095535 0.829946 1.000000
-106.860138 -24.095535 0.491307 1.000000
-106.860138 -24.095535 0.149363 1.000000
-107.770714 -24.091022 -0.000011 0.570642
-109.046410 -24.084698 -0.000010 0.560449
-106.871643 -24.166409 4.544917 1.000000
-106.871643 -24.166409 4.194324 1.000000
-106.871643 -24.166409 3.848652 1.000000
-106.871643 -24.166409 3.507075 1.000000
-106.871643 -24.166409 3.168800 1.000000
-106.871643 -24.166409 2.833062 1.000000
-106.871643 -24.166409 2.499123 1.000000
-106.871643 -24.166409 2.166255 1.000000
-106.871643 -24.166409 1.833745 1.000000
-106.871643 -24.166409 1.500877 1.000000
-106.871643 -24.166409 1.166937 1.000000
-106.871643 -24.166409 0.831200 1.000000
-106.871643 -24.166409 0.492924 1.000000
-106.871643 -24.166409 0.151347 1.000000
-107.771263 -24.155668 -0.000011 0.550134
-109.046883 -24.140438 -0.000010 0.542611
-106.883125 -24.237133 4.542315 1.000000
-106.883125 -24.237133 4.192080 1.000000
-106.883125 -24.237133 3.846763 1.000000
-106.883125 -24.237133 3.505535 1.000000
-106.883118 -24.237133 3.167605 1.000000
-106.883125 -24.237133 2.832211 1.000000
-106.883118 -24.237133 2.498613 1.000000
-106.883118 -24.237133 2.166085 1.000000
-106.883118 -24.237133 1.833915 1.000000
-106.883118 -24.237133 1.501387 1.000000
-106.883118 -24.237133 1.167789 1.000000
-106.883118 -24.237133 0.832394 1.000000
-106.883118 -24.237133 0.494465 1.000000
-106.883118 -24.237133 0.153237 1.000000
-107.772263 -24.220308 -0.000011 0.557748
-109.047745 -24.196173 -0.000010 0.513420
-106.894577 -24.307716 4.539843 1.000000
-106.894577 -24.307716 4.189949 1.000000
-106.894577 -24.307716 3.844967 1.000000
-106.894577 -24.307716 3.504071 1.000000
-106.894577 -24.307716 3.166470 1.000000
-106.894577 -24.307716 2.831402 1.000000
-106.894577 -24.307716 2.498127 1.000000
-106.894577 -24.307716 2.165924 1.000000
-106.894577 -24.307716 1.834076 1.000000
-106.894577 -24.307716 1.501872 1.000000
-106.894577 -24.307716 1.168598 1.000000
-106.894577 -24.307716 0.833530 1.000000
-106.894577 -24.307716 0.495929 1.000000
-106.894577 -24.307716 0.155032 1.000000
-107.773712 -24.284941 -0.000011 0.567636
-109.048988 -24.251902 -0.000010 0.512413
-106.906013 -24.378166 4.537498 1.000000
-106.906013 -24.378166 4.187928 1.000000
-106.906013 -24.378166 3.843264 1.000000
-106.906013 -24.378166 3.502683 1.000000
-106.906013 -24.378166 3.165393 1.000000
-106.906006 -24.378166 2.830634 1.000000
-106.906013 -24.378166 2.497668 1.000000
-106.906006 -24.378166 2.165771 1.000000
-106.906006 -24.378166 1.834229 1.000000
-106.906006 -24.378166 1.502332 1.000000
-106.906006 -24.378166 1.169365 1.000000
-106.906006 -24.378166 0.834607 1.000000
-106.906006 -24.378166 0.497317 1.000000
-106.906006 -24.378166 0.156736 1.000000
-107.775604 -24.349562 -0.000011 0.536233
-109.050629 -24.307621 -0.000010 0.547707
-106.917427 -24.448488 4.535283 1.000000
-106.917427 -24.448488 4.186017 1.000000
-106.917427 -24.448488 3.841654 1.000000
-106.917419 -24.448490 3.501370 1.000000
-106.917419 -24.448490 3.164376 1.000000
-106.917427 -24.448488 2.829909 1.000000
-106.917419 -24.448490 2.497233 1.000000
-106.917419 -24.448490 2.165626 1.000000
-106.917419 -24.448490 1.834374 1.000000
-106.917419 -24.448490 1.502766 1.000000
-106.917419 -24.448490 1.170091 1.000000
-106.917419 -24.448490 0.835624 1.000000
-106.917419 -24.448490 0.498629 1.000000
-106.917419 -24.448490 0.158345 1.000000
-107.777962 -24.414167 -0.000011 0.508583
-109.052658 -24.363325 -0.000010 0.546700
-106.928818 -24.518694 4.533194 1.000000
-106.928818 -24.518694 4.184215 1.000000
-106.928818 -24.518694 3.840137 1.000000
-106.928818 -24.518694 3.500133 1.000000
-106.928818 -24.518694 3.163416 1.000000
-106.928818 -24.518694 2.829225 1.000000
-106.928818 -24.518694 2.496824 1.000000
-106.928818 -24.518694 2.165490 1.000000
-106.928818 -24.518694 1.834510 1.000000
-106.928818 -24.518694 1.503176 1.000000
-106.928818 -24.518694 1.170775 1.000000
-106.928818 -24.518694 0.836584 1.000000
-106.928818 -24.518694 0.499867 1.000000
-106.928818 -24.518694 0.159863 1.000000
-107.780762 -24.478754 -0.000011 0.543633
-109.055069 -24.419016 -0.000010 0.561746
-106.940193 -24.588783 4.531231 1.000000
-106.940193 -24.588785 4.182523 1.000000
-106.940193 -24.588785 3.838711 1.000000
-106.940193 -24.588783 3.498971 1.000000
-106.940193 -24.588785 3.162514 1.000000
-106.940193 -24.588783 2.828583 1.000000
-106.940193 -24.588785 2.496439 1.000000
-106.940193 -24.588783 2.165361 1.000000
-106.940193 -24.588785 1.834639 1.000000
-106.940186 -24.588785 1.503561 1.000000
-106.940193 -24.588785 1.171417 1.000000
-106.940193 -24.588783 0.837486 1.000000
-106.940186 -24.588785 0.501028 1.000000
-106.940186 -24.588785 0.161288 1.000000
-107.784012 -24.543320 -0.000011 0.556802
-109.057877 -24.474686 -0.000009 0.549767
-106.951553 -24.658772 4.529395 1.000000
-106.951553 -24.658772 4.180940 1.000000
-106.951553 -24.658772 3.837378 1.000000
-106.951553 -24.658772 3.497884 1.000000
-106.951553 -24.658772 3.161671 1.000000
-106.951553 -24.658772 2.827981 1.000000
-106.951553 -24.658772 2.496078 1.000000
-106.951553 -24.658772 2.165241 1.000000
-106.951553 -24.658772 1.834759 1.000000
-106.951546 -24.658772 1.503921 1.000000
-106.951546 -24.658772 1.172018 1.000000
-106.951546 -24.658772 0.838328 1.000000
-106.951546 -24.658772 0.502116 1.000000
-106.951546 -24.658772 0.162622 1.000000
-107.787720 -24.607862 -0.000011 0.557076
-109.061073 -24.530336 -0.000009 0.555932
-106.962898 -24.728659 4.527684 1.000000
-106.962891 -24.728661 4.179465 1.000000
-106.962891 -24.728659 3.836135 1.000000
-106.962891 -24.728659 3.496871 1.000000
-106.962891 -24.728659 3.160886 1.000000
-106.962891 -24.728659 2.827422 1.000000
-106.962891 -24.728661 2.495743 1.000000
-106.962891 -24.728661 2.165130 1.000000
-106.962891 -24.728661 1.834870 1.000000
-106.962891 -24.728661 1.504257 1.000000
-106.962891 -24.728661 1.172578 1.000000
-106.962891 -24.728661 0.839114 1.000000
-106.962891 -24.728661 0.503129 1.000000
-106.962891 -24.728661 0.163864 1.000000
-107.791870 -24.672379 -0.000011 0.534081
-109.064651 -24.585964 -0.000009 0.512932
-106.974220 -24.798456 4.526099 1.000000
-106.974220 -24.798456 4.178099 1.000000
-106.974220 -24.798456 3.834984 1.000000
-106.974220 -24.798456 3.495933 1.000000
-106.974220 -24.798456 3.160158 1.000000
-106.974220 -24.798456 2.826903 1.000000
-106.974220 -24.798456 2.495432 1.000000
-106.974220 -24.798456 2.165026 1.000000
-106.974220 -24.798456 1.834974 1.000000
-106.974220 -24.798456 1.504568 1.000000
-106.974220 -24.798456 1.173097 1.000000
-106.974220 -24.798456 0.839842 1.000000
-106.974220 -24.798456 0.504067 1.000000
-106.974213 -24.798458 0.165016 1.000000
-107.796478 -24.736862 -0.000011 0.534234
-109.068619 -24.641565 -0.000010 0.531090
-106.985535 -24.868170 4.524640 1.000000
-106.985535 -24.868170 4.176840 1.000000
-106.985535 -24.868170 3.833923 1.000000
-106.985535 -24.868170 3.495068 1.000000
-106.985535 -24.868170 3.159487 1.000000
-106.985535 -24.868170 2.826425 1.000000
-106.985535 -24.868170 2.495146 1.000000
-106.985535 -24.868170 2.164931 1.000000
-106.985535 -24.868170 1.835069 1.000000
-106.985535 -24.868170 1.504854 1.000000
-106.985535 -24.868170 1.173575 1.000000
-106.985535 -24.868170 0.840513 1.000000
-106.985535 -24.868170 0.504932 1.000000
-106.985535 -24.868170 0.166076 1.000000
-107.801529 -24.801311 -0.000011 0.545251
-109.072983 -24.697136 -0.000009 0.542855
-106.996834 -24.937805 4.523304 1.000000
-106.996834 -24.937805 4.175689 1.000000
-106.996834 -24.937805 3.832952 1.000000
-106.996834 -24.937805 3.494277 1.000000
-106.996834 -24.937805 3.158874 1.000000
-106.996834 -24.937805 2.825988 1.000000
-106.996834 -24.937805 2.494884 1.000000
-106.996834 -24.937805 2.164844 1.000000
-106.996834 -24.937805 1.835157 1.000000
-106.996834 -24.937805 1.505116 1.000000
-106.996834 -24.937805 1.174012 1.000000
-106.996834 -24.937805 0.841126 1.000000
-106.996834 -24.937805 0.505723 1.000000
-106.996834 -24.937805 0.167047 1.000000
-107.807037 -24.865725 -0.000010 0.543374
-109.077728 -24.752676 -0.000010 0.541268
-107.008125 -25.007372 4.522093 1.000000
-107.008125 -25.007372 4.174644 1.000000
-107.008125 -25.007372 3.832073 1.000000
-107.008125 -25.007372 3.493559 1.000000
-107.008125 -25.007372 3.158318 1.000000
-107.008125 -25.007372 2.825591 1.000000
-107.008125 -25.007372 2.494646 1.000000
-107.008125 -25.007372 2.164764 1.000000
-107.008118 -25.007372 1.835235 1.000000
-107.008125 -25.007372 1.505353 1.000000
-107.008125 -25.007372 1.174408 1.000000
-107.008118 -25.007372 0.841682 1.000000
-107.008125 -25.007372 0.506440 1.000000
-107.008118 -25.007372 0.167927 1.000000
-107.812988 -24.930099 -0.000010 0.573037
-109.082863 -24.808182 -0.000009 0.544915
-107.019402 -25.076874 4.521006 1.000000
-107.019409 -25.076874 4.173707 1.000000
-107.019409 -25.076874 3.831283 1.000000
-107.019402 -25.076874 3.492916 1.000000
-107.019402 -25.076874 3.157819 1.000000
-107.019409 -25.076874 2.825235 1.000000
-107.019402 -25.076874 2.494433 1.000000
-107.019402 -25.076874 2.164693 1.000000
-107.019402 -25.076874 1.835307 1.000000
-107.019402 -25.076874 1.505567 1.000000
-107.019402 -25.076874 1.174764 1.000000
-107.019402 -25.076874 0.842181 1.000000
-107.019402 -25.076874 0.507084 1.000000
-107.019402 -25.076874 0.168716 1.000000
-107.819389 -24.994429 -0.000010 0.536385
-109.088379 -24.863649 -0.000009 0.529747
-107.030678 -25.146320 4.520043 1.000000
-107.030678 -25.146320 4.172875 1.000000
-107.030678 -25.146320 3.830583 1.000000
-107.030678 -25.146320 3.492345 1.000000
-107.030678 -25.146320 3.157375 1.000000
-107.030670 -25.146320 2.824920 1.000000
-107.030670 -25.146320 2.494244 1.000000
-107.030670 -25.146320 2.164630 1.000000
-107.030670 -25.146320 1.835370 1.000000
-107.030670 -25.146320 1.505756 1.000000
-107.030670 -25.146320 1.175080 1.000000
-107.030670 -25.146320 0.842624 1.000000
-107.030670 -25.146320 0.507655 1.000000
-107.030670 -25.146320 0.169416 1.000000
-107.826241 -25.058714 -0.000010 0.573877
-109.094292 -24.919077 -0.000009 0.536141
-107.041939 -25.215717 4.519202 1.000000
-107.041939 -25.215717 4.172151 1.000000
-107.041939 -25.215717 3.829973 1.000000
-107.041939 -25.215717 3.491847 1.000000
-107.041939 -25.215717 3.156990 1.000000
-107.041939 -25.215717 2.824645 1.000000
-107.041931 -25.215717 2.494080 1.000000
-107.041939 -25.215717 2.164576 1.000000
-107.041931 -25.215717 1.835425 1.000000
-107.041931 -25.215717 1.505920 1.000000
-107.041931 -25.215717 1.175354 1.000000
-107.041939 -25.215717 0.843010 1.000000
-107.041939 -25.215717 0.508152 1.000000
-107.041931 -25.215717 0.170026 1.000000
-107.833549 -25.122948 -0.000010 0.523125
-109.100586 -24.974463 -0.000009 0.516258
-107.053192 -25.285070 4.518486 1.000000
-107.053192 -25.285070 4.171533 1.000000
-107.053192 -25.285070 3.829452 1.000000
-107.053192 -25.285070 3.491423 1.000000
-107.053192 -25.285070 3.156661 1.000000
-107.053192 -25.285070 2.824410 1.000000
-107.053192 -25.285070 2.493939 1.000000
-107.053192 -25.285070 2.164529 1.000000
-107.053192 -25.285070 1.835471 1.000000
-107.053192 -25.285070 1.506061 1.000000
-107.053192 -25.285070 1.175589 1.000000
-107.053192 -25.285070 0.843339 1.000000
-107.053192 -25.285070 0.508577 1.000000
-107.053192 -25.285070 0.170547 1.000000
-107.841293 -25.187130 -0.000010 0.526818
-109.107269 -25.029802 -0.000009 0.525154
-107.064438 -25.354387 4.517892 1.000000
-107.064445 -25.354387 4.171021 1.000000
-107.064445 -25.354387 3.829021 1.000000
-107.064445 -25.354387 3.491071 1.000000
-107.064445 -25.354387 3.156388 1.000000
-107.064438 -25.354387 2.824216 1.000000
-107.064445 -25.354387 2.493822 1.000000
-107.064438 -25.354387 2.164490 1.000000
-107.064438 -25.354387 1.835510 1.000000
-107.064438 -25.354387 1.506177 1.000000
-107.064438 -25.354387 1.175784 1.000000
-107.064438 -25.354387 0.843612 1.000000
-107.064438 -25.354387 0.508928 1.000000
-107.064438 -25.354387 0.170978 1.000000
-107.849495 -25.251257 -0.000010 0.516335
-109.114334 -25.085094 -0.000009 0.523445
-107.075684 -25.423676 4.517421 1.000000
-107.075691 -25.423676 4.170615 1.000000
-107.075691 -25.423676 3.828679 1.000000
-107.075684 -25.423676 3.490793 1.000000
-107.075684 -25.423676 3.156172 1.000000
-107.075684 -25.423676 2.824062 1.000000
-107.075684 -25.423676 2.493730 1.000000
-107.075684 -25.423676 2.164459 1.000000
-107.075684 -25.423676 1.835541 1.000000
-107.075684 -25.423676 1.506270 1.000000
-107.075684 -25.423676 1.175938 1.000000
-107.075684 -25.423676 0.843828 1.000000
-107.075684 -25.423676 0.509207 1.000000
-107.075684 -25.423676 0.171320 1.000000
-107.858139 -25.315325 -0.000010 0.504814
-109.121788 -25.140337 -0.000009 0.510445
-107.086929 -25.492941 4.517073 1.000000
-107.086929 -25.492941 4.170316 1.000000
-107.086929 -25.492941 3.828426 1.000000
-107.086929 -25.492941 3.490587 1.000000
-107.086929 -25.492941 3.156013 1.000000
-107.086929 -25.492941 2.823948 1.000000
-107.086929 -25.492941 2.493662 1.000000
-107.086929 -25.492941 2.164436 1.000000
-107.086929 -25.492941 1.835564 1.000000
-107.086929 -25.492941 1.506338 1.000000
-107.086929 -25.492941 1.176052 1.000000
-107.086929 -25.492941 0.843987 1.000000
-107.086929 -25.492941 0.509413 1.000000
-107.086922 -25.492941 0.171573 1.000000
-107.867226 -25.379330 -0.000010 0.542870
-109.129623 -25.195524 -0.000009 0.542611
-107.098167 -25.562191 4.516848 1.000000
-107.098167 -25.562191 4.170121 1.000000
-107.098167 -25.562191 3.828263 1.000000
-107.098167 -25.562191 3.490453 1.000000
-107.098167 -25.562191 3.155908 1.000000
-107.098167 -25.562191 2.823874 1.000000
-107.098167 -25.562191 2.493618 1.000000
-107.098167 -25.562191 2.164422 1.000000
-107.098167 -25.562191 1.835578 1.000000
-107.098167 -25.562191 1.506382 1.000000
-107.098167 -25.562191 1.176125 1.000000
-107.098167 -25.562191 0.844091 1.000000
-107.098167 -25.562191 0.509546 1.000000
-107.098167 -25.562191 0.171736 1.000000
-107.876770 -25.443270 -0.000010 0.530770
-109.137848 -25.250656 -0.000009 0.530083
-107.109406 -25.631432 4.516746 1.000000
-107.109406 -25.631432 4.170033 1.000000
-107.109406 -25.631432 3.828189 1.000000
-107.109406 -25.631432 3.490393 1.000000
-107.109406 -25.631432 3.155861 1.000000
-107.109406 -25.631432 2.823841 1.000000
-107.109406 -25.631432 2.493598 1.000000
-107.109406 -25.631432 2.164415 1.000000
-107.109406 -25.631432 1.835585 1.000000
-107.109406 -25.631432 1.506402 1.000000
-107.109406 -25.631432 1.176159 1.000000
-107.109406 -25.631432 0.844138 1.000000
-107.109398 -25.631432 0.509607 1.000000
-107.109398 -25.631432 0.171811 1.000000
-107.886749 -25.507143 -0.000010 0.561975
-109.146461 -25.305729 -0.000008 0.531411
-107.120644 -25.700670 4.516766 1.000000
-107.120644 -25.700670 4.170051 1.000000
-107.120644 -25.700670 3.828203 1.000000
-107.120644 -25.700670 3.490405 1.000000
-107.120644 -25.700670 3.155871 1.000000
-107.120644 -25.700670 2.823847 1.000000
-107.120636 -25.700670 2.493601 1.000000
-107.120636 -25.700670 2.164416 1.000000
-107.120636 -25.700670 1.835584 1.000000
-107.120636 -25.700670 1.506398 1.000000
-107.120636 -25.700670 1.176152 1.000000
-107.120636 -25.700670 0.844129 1.000000
-107.120636 -25.700670 0.509595 1.000000
-107.120636 -25.700670 0.171796 1.000000
-107.897179 -25.570944 -0.000010 0.539666
-109.155457 -25.360743 -0.000009 0.541680
-107.131882 -25.769913 4.516909 1.000000
-107.131882 -25.769913 4.170174 1.000000
-107.131882 -25.769913 3.828307 1.000000
-107.131882 -25.769913 3.490489 1.000000
-107.131874 -25.769913 3.155937 1.000000
-107.131882 -25.769913 2.823894 1.000000
-107.131874 -25.769913 2.493630 1.000000
-107.131874 -25.769913 2.164426 1.000000
-107.131874 -25.769913 1.835574 1.000000
-107.131874 -25.769913 1.506370 1.000000
-107.131874 -25.769913 1.176106 1.000000
-107.131874 -25.769913 0.844063 1.000000
-107.131874 -25.769913 0.509511 1.000000
-107.131874 -25.769913 0.171692 1.000000
-107.908051 -25.634670 -0.000010 0.539651
-109.164825 -25.415689 -0.000009 0.553079
-107.143120 -25.839167 4.517174 1.000000
-107.143120 -25.839167 4.170403 1.000000
-107.143120 -25.839169 3.828500 1.000000
-107.143120 -25.839167 3.490647 1.000000
-107.143120 -25.839167 3.156058 1.000000
-107.143120 -25.839167 2.823981 1.000000
-107.143120 -25.839169 2.493682 1.000000
-107.143112 -25.839169 2.164443 1.000000
-107.143112 -25.839169 1.835557 1.000000
-107.143120 -25.839169 1.506318 1.000000
-107.143112 -25.839169 1.176018 1.000000
-107.143112 -25.839169 0.843941 1.000000
-107.143112 -25.839169 0.509353 1.000000
-107.143112 -25.839169 0.171499 1.000000
-107.919373 -25.698320 -0.000010 0.544839
-109.174591 -25.470572 -0.000008 0.575586
-107.154358 -25.908440 4.517563 1.000000
-107.154358 -25.908438 4.170737 1.000000
-107.154358 -25.908440 3.828782 1.000000
-107.154358 -25.908440 3.490876 1.000000
-107.154358 -25.908440 3.156237 1.000000
-107.154358 -25.908440 2.824108 1.000000
-107.154358 -25.908440 2.493758 1.000000
-107.154358 -25.908440 2.164468 1.000000
-107.154358 -25.908440 1.835532 1.000000
-107.154358 -25.908440 1.506242 1.000000
-107.154358 -25.908440 1.175892 1.000000
-107.154358 -25.908440 0.843763 1.000000
-107.154358 -25.908440 0.509123 1.000000
-107.154358 -25.908440 0.171217 1.000000
-107.931137 -25.761889 -0.000010 0.545449
-109.184731 -25.525381 -0.000008 0.527062
-107.165604 -25.977736 4.518074 1.000000
-107.165604 -25.977736 4.171178 1.000000
-107.165604 -25.977736 3.829153 1.000000
-107.165604 -25.977736 3.491179 1.000000
-107.165604 -25.977736 3.156472 1.000000
-107.165604 -25.977736 2.824275 1.000000
-107.165604 -25.977736 2.493858 1.000000
-107.165604 -25.977736 2.164502 1.000000
-107.165604 -25.977736 1.835498 1.000000
-107.165604 -25.977737 1.506142 1.000000
-107.165604 -25.977737 1.175724 1.000000
-107.165604 -25.977736 0.843528 1.000000
-107.165604 -25.977737 0.508821 1.000000
-107.165604 -25.977737 0.170846 1.000000
-107.943344 -25.825375 -0.000009 0.539590
-109.195259 -25.580122 -0.000008 0.513710
-107.176857 -26.047064 4.518708 1.000000
-107.176857 -26.047064 4.171725 1.000000
-107.176857 -26.047064 3.829614 1.000000
-107.176857 -26.047064 3.491554 1.000000
-107.176857 -26.047064 3.156763 1.000000
-107.176857 -26.047064 2.824483 1.000000
-107.176857 -26.047066 2.493983 1.000000
-107.176857 -26.047064 2.164543 1.000000
-107.176857 -26.047066 1.835457 1.000000
-107.176857 -26.047066 1.506017 1.000000
-107.176857 -26.047066 1.175516 1.000000
-107.176857 -26.047066 0.843237 1.000000
-107.176857 -26.047066 0.508445 1.000000
-107.176857 -26.047066 0.170386 1.000000
-107.955994 -25.888773 -0.000010 0.537041
-109.206161 -25.634787 -0.000008 0.569070
-107.188110 -26.116432 4.519465 1.000000
-107.188118 -26.116432 4.172378 1.000000
-107.188118 -26.116432 3.830164 1.000000
-107.188118 -26.116432 3.492003 1.000000
-107.188110 -26.116432 3.157111 1.000000
-107.188110 -26.116432 2.824731 1.000000
-107.188110 -26.116432 2.494131 1.000000
-107.188110 -26.116432 2.164593 1.000000
-107.188110 -26.116432 1.835407 1.000000
-107.188110 -26.116432 1.505869 1.000000
-107.188110 -26.116432 1.175269 1.000000
-107.188110 -26.116432 0.842889 1.000000
-107.188110 -26.116432 0.507996 1.000000
-107.188110 -26.116432 0.169835 1.000000
-107.969086 -25.952082 -0.000010 0.517891
-109.217453 -25.689373 -0.000009 0.543282
-107.199379 -26.185843 4.520346 1.000000
-107.199379 -26.185843 4.173138 1.000000
-107.199379 -26.185843 3.830804 1.000000
-107.199379 -26.185843 3.492525 1.000000
-107.199379 -26.185843 3.157516 1.000000
-107.199379 -26.185843 2.825019 1.000000
-107.199379 -26.185843 2.494303 1.000000
-107.199379 -26.185843 2.164650 1.000000
-107.199379 -26.185843 1.835350 1.000000
-107.199379 -26.185843 1.505696 1.000000
-107.199379 -26.185843 1.174980 1.000000
-107.199379 -26.185844 0.842484 1.000000
-107.199379 -26.185844 0.507475 1.000000
-107.199379 -26.185844 0.169195 1.000000
-107.982620 -26.015297 -0.000010 0.524285
-109.229126 -25.743879 -0.000008 0.546929
-107.210655 -26.255306 4.521350 1.000000
-107.210655 -26.255306 4.174003 1.000000
-107.210655 -26.255306 3.831533 1.000000
-107.210655 -26.255306 3.493119 1.000000
-107.210655 -26.255308 3.157977 1.000000
-107.210655 -26.255308 2.825348 1.000000
-107.210648 -26.255308 2.494501 1.000000
-107.210655 -26.255308 2.164716 1.000000
-107.210655 -26.255308 1.835284 1.000000
-107.210648 -26.255308 1.505499 1.000000
-107.210648 -26.255308 1.174652 1.000000
-107.210648 -26.255308 0.842023 1.000000
-107.210648 -26.255308 0.506880 1.000000
-107.210648 -26.255308 0.168466 1.000000
-107.996597 -26.078417 -0.000010 0.542245
-109.241173 -25.798304 -0.000008 0.531212
-107.221939 -26.324829 4.522478 1.000000
-107.221939 -26.324829 4.174976 1.000000
-107.221939 -26.324829 3.832353 1.000000
-107.221939 -26.324829 3.493787 1.000000
-107.221931 -26.324829 3.158494 1.000000
-107.221939 -26.324829 2.825717 1.000000
-107.221939 -26.324829 2.494722 1.000000
-107.221931 -26.324829 2.164790 1.000000
-107.221931 -26.324829 1.835211 1.000000
-107.221939 -26.324829 1.505278 1.000000
-107.221931 -26.324829 1.174282 1.000000
-107.221931 -26.324831 0.841505 1.000000
-107.221931 -26.324831 0.506212 1.000000
-107.221931 -26.324831 0.167647 1.000000
-108.011009 -26.141438 -0.000010 0.548241
-109.253601 -25.852642 -0.000009 0.541650
-107.233231 -26.394419 4.523730 1.000000
-107.233231 -26.394419 4.176055 1.000000
-107.233231 -26.394419 3.833262 1.000000
-107.233231 -26.394419 3.494529 1.000000
-107.233231 -26.394419 3.159070 1.000000
-107.233231 -26.394419 2.826127 1.000000
-107.233231 -26.394419 2.494968 1.000000
-107.233231 -26.394419 2.164871 1.000000
-107.233231 -26.394419 1.835129 1.000000
-107.233231 -26.394419 1.505032 1.000000
-107.233231 -26.394419 1.173872 1.000000
-107.233231 -26.394419 0.840930 1.000000
-107.233223 -26.394419 0.505470 1.000000
-107.233223 -26.394419 0.166737 1.000000
-108.025864 -26.204357 -0.000010 0.548058
-109.266411 -25.906893 -0.000008 0.542260
-107.244537 -26.464079 4.525106 1.000000
-107.244537 -26.464079 4.177242 1.000000
-107.244537 -26.464079 3.834262 1.000000
-107.244537 -26.464079 3.495344 1.000000
-107.244537 -26.464079 3.159702 1.000000
-107.244537 -26.464079 2.826578 1.000000
-107.244537 -26.464079 2.495238 1.000000
-107.244530 -26.464081 2.164961 1.000000
-107.244530 -26.464081 1.835039 1.000000
-107.244530 -26.464081 1.504762 1.000000
-107.244530 -26.464081 1.173422 1.000000
-107.244530 -26.464081 0.840298 1.000000
-107.244530 -26.464081 0.504655 1.000000
-107.244530 -26.464081 0.165737 1.000000
-108.041161 -26.267170 -0.000010 0.516213
-109.279602 -25.961054 -0.000008 0.562020
-107.255859 -26.533819 4.526608 1.000000
-107.255852 -26.533819 4.178537 1.000000
-107.255852 -26.533819 3.835353 1.000000
-107.255852 -26.533819 3.496233 1.000000
-107.255852 -26.533819 3.160391 1.000000
-107.255852 -26.533819 2.827069 1.000000
-107.255852 -26.533819 2.495532 1.000000
-107.255852 -26.533819 2.165059 1.000000
-107.255852 -26.533819 1.834941 1.000000
-107.255852 -26.533819 1.504468 1.000000
-107.255852 -26.533819 1.172930 1.000000
-107.255852 -26.533819 0.839609 1.000000
-107.255852 -26.533821 0.503766 1.000000
-107.255852 -26.533821 0.164647 1.000000
-108.056892 -26.329874 -0.000010 0.523095
-109.293167 -26.015120 -0.000008 0.543511
-107.267189 -26.603645 4.528234 1.000000
-107.267181 -26.603645 4.179938 1.000000
-107.267181 -26.603645 3.836534 1.000000
-107.267181 -26.603645 3.497196 1.000000
-107.267181 -26.603645 3.161138 1.000000
-107.267181 -26.603645 2.827601 1.000000
-107.267181 -26.603645 2.495851 1.000000
-107.267181 -26.603645 2.165165 1.000000
-107.267181 -26.603647 1.834834 1.000000
-107.267181 -26.603645 1.504149 1.000000
-107.267181 -26.603645 1.172398 1.000000
-107.267181 -26.603647 0.838862 1.000000
-107.267181 -26.603647 0.502804 1.000000
-107.267181 -26.603647 0.163465 1.000000
-108.073059 -26.392467 -0.000009 0.517922
-109.307106 -26.069090 -0.000008 0.538018
-107.278534 -26.673565 4.529985 1.000000
-107.278534 -26.673565 4.181448 1.000000
-107.278534 -26.673565 3.837806 1.000000
-107.278534 -26.673565 3.498234 1.000000
-107.278534 -26.673565 3.161942 1.000000
-107.278534 -26.673565 2.828175 1.000000
-107.278534 -26.673567 2.496194 1.000000
-107.278534 -26.673565 2.165280 1.000000
-107.278534 -26.673567 1.834720 1.000000
-107.278526 -26.673567 1.503805 1.000000
-107.278534 -26.673567 1.171825 1.000000
-107.278534 -26.673567 0.838058 1.000000
-107.278526 -26.673567 0.501766 1.000000
-107.278534 -26.673567 0.162193 1.000000
-108.089668 -26.454947 -0.000009 0.518227
-109.321426 -26.122961 -0.000008 0.564431
-107.289894 -26.743586 4.531864 1.000000
-107.289894 -26.743586 4.183068 1.000000
-107.289894 -26.743586 3.839170 1.000000
-107.289894 -26.743586 3.499345 1.000000
-107.289894 -26.743586 3.162805 1.000000
-107.289894 -26.743587 2.828790 1.000000
-107.289894 -26.743587 2.496563 1.000000
-107.289894 -26.743587 2.165403 1.000000
-107.289894 -26.743587 1.834597 1.000000
-107.289894 -26.743587 1.503437 1.000000
-107.289894 -26.743587 1.171210 1.000000
-107.289894 -26.743587 0.837195 1.000000
-107.289894 -26.743587 0.500654 1.000000
-107.289894 -26.743587 0.160829 1.000000
-108.106705 -26.517309 -0.000009 0.556497
-109.336121 -26.176731 -0.000008 0.556420
-107.301277 -26.813713 4.533868 1.000000
-107.301277 -26.813713 4.184796 1.000000
-107.301277 -26.813713 3.840626 1.000000
-107.301277 -26.813713 3.500532 1.000000
-107.301277 -26.813713 3.163725 1.000000
-107.301277 -26.813713 2.829446 1.000000
-107.301277 -26.813713 2.496956 1.000000
-107.301277 -26.813713 2.165533 1.000000
-107.301277 -26.813713 1.834466 1.000000
-107.301277 -26.813713 1.503044 1.000000
-107.301277 -26.813713 1.170554 1.000000
-107.301270 -26.813713 0.836274 1.000000
-107.301277 -26.813713 0.499467 1.000000
-107.301277 -26.813713 0.159373 1.000000
-108.124184 -26.579548 -0.000009 0.534752
-109.351189 -26.230398 -0.000008 0.548775
-107.312675 -26.883955 4.535998 1.000000
-107.312675 -26.883955 4.186634 1.000000
-107.312675 -26.883955 3.842174 1.000000
-107.312675 -26.883955 3.501794 1.000000
-107.312675 -26.883955 3.164704 1.000000
-107.312675 -26.883955 2.830143 1.000000
-107.312675 -26.883957 2.497374 1.000000
-107.312675 -26.883957 2.165673 1.000000
-107.312675 -26.883957 1.834327 1.000000
-107.312675 -26.883957 1.502626 1.000000
-107.312675 -26.883957 1.169857 1.000000
-107.312675 -26.883957 0.835296 1.000000
-107.312675 -26.883957 0.498206 1.000000
-107.312675 -26.883957 0.157826 1.000000
-108.142097 -26.641666 -0.000009 0.546044
-109.366631 -26.283958 -0.000008 0.551888
-107.324097 -26.954319 4.538257 1.000000
-107.324097 -26.954319 4.188581 1.000000
-107.324097 -26.954319 3.843814 1.000000
-107.324097 -26.954319 3.503131 1.000000
-107.324097 -26.954319 3.165741 1.000000
-107.324097 -26.954319 2.830882 1.000000
-107.324097 -26.954319 2.497816 1.000000
-107.324097 -26.954319 2.165821 1.000000
-107.324097 -26.954319 1.834180 1.000000
-107.324097 -26.954321 1.502183 1.000000
-107.324097 -26.954321 1.169117 1.000000
-107.324097 -26.954321 0.834259 1.000000
-107.324097 -26.954321 0.496868 1.000000
-107.324097 -26.954321 0.156185 1.000000
-108.160439 -26.703657 -0.000009 0.554406
-109.382446 -26.337410 -0.000007 0.549050
-107.335541 -27.024811 4.540643 1.000000
-107.335533 -27.024811 4.190639 1.000000
-107.335533 -27.024811 3.845548 1.000000
-107.335533 -27.024813 3.504545 1.000000
-107.335533 -27.024813 3.166837 1.000000
-107.335533 -27.024813 2.831663 1.000000
-107.335533 -27.024813 2.498285 1.000000
-107.335533 -27.024811 2.165976 1.000000
-107.335533 -27.024811 1.834024 1.000000
-107.335533 -27.024813 1.501715 1.000000
-107.335533 -27.024813 1.168336 1.000000
-107.335533 -27.024813 0.833163 1.000000
-107.335533 -27.024813 0.495455 1.000000
-107.335533 -27.024813 0.154451 1.000000
-108.179222 -26.765518 -0.000009 0.528496
-109.398636 -26.390749 -0.000007 0.544137
-107.347000 -27.095440 4.543158 1.000000
-107.347000 -27.095440 4.192807 1.000000
-107.347000 -27.095442 3.847374 1.000000
-107.347000 -27.095440 3.506033 1.000000
-107.347000 -27.095440 3.167992 1.000000
-107.347000 -27.095442 2.832487 1.000000
-107.347000 -27.095442 2.498778 1.000000
-107.347000 -27.095440 2.166140 1.000000
-107.347000 -27.095442 1.833859 1.000000
-107.346992 -27.095442 1.501222 1.000000
-107.346992 -27.095442 1.167513 1.000000
-107.347000 -27.095442 0.832008 1.000000
-107.347000 -27.095442 0.493966 1.000000
-107.346992 -27.095442 0.152625 1.000000
-108.198425 -26.827248 -0.000009 0.546395
-109.415199 -26.443974 -0.000007 0.547311
-107.358482 -27.166214 4.545801 1.000000
-107.358482 -27.166214 4.195086 1.000000
-107.358482 -27.166214 3.849295 1.000000
-107.358482 -27.166214 3.507600 1.000000
-107.358482 -27.166214 3.169206 1.000000
-107.358482 -27.166214 2.833352 1.000000
-107.358482 -27.166214 2.499296 1.000000
-107.358482 -27.166214 2.166313 1.000000
-107.358482 -27.166214 1.833687 1.000000
-107.358482 -27.166214 1.500703 1.000000
-107.358482 -27.166216 1.166647 1.000000
-107.358482 -27.166214 0.830793 1.000000
-107.358482 -27.166214 0.492400 1.000000
-107.358482 -27.166214 0.150704 1.000000
nan nan nan 0.000000
-109.432129 -26.497082 -0.000007 0.533104
-107.369995 -27.237137 4.548575 1.000000
-107.369995 -27.237135 4.197477 1.000000
-107.369995 -27.237135 3.851310 1.000000
-107.369995 -27.237135 3.509242 1.000000
-107.369995 -27.237137 3.170480 1.000000
-107.369995 -27.237137 2.834260 1.000000
-107.369995 -27.237137 2.499840 1.000000
-107.369995 -27.237137 2.166495 1.000000
-107.369995 -27.237137 1.833505 1.000000
-107.369995 -27.237137 1.500159 1.000000
-107.369987 -27.237137 1.165739 1.000000
-107.369995 -27.237137 0.829519 1.000000
-107.369995 -27.237137 0.490758 1.000000
-107.369995 -27.237137 0.148689 1.000000
nan nan nan 0.000000
-109.449432 -26.550070 -0.000007 0.551019
-107.381531 -27.308218 4.551480 1.000000
-107.381531 -27.308218 4.199983 1.000000
-107.381531 -27.308218 3.853420 1.000000
-107.381531 -27.308218 3.510962 1.000000
-107.381531 -27.308218 3.171814 1.000000
-107.381531 -27.308218 2.835211 1.000000
-107.381531 -27.308218 2.500410 1.000000
-107.381531 -27.308220 2.166684 1.000000
-107.381531 -27.308220 1.833316 1.000000
-107.381531 -27.308220 1.499590 1.000000
-107.381531 -27.308220 1.164789 1.000000
-107.381531 -27.308220 0.828185 1.000000
-107.381531 -27.308220 0.489038 1.000000
-107.381531 -27.308220 0.146579 1.000000
-108.258629 -27.011610 -0.000009 0.551476
-109.467110 -26.602936 -0.000007 0.520333
-107.393097 -27.379465 4.554516 1.000000
-107.393097 -27.379465 4.202600 1.000000
-107.393089 -27.379465 3.855625 1.000000
-107.393089 -27.379467 3.512760 1.000000
-107.393097 -27.379465 3.173208 1.000000
-107.393089 -27.379467 2.836205 1.000000
-107.393089 -27.379467 2.501005 1.000000
-107.393089 -27.379467 2.166882 1.000000
-107.393089 -27.379467 1.833117 1.000000
-107.393089 -27.379467 1.498994 1.000000
-107.393089 -27.379467 1.163795 1.000000
-107.393089 -27.379467 0.826792 1.000000
-107.393089 -27.379467 0.487239 1.000000
-107.393089 -27.379467 0.144374 1.000000
-108.279556 -27.072777 -0.000009 0.518364
-109.485153 -26.655678 -0.000007 0.552743
-107.404678 -27.450886 4.557684 1.000000
-107.404686 -27.450884 4.205331 1.000000
-107.404686 -27.450884 3.857926 1.000000
-107.404678 -27.450886 3.514636 1.000000
-107.404678 -27.450886 3.174664 1.000000
-107.404686 -27.450886 2.837241 1.000000
-107.404678 -27.450886 2.501626 1.000000
-107.404678 -27.450886 2.167089 1.000000
-107.404678 -27.450886 1.832910 1.000000
-107.404678 -27.450886 1.498373 1.000000
-107.404678 -27.450886 1.162758 1.000000
-107.404678 -27.450886 0.825336 1.000000
-107.404678 -27.450886 0.485364 1.000000
-107.404678 -27.450886 0.142073 1.000000
-108.300903 -27.133799 -0.000008 0.509331
-109.503563 -26.708292 -0.000007 0.547677
-107.416306 -27.522486 4.560984 1.000000
-107.416306 -27.522486 4.208177 1.000000
-107.416306 -27.522486 3.860324 1.000000
-107.416306 -27.522486 3.516590 1.000000
-107.416306 -27.522486 3.176179 1.000000
-107.416306 -27.522488 2.838322 1.000000
-107.416306 -27.522486 2.502274 1.000000
-107.416306 -27.522486 2.167305 1.000000
-107.416306 -27.522486 1.832695 1.000000
-107.416298 -27.522488 1.497726 1.000000
-107.416298 -27.522488 1.161678 1.000000
-107.416306 -27.522488 0.823821 1.000000
-107.416298 -27.522488 0.483409 1.000000
-107.416298 -27.522488 0.139675 1.000000
-108.322678 -27.194668 -0.000008 0.515862
-109.522339 -26.760777 -0.000007 0.565988
-107.427956 -27.594275 4.564418 1.000000
-107.427956 -27.594276 4.211139 1.000000
-107.427956 -27.594276 3.862818 1.000000
-107.427956 -27.594276 3.518624 1.000000
-107.427956 -27.594276 3.177756 1.000000
-107.427956 -27.594276 2.839446 1.000000
-107.427956 -27.594276 2.502947 1.000000
-107.427956 -27.594276 2.167529 1.000000
-107.427956 -27.594276 1.832471 1.000000
-107.427956 -27.594276 1.497052 1.000000
-107.427956 -27.594276 1.160554 1.000000
-107.427956 -27.594276 0.822244 1.000000
-107.427956 -27.594276 0.481376 1.000000
-107.427948 -27.594276 0.137181 1.000000
-108.344879 -27.255386 -0.000008 0.531090
-109.541473 -26.813129 -0.000007 0.574273
-107.439636 -27.666260 4.567987 1.000000
-107.439636 -27.666260 4.214215 1.000000
-107.439636 -27.666260 3.865411 1.000000
-107.439636 -27.666262 3.520738 1.000000
-107.439636 -27.666262 3.179395 1.000000
-107.439636 -27.666262 2.840615 1.000000
-107.439636 -27.666262 2.503648 1.000000
-107.439636 -27.666262 2.167763 1.000000
-107.439636 -27.666262 1.832237 1.000000
-107.439636 -27.666262 1.496352 1.000000
-107.439636 -27.666262 1.159385 1.000000
-107.439636 -27.666262 0.820604 1.000000
-107.439636 -27.666262 0.479262 1.000000
-107.439636 -27.666262 0.134588 1.000000
-108.367508 -27.315945 -0.000008 0.506737
-109.560982 -26.865345 -0.000007 0.515740
-107.451355 -27.738451 4.571692 1.000000
-107.451355 -27.738451 4.217409 1.000000
-107.451355 -27.738451 3.868102 1.000000
-107.451355 -27.738451 3.522931 1.000000
-107.451355 -27.738451 3.181097 1.000000
-107.451355 -27.738451 2.841827 1.000000
-107.451355 -27.738451 2.504374 1.000000
-107.451355 -27.738451 2.168005 1.000000
-107.451355 -27.738451 1.831995 1.000000
-107.451355 -27.738451 1.495626 1.000000
-107.451347 -27.738453 1.158173 1.000000
-107.451347 -27.738453 0.818903 1.000000
-107.451347 -27.738453 0.477068 1.000000
-107.451347 -27.738451 0.131898 1.000000
-108.390549 -27.376347 -0.000008 0.535225
-109.580856 -26.917427 -0.000007 0.544564
-107.463104 -27.810854 4.575532 1.000000
-107.463104 -27.810854 4.220721 1.000000
-107.463104 -27.810854 3.870892 1.000000
-107.463104 -27.810854 3.525206 1.000000
-107.463104 -27.810854 3.182861 1.000000
-107.463104 -27.810854 2.843084 1.000000
-107.463104 -27.810856 2.505127 1.000000
-107.463104 -27.810854 2.168255 1.000000
-107.463104 -27.810854 1.831745 1.000000
-107.463097 -27.810856 1.494873 1.000000
-107.463104 -27.810856 1.156915 1.000000
-107.463104 -27.810854 0.817140 1.000000
-107.463097 -27.810856 0.474794 1.000000
-107.463104 -27.810856 0.129108 1.000000
-108.414017 -27.436584 -0.000008 0.519890
-109.601089 -26.969366 -0.000007 0.536538
-107.474892 -27.883476 4.579510 1.000000
-107.474892 -27.883476 4.224151 1.000000
-107.474892 -27.883476 3.873781 1.000000
-107.474892 -27.883476 3.527561 1.000000
-107.474892 -27.883476 3.184688 1.000000
-107.474892 -27.883476 2.844386 1.000000
-107.474884 -27.883476 2.505908 1.000000
-107.474892 -27.883476 2.168515 1.000000
-107.474892 -27.883476 1.831485 1.000000
-107.474884 -27.883476 1.494092 1.000000
-107.474892 -27.883476 1.155614 1.000000
-107.474884 -27.883478 0.815312 1.000000
-107.474892 -27.883476 0.472439 1.000000
-107.474884 -27.883476 0.126218 1.000000
-108.437904 -27.496658 -0.000008 0.538552
-109.621689 -27.021164 -0.000006 0.552773
-107.486710 -27.956326 4.583627 1.000000
-107.486710 -27.956326 4.227700 1.000000
-107.486710 -27.956327 3.876772 1.000000
-107.486710 -27.956327 3.529999 1.000000
-107.486710 -27.956326 3.186578 1.000000
-107.486710 -27.956327 2.845734 1.000000
-107.486710 -27.956327 2.506715 1.000000
-107.486710 -27.956327 2.168784 1.000000
-107.486710 -27.956327 1.831216 1.000000
-107.486710 -27.956327 1.493285 1.000000
-107.486710 -27.956327 1.154266 1.000000
-107.486710 -27.956327 0.813422 1.000000
-107.486710 -27.956327 0.470001 1.000000
-107.486710 -27.956327 0.123227 1.000000
-108.462212 -27.556562 -0.000008 0.569757
-109.642647 -27.072815 -0.000006 0.511879
-107.498573 -28.029411 4.587882 1.000000
-107.498573 -28.029413 4.231370 1.000000
-107.498573 -28.029413 3.879863 1.000000
-107.498573 -28.029411 3.532519 1.000000
-107.498573 -28.029411 3.188533 1.000000
-107.498573 -28.029413 2.847127 1.000000
-107.498573 -28.029413 2.507550 1.000000
-107.498573 -28.029413 2.169062 1.000000
-107.498573 -28.029413 1.830938 1.000000
-107.498573 -28.029413 1.492450 1.000000
-107.498573 -28.029413 1.152873 1.000000
-107.498573 -28.029413 0.811467 1.000000
-107.498573 -28.029413 0.467480 1.000000
-107.498566 -28.029413 0.120136 1.000000
-108.486931 -27.616297 -0.000008 0.591211
-109.663963 -27.124321 -0.000006 0.542840
-107.510475 -28.102745 4.592279 1.000000
-107.510475 -28.102745 4.235161 1.000000
-107.510475 -28.102745 3.883057 1.000000
-107.510475 -28.102745 3.535123 1.000000
-107.510475 -28.102745 3.190552 1.000000
-107.510475 -28.102745 2.848566 1.000000
-107.510475 -28.102747 2.508411 1.000000
-107.510475 -28.102745 2.169350 1.000000
-107.510475 -28.102745 1.830650 1.000000
-107.510475 -28.102747 1.491588 1.000000
-107.510475 -28.102747 1.151433 1.000000
-107.510475 -28.102745 0.809448 1.000000
-107.510475 -28.102745 0.464877 1.000000
-107.510475 -28.102747 0.116943 1.000000
-108.512070 -27.675858 -0.000008 0.542626
-109.685638 -27.175676 -0.000006 0.511757
-107.522415 -28.176329 4.596817 1.000000
-107.522415 -28.176331 4.239074 1.000000
-107.522415 -28.176329 3.886353 1.000000
-107.522415 -28.176331 3.537811 1.000000
-107.522415 -28.176331 3.192636 1.000000
-107.522415 -28.176329 2.850052 1.000000
-107.522415 -28.176331 2.509302 1.000000
-107.522415 -28.176331 2.169646 1.000000
-107.522415 -28.176331 1.830354 1.000000
-107.522415 -28.176331 1.490698 1.000000
-107.522415 -28.176331 1.149948 1.000000
-107.522415 -28.176331 0.807364 1.000000
-107.522415 -28.176331 0.462189 1.000000
-107.522415 -28.176331 0.113646 1.000000
-108.537628 -27.735239 -0.000008 0.556588
-109.707672 -27.226877 -0.000006 0.538628
-107.534401 -28.250177 4.601499 1.000000
-107.534401 -28.250175 4.243111 1.000000
-107.534401 -28.250177 3.889754 1.000000
