# This PCD file was generated using the MATLABÂ® pcwrite function
# from Computer Vision ToolboxÂ®.
# .PCD v.7 - Point Cloud Data file format
VERSION .7
FIELDS x y z intensity
SIZE 4 4 4 4
TYPE F F F F
COUNT 1 1 1 1
WIDTH 1251
HEIGHT 1
VIEWPOINT 0 0 0 1 0 0 0
POINTS 1251
DATA ascii
157.627579 62.116192 -0.000003 0.305013
159.323715 61.332466 -0.000002 0.282536
160.502579 60.787750 -0.000002 0.262440
161.371155 60.386417 0.000006 0.343511
141.836105 69.625114 8.412851 0.745663
141.924606 69.583466 7.439394 0.172549
141.778915 69.652023 6.533063 0.733700
141.778915 69.652023 5.603099 0.709804
139.919525 70.526985 4.918531 0.730861
138.127609 71.370193 4.098941 0.337240
138.127609 71.370193 3.057134 0.131563
138.127609 71.370193 2.018674 0.137346
138.127609 71.370193 0.981326 0.167773
139.179703 70.875122 -0.000013 0.295659
150.254471 65.663727 -0.000007 0.307088
155.009262 63.426300 -0.000005 0.305653
157.657410 62.180172 -0.000004 0.363958
159.348038 61.384628 -0.000002 0.279530
160.523071 60.831696 -0.000002 0.360052
161.388824 60.424305 0.000007 0.345098
141.836090 69.838753 8.435807 0.720378
141.924606 69.796349 7.459117 0.211002
141.778915 69.866150 6.549775 0.735973
141.778931 69.866150 5.616723 0.712154
140.008499 70.714394 4.918531 0.717037
138.127609 71.615562 4.107571 0.269368
138.127609 71.615562 3.062305 0.080400
138.127609 71.615562 2.020396 0.095354
138.127609 71.615562 0.979603 0.129412
139.271118 71.067680 -0.000013 0.292729
150.309250 65.779099 -0.000007 0.283955
155.048309 63.508526 -0.000004 0.272587
157.687698 62.243942 -0.000003 0.261494
159.372711 61.436615 -0.000002 0.260487
160.543869 60.875492 -0.000002 0.307042
161.406754 60.462070 0.000006 0.334691
141.836105 70.053825 8.459253 0.722484
141.924606 70.010658 7.479262 0.180392
141.778915 70.081718 6.566844 0.752941
141.778931 70.081718 5.630641 0.712154
140.098801 70.901161 4.918530 0.734188
138.109253 71.871529 4.118061 0.460487
138.109253 71.871536 3.068590 0.548959
138.109253 71.871529 2.022490 0.414923
138.109253 71.871529 0.977510 0.414923
139.363907 71.259598 -0.000013 0.291875
150.364838 65.894089 -0.000007 0.292561
155.087921 63.590485 -0.000005 0.270832
157.718414 62.307503 -0.000003 0.310170
159.397766 61.488430 -0.000002 0.299565
160.564972 60.919147 -0.000002 0.305013
161.460815 60.482220 0.010001 1.000000
141.836136 70.270355 8.483194 0.698238
141.924606 70.226433 7.499837 0.162951
141.814545 70.281067 6.577043 0.739910
141.778931 70.298752 5.644854 0.727260
140.190399 71.087303 4.918529 0.745632
138.127640 72.111267 4.125387 0.346471
138.127625 72.111267 3.072980 0.115007
138.127625 72.111267 2.023952 0.211963
138.127625 72.111267 0.976048 0.238010
139.458023 71.450859 -0.000013 0.291905
150.421219 66.008675 -0.000007 0.272755
155.128113 63.672161 -0.000005 0.325093
157.749588 62.370846 -0.000003 0.269184
159.423172 61.540070 -0.000002 0.369909
160.586380 60.962650 -0.000002 0.282063
161.479141 60.519482 0.010000 1.000000
141.836121 70.488403 8.507650 0.721340
141.924606 70.443710 7.520852 0.205798
141.836136 70.488396 6.590423 0.715969
141.778931 70.517303 5.659370 0.709804
140.283295 71.272797 4.918528 0.728023
138.127625 72.361702 4.134582 0.334752
138.127640 72.361702 3.078489 0.189380
138.127625 72.361702 2.025788 0.171542
138.127609 72.361710 0.974213 0.249592
139.553467 71.641457 -0.000013 0.289906
150.478409 66.122871 -0.000007 0.291402
155.168869 63.753555 -0.000005 0.276402
157.781204 62.433971 -0.000003 0.323278
159.448944 61.591530 -0.000002 0.305287
160.608093 61.006004 -0.000002 0.275196
161.497742 60.556614 0.010000 1.000000
141.836121 70.708000 8.532623 0.750683
141.924606 70.662521 7.542307 0.210727
141.836136 70.707993 6.608563 0.741176
141.778931 70.737396 5.674191 0.721569
140.377472 71.457642 4.918528 0.724666
138.127625 72.613907 4.143970 0.333333
138.127640 72.613907 3.084114 0.129366
138.127625 72.613907 2.027661 0.118288
138.127625 72.613914 0.972339 0.127367
139.650238 71.831390 -0.000013 0.289250
150.536392 66.236671 -0.000007 0.297612
155.210190 63.834663 -0.000005 0.283192
157.813248 62.496872 -0.000003 0.297963
159.475067 61.642811 -0.000002 0.327932
160.630112 61.049206 -0.000001 0.285344
161.516586 60.593616 0.010000 1.000000
141.836121 70.929169 8.558117 0.748211
141.884628 70.903816 7.573954 0.678431
141.836136 70.929169 6.627082 0.733715
141.778931 70.959076 5.689326 0.719265
140.472961 71.641815 4.918526 0.727092
138.127625 72.867928 4.153555 0.335821
138.127625 72.867928 3.089857 0.190387
138.127625 72.867935 2.029573 0.149020
138.127625 72.867935 0.970426 0.171221
139.748352 72.020630 -0.000012 0.287861
150.595169 66.350052 -0.000007 0.290333
155.252090 63.915478 -0.000004 0.310536
157.845734 62.559547 -0.000003 0.338491
159.501556 61.693905 -0.000002 0.283818
160.652420 61.092251 -0.000002 0.314519
161.535690 60.630486 0.009999 1.000000
141.836121 71.151962 8.584146 0.729747
141.924622 71.104904 7.586572 0.207782
141.836136 71.151955 6.645990 0.732738
141.778931 71.182373 5.704774 0.721569
140.569717 71.825317 4.918526 0.731472
138.127625 73.123802 4.163342 0.333333
138.127625 73.123802 3.095719 0.190387
138.127625 73.123810 2.031527 0.179965
138.127625 73.123810 0.968473 0.212375
139.847778 72.209183 -0.000012 0.290044
150.654724 66.463028 -0.000007 0.284855
155.294540 63.995998 -0.000004 0.297002
157.878662 62.621998 -0.000003 0.297108
159.528397 61.744816 -0.000002 0.255299
160.675034 61.135139 -0.000001 0.296834
161.555069 60.667221 0.009999 1.000000
141.836121 71.376419 8.610714 0.721569
141.924622 71.328568 7.609399 0.203922
141.836136 71.376411 6.665292 0.733333
141.778931 71.407349 5.720543 0.721569
140.667770 72.008141 4.918523 0.735363
138.127625 73.381592 4.173330 0.333333
138.127625 73.381592 3.101705 0.160784
138.127625 73.381592 2.033521 0.202640
138.127625 73.381592 0.966480 0.236896
139.948502 72.397049 -0.000012 0.286473
150.715088 66.575577 -0.000007 0.281834
155.337555 64.076218 -0.000004 0.299825
157.912018 62.684212 -0.000003 0.250080
159.555603 61.795536 -0.000002 0.279301
160.697937 61.177872 -0.000002 0.350576
161.574692 60.703819 0.009998 1.000000
141.836121 71.602570 8.637832 0.733333
141.924622 71.553917 7.632697 0.188800
141.836136 71.602562 6.684989 0.752865
141.778931 71.634018 5.736638 0.716564
140.767090 72.190269 4.918522 0.735759
138.127625 73.641327 4.183524 0.340505
138.127625 73.641327 3.107812 0.163241
138.127625 73.641335 2.035555 0.179904
138.127625 73.641335 0.964445 0.236103
140.050537 72.584206 -0.000012 0.289616
150.776215 66.687714 -0.000007 0.296437
155.381134 64.156143 -0.000004 0.300389
157.945816 62.746193 -0.000003 0.294774
159.583145 61.846066 -0.000002 0.317067
160.721161 61.220440 -0.000001 0.254398
161.594559 60.740280 0.009998 1.000000
141.836121 71.830475 8.665508 0.733333
141.924622 71.781013 7.656475 0.190234
141.836136 71.830467 6.705092 0.736889
141.778931 71.862442 5.753065 0.733333
140.867661 72.371727 4.918522 0.741726
138.127625 73.903084 4.193930 0.330068
138.127640 73.903076 3.114046 0.144656
138.127625 73.903076 2.037632 0.120714
138.127625 73.903076 0.962368 0.149020
140.153885 72.770638 -0.000012 0.289967
150.838135 66.799416 -0.000007 0.289540
155.425262 64.235756 -0.000004 0.282399
157.980042 62.807941 -0.000003 0.262440
159.611053 61.896400 -0.000002 0.274800
160.744659 61.262848 -0.000002 0.289662
161.614700 60.776604 0.009997 1.000000
141.836121 72.060158 8.693752 0.721111
141.924622 72.009880 7.680742 0.196841
141.836136 72.060150 6.725609 0.734127
141.778931 72.092651 5.769829 0.724376
140.969513 72.552460 4.918521 0.728878
138.170746 74.142380 4.200481 0.068406
138.170746 74.142380 3.117973 0.035355
138.170746 74.142380 2.038938 0.037659
138.170746 74.142380 0.961061 0.037659
140.258530 72.956352 -0.000012 0.289906
150.900833 66.910683 -0.000007 0.285603
155.469955 64.315063 -0.000004 0.262333
158.014694 62.869446 -0.000003 0.287861
159.639297 61.946545 -0.000002 0.248432
160.768463 61.305092 -0.000001 0.288075
161.635086 60.812782 0.009998 1.000000
141.841080 72.288803 8.721137 0.620340
141.924622 72.240570 7.705503 0.178210
141.836121 72.291664 6.746545 0.741176
141.778915 72.324692 5.786935 0.720974
141.072601 72.732483 4.918521 0.726131
138.630554 74.142395 4.167766 0.333333
138.630569 74.142395 3.098371 0.178683
138.630569 74.142395 2.032410 0.148043
138.630569 74.142395 0.967591 0.223774
140.364471 73.141327 -0.000012 0.290257
150.964310 67.021507 -0.000007 0.294148
155.515182 64.394058 -0.000005 0.281483
158.049789 62.930706 -0.000003 0.350347
159.667908 61.996483 -0.000002 0.273060
160.792557 61.347164 -0.000002 0.294636
161.621170 60.868763 0.000006 0.334981
141.924606 72.473137 8.726282 0.215824
141.924622 72.473129 7.730768 0.185458
141.836121 72.525047 6.767906 0.715358
141.778915 72.558609 5.804390 0.721752
141.176987 72.911766 4.918519 0.727611
139.079407 74.142410 4.135959 0.339864
139.079407 74.142410 3.079314 0.158663
139.079407 74.142410 2.026062 0.160784
139.079407 74.142410 0.973938 0.185626
140.471695 73.325562 -0.000012 0.291936
151.028549 67.131889 -0.000007 0.294286
155.560974 64.472725 -0.000004 0.288655
158.085297 62.991718 -0.000003 0.302998
159.696854 62.046223 -0.000002 0.266087
160.816956 61.389069 -0.000001 0.267659
161.642212 60.904892 0.000006 0.349660
141.924606 72.707603 8.756177 0.165301
141.924622 72.707596 7.756546 0.198688
141.836121 72.760353 6.789701 0.691203
141.778915 72.794456 5.822198 0.738354
141.282593 73.090324 4.918517 0.733913
139.517685 74.142426 4.105026 0.345098
139.517670 74.142426 3.060781 0.194461
139.517685 74.142426 2.019888 0.215686
139.517685 74.142426 0.980111 0.247562
140.580200 73.509033 -0.000012 0.301122
151.093567 67.241814 -0.000007 0.270542
155.607315 64.551079 -0.000004 0.286076
158.121231 63.052483 -0.000003 0.275959
159.726151 62.095760 -0.000002 0.309514
160.841629 61.430801 -0.000001 0.302571
161.663483 60.940880 0.000006 0.341482
141.924606 72.944038 8.786679 0.220218
141.924622 72.944031 7.782847 0.212146
141.836121 72.997635 6.811939 0.729198
141.778931 73.032272 5.840367 0.736065
141.389450 73.268150 4.918517 0.728985
139.926926 74.153885 4.076747 0.138689
139.926926 74.153885 3.043837 0.136767
139.926926 74.153885 2.014245 0.208927
139.926895 74.153900 0.985755 0.208927
140.690002 73.691750 -0.000012 0.293721
151.159348 67.351288 -0.000006 0.282963
155.654205 64.629105 -0.000004 0.292363
158.157593 63.112999 -0.000003 0.284733
159.755798 62.145096 -0.000002 0.246204
160.866608 61.472366 -0.000001 0.314092
161.685013 60.976715 0.000007 0.345663
141.924606 73.182480 8.817799 0.208438
141.924622 73.182465 7.809676 0.208103
141.836121 73.236916 6.834622 0.712016
141.778931 73.272110 5.858903 0.725933
141.497543 73.445213 4.918516 0.706691
140.364227 74.142433 4.045651 0.346105
140.364243 74.142426 3.025206 0.188113
140.364243 74.142426 2.008039 0.202411
140.364243 74.142426 0.991961 0.238331
140.801056 73.873695 -0.000012 0.301106
151.225876 67.460297 -0.000006 0.301610
155.701630 64.706802 -0.000004 0.309560
158.194366 63.173256 -0.000003 0.341375
159.785782 62.194218 -0.000002 0.307118
160.891861 61.513748 -0.000001 0.246372
161.706802 61.012398 0.000007 0.346914
141.924606 73.422981 8.849544 0.146487
141.924622 73.422966 7.837048 0.220310
141.836121 73.478271 6.857763 0.721569
141.778931 73.514008 5.877811 0.725200
141.606873 73.621521 4.918513 0.728191
140.773239 74.142433 4.017148 0.334157
140.773239 74.142433 3.008129 0.131746
140.773270 74.142418 2.002351 0.137255
140.773254 74.142426 0.997649 0.161151
140.773254 74.142426 -0.008129 0.290196
151.293182 67.568848 -0.000006 0.266133
155.749603 64.784172 -0.000004 0.293492
158.231567 63.233253 -0.000003 0.292653
159.816101 62.243130 -0.000002 0.284977
160.917419 61.554958 -0.000001 0.343877
161.728836 61.047928 0.000006 0.322423
141.924606 73.665581 8.881926 0.170871
141.924622 73.665565 7.864968 0.180392
141.836121 73.721733 6.881371 0.721569
141.778931 73.758034 5.897100 0.721843
141.717438 73.797058 4.918513 0.713405
141.173203 74.142433 3.989397 0.352392
141.173203 74.142433 2.991502 0.172549
141.173203 74.142433 1.996813 0.206821
141.173233 74.142418 1.003188 0.244755
141.173233 74.142418 0.008499 0.280629
151.361237 67.676918 -0.000007 0.297612
155.798096 64.861191 -0.000004 0.302388
158.269196 63.292992 -0.000003 0.245121
159.846771 62.291832 -0.000002 0.309560
160.943253 61.595985 -0.000001 0.229023
161.751099 61.083305 0.000006 0.338308
141.904785 73.923119 8.920866 0.353307
141.924637 73.910332 7.893450 0.218997
141.836121 73.967369 6.905452 0.725978
141.778931 74.004227 5.916777 0.733333
141.778931 74.004227 4.925394 0.721248
141.564468 74.142441 3.962369 0.326116
141.564468 74.142433 2.975309 0.134768
141.564484 74.142433 1.991419 0.141283
141.564484 74.142433 1.008582 0.154650
141.564514 74.142410 0.024692 0.263890
151.430054 67.784508 -0.000006 0.287297
155.847153 64.937881 -0.000004 0.277867
158.307236 63.352467 -0.000003 0.274388
159.877777 62.340317 -0.000002 0.255436
160.969376 61.636833 -0.000001 0.286564
161.773636 61.118523 0.000006 0.339605
141.924637 74.157303 8.948645 0.127245
141.924606 74.157318 7.922508 0.178897
141.898926 74.174126 6.916357 0.713222
141.778915 74.252655 5.936847 0.720012
141.836121 74.215225 4.933095 0.715785
141.778931 74.252647 3.952544 0.713390
141.836121 74.215225 2.966064 0.721889
141.778931 74.252647 1.989458 0.709804
141.836121 74.215225 1.011661 0.720378
141.778931 74.252647 0.030578 0.709804
151.499603 67.891617 -0.000006 0.293111
155.896729 65.014221 -0.000004 0.248325
158.345673 63.411674 -0.000003 0.298024
159.909119 62.388584 -0.000002 0.286992
160.995773 61.677498 -0.000001 0.265476
161.796402 61.153587 0.000006 0.321660
141.924637 74.406548 8.983010 0.129412
141.924606 74.406563 7.952140 0.178683
141.924606 74.406563 6.935738 0.500008
141.778931 74.503357 5.957318 0.725795
141.836121 74.465355 4.948936 0.738293
141.778931 74.503357 3.963859 0.739452
141.836121 74.465347 2.972828 0.713024
141.778931 74.503349 1.991715 0.709804
141.778931 74.503349 1.008284 0.733333
141.778931 74.503349 0.023798 0.709804
151.569916 67.998238 -0.000006 0.288487
155.946838 65.090218 -0.000004 0.267414
158.384537 63.470612 -0.000002 0.291554
159.940811 62.436630 -0.000002 0.295262
161.022476 61.717976 -0.000001 0.288670
161.819412 61.188488 0.000006 0.325185
141.924637 74.658112 9.018065 0.094118
141.924606 74.658127 7.982364 0.176745
141.924606 74.658127 6.961203 0.240253
141.778931 74.756393 5.978198 0.712245
141.836121 74.717812 4.965093 0.733333
141.778931 74.756393 3.975402 0.734371
141.836121 74.717804 2.979728 0.712108
141.778931 74.756393 1.994020 0.709804
141.778931 74.756386 1.005980 0.731823
141.778931 74.756386 0.016882 0.709804
151.640961 68.104370 -0.000006 0.306752
155.997467 65.165863 -0.000004 0.287816
158.423813 63.529274 -0.000002 0.352178
159.972824 62.484455 -0.000002 0.242756
161.049438 61.758263 -0.000001 0.292592
161.842667 61.223228 0.000006 0.318807
141.924637 74.912056 9.053821 0.094118
141.924622 74.912071 8.013194 0.202548
141.924606 74.912079 6.987174 0.198093
141.778931 75.011826 5.999496 0.732097
141.836121 74.972664 4.981571 0.725155
141.778931 75.011826 3.987175 0.729976
141.836121 74.972664 2.986765 0.723171
141.778931 75.011826 1.996369 0.741176
141.778931 75.011826 1.003631 0.723079
141.778931 75.011826 0.009829 0.709804
151.712753 68.209999 -0.000006 0.291737
156.048645 65.241150 -0.000004 0.297185
158.463501 63.587666 -0.000002 0.293065
160.005173 62.532055 -0.000002 0.251820
161.076691 61.798367 -0.000001 0.301976
161.866165 61.257805 0.000006 0.340414
141.924637 75.168442 9.090288 0.104433
141.924622 75.168457 8.044639 0.181659
141.924606 75.168457 7.013664 0.215686
141.778915 75.269714 6.021219 0.728603
141.836121 75.229965 4.998380 0.715221
141.778931 75.269714 3.999182 0.733333
141.836121 75.229958 2.993943 0.725200
141.778931 75.269707 1.998765 0.740353
141.778931 75.269707 1.001235 0.733669
141.778931 75.269707 0.002635 0.723400
151.785263 68.315125 -0.000006 0.294530
156.100327 65.316078 -0.000004 0.276997
158.503586 63.645775 -0.000003 0.298116
160.037857 62.579426 -0.000002 0.326558
161.104233 61.838276 -0.000001 0.289494
161.889908 61.292217 0.000006 0.342672
141.924637 75.427322 9.127481 0.117647
141.924622 75.427338 8.076710 0.160784
141.924606 75.427338 7.040683 0.207004
141.778915 75.530121 6.043374 0.727214
141.836121 75.489769 5.015523 0.731731
141.778931 75.530113 4.011430 0.741176
141.836121 75.489769 3.001264 0.738750
141.778931 75.530113 2.001209 0.750179
141.778931 75.530106 0.998791 0.751431
141.778931 75.530106 -0.004703 0.734493
151.858521 68.419739 -0.000006 0.290166
156.152542 65.390648 -0.000004 0.324453
158.544083 63.703602 -0.000002 0.278737
160.070862 62.626572 -0.000002 0.320867
161.132034 61.877995 -0.000001 0.263615
161.913879 61.326462 0.000006 0.340703
141.924637 75.688774 9.165420 0.102251
141.778915 75.793098 8.148119 0.725155
141.924622 75.688789 7.068242 0.180392
141.778915 75.793098 6.065972 0.733333
141.836121 75.752144 5.033009 0.722972
141.778931 75.793091 4.023920 0.735576
141.836121 75.752151 3.008731 0.732647
141.901596 75.705269 2.001233 0.183352
141.778931 75.793091 0.996298 0.733333
141.778931 75.793091 -0.012187 0.738445
151.932510 68.523842 -0.000006 0.289799
156.205276 65.464844 -0.000004 0.299702
158.584976 63.761147 -0.000002 0.242985
160.104202 62.673485 -0.000001 0.290990
161.160126 61.917519 -0.000001 0.297154
161.938110 61.360538 0.000006 0.339590
141.924622 75.952858 9.204115 0.130327
141.778915 76.058716 8.181679 0.714809
141.924622 75.952866 7.096348 0.203601
141.778931 76.058716 6.089019 0.752941
141.836121 76.017159 5.050842 0.734981
141.778931 76.058716 4.036661 0.734188
141.836121 76.017159 3.016347 0.721569
141.924622 75.952858 2.003298 0.075196
141.778931 76.058708 0.993755 0.713481
142.105133 75.821701 -0.000011 0.290440
152.007202 68.627434 -0.000006 0.280720
156.258514 65.538673 -0.000003 0.310033
158.626266 63.818405 -0.000002 0.285863
160.137863 62.720161 -0.000001 0.254002
161.188492 61.956841 -0.000001 0.295308
161.962555 61.394447 0.000006 0.343297
141.924622 76.219627 9.243582 0.127291
141.778915 76.327057 8.215908 0.740414
141.924622 76.219635 7.125014 0.193164
141.778915 76.327049 6.112528 0.731548
141.836121 76.284882 5.069032 0.735821
141.778931 76.327042 4.049655 0.740932
141.836121 76.284882 3.024114 0.745663
141.924622 76.219627 2.005876 0.086275
141.778931 76.327042 0.991162 0.733333
142.231049 75.993713 -0.000011 0.296513
152.082642 68.730484 -0.000006 0.309926
156.312286 65.612129 -0.000003 0.274647
158.667969 63.875374 -0.000002 0.294392
160.171860 62.766605 -0.000001 0.284062
161.217133 61.995968 -0.000001 0.321691
161.987244 61.428185 0.000006 0.335683
141.924622 76.489151 9.283834 0.136767
141.778915 76.598160 8.250818 0.733333
141.924622 76.489159 7.154256 0.245274
141.778915 76.598152 6.136504 0.733455
141.836121 76.555367 5.087584 0.725704
141.778931 76.598145 4.062909 0.721569
141.836121 76.555367 3.032038 0.709804
141.924622 76.489159 2.008505 0.094163
141.778931 76.598145 0.988517 0.731823
142.358139 76.164841 -0.000011 0.293095
152.158798 68.833015 -0.000005 0.298939
156.366547 65.685211 -0.000004 0.293797
158.710052 63.932049 -0.000002 0.289311
160.206177 62.812809 -0.000002 0.321508
161.246033 62.034893 -0.000001 0.318700
162.012177 61.461746 0.000006 0.347921
141.924622 76.761505 9.324891 0.156374
141.778915 76.872108 8.286427 0.730983
141.924622 76.761520 7.184081 0.236667
141.778915 76.872108 6.160962 0.720058
141.836105 76.828697 5.106510 0.725795
141.778931 76.872101 4.076427 0.729519
141.836121 76.828690 3.040119 0.721569
141.924622 76.761520 2.011189 0.096925
141.778931 76.872101 0.985819 0.725383
142.486435 76.335083 -0.000010 0.289326
152.235657 68.935013 -0.000005 0.305669
156.421341 65.757904 -0.000003 0.300908
158.752533 63.988430 -0.000002 0.296620
160.240814 62.858772 -0.000001 0.284749
161.275208 62.073616 -0.000001 0.250111
162.037338 61.495136 0.000006 0.342123
141.924622 77.036766 9.366770 0.129412
141.778915 77.148972 8.322746 0.696727
141.924622 77.036774 7.214500 0.289937
141.778931 77.148972 6.185905 0.734615
141.836121 77.104935 5.125812 0.721569
141.778931 77.148972 4.090216 0.740261
141.836121 77.104935 3.048361 0.698039
141.924622 77.036774 2.013924 0.086275
141.778931 77.148964 0.983067 0.730571
142.615891 76.504417 -0.000010 0.293721
152.313217 69.036469 -0.000006 0.280766
156.476624 65.830223 -0.000003 0.284596
158.795425 64.044510 -0.000002 0.229694
160.275772 62.904491 -0.000001 0.321401
161.304688 62.112110 0.000007 0.334020
162.062729 61.528347 0.000006 0.340795
141.924622 77.315002 9.409487 0.141909
141.778915 77.428841 8.359793 0.719493
141.836105 77.384163 7.265969 0.724605
141.778931 77.428841 6.211350 0.721569
141.836105 77.384163 5.145500 0.723827
141.778931 77.428833 4.104280 0.752941
141.836105 77.384163 3.056770 0.734005
141.924622 77.315010 2.016714 0.086275
141.778931 77.428833 0.980260 0.739406
142.746552 76.672852 -0.000010 0.287556
152.391495 69.137390 -0.000006 0.335302
156.532425 65.902145 -0.000004 0.268101
158.838684 64.100296 -0.000002 0.249836
160.311035 62.949966 -0.000001 0.309331
161.334412 62.150421 0.000007 0.345892
162.088348 61.561378 0.000006 0.338445
141.778915 77.711784 9.499632 0.727077
141.778915 77.711777 8.397585 0.733196
141.836105 77.666451 7.297732 0.709804
141.778915 77.711777 6.237304 0.732692
141.836121 77.666451 5.165582 0.721569
141.778931 77.711777 4.118627 0.733333
141.836105 77.666451 3.065345 0.693172
141.924622 77.596298 2.019561 0.161288
141.778931 77.711777 0.977397 0.729519
142.878372 76.840363 -0.000010 0.298222
152.470474 69.237755 -0.000005 0.289540
156.588715 65.973686 -0.000003 0.305150
158.882339 64.155777 -0.000002 0.348531
160.346634 62.995193 -0.000001 0.297398
161.364395 62.188526 0.000007 0.340871
162.114197 61.594234 0.000006 0.350271
141.778915 77.997864 9.544339 0.718349
141.836105 77.951889 8.420285 0.752941
141.836105 77.951889 7.330135 0.712520
141.778915 77.997864 6.263781 0.710628
141.836105 77.951889 5.186069 0.709804
141.778931 77.997856 4.133262 0.732509
141.836105 77.951881 3.074094 0.729244
141.924606 77.880722 2.022465 0.100740
141.778931 77.997864 0.974476 0.745739
143.011353 77.006958 -0.000010 0.294820
152.550156 69.337563 -0.000005 0.284871
156.645508 66.044823 -0.000003 0.263676
158.926392 64.210945 -0.000002 0.263569
160.382538 63.040173 -0.000001 0.330556
161.394638 62.226421 0.000007 0.330861
162.140289 61.626907 0.000006 0.338552
141.778915 78.287178 9.589946 0.730846
141.836090 78.240540 8.459520 0.719875
141.836105 78.240532 7.363188 0.733333
141.778931 78.287170 6.290788 0.716747
141.836105 78.240532 5.206965 0.698039
141.778931 78.287163 4.148190 0.720470
141.836105 78.240524 3.083017 0.708614
141.924622 78.168350 2.025426 0.083665
141.778931 78.287163 0.971497 0.717845
143.145508 77.172607 -0.000010 0.294423
152.630539 69.436813 -0.000005 0.289250
156.702789 66.115562 -0.000003 0.311879
158.970825 64.265808 -0.000002 0.281727
160.418762 63.084896 -0.000001 0.352956
161.461014 62.234852 0.010001 1.000000
162.166595 61.659393 0.000006 0.337942
141.778915 78.579811 9.636474 0.713298
141.836121 78.532486 8.499538 0.733547
141.778915 78.579803 7.410412 0.714885
141.778915 78.579803 6.318341 0.729976
141.836121 78.532478 5.228282 0.733288
141.778931 78.579796 4.163421 0.720470
141.836121 78.532478 3.092121 0.737926
141.924606 78.459274 2.028449 0.086275
141.778931 78.579796 0.968457 0.710353
143.280807 77.337334 -0.000010 0.295659
152.711594 69.535507 -0.000005 0.282170
156.760574 66.185905 -0.000003 0.302998
159.015625 64.320358 -0.000002 0.292119
160.455292 63.129372 -0.000001 0.265705
161.491577 62.272072 0.010000 1.000000
162.193130 61.691700 0.000006 0.322896
141.778915 78.875832 9.683938 0.719036
141.836121 78.827827 8.540369 0.729335
141.778915 78.875824 7.444890 0.710857
141.778915 78.875824 6.346448 0.720928
141.836136 78.827820 5.250031 0.738003
141.778931 78.875816 4.178958 0.716518
141.836136 78.827820 3.101408 0.721569
141.884613 78.787132 2.032385 0.644617
141.778931 78.875824 0.965357 0.717754
143.417267 77.501091 -0.000009 0.289631
152.793350 69.633621 -0.000005 0.271275
156.818832 66.255836 -0.000003 0.284855
159.060822 64.374596 -0.000002 0.282826
160.492126 63.173588 -0.000001 0.252903
161.522415 62.309074 0.010000 1.000000
162.219894 61.723820 0.000006 0.339269
141.778915 79.175346 9.732363 0.727779
141.836121 79.126663 8.582029 0.709987
141.778915 79.175346 7.480068 0.698039
141.778915 79.175346 6.375126 0.718807
141.836136 79.126656 5.272221 0.721569
141.778931 79.175339 4.194810 0.724315
141.836136 79.126648 3.110883 0.733333
141.924637 79.051331 2.034676 0.074739
141.778931 79.175339 0.962193 0.717067
143.554855 77.663910 -0.000009 0.291417
152.875793 69.731171 -0.000005 0.299443
156.877594 66.325371 -0.000003 0.307866
159.106384 64.428520 -0.000002 0.319631
160.529282 63.217545 -0.000001 0.279530
161.553497 62.345863 0.009999 1.000000
162.246872 61.755753 0.000006 0.347707
141.778915 79.478455 9.781773 0.714946
141.836121 79.429070 8.624533 0.733837
141.778915 79.478439 7.515958 0.721477
141.778915 79.478439 6.404384 0.733333
141.836121 79.429062 5.294861 0.721752
141.778931 79.478439 4.210984 0.743053
141.836121 79.429062 3.120552 0.733822
141.924637 79.352669 2.037885 0.063020
141.778931 79.478439 0.958965 0.719310
143.693573 77.825760 -0.000010 0.296727
152.958893 69.828148 -0.000005 0.300832
156.936829 66.394485 -0.000003 0.307424
159.152328 64.482124 -0.000002 0.286442
160.566727 63.261242 -0.000001 0.287938
161.584839 62.382439 0.009998 1.000000
162.274078 61.787495 0.000006 0.344945
141.778915 79.785217 9.832186 0.723873
141.836121 79.735130 8.667902 0.734890
141.778915 79.785210 7.552578 0.699779
141.778915 79.785210 6.434239 0.717891
141.836121 79.735130 5.317963 0.734951
141.778931 79.785202 4.227487 0.730755
141.836136 79.735123 3.130416 0.718257
141.924622 79.657654 2.041159 0.062837
141.778931 79.785202 0.955671 0.733333
143.833420 77.986633 -0.000009 0.284596
153.042694 69.924522 -0.000005 0.323613
156.996552 66.463181 -0.000003 0.247654
159.198639 64.535400 -0.000002 0.264836
160.604492 63.304676 -0.000001 0.273136
161.616425 62.418785 0.009998 1.000000
162.301514 61.819046 0.000006 0.349859
141.778915 80.095764 9.883627 0.728099
141.836121 80.044968 8.712156 0.721569
141.778915 80.095757 7.589947 0.713024
141.778915 80.095757 6.464703 0.721569
141.836136 80.044968 5.341533 0.751110
141.778931 80.095749 4.244326 0.709804
141.836121 80.044968 3.140483 0.737591
141.924637 79.966393 2.044501 0.078141
141.778931 80.095757 0.952311 0.698039
143.974396 78.146523 -0.000009 0.286595
153.127151 70.020325 -0.000005 0.287434
157.056747 66.531464 -0.000003 0.293355
159.245331 64.588356 -0.000002 0.327413
160.642548 63.347847 -0.000001 0.305150
161.648285 62.454910 0.009999 1.000000
162.329163 61.850403 0.000006 0.341497
141.778915 80.410179 9.936122 0.730938
141.924622 80.278976 8.731594 0.185458
141.778915 80.410172 7.628079 0.718853
141.778931 80.410172 6.495790 0.717205
141.836121 80.358665 5.365587 0.750103
141.778931 80.410164 4.261509 0.733333
141.836136 80.358658 3.150754 0.741146
141.924622 80.278976 2.047910 0.085954
141.778931 80.410172 0.948882 0.698634
144.116470 78.305428 -0.000010 0.287922
153.212280 70.115540 -0.000005 0.276234
157.117432 66.599327 -0.000003 0.255863
159.292389 64.640984 -0.000002 0.277577
160.680908 63.390751 -0.000001 0.300237
161.646011 62.521770 0.000007 0.334157
162.357025 61.881569 0.000006 0.310536
141.778915 80.728577 9.989694 0.739895
141.924622 80.595520 8.777517 0.123766
141.778915 80.728577 7.666996 0.732326
141.778915 80.728577 6.527515 0.729747
141.836121 80.676338 5.390135 0.737591
141.778931 80.728561 4.279046 0.716014
141.836121 80.676338 3.161239 0.722713
141.924622 80.595528 2.051390 0.105653
141.778915 80.728577 0.945382 0.733333
144.259659 78.463348 -0.000010 0.294148
153.298065 70.210144 -0.000005 0.291859
157.178574 66.666756 -0.000003 0.288273
159.339798 64.693283 -0.000002 0.347646
160.719559 63.433388 -0.000001 0.339040
161.678574 62.557690 0.000007 0.339132
162.385101 61.912540 0.000006 0.331655
141.778915 81.051056 10.044371 0.752941
141.924622 80.916130 8.824387 0.074510
141.778915 81.051056 7.706712 0.733333
141.778915 81.051048 6.559893 0.735485
141.836121 80.998077 5.415188 0.721706
141.778931 81.051041 4.296944 0.709987
141.836121 80.998077 3.171937 0.733562
141.924622 80.916130 2.054941 0.086275
141.778931 81.051048 0.941810 0.733333
144.403946 78.620247 -0.000009 0.295750
153.384506 70.304161 -0.000005 0.323232
157.240189 66.733765 -0.000003 0.286580
159.387589 64.745247 -0.000001 0.276127
160.758514 63.475750 -0.000001 0.250095
161.711395 62.593380 0.000007 0.342962
162.413406 61.943314 0.000006 0.338125
141.778915 81.377731 10.100178 0.713893
141.924622 81.240906 8.872229 0.080766
141.778915 81.377731 7.747252 0.728740
141.857040 81.304367 6.577044 0.719127
141.836121 81.324013 5.440762 0.728237
141.778931 81.377731 4.315212 0.731212
141.836121 81.324013 3.182857 0.721569
141.924622 81.240913 2.058566 0.080995
141.778915 81.377731 0.938164 0.724376
144.549316 78.776154 -0.000009 0.283360
153.471619 70.397560 -0.000005 0.287587
157.302261 66.800339 -0.000003 0.271824
159.435730 64.796875 -0.000002 0.252552
160.797775 63.517841 -0.000000 0.297230
161.744461 62.628841 0.000007 0.329946
162.441910 61.973888 0.000006 0.346639
141.778915 81.708725 10.157145 0.740505
141.924622 81.569969 8.921062 0.108644
141.778915 81.708717 7.788633 0.733333
141.836121 81.654236 6.614957 0.717571
141.836121 81.654243 5.466864 0.728237
141.778931 81.708710 4.333859 0.712200
141.836121 81.654243 3.194004 0.722622
141.924622 81.569977 2.062265 0.074510
141.778915 81.708717 0.934443 0.733333
144.695786 78.931023 -0.000009 0.295216
153.559357 70.490356 -0.000004 0.298009
157.364807 66.866470 -0.000003 0.296590
159.484238 64.848167 -0.000002 0.261433
160.837311 63.559658 -0.000001 0.352682
161.777771 62.664070 0.000007 0.329076
162.470642 62.004265 0.000006 0.338552
141.778915 82.044144 10.215297 0.732967
141.836121 81.988899 8.997482 0.711269
141.904373 81.922989 7.799142 0.556237
141.904373 81.922989 6.635244 0.503182
141.836121 81.988892 5.493511 0.738659
141.778931 82.044136 4.352897 0.725704
141.836121 81.988892 3.205383 0.732280
141.908600 81.918907 2.066406 0.421637
141.778915 82.044144 0.930643 0.715694
144.843323 79.084869 -0.000009 0.289204
153.647766 70.582535 -0.000005 0.270970
157.427811 66.932175 -0.000003 0.312215
159.533112 64.899124 -0.000002 0.282139
160.877151 63.601196 -0.000001 0.268742
161.811340 62.699062 0.000007 0.343618
162.499573 62.034439 0.000006 0.350088
141.836136 82.328087 10.254606 0.732921
141.836121 82.328094 9.048555 0.710536
141.924622 82.241432 7.836897 0.223133
141.924622 82.241432 6.666024 0.160922
141.778915 82.384109 5.529926 0.721843
141.778931 82.384109 4.372330 0.699229
141.836136 82.328087 3.217000 0.745968
141.924622 82.241425 2.069898 0.050980
141.778915 82.384109 0.926765 0.733333
144.991928 79.237694 -0.000009 0.286976
153.736801 70.674095 -0.000005 0.272312
157.491272 66.997437 -0.000003 0.283970
159.582321 64.949738 -0.000002 0.324773
160.917267 63.642456 -0.000001 0.288319
161.845139 62.733826 0.000007 0.351659
162.528717 62.064411 0.000006 0.344198
141.836136 82.671951 10.315088 0.724636
141.836121 82.671959 9.100704 0.752941
141.924622 82.584076 7.880673 0.189944
141.924622 82.584076 6.701712 0.163119
141.778931 82.728760 5.557766 0.744442
141.778931 82.728760 4.392173 0.737926
141.836121 82.671951 3.228862 0.715831
141.924622 82.584076 2.073835 0.050156
141.778915 82.728760 0.922805 0.743145
145.141617 79.389465 -0.000009 0.291752
153.826477 70.765030 -0.000005 0.293935
157.555191 67.062248 -0.000002 0.293111
159.631897 65.000000 -0.000001 0.316716
160.957687 63.683434 -0.000000 0.283955
161.879181 62.768349 0.000007 0.349340
162.558075 62.094177 0.000006 0.344335
188.352905 79.270424 9.105890 0.633921
188.525803 79.442116 8.110713 0.763149
188.569031 79.485046 7.080416 0.667247
188.525803 79.442116 6.040280 0.782071
188.525803 79.442123 5.021177 0.739132
188.569031 79.485046 4.014715 0.693462
188.616333 79.532021 3.009947 0.114595
188.616348 79.532028 2.002957 0.115755
188.616348 79.532028 0.997044 0.115389
188.569046 79.485062 -0.006673 0.613230
179.787888 70.764992 0.000000 0.291249
176.059204 67.062233 0.000000 0.302556
173.982513 65.000000 -0.000000 0.292302
172.656723 63.683434 -0.000000 0.372381
171.735245 62.768372 -0.000000 0.320134
171.056351 62.094196 -0.000001 0.260395
188.655884 79.270424 9.159929 0.620203
188.875046 79.485039 8.170929 0.650721
188.875046 79.485046 7.120062 0.659648
188.875046 79.485031 6.081638 0.638605
188.875046 79.485039 5.053251 0.679423
188.875046 79.485039 4.032580 0.660014
188.824066 79.435112 3.013870 0.697307
188.824066 79.435112 2.004263 0.703273
188.824066 79.435112 0.995737 0.700984
188.622330 79.237556 0.000001 0.294728
179.877563 70.674049 0.000000 0.312871
176.123108 66.997421 0.000000 0.318990
174.032074 64.949730 -0.000000 0.292271
172.697128 63.642452 -0.000000 0.287114
171.769302 62.733849 -0.000000 0.228290
171.085709 62.064426 -0.000000 0.334188
188.963211 79.270424 9.215118 0.604730
189.140991 79.442108 8.205645 0.733700
189.055099 79.359154 7.127579 0.615778
189.140991 79.442101 6.105480 0.736904
189.140991 79.442093 5.071741 0.777127
189.185455 79.485031 4.050828 0.663676
189.289032 79.585060 3.035382 0.741176
189.289032 79.585060 2.011428 0.741176
189.289032 79.585060 0.988571 0.741176
188.770935 79.084732 0.000002 0.288136
179.966614 70.582497 0.000000 0.322820
176.186569 66.932159 0.000000 0.318578
174.081299 64.899117 0.000000 0.329213
172.737259 63.601192 -0.000000 0.270253
171.803101 62.699089 -0.000000 0.366354
171.114853 62.034454 -0.000000 0.254337
189.275009 79.270424 9.271490 0.627970
189.716354 79.690704 8.332500 0.741176
189.365921 79.356987 7.168126 0.623438
189.716354 79.690704 6.192604 0.741176
189.716354 79.690704 5.139311 0.741176
189.500381 79.485031 4.069465 0.663386
189.605423 79.585060 3.046600 0.741176
189.605408 79.585052 2.015165 0.741176
189.605408 79.585052 0.984835 0.741176
188.918457 78.930885 0.000002 0.296056
180.054993 70.490311 0.000001 0.294789
176.249573 66.866463 0.000000 0.295766
174.130157 64.848160 0.000000 0.335576
172.777100 63.559654 -0.000000 0.242817
171.836655 62.664093 -0.000000 0.329976
171.143784 62.004280 -0.000000 0.305928
189.591431 79.270424 9.329075 0.611780
190.038986 79.690704 8.383128 0.741176
189.683609 79.356987 7.210127 0.603922
190.038986 79.690704 6.227376 0.741176
189.959122 79.615715 5.153674 0.074937
189.819962 79.485031 4.088505 0.664240
189.926483 79.585052 3.058060 0.741176
189.926483 79.585052 2.018983 0.741176
189.926483 79.585052 0.981018 0.741176
189.064911 78.776001 0.000002 0.293584
180.142746 70.397514 0.000001 0.289586
176.312119 66.800323 -0.000000 0.287755
174.178665 64.796875 -0.000000 0.299062
172.816635 63.517838 0.000000 0.239506
171.869965 62.628864 -0.000000 0.366445
171.172516 61.973907 -0.000000 0.254719
189.912567 79.270424 9.387909 0.623072
190.366440 79.690712 8.434854 0.741176
190.285461 79.615723 7.322327 0.074510
190.366455 79.690712 6.262903 0.741176
190.285477 79.615730 5.181133 0.074510
190.144333 79.485031 4.107956 0.650629
190.139572 79.480629 3.062218 0.104875
190.139572 79.480629 2.020368 0.103609
190.139572 79.480629 0.979632 0.115312
189.210297 78.620102 0.000002 0.293172
180.229843 70.304115 0.000001 0.292165
176.374207 66.733749 0.000000 0.275059
174.226807 64.745239 0.000000 0.269642
172.855881 63.475750 -0.000000 0.249470
171.903046 62.593403 -0.000000 0.270466
171.201019 61.943333 -0.000001 0.338689
190.238602 79.270416 9.448025 0.611032
190.698883 79.690720 8.487707 0.741176
190.698883 79.690720 7.386936 0.741176
190.698883 79.690712 6.299202 0.741176
190.616745 79.615715 5.209185 0.088426
190.473633 79.485039 4.127832 0.667521
190.583176 79.585052 3.081731 0.741176
190.583176 79.585052 2.026867 0.741176
190.583176 79.585052 0.973133 0.741176
189.354584 78.463196 0.000001 0.294835
180.316299 70.210106 0.000001 0.306645
176.435822 66.666740 0.000000 0.277394
174.274597 64.693275 0.000000 0.351476
172.894836 63.433384 -0.000000 0.289052
171.935852 62.557713 -0.000000 0.239841
171.229324 61.912560 -0.000000 0.256199
190.569656 79.270424 9.509456 0.607263
190.925385 79.590721 8.509439 0.732937
190.925385 79.590714 7.405243 0.720363
190.925385 79.590721 6.314128 0.762081
190.925385 79.590729 5.233557 0.733333
190.808014 79.485039 4.148144 0.671046
190.919098 79.585068 3.093958 0.741176
190.919098 79.585068 2.030940 0.741176
190.919098 79.585068 0.969060 0.741176
189.497772 78.305283 0.000002 0.287327
180.402084 70.115494 0.000001 0.276570
176.496964 66.599304 0.000001 0.320790
174.322021 64.640976 0.000000 0.317586
172.933502 63.390751 -0.000000 0.308141
171.968430 62.521793 -0.000000 0.250919
171.257401 61.881588 -0.000000 0.331121
190.905884 79.270424 9.572239 0.629358
191.099243 79.442093 8.516035 0.728481
191.099243 79.442093 7.410803 0.764126
191.099243 79.442101 6.318659 0.729732
191.099243 79.442093 5.237072 0.759564
191.147614 79.485039 4.168901 0.645701
191.209167 79.539688 3.103096 0.107256
191.209183 79.539696 2.033984 0.118044
191.209183 79.539696 0.966017 0.115648
189.639847 78.146378 0.000002 0.299214
180.487198 70.020279 0.000001 0.278660
176.557632 66.531448 0.000000 0.275898
174.369080 64.588348 0.000000 0.280873
172.971863 63.347843 0.000000 0.277546
172.000748 62.485649 -0.000000 0.260197
171.285278 61.850422 -0.000000 0.293370
191.247437 79.270424 9.636416 0.625071
191.492584 79.485023 8.585892 0.664134
191.492584 79.485031 7.469655 0.673854
191.492584 79.485031 6.366638 0.658747
191.492584 79.485031 5.274281 0.637125
191.492584 79.485031 4.190119 0.653864
191.435562 79.435112 3.108040 0.707317
191.435562 79.435112 2.035630 0.706600
191.435562 79.435112 0.964369 0.690181
189.780807 77.986481 0.000002 0.295048
180.571671 69.924484 0.000001 0.319951
176.617828 66.463165 0.000000 0.320806
174.415756 64.535393 0.000000 0.353384
173.009918 63.304672 0.000000 0.291981
172.032806 62.449280 0.000000 0.291081
171.312912 61.819061 -0.000000 0.270527
191.594482 79.270424 9.702024 0.590478
191.793381 79.442101 8.628841 0.731517
192.081421 79.690735 7.575073 0.741176
191.965546 79.590714 6.429872 0.746258
192.081421 79.690735 5.340930 0.741176
191.843124 79.485031 4.211811 0.642634
191.843140 79.485046 3.124761 0.696345
191.843140 79.485046 2.041200 0.711635
189.116165 77.131187 1.017748 0.475212
189.920654 77.825600 0.000002 0.293126
180.655457 69.828102 0.000001 0.265049
176.677551 66.394470 0.000000 0.296254
174.462067 64.482117 0.000000 0.246921
173.047684 63.261238 0.000000 0.266499
172.064621 62.412685 0.000000 0.315450
171.340347 61.787510 -0.000000 0.320943
191.947205 79.270416 9.769105 0.547738
192.148941 79.442123 8.687153 0.761242
192.441040 79.690720 7.624755 0.741176
192.192795 79.479446 6.444724 0.739132
192.441055 79.690720 5.372342 0.741176
192.199371 79.485039 4.233991 0.672419
192.316864 79.585022 3.145628 0.741176
192.316849 79.585022 2.048150 0.075120
192.318436 79.586372 0.951815 0.044205
190.059372 77.663757 0.000002 0.293538
180.738571 69.731125 0.000001 0.271992
176.736786 66.325348 0.000001 0.282872
174.508011 64.428513 0.000000 0.301122
173.085129 63.217541 0.000000 0.350607
172.096176 62.375870 0.000000 0.312169
171.367554 61.755768 -0.000000 0.232410
192.305740 79.270424 9.837704 0.641642
192.545898 79.471939 8.756792 0.704021
192.806625 79.690720 7.675562 0.741176
192.510330 79.442101 6.477126 0.734600
192.806625 79.690712 5.404463 0.741176
192.561508 79.485046 4.256671 0.637690
192.680664 79.585030 3.159280 0.741176
192.728683 79.625313 2.053723 0.083970
192.681061 79.585358 0.947294 0.603189
190.196960 77.500946 0.000002 0.291737
180.820999 69.633583 0.000001 0.287846
176.795547 66.255821 0.000001 0.259342
174.553589 64.374588 0.000000 0.285084
173.122284 63.173584 0.000000 0.313680
172.127472 62.338837 0.000000 0.356634
171.394531 61.723835 0.000000 0.321248
192.670319 79.270447 9.907869 0.538293
192.856583 79.424538 8.801793 0.692638
193.178329 79.690704 7.727525 0.741176
192.877838 79.442116 6.519009 0.743740
193.178329 79.690704 5.437316 0.741176
192.929733 79.485046 4.279868 0.614252
193.050598 79.585030 3.173242 0.741176
193.111053 79.635048 2.058633 0.741176
193.050735 79.585152 0.942648 0.067201
190.333405 77.337181 0.000002 0.295201
180.902756 69.535461 0.000001 0.288396
176.853821 66.185890 0.000000 0.282200
174.598770 64.320351 0.000000 0.340719
173.159119 63.129368 0.000000 0.297566
172.158508 62.301590 -0.000000 0.258427
171.421295 61.691715 0.000000 0.242283
193.041061 79.270424 9.979626 0.645335
193.170853 79.376282 8.847630 0.726146
193.433777 79.590714 7.751891 0.737697
193.251587 79.442123 6.561851 0.763928
193.433777 79.590714 5.452722 0.752071
193.304230 79.485054 4.303596 0.624033
193.426804 79.585037 3.187523 0.741176
193.425949 79.584335 2.062088 0.062745
193.425247 79.583763 0.937927 0.062745
190.468704 77.172470 0.000002 0.290990
180.983810 69.436768 0.000001 0.286915
176.911591 66.115547 0.000000 0.291691
174.643585 64.265800 0.000000 0.286992
173.195648 63.084896 0.000000 0.263813
172.189285 62.264122 0.000000 0.280095
171.447830 61.659412 0.000000 0.226978
193.418228 79.270424 10.053047 0.491783
193.488770 79.327148 8.894311 0.720882
193.685165 79.485054 7.775341 0.660502
193.685165 79.485054 6.615843 0.671550
193.685165 79.485054 5.467548 0.664454
193.685165 79.485054 4.327871 0.657984
193.685181 79.485062 3.194298 0.685649
193.685181 79.485062 2.064362 0.697032
193.685181 79.485062 0.935638 0.678904
190.602859 77.006805 0.000002 0.291752
181.064178 69.337517 0.000001 0.274388
176.968872 66.044807 0.000001 0.301183
174.688004 64.210938 0.000000 0.276005
173.231873 63.040169 0.000000 0.351965
172.219788 62.226440 0.000000 0.283894
171.474136 61.626923 0.000000 0.247868
193.802002 79.270424 10.128176 0.594781
193.802002 79.270424 8.939537 0.640391
194.072754 79.485023 7.830454 0.631479
194.072754 79.485023 6.660771 0.673671
194.072754 79.485023 5.502394 0.669032
194.072754 79.485023 4.352706 0.640497
194.072754 79.485031 3.209177 0.678355
194.072754 79.485031 2.069319 0.679393
194.072754 79.485023 0.930681 0.679072
190.735840 76.840210 0.000002 0.294331
181.143860 69.237709 0.000001 0.275288
177.025665 65.973663 0.000001 0.285176
174.732056 64.155769 0.000000 0.341070
173.267776 62.995190 0.000000 0.248020
172.250046 62.188549 0.000000 0.294270
171.500229 61.594250 0.000000 0.250828
194.192612 79.270439 10.205070 0.550546
194.192596 79.270424 9.005833 0.636011
nan nan nan 0.000000
nan nan nan 0.000000
nan nan nan 0.000000
nan nan nan 0.000000
229.285400 106.687943 5.395071 0.827771
229.868423 107.143456 2.809536 0.713726
229.285461 106.687988 0.202569 0.738140
190.867661 76.672699 0.000002 0.290532
181.222839 69.137344 0.000001 0.310460
177.081970 65.902130 0.000000 0.294377
174.775711 64.100288 0.000000 0.234745
173.303360 62.949963 0.000000 0.265965
172.280029 62.150444 0.000000 0.241825
171.526077 61.561398 0.000000 0.364492
nan nan nan 0.000000
nan nan nan 0.000000
nan nan nan 0.000000
nan nan nan 0.000000
nan nan nan 0.000000
nan nan nan 0.000000
230.192566 106.687927 5.430283 0.830213
230.732666 107.103851 2.820315 0.166079
230.192627 106.687973 0.190840 0.741176
190.998306 76.504272 0.000002 0.295872
181.301117 69.036423 0.000001 0.283497
177.137756 65.830200 0.000001 0.281926
174.818970 64.044502 0.000000 0.278935
173.338638 62.904488 0.000000 0.272648
172.309738 62.112133 0.000000 0.266972
171.551697 61.528362 0.000000 0.240864
nan nan nan 0.000000
nan nan nan 0.000000
nan nan nan 0.000000
nan nan nan 0.000000
nan nan nan 0.000000
nan nan nan 0.000000
231.116318 106.687897 5.466334 0.842863
231.116333 106.687897 2.821168 0.243320
230.446350 106.179352 0.192597 0.806226
191.127762 76.334923 0.000002 0.287892
181.378693 68.934967 0.000001 0.297963
177.193039 65.757889 0.000001 0.258595
174.861847 63.988422 0.000000 0.232349
173.373596 62.858765 0.000000 0.291447
172.339188 62.073616 0.000000 0.320104
171.577087 61.495152 0.000000 0.312123
nan nan nan 0.000000
nan nan nan 0.000000
nan nan nan 0.000000
nan nan nan 0.000000
nan nan nan 0.000000
nan nan nan 0.000000
nan nan nan 0.000000
nan nan nan 0.000000
230.434357 105.473816 0.199701 0.783597
191.256058 76.164688 0.000002 0.292912
181.455551 68.832977 0.000001 0.287327
177.247833 65.685188 0.000000 0.334096
174.904343 63.932041 0.000000 0.331090
173.408234 62.812805 0.000000 0.311269
172.368378 62.034893 0.000000 0.267903
171.602249 61.461761 -0.000000 0.269947
nan nan nan 0.000000
nan nan nan 0.000000
nan nan nan 0.000000
nan nan nan 0.000000
nan nan nan 0.000000
nan nan nan 0.000000
nan nan nan 0.000000
nan nan nan 0.000000
241.574036 112.997475 -0.020050 0.294118
191.383148 75.993561 0.000002 0.292134
181.531708 68.730446 0.000001 0.275914
177.302094 65.612106 0.000001 0.274250
174.946442 63.875366 0.000000 0.238987
173.442535 62.766602 0.000000 0.310079
172.397278 61.995968 0.000000 0.352102
171.627182 61.428200 -0.000000 0.294865
nan nan nan 0.000000
nan nan nan 0.000000
nan nan nan 0.000000
nan nan nan 0.000000
nan nan nan 0.000000
nan nan nan 0.000000
nan nan nan 0.000000
nan nan nan 0.000000
240.965454 111.753754 0.000007 0.294118
191.509048 75.821548 0.000002 0.287907
181.607132 68.627380 0.000001 0.311299
177.355865 65.538658 0.000001 0.297307
174.988129 63.818398 0.000000 0.259480
173.476532 62.720158 0.000000 0.337270
172.425919 61.956841 0.000000 0.360876
171.651871 61.394463 -0.000000 0.310994
nan nan nan 0.000000
nan nan nan 0.000000
nan nan nan 0.000000
nan nan nan 0.000000
nan nan nan 0.000000
nan nan nan 0.000000
nan nan nan 0.000000
nan nan nan 0.000000
241.339813 111.234726 0.000007 0.294118
191.633743 75.648666 0.000002 0.298116
181.681824 68.523796 0.000001 0.306584
177.409103 65.464821 0.000001 0.287633
175.029419 63.761139 0.000000 0.247547
173.510193 62.673481 0.000000 0.274708
172.454285 61.917515 -0.000000 0.318532
171.676331 61.360554 0.000000 0.327886
nan nan nan 0.000000
nan nan nan 0.000000
nan nan nan 0.000000
nan nan nan 0.000000
nan nan nan 0.000000
nan nan nan 0.000000
nan nan nan 0.000000
nan nan nan 0.000000
241.710510 110.713097 0.000008 0.294118
191.757217 75.474907 0.000002 0.294606
181.755814 68.419693 0.000001 0.291279
177.461838 65.390625 0.000000 0.270100
175.070313 63.703594 0.000000 0.334539
173.543533 62.626568 0.000000 0.303761
172.482361 61.877995 0.000000 0.273793
171.700546 61.326477 0.000000 0.259922
nan nan nan 0.000000
nan nan nan 0.000000
nan nan nan 0.000000
nan nan nan 0.000000
nan nan nan 0.000000
nan nan nan 0.000000
nan nan nan 0.000000
nan nan nan 0.000000
242.077515 110.188850 0.000008 0.294118
191.879486 75.300293 0.000002 0.296315
181.829071 68.315079 0.000001 0.314305
177.514053 65.316063 0.000000 0.266194
175.110809 63.645767 0.000000 0.296117
173.576553 62.579426 0.000000 0.332387
172.510178 61.838276 -0.000000 0.241123
171.724518 61.292233 0.000000 0.235508
nan nan nan 0.000000
nan nan nan 0.000000
nan nan nan 0.000000
nan nan nan 0.000000
nan nan nan 0.000000
nan nan nan 0.000000
nan nan nan 0.000000
nan nan nan 0.000000
241.581558 109.073685 0.017051 0.294118
192.000519 75.124832 0.000003 0.293019
181.901596 68.209953 0.000001 0.288380
177.565735 65.241135 0.000001 0.283558
175.150894 63.587654 0.000000 0.273945
173.609222 62.532051 0.000000 0.285435
172.537704 61.798367 0.000000 0.278157
171.748260 61.257820 0.000000 0.279759
nan nan nan 0.000000
nan nan nan 0.000000
nan nan nan 0.000000
nan nan nan 0.000000
nan nan nan 0.000000
nan nan nan 0.000000
nan nan nan 0.000000
nan nan nan 0.000000
241.572479 108.304443 0.024248 0.294118
192.120331 74.948532 0.000002 0.292775
181.973373 68.104324 0.000001 0.295613
177.616898 65.165840 0.000001 0.324956
175.190582 63.529266 0.000001 0.265629
173.641571 62.484451 0.000000 0.310506
172.564957 61.758263 0.000000 0.306584
