# This PCD file was generated using the MATLABÂ® pcwrite function
# from Computer Vision ToolboxÂ®.
# .PCD v.7 - Point Cloud Data file format
VERSION .7
FIELDS x y z intensity
SIZE 4 4 4 4
TYPE F F F F
COUNT 1 1 1 1
WIDTH 1255
HEIGHT 1
VIEWPOINT 0 0 0 1 0 0 0
POINTS 1255
DATA ascii
44.449772 18.688709 1.944434 0.776394
44.449772 18.688711 1.648039 0.776471
44.449772 18.688711 1.351961 0.776471
44.449772 18.688709 1.055566 0.776333
44.449772 18.688713 0.758216 0.741176
44.449772 18.688711 0.459265 0.741176
44.449772 18.688711 0.158054 0.776471
44.269001 19.471058 0.000007 0.288365
43.976643 20.736345 0.000006 0.298756
43.761246 21.668552 0.000006 0.274983
44.385056 18.688709 3.762478 0.719127
44.385052 18.688709 3.450794 0.727199
44.385052 18.688711 3.143486 0.726986
44.385052 18.688709 2.839818 0.733333
44.385052 18.688709 2.539084 0.732601
44.385052 18.688711 2.240608 0.722667
44.385052 18.688711 1.943729 0.729030
44.385052 18.688713 1.647804 0.733593
44.385052 18.688713 1.352196 0.722850
44.385052 18.688713 1.056271 0.733333
44.385052 18.688713 0.759392 0.732052
44.385052 18.688711 0.460916 0.728923
44.385052 18.688711 0.160182 0.741176
44.212883 19.458296 0.000007 0.317388
43.929363 20.725595 0.000006 0.318761
43.720482 21.659283 0.000005 0.355138
44.320538 18.688709 3.759005 0.728710
44.320538 18.688709 3.447799 0.712139
44.320538 18.688709 3.140963 0.743511
44.320538 18.688709 2.837761 0.731670
44.320538 18.688709 2.537489 0.746441
44.320538 18.688709 2.239471 0.727459
44.320538 18.688711 1.943048 0.728191
44.320538 18.688713 1.647577 0.743511
44.320538 18.688713 1.352423 0.743511
44.320538 18.688713 1.056952 0.712139
44.320538 18.688709 0.760529 0.727367
44.320538 18.688711 0.462511 0.734310
44.320538 18.688711 0.162239 0.728191
44.156673 19.445929 0.000007 0.304463
43.882011 20.715176 0.000006 0.248219
43.679653 21.650297 0.000005 0.291127
44.256214 18.688709 3.755652 0.741176
44.256214 18.688707 3.444909 0.751400
44.256214 18.688709 3.138527 0.760021
44.256214 18.688707 2.835776 0.760708
44.256214 18.688709 2.535949 0.752941
44.256214 18.688709 2.238373 0.754086
44.256214 18.688709 1.942391 0.764706
44.256214 18.688709 1.647358 0.757946
44.256214 18.688709 1.352642 0.764706
44.256214 18.688709 1.057609 0.764706
44.256214 18.688709 0.761627 0.733333
44.256214 18.688709 0.464051 0.762448
44.256214 18.688709 0.164224 0.758129
44.100384 19.433950 0.000006 0.300771
43.834587 20.705086 0.000006 0.320348
43.638760 21.641598 0.000005 0.276188
44.192081 18.688709 3.752419 0.769894
44.192081 18.688709 3.442121 0.737011
44.192081 18.688709 3.136179 0.755489
44.192081 18.688709 2.833861 0.758267
44.192081 18.688709 2.534464 0.765667
44.192081 18.688709 2.237315 0.759426
44.192081 18.688713 1.941756 0.761440
44.192081 18.688711 1.647147 0.751400
44.192081 18.688711 1.352853 0.756527
44.192081 18.688713 1.058244 0.763516
44.192081 18.688709 0.762685 0.747753
44.192081 18.688711 0.465536 0.736675
44.192081 18.688711 0.166140 0.763699
44.044010 19.422367 0.000006 0.317906
43.787094 20.695326 0.000006 0.316381
43.597809 21.633183 0.000005 0.317449
44.128128 18.688709 3.749304 0.695613
44.128128 18.688709 3.439435 0.684016
44.128128 18.688709 3.133916 0.722362
44.128128 18.688709 2.832016 0.708431
44.128128 18.688709 2.533034 0.708431
44.128128 18.688709 2.236295 0.715892
44.128128 18.688709 1.941145 0.693660
44.128128 18.688711 1.646943 0.695155
44.128128 18.688711 1.353056 0.709651
44.128128 18.688709 1.058854 0.730220
44.128128 18.688709 0.763704 0.693706
44.128128 18.688709 0.466966 0.696651
44.128128 18.688709 0.167984 0.708431
43.987556 19.411179 0.000006 0.264042
43.739532 20.685900 0.000006 0.312016
43.556801 21.625055 0.000005 0.273152
44.064346 18.688709 3.746308 0.707454
44.064346 18.688709 3.436851 0.694179
44.064346 18.688709 3.131740 0.731121
44.064346 18.688709 2.830242 0.714031
44.064346 18.688709 2.531658 0.707012
44.064346 18.688709 2.235314 0.690196
44.064346 18.688711 1.940558 0.715755
44.064346 18.688709 1.646748 0.693980
44.064346 18.688709 1.353252 0.734737
44.064346 18.688711 1.059442 0.708064
44.064346 18.688709 0.764685 0.721569
44.064346 18.688711 0.468342 0.715038
44.064346 18.688711 0.169758 0.706569
43.931026 19.400383 0.000006 0.276524
43.691910 20.676804 0.000005 0.336461
43.515736 21.617214 0.000005 0.282856
44.000732 18.688709 3.743429 0.760357
44.000732 18.688709 3.434369 0.752453
44.000732 18.688709 3.129648 0.763699
44.000732 18.688709 2.828537 0.755245
44.000732 18.688709 2.530335 0.751797
44.000732 18.688709 2.234372 0.762127
44.000732 18.688711 1.939993 0.763989
44.000732 18.688711 1.646559 0.764706
44.000732 18.688713 1.353440 0.762127
44.000732 18.688713 1.060007 0.764706
44.000732 18.688709 0.765628 0.764706
44.000732 18.688709 0.469664 0.744823
44.000732 18.688711 0.171463 0.763119
43.874420 19.389986 0.000006 0.290227
43.644218 20.668045 0.000005 0.341390
43.474617 21.609661 0.000005 0.269276
43.937279 18.688709 3.740665 0.764706
43.937279 18.688709 3.431987 0.752941
43.937279 18.688709 3.127641 0.742275
43.937279 18.688709 2.826900 0.752941
43.937279 18.688709 2.529067 0.752941
43.937279 18.688713 2.233467 0.754040
43.937279 18.688713 1.939451 0.760540
43.937279 18.688711 1.646379 0.764706
43.937279 18.688711 1.353621 0.755383
43.937279 18.688713 1.060549 0.760113
43.937279 18.688713 0.766532 0.764706
43.937279 18.688711 0.470933 0.746944
43.937279 18.688713 0.173100 0.752941
43.817745 19.379978 0.000006 0.314763
43.596474 20.659615 0.000005 0.334173
43.433449 21.602392 0.000005 0.237278
43.873978 18.688709 3.738019 0.741176
43.873978 18.688709 3.429704 0.741176
43.873978 18.688709 3.125718 0.762081
43.873978 18.688713 2.825333 0.733333
43.873978 18.688709 2.527851 0.744274
43.873978 18.688711 2.232601 0.741176
43.873978 18.688709 1.938932 0.767926
43.873978 18.688713 1.646206 0.776471
43.873978 18.688713 1.353794 0.764706
43.873978 18.688711 1.061068 0.763149
43.873978 18.688713 0.767399 0.753307
43.873978 18.688711 0.472149 0.729732
43.873978 18.688713 0.174667 0.752941
43.761002 19.370373 0.000006 0.301183
43.548668 20.651520 0.000005 0.317433
43.392231 21.595411 0.000005 0.269276
43.810825 18.688709 3.735486 0.721569
43.810822 18.688709 3.427521 0.738705
43.810825 18.688709 3.123879 0.732418
43.810825 18.688709 2.823833 0.711360
43.810825 18.688711 2.526688 0.737194
43.810822 18.688711 2.231772 0.737896
43.810822 18.688711 1.938435 0.724483
43.810822 18.688713 1.646041 0.740887
43.810822 18.688713 1.353959 0.734432
43.810822 18.688711 1.061564 0.701732
43.810822 18.688713 0.768228 0.718532
43.810822 18.688713 0.473312 0.732631
43.810822 18.688713 0.176167 0.723079
43.704193 19.361158 0.000006 0.269673
43.500809 20.643761 0.000005 0.321111
43.350964 21.588720 0.000005 0.247898
43.747810 18.688709 3.733069 0.730724
43.747810 18.688709 3.425436 0.715877
43.747810 18.688709 3.122123 0.726726
43.747810 18.688711 2.822402 0.726909
43.747810 18.688713 2.525577 0.730724
43.747810 18.688709 2.230981 0.760327
43.747810 18.688713 1.937961 0.742947
43.747810 18.688713 1.645883 0.741238
43.747810 18.688713 1.354117 0.760327
43.747807 18.688713 1.062039 0.715877
43.747810 18.688711 0.769019 0.711269
43.747810 18.688713 0.474423 0.730724
43.747810 18.688713 0.177599 0.730724
43.647320 19.352345 0.000006 0.265126
43.452896 20.636330 0.000005 0.271397
43.309650 21.582317 0.000005 0.303929
43.684925 18.688709 3.730765 0.760571
43.684929 18.688709 3.423450 0.734279
43.684925 18.688711 3.120449 0.756115
43.684929 18.688709 2.821038 0.764706
43.684925 18.688709 2.524520 0.758923
43.684925 18.688709 2.230227 0.758114
43.684925 18.688709 1.937510 0.761761
43.684929 18.688709 1.645732 0.756298
43.684925 18.688711 1.354268 0.760571
43.684925 18.688709 1.062490 0.767514
43.684925 18.688711 0.769773 0.752895
43.684925 18.688713 0.475481 0.734142
43.684925 18.688711 0.178963 0.748806
43.590385 19.343925 0.000006 0.306630
43.404930 20.629240 0.000005 0.274006
43.268295 21.576200 0.000005 0.257572
43.622169 18.688709 3.728574 0.759670
43.622169 18.688709 3.421561 0.750912
43.622169 18.688709 3.118858 0.762493
43.622169 18.688709 2.819740 0.764706
43.622169 18.688709 2.523514 0.764706
43.622169 18.688711 2.229509 0.754498
43.622169 18.688711 1.937080 0.756970
43.622169 18.688713 1.645589 0.762982
43.622169 18.688713 1.354411 0.757809
43.622169 18.688711 1.062920 0.749493
43.622169 18.688713 0.770490 0.764614
43.622169 18.688713 0.476487 0.752941
43.622169 18.688711 0.180260 0.747951
43.533394 19.335907 0.000006 0.324453
43.356918 20.622482 0.000005 0.340185
43.226894 21.570375 0.000005 0.260731
43.559536 18.688709 3.726497 0.707591
43.559536 18.688709 3.419770 0.726452
43.559536 18.688709 3.117349 0.699199
43.559536 18.688709 2.818510 0.698528
43.559536 18.688711 2.522559 0.698161
43.559536 18.688711 2.228829 0.693385
43.559536 18.688711 1.936672 0.698161
43.559536 18.688713 1.645453 0.713298
43.559536 18.688713 1.354546 0.697566
43.559536 18.688713 1.063328 0.695491
43.559536 18.688713 0.771171 0.697887
43.559536 18.688713 0.477441 0.712352
43.559536 18.688711 0.181490 0.690745
43.476353 19.328281 0.000006 0.264683
43.308857 20.616060 0.000005 0.300938
43.185455 21.564838 0.000004 0.301076
43.497013 18.688709 3.724531 0.716670
43.497013 18.688709 3.418074 0.703487
43.497013 18.688709 3.115921 0.712947
43.497013 18.688709 2.817346 0.721889
43.497013 18.688713 2.521656 0.718441
43.497013 18.688713 2.228186 0.722652
43.497013 18.688713 1.936287 0.720562
43.497013 18.688709 1.645325 0.727520
43.497013 18.688711 1.354675 0.721569
43.497013 18.688713 1.063713 0.712108
43.497013 18.688713 0.771814 0.718120
43.497013 18.688713 0.478344 0.721569
43.497013 18.688711 0.182654 0.710628
43.419254 19.321058 0.000005 0.265461
43.260757 20.609974 0.000005 0.243046
43.143982 21.559589 0.000004 0.259831
43.434601 18.688709 3.722677 0.764706
43.434601 18.688705 3.416476 0.733333
43.434601 18.688709 3.114574 0.734203
43.434601 18.688709 2.816248 0.762631
43.434601 18.688709 2.520805 0.757168
43.434601 18.688711 2.227579 0.764706
43.434601 18.688709 1.935923 0.764706
43.434601 18.688709 1.645204 0.752316
43.434601 18.688709 1.354796 0.754253
43.434601 18.688711 1.064077 0.729061
43.434601 18.688713 0.772421 0.743526
43.434601 18.688709 0.479195 0.764706
43.434601 18.688709 0.183752 0.762585
43.362110 19.314232 0.000005 0.289998
43.212612 20.604223 0.000005 0.278798
43.102470 21.554632 0.000004 0.299626
43.372288 18.688709 3.720934 0.764706
43.372288 18.688709 3.414972 0.763302
43.372288 18.688709 3.113308 0.752941
43.372288 18.688709 2.815216 0.752941
43.372288 18.688709 2.520005 0.764340
43.372288 18.688711 2.227008 0.764706
43.372288 18.688709 1.935581 0.761212
43.372288 18.688713 1.645090 0.764706
43.372288 18.688713 1.354910 0.750896
43.372288 18.688709 1.064418 0.757839
43.372288 18.688713 0.772991 0.753719
43.372288 18.688711 0.479996 0.763928
43.372288 18.688709 0.184784 0.762539
43.304916 19.307806 0.000005 0.259800
43.164429 20.598810 0.000005 0.304677
43.060925 21.549965 0.000004 0.265095
43.310070 18.688709 3.719302 0.755291
43.310070 18.688709 3.413566 0.752941
43.310070 18.688709 3.112123 0.741772
43.310070 18.688709 2.814250 0.754025
43.310066 18.688711 2.519255 0.764706
43.310066 18.688711 2.226474 0.764706
43.310066 18.688711 1.935261 0.764538
43.310066 18.688711 1.644983 0.756085
43.310066 18.688711 1.355016 0.764614
43.310066 18.688713 1.064739 0.764157
43.310066 18.688713 0.773525 0.764843
43.310066 18.688713 0.480745 0.760113
43.310066 18.688711 0.185751 0.755627
43.247681 19.301781 0.000005 0.279545
43.116211 20.593733 0.000005 0.261128
43.019348 21.545586 0.000004 0.289540
43.247936 18.688709 3.717780 0.733333
43.247936 18.688709 3.412254 0.724376
43.247936 18.688709 3.111018 0.714260
43.247936 18.688709 2.813348 0.717708
43.247936 18.688709 2.518556 0.698039
43.247936 18.688709 2.225976 0.721569
43.247936 18.688711 1.934963 0.735317
43.247936 18.688711 1.644884 0.740291
43.247936 18.688711 1.355116 0.731411
43.247936 18.688711 1.065037 0.721340
43.247936 18.688711 0.774024 0.717876
43.247936 18.688711 0.481444 0.736004
43.247936 18.688713 0.186652 0.738628
43.190407 19.296154 0.000005 0.320699
43.067959 20.588991 0.000004 0.302586
42.977741 21.541500 0.000004 0.254047
43.185890 18.688709 3.716369 0.692531
43.185890 18.688709 3.411037 0.692531
43.185890 18.688709 3.109992 0.692531
43.185890 18.688709 2.812512 0.691341
43.185890 18.688709 2.517908 0.698039
43.185890 18.688711 2.225514 0.669612
43.185890 18.688709 1.934686 0.691814
43.185890 18.688711 1.644792 0.639963
43.185890 18.688713 1.355208 0.644450
43.185890 18.688711 1.065314 0.531746
43.185890 18.688713 0.774485 0.654643
43.185890 18.688711 0.482092 0.644938
43.185890 18.688711 0.187488 0.672953
43.133091 19.290926 0.000005 0.277653
43.019672 20.584589 0.000004 0.262852
42.936108 21.537703 0.000004 0.356970
43.123917 18.688709 3.715067 0.757992
43.123917 18.688709 3.409914 0.763577
43.123917 18.688709 3.109046 0.747967
43.123917 18.688709 2.811741 0.742458
43.123917 18.688713 2.517310 0.764706
43.123917 18.688713 2.225088 0.764706
43.123917 18.688713 1.934431 0.752941
43.123917 18.688713 1.644707 0.757626
43.123917 18.688713 1.355293 0.763760
43.123917 18.688713 1.065569 0.760708
43.123917 18.688713 0.774912 0.764569
43.123917 18.688713 0.482690 0.757626
43.123917 18.688711 0.188258 0.773144
43.075741 19.286100 0.000005 0.263493
42.971355 20.580523 0.000004 0.306722
42.894451 21.534195 0.000004 0.359304
43.062016 18.688709 3.713875 0.753262
43.062016 18.688709 3.408886 0.757565
43.062016 18.688709 3.108180 0.733333
43.062016 18.688709 2.811035 0.758679
43.062016 18.688711 2.516762 0.756252
43.062016 18.688713 2.224698 0.758633
43.062016 18.688711 1.934197 0.736828
43.062016 18.688713 1.644629 0.761395
43.062016 18.688713 1.355371 0.764706
43.062016 18.688711 1.065803 0.755978
43.062016 18.688713 0.775302 0.758633
43.062016 18.688713 0.483238 0.762448
43.062016 18.688713 0.188965 0.755383
43.018360 19.281672 0.000005 0.284382
42.923016 20.576794 0.000004 0.283833
42.852768 21.530981 0.000004 0.285618
43.000175 18.688709 3.712791 0.692821
43.000175 18.688709 3.407953 0.716838
43.000175 18.688709 3.107393 0.710399
43.000175 18.688709 2.810394 0.699260
43.000175 18.688709 2.516265 0.707469
43.000175 18.688713 2.224343 0.718135
43.000175 18.688711 1.933984 0.718135
43.000175 18.688713 1.644558 0.707759
43.000175 18.688713 1.355442 0.713878
43.000175 18.688713 1.066016 0.709804
43.000175 18.688713 0.775657 0.718135
43.000175 18.688711 0.483735 0.706065
43.000175 18.688711 0.189606 0.712932
42.960949 19.277645 0.000005 0.274022
42.874649 20.573404 0.000004 0.268116
42.811066 21.528055 0.000004 0.251225
42.938393 18.688707 3.711817 0.730388
42.938393 18.688709 3.407112 0.723842
42.938393 18.688709 3.106685 0.723598
42.938393 18.688711 2.809817 0.733333
42.938393 18.688709 2.515818 0.725658
42.938393 18.688713 2.224024 0.741176
42.938393 18.688713 1.933793 0.733333
42.938393 18.688713 1.644495 0.724880
42.938393 18.688713 1.355505 0.712215
42.938393 18.688713 1.066207 0.739223
42.938393 18.688713 0.775976 0.735393
42.938393 18.688711 0.484183 0.724971
42.938393 18.688713 0.190184 0.734478
42.903511 19.274025 0.000005 0.273289
42.826260 20.570351 0.000004 0.312322
42.769341 21.525423 0.000004 0.287083
42.876663 18.688709 3.710952 0.754498
42.876663 18.688709 3.406365 0.774517
42.876663 18.688711 3.106056 0.763668
42.876663 18.688709 2.809304 0.752941
42.876663 18.688709 2.515419 0.752850
42.876663 18.688711 2.223741 0.755749
42.876663 18.688709 1.933623 0.764706
42.876663 18.688709 1.644438 0.763149
42.876663 18.688709 1.355562 0.764706
42.876663 18.688711 1.066376 0.758129
42.876663 18.688713 0.776259 0.776150
42.876663 18.688709 0.484580 0.760204
42.876663 18.688711 0.190696 0.763149
42.846050 19.270800 0.000005 0.303731
42.777847 20.567633 0.000004 0.239765
42.727600 21.523083 0.000003 0.333791
42.814980 18.688709 3.710194 0.763195
42.814980 18.688709 3.405712 0.764706
42.814980 18.688711 3.105505 0.760632
42.814980 18.688709 2.808855 0.752941
42.814980 18.688711 2.515071 0.752941
42.814980 18.688713 2.223493 0.764736
42.814980 18.688713 1.933475 0.744549
42.814980 18.688711 1.644388 0.764523
42.814980 18.688713 1.355612 0.761440
42.814980 18.688713 1.066525 0.758038
42.814980 18.688713 0.776507 0.764706
42.814980 18.688713 0.484929 0.764782
42.814980 18.688711 0.191145 0.764706
42.788567 19.267977 0.000005 0.316625
42.729420 20.565256 0.000004 0.284581
42.685844 21.521030 0.000003 0.269368
42.753334 18.688709 3.709544 0.754040
42.753334 18.688709 3.405152 0.763806
42.753334 18.688711 3.105034 0.753765
42.753334 18.688709 2.808470 0.775097
42.753334 18.688713 2.514773 0.763470
42.753334 18.688713 2.223280 0.765805
42.753334 18.688713 1.933347 0.752941
42.753334 18.688711 1.644346 0.753292
42.753334 18.688711 1.355654 0.745220
42.753334 18.688713 1.066653 0.763470
42.753334 18.688713 0.776720 0.763104
42.753334 18.688713 0.485227 0.768704
42.753334 18.688713 0.191530 0.756405
42.731068 19.265556 0.000005 0.321111
42.680977 20.563217 0.000004 0.323461
42.644073 21.519274 0.000003 0.304402
42.691719 18.688709 3.709003 0.693675
42.691719 18.688709 3.404685 0.696986
42.691719 18.688709 3.104641 0.714916
42.691719 18.688709 2.808150 0.693980
42.691719 18.688709 2.514525 0.716335
42.691719 18.688709 2.223103 0.698039
42.691719 18.688711 1.933241 0.718944
42.691719 18.688709 1.644310 0.698772
42.691719 18.688709 1.355689 0.693675
42.691719 18.688713 1.066759 0.706218
42.691719 18.688711 0.776897 0.698528
42.691719 18.688713 0.485475 0.705119
42.691719 18.688713 0.191850 0.697581
42.673550 19.263535 0.000005 0.283162
42.632523 20.561516 0.000004 0.239963
42.602295 21.517805 0.000003 0.309499
42.630135 18.688709 3.708569 0.702083
42.630135 18.688709 3.404312 0.704311
42.630135 18.688711 3.104326 0.707347
42.630135 18.688711 2.807893 0.702663
42.630135 18.688711 2.514326 0.706081
42.630135 18.688713 2.222961 0.702083
42.630135 18.688713 1.933156 0.698039
42.630135 18.688713 1.644282 0.702083
42.630135 18.688713 1.355718 0.662989
42.630135 18.688713 1.066844 0.727199
42.630135 18.688713 0.777039 0.703105
42.630135 18.688713 0.485675 0.709804
42.630135 18.688713 0.192107 0.707012
42.616020 19.261919 0.000005 0.253819
42.584057 20.560150 0.000004 0.342229
42.560505 21.516632 0.000003 0.320424
42.568569 18.688705 3.708244 0.752941
42.568569 18.688709 3.404031 0.760220
42.568569 18.688709 3.104089 0.762966
42.568569 18.688709 2.807700 0.752941
42.568569 18.688709 2.514176 0.761898
42.568569 18.688713 2.222854 0.764019
42.568569 18.688709 1.933092 0.748501
42.568569 18.688709 1.644261 0.756878
42.568569 18.688709 1.355739 0.759197
42.568569 18.688711 1.066908 0.770535
42.568569 18.688713 0.777146 0.752941
42.568569 18.688711 0.485824 0.747524
42.568569 18.688713 0.192300 0.764706
42.558483 19.260704 0.000004 0.283970
42.535580 20.559126 0.000004 0.350576
42.518707 21.515747 0.000003 0.248600
42.507023 18.688707 3.708025 0.759350
42.507023 18.688709 3.403842 0.754986
42.507023 18.688709 3.103931 0.756573
42.507023 18.688711 2.807571 0.752941
42.507023 18.688709 2.514076 0.764706
42.507023 18.688713 2.222783 0.752941
42.507023 18.688711 1.933049 0.764706
42.507023 18.688713 1.644247 0.752941
42.507023 18.688711 1.355753 0.770687
42.507023 18.688711 1.066950 0.752941
42.507023 18.688713 0.777217 0.764706
42.507023 18.688713 0.485924 0.757214
42.507023 18.688713 0.192429 0.755154
42.500935 19.259888 0.000005 0.264759
42.487099 20.558441 0.000004 0.296803
42.476906 21.515156 0.000003 0.305226
42.445484 18.688709 3.707915 0.766537
42.445484 18.688709 3.403747 0.757031
42.445484 18.688709 3.103851 0.735668
42.445484 18.688709 2.807506 0.733089
42.445484 18.688709 2.514025 0.766537
42.445484 18.688709 2.222747 0.766537
42.445484 18.688709 1.933028 0.764340
42.445484 18.688709 1.644240 0.735668
42.445484 18.688709 1.355760 0.766537
42.445484 18.688709 1.066972 0.766537
42.445484 18.688711 0.777253 0.766445
42.445484 18.688711 0.485975 0.735668
42.445484 18.688713 0.192494 0.735668
42.443386 19.259476 0.000004 0.297154
42.438614 20.558094 0.000004 0.241428
42.435101 21.514856 0.000003 0.283360
42.383945 18.688709 3.707912 0.733333
42.383945 18.688709 3.403745 0.735409
42.383945 18.688709 3.103848 0.733333
42.383945 18.688713 2.807504 0.722438
42.383945 18.688711 2.514024 0.733333
42.383945 18.688713 2.222746 0.741054
42.383945 18.688713 1.933027 0.733333
42.383945 18.688713 1.644239 0.725658
42.383945 18.688711 1.355761 0.733333
42.383945 18.688713 1.066972 0.726970
42.383945 18.688713 0.777254 0.722026
42.383945 18.688713 0.485976 0.725078
42.383945 18.688713 0.192496 0.731456
42.385834 19.259464 0.000004 0.294560
42.390129 20.558083 0.000003 0.310414
42.393295 21.514847 0.000003 0.263996
42.322407 18.688709 3.708017 0.722332
42.322407 18.688709 3.403835 0.749813
42.322407 18.688709 3.103925 0.741176
42.322407 18.688709 2.807566 0.741314
42.322407 18.688709 2.514072 0.753857
42.322407 18.688709 2.222780 0.741176
42.322407 18.688711 1.933048 0.742550
42.322407 18.688711 1.644246 0.742550
42.322407 18.688711 1.355754 0.722332
42.322407 18.688713 1.066952 0.753857
42.322407 18.688711 0.777220 0.722332
42.322407 18.688713 0.485928 0.722332
42.322407 18.688713 0.192434 0.722332
42.328285 19.259857 0.000004 0.256092
42.341644 20.558413 0.000003 0.329641
42.351490 21.515133 0.000003 0.334096
42.260857 18.688709 3.708229 0.763745
42.260857 18.688709 3.404018 0.757122
42.260857 18.688709 3.104079 0.757031
42.260857 18.688711 2.807692 0.753994
42.260857 18.688713 2.514169 0.764248
42.260857 18.688713 2.222849 0.754925
42.260857 18.688713 1.933090 0.763073
42.260857 18.688713 1.644260 0.764706
42.260857 18.688713 1.355740 0.755306
42.260857 18.688713 1.066910 0.764706
42.260857 18.688713 0.777150 0.754040
42.260857 18.688713 0.485831 0.752941
42.260857 18.688713 0.192308 0.761807
42.270737 19.260649 0.000004 0.284657
42.293163 20.559080 0.000003 0.236683
42.309685 21.515707 0.000003 0.316426
42.199295 18.688709 3.708550 0.760204
42.199295 18.688709 3.404294 0.756069
42.199295 18.688709 3.104311 0.762310
42.199295 18.688709 2.807881 0.756115
42.199295 18.688711 2.514317 0.752941
42.199295 18.688713 2.222954 0.752941
42.199295 18.688711 1.933152 0.755337
42.199295 18.688713 1.644281 0.764706
42.199295 18.688713 1.355719 0.772885
42.199295 18.688711 1.066848 0.758038
42.199295 18.688713 0.777046 0.751064
42.199295 18.688713 0.485683 0.733333
42.199295 18.688713 0.192119 0.764706
42.213196 19.261841 0.000004 0.324590
42.244690 20.560087 0.000003 0.302541
42.267891 21.516575 0.000003 0.330220
42.137711 18.688709 3.708977 0.712810
42.137711 18.688713 3.404663 0.690318
42.137711 18.688713 3.104622 0.688869
42.137711 18.688711 2.808135 0.691600
42.137711 18.688713 2.514513 0.702739
42.137711 18.688713 2.223094 0.693599
42.137711 18.688713 1.933236 0.664668
42.137711 18.688713 1.644309 0.680720
42.137711 18.688713 1.355691 0.682475
42.137711 18.688713 1.066764 0.699504
42.137711 18.688713 0.776905 0.700679
42.137711 18.688713 0.485487 0.664134
42.137711 18.688713 0.191866 0.665019
42.155666 19.263439 0.000004 0.285710
42.196220 20.561432 0.000003 0.306706
42.226097 21.517735 0.000003 0.300557
42.076099 18.688707 3.709513 0.730373
42.076099 18.688709 3.405125 0.732357
42.076099 18.688709 3.105011 0.708019
42.076099 18.688709 2.808452 0.739956
42.076099 18.688711 2.514759 0.730373
42.076099 18.688709 2.223270 0.703929
42.076099 18.688713 1.933341 0.741176
42.076099 18.688711 1.644344 0.709804
42.076099 18.688713 1.355656 0.704524
42.076099 18.688713 1.066659 0.709804
42.076099 18.688711 0.776730 0.740200
42.076099 18.688713 0.485241 0.697322
42.076099 18.688713 0.191548 0.695476
42.098152 19.265434 0.000004 0.290578
42.147766 20.563116 0.000003 0.261494
42.184319 21.519184 0.000003 0.269718
42.014458 18.688711 3.710157 0.776196
42.014458 18.688713 3.405680 0.762341
42.014458 18.688711 3.105479 0.733333
42.014458 18.688713 2.808833 0.772061
42.014458 18.688711 2.515055 0.756436
42.014458 18.688713 2.223480 0.764263
42.014458 18.688713 1.933468 0.748302
42.014458 18.688713 1.644386 0.751263
42.014458 18.688713 1.355614 0.754406
42.014458 18.688713 1.066532 0.769207
42.014458 18.688713 0.776519 0.753674
42.014458 18.688713 0.484945 0.733333
42.014458 18.688713 0.191167 0.764706
42.040649 19.267836 0.000004 0.245197
42.099319 20.565136 0.000003 0.295308
42.142548 21.520929 0.000002 0.271916
41.952774 18.688709 3.710908 0.764614
41.952774 18.688709 3.406329 0.760525
41.952774 18.688711 3.106025 0.744717
41.952774 18.688711 2.809279 0.775051
41.952774 18.688709 2.515400 0.750103
41.952774 18.688713 2.223726 0.760754
41.952774 18.688713 1.933615 0.773892
41.952774 18.688711 1.644435 0.757717
41.952774 18.688713 1.355565 0.757519
41.952774 18.688713 1.066385 0.752941
41.952774 18.688713 0.776273 0.763973
41.952774 18.688711 0.484600 0.764706
41.952774 18.688713 0.190722 0.754253
41.983166 19.270638 0.000004 0.252628
42.050892 20.567495 0.000003 0.320668
42.100792 21.522963 0.000002 0.305440
41.891045 18.688709 3.711769 0.733333
41.891045 18.688709 3.407070 0.764706
41.891045 18.688709 3.106650 0.765240
41.891045 18.688709 2.809788 0.776471
41.891045 18.688709 2.515795 0.737346
41.891045 18.688709 2.224008 0.753307
41.891045 18.688711 1.933784 0.766217
41.891045 18.688711 1.644491 0.752941
41.891045 18.688711 1.355509 0.764706
41.891045 18.688713 1.066216 0.755154
41.891045 18.688713 0.775992 0.772610
41.891045 18.688713 0.484205 0.752941
41.891045 18.688711 0.190212 0.772335
41.925701 19.273836 0.000004 0.266468
42.002480 20.570192 0.000003 0.338476
42.059048 21.525288 0.000002 0.242603
41.829269 18.688709 3.712738 0.710445
41.829269 18.688709 3.407906 0.722164
41.829269 18.688711 3.107354 0.722164
41.829269 18.688709 2.810362 0.721660
41.829269 18.688709 2.516240 0.721889
41.829269 18.688713 2.224325 0.721569
41.829269 18.688711 1.933974 0.714122
41.829269 18.688713 1.644555 0.721569
41.829269 18.688713 1.355446 0.722210
41.829269 18.688713 1.066026 0.733333
41.829269 18.688713 0.775674 0.741176
41.829269 18.688713 0.483760 0.726024
41.829269 18.688711 0.189638 0.722164
41.868263 19.277439 0.000004 0.297734
41.954090 20.573227 0.000003 0.284230
42.017326 21.527905 0.000002 0.257038
41.767429 18.688709 3.713815 0.680766
41.767433 18.688709 3.408835 0.680766
41.767433 18.688709 3.108137 0.679545
41.767429 18.688709 2.811000 0.683299
41.767433 18.688711 2.516735 0.678431
41.767433 18.688713 2.224678 0.695171
41.767433 18.688711 1.934185 0.680766
41.767433 18.688713 1.644625 0.680766
41.767433 18.688713 1.355375 0.680766
41.767433 18.688713 1.065815 0.678431
41.767433 18.688713 0.775322 0.683665
41.767433 18.688713 0.483265 0.710674
41.767433 18.688711 0.189000 0.637766
41.810848 19.281445 0.000003 0.265705
41.905724 20.576599 0.000003 0.312459
41.975620 21.530813 0.000002 0.245502
41.705532 18.688709 3.715002 0.755291
41.705532 18.688709 3.409858 0.759030
41.705532 18.688709 3.108999 0.747982
41.705532 18.688713 2.811703 0.751293
41.705532 18.688713 2.517280 0.764706
41.705532 18.688713 2.225067 0.749035
41.705532 18.688713 1.934418 0.751385
41.705532 18.688713 1.644702 0.761257
41.705532 18.688713 1.355298 0.754986
41.705532 18.688713 1.065582 0.760891
41.705532 18.688713 0.774933 0.764523
41.705532 18.688713 0.482720 0.752941
41.705532 18.688713 0.188297 0.763989
41.753468 19.285849 0.000003 0.294911
41.857380 20.580311 0.000003 0.251072
41.933937 21.534014 0.000002 0.341787
41.643562 18.688711 3.716297 0.764477
41.643562 18.688709 3.410976 0.762448
41.643562 18.688709 3.109941 0.763806
41.643562 18.688711 2.812470 0.752941
41.643562 18.688711 2.517875 0.762081
41.643562 18.688711 2.225491 0.764706
41.643562 18.688713 1.934672 0.756756
41.643562 18.688713 1.644787 0.761929
41.643562 18.688713 1.355213 0.760388
41.643562 18.688713 1.065328 0.756527
41.643562 18.688713 0.774509 0.763836
41.643562 18.688713 0.482125 0.764706
41.643562 18.688713 0.187530 0.764706
41.696117 19.290653 0.000003 0.314305
41.809063 20.584358 0.000002 0.265934
41.892277 21.537506 0.000002 0.307790
41.581520 18.688709 3.717704 0.735058
41.581520 18.688709 3.412188 0.734462
41.581520 18.688713 3.110961 0.730312
41.581520 18.688713 2.813303 0.728130
41.581520 18.688711 2.518521 0.723949
41.581520 18.688709 2.225951 0.717418
41.581520 18.688713 1.934948 0.725185
41.581520 18.688713 1.644879 0.745037
41.581520 18.688713 1.355121 0.735012
41.581520 18.688713 1.065052 0.726055
41.581520 18.688711 0.774049 0.734051
41.581520 18.688713 0.481479 0.730373
41.581520 18.688713 0.186698 0.730861
41.638798 19.295856 0.000003 0.268971
41.760777 20.588745 0.000003 0.239521
41.850639 21.541286 0.000002 0.313146
41.519394 18.688709 3.719219 0.733516
41.519394 18.688711 3.413494 0.736645
41.519394 18.688713 3.112062 0.736645
41.519394 18.688713 2.814200 0.737102
41.519394 18.688713 2.519217 0.730312
41.519394 18.688713 2.226447 0.733562
41.519394 18.688713 1.935245 0.731655
41.519394 18.688713 1.644978 0.737865
41.519394 18.688715 1.355022 0.733333
41.519394 18.688713 1.064755 0.706355
41.519394 18.688713 0.773553 0.733333
41.519394 18.688715 0.480783 0.738766
41.519394 18.688713 0.185800 0.731197
41.581520 19.301464 0.000003 0.338460
41.712521 20.593468 0.000003 0.271626
41.809032 21.545357 0.000002 0.240879
41.457180 18.688709 3.720846 0.772747
41.457180 18.688709 3.414897 0.769482
41.457180 18.688709 3.113244 0.744671
41.457180 18.688709 2.815163 0.748943
41.457180 18.688711 2.519964 0.769482
41.457180 18.688713 2.226979 0.772793
41.457180 18.688713 1.935564 0.770687
41.457180 18.688713 1.645084 0.743008
41.457180 18.688713 1.354916 0.741176
41.457180 18.688713 1.064436 0.748165
41.457180 18.688713 0.773020 0.741817
41.457180 18.688713 0.480036 0.771969
41.457180 18.688711 0.184837 0.748165
41.524284 19.307467 0.000003 0.313481
41.664299 20.598526 0.000002 0.287510
41.767456 21.549719 0.000002 0.280201
41.394871 18.688709 3.722582 0.761990
41.394871 18.688709 3.416394 0.762448
41.394871 18.688711 3.114506 0.763882
41.394871 18.688711 2.816192 0.762722
41.394871 18.688711 2.520762 0.762722
41.394871 18.688713 2.227548 0.760021
41.394871 18.688711 1.935905 0.764019
41.394871 18.688713 1.645198 0.759564
41.394871 18.688713 1.354802 0.752941
41.394871 18.688713 1.064095 0.755108
41.394871 18.688713 0.772452 0.754131
41.394871 18.688713 0.479238 0.756344
41.394871 18.688713 0.183808 0.759564
41.467091 19.313873 0.000003 0.268376
41.616116 20.603922 0.000002 0.247715
41.725910 21.554371 0.000002 0.340383
41.332462 18.688711 3.724430 0.764706
41.332462 18.688709 3.417989 0.752941
41.332462 18.688713 3.115848 0.733333
41.332462 18.688711 2.817286 0.753216
41.332462 18.688713 2.521610 0.764431
41.332462 18.688711 2.228153 0.753857
41.332462 18.688713 1.936267 0.764523
41.332462 18.688713 1.645318 0.761349
41.332462 18.688713 1.354681 0.754314
41.332462 18.688713 1.063733 0.764477
41.332462 18.688713 0.771847 0.753399
41.332462 18.688713 0.478390 0.753399
41.332462 18.688713 0.182714 0.756664
41.409943 19.320675 0.000003 0.287434
41.567966 20.609653 0.000002 0.326986
41.684395 21.559315 0.000002 0.279545
41.269947 18.688709 3.726390 0.696284
41.269947 18.688711 3.419678 0.696284
41.269947 18.688713 3.117271 0.696284
41.269947 18.688713 2.818447 0.713420
41.269947 18.688713 2.522510 0.696284
41.269947 18.688713 2.228795 0.696284
41.269947 18.688713 1.936651 0.675608
41.269947 18.688713 1.645447 0.688075
41.269947 18.688713 1.354553 0.649516
41.269947 18.688713 1.063349 0.701701
41.269947 18.688713 0.771205 0.703670
41.269947 18.688713 0.477490 0.696284
41.269947 18.688713 0.181553 0.718303
41.352840 19.327881 0.000003 0.277089
41.519863 20.615721 0.000002 0.269123
41.642918 21.564545 0.000002 0.263111
41.207317 18.688709 3.728462 0.703456
41.207317 18.688709 3.421464 0.720104
41.207317 18.688709 3.118777 0.699962
41.207317 18.688709 2.819674 0.702022
41.207317 18.688711 2.523462 0.709621
41.207317 18.688713 2.229473 0.698039
41.207317 18.688713 1.937058 0.706615
41.207317 18.688713 1.645582 0.696712
41.207317 18.688713 1.354418 0.660319
41.207317 18.688713 1.062942 0.695811
41.207317 18.688713 0.770527 0.709804
41.207317 18.688713 0.476538 0.694713
41.207317 18.688713 0.180326 0.706462
41.295795 19.335480 0.000003 0.273320
41.471802 20.622126 0.000002 0.241596
41.601479 21.570066 0.000002 0.265599
41.144569 18.688709 3.730647 0.753445
41.144569 18.688709 3.423348 0.768658
41.144569 18.688709 3.120363 0.760433
41.144569 18.688711 2.820968 0.763806
41.144569 18.688713 2.524465 0.762921
41.144569 18.688713 2.230188 0.757076
41.144569 18.688713 1.937486 0.761929
41.144569 18.688713 1.645724 0.752941
41.144569 18.688713 1.354275 0.757214
41.144569 18.688713 1.062514 0.749172
41.144569 18.688713 0.769812 0.752941
41.144569 18.688713 0.475535 0.768978
41.144569 18.688713 0.179033 0.767468
41.238800 19.343479 0.000003 0.315068
41.423786 20.628862 0.000002 0.308278
41.560078 21.575878 0.000002 0.332418
41.081696 18.688711 3.732944 0.759747
41.081696 18.688713 3.425329 0.755886
41.081692 18.688711 3.122033 0.758923
41.081696 18.688713 2.822328 0.753079
41.081696 18.688713 2.525521 0.748806
41.081696 18.688713 2.230940 0.753353
41.081696 18.688713 1.937937 0.758724
41.081696 18.688713 1.645875 0.758724
41.081696 18.688713 1.354125 0.758221
41.081696 18.688713 1.062063 0.740185
41.081696 18.688713 0.769060 0.764889
41.081696 18.688713 0.474480 0.766308
41.081696 18.688713 0.177672 0.764706
41.181862 19.351875 0.000003 0.303593
41.375820 20.635939 0.000002 0.386252
41.518719 21.581978 0.000002 0.273610
41.018688 18.688709 3.735356 0.766125
41.018688 18.688713 3.427408 0.769162
41.018688 18.688711 3.123784 0.754681
41.018688 18.688713 2.823756 0.754177
41.018688 18.688713 2.526628 0.754269
41.018688 18.688713 2.231730 0.761852
41.018688 18.688713 1.938410 0.748486
41.018688 18.688713 1.646032 0.759380
41.018688 18.688713 1.353968 0.769162
41.018688 18.688713 1.061590 0.748531
41.018688 18.688713 0.768270 0.761349
41.018688 18.688713 0.473372 0.752117
41.018688 18.688713 0.176244 0.769162
41.124989 19.360670 0.000003 0.327871
41.327904 20.643347 0.000002 0.336583
41.477402 21.588364 0.000001 0.318135
40.955540 18.688709 3.737883 0.730434
40.955540 18.688709 3.429587 0.733333
40.955540 18.688709 3.125620 0.733333
40.955540 18.688711 2.825253 0.727031
40.955540 18.688711 2.527789 0.734096
40.955540 18.688713 2.232556 0.738781
40.955540 18.688713 1.938905 0.723247
40.955540 18.688713 1.646197 0.733852
40.955540 18.688713 1.353803 0.739254
40.955540 18.688713 1.061095 0.740200
40.955540 18.688713 0.767443 0.728191
40.955540 18.688713 0.472211 0.731884
40.955540 18.688713 0.174748 0.707683
41.068172 19.369860 0.000003 0.283726
41.280041 20.651089 0.000002 0.248737
41.436134 21.595043 0.000002 0.248554
40.892246 18.688709 3.740524 0.752941
40.892246 18.688709 3.431864 0.748669
40.892246 18.688711 3.127538 0.742504
40.892246 18.688713 2.826817 0.756680
40.892246 18.688713 2.529001 0.750271
40.892246 18.688713 2.233421 0.764385
40.892246 18.688713 1.939423 0.753384
40.892246 18.688713 1.646370 0.751308
40.892246 18.688713 1.353630 0.744808
40.892246 18.688715 1.060577 0.758877
40.892246 18.688713 0.766579 0.765759
40.892246 18.688713 0.470999 0.753246
40.892246 18.688713 0.173184 0.759106
41.011425 19.379448 0.000003 0.279820
41.232231 20.659166 0.000002 0.324422
41.394909 21.602005 0.000001 0.290471
40.828800 18.688709 3.743281 0.750820
40.828800 18.688709 3.434241 0.758404
40.828800 18.688713 3.129540 0.763653
40.828800 18.688711 2.828449 0.761807
40.828800 18.688713 2.530268 0.757580
40.828800 18.688713 2.234324 0.753307
40.828800 18.688713 1.939964 0.760159
40.828800 18.688713 1.646550 0.764614
40.828800 18.688713 1.353450 0.764294
40.828800 18.688713 1.060036 0.764523
40.828800 18.688713 0.765676 0.764660
40.828800 18.688713 0.469733 0.755795
40.828800 18.688713 0.171551 0.757214
40.954746 19.389431 0.000003 0.296773
41.184479 20.667576 0.000002 0.336492
41.353737 21.609257 0.000001 0.282902
40.765194 18.688709 3.746154 0.752941
40.765194 18.688713 3.436718 0.758312
40.765194 18.688711 3.131628 0.755932
40.765194 18.688713 2.830150 0.764202
40.765194 18.688713 2.531587 0.760204
40.765194 18.688713 2.235264 0.754925
40.765194 18.688713 1.940528 0.764706
40.765194 18.688713 1.646738 0.747616
40.765194 18.688713 1.353262 0.743099
40.765194 18.688713 1.059472 0.759838
40.765194 18.688713 0.764736 0.725063
40.765194 18.688713 0.468413 0.752941
40.765198 18.688713 0.169850 0.760388
40.898140 19.399809 0.000002 0.314641
41.136791 20.676321 0.000002 0.341787
41.312618 21.616796 0.000001 0.263157
40.701424 18.688709 3.749144 0.681422
40.701424 18.688711 3.439297 0.688045
40.701424 18.688713 3.133800 0.678431
40.701424 18.688713 2.831921 0.696513
40.701424 18.688713 2.532960 0.690105
40.701424 18.688713 2.236243 0.692317
40.701424 18.688713 1.941114 0.690959
40.701424 18.688713 1.646933 0.686702
40.701424 18.688713 1.353067 0.690608
40.701424 18.688713 1.058886 0.682521
40.701424 18.688713 0.763757 0.695201
40.701424 18.688713 0.467040 0.665507
40.701424 18.688713 0.168079 0.619837
40.841602 19.410583 0.000002 0.244373
41.089161 20.685396 0.000002 0.331395
41.271549 21.624622 0.000001 0.272358
40.637478 18.688711 3.752253 0.699229
40.637482 18.688713 3.441977 0.707042
40.637482 18.688713 3.136058 0.703273
40.637478 18.688713 2.833762 0.705074
40.637482 18.688713 2.534388 0.698924
40.637482 18.688713 2.237260 0.730297
40.637482 18.688713 1.941724 0.661570
40.637482 18.688713 1.647136 0.695430
40.637482 18.688713 1.352864 0.708812
40.637482 18.688715 1.058276 0.695766
40.637482 18.688713 0.762740 0.709804
40.637482 18.688713 0.465612 0.709804
40.637482 18.688713 0.166238 0.698039
40.785149 19.421753 0.000003 0.276280
41.041595 20.694805 0.000002 0.261173
41.230537 21.632734 0.000001 0.344503
40.573353 18.688709 3.755480 0.739498
40.573353 18.688711 3.444759 0.755810
40.573357 18.688713 3.138402 0.752026
40.573353 18.688709 2.835673 0.764706
40.573357 18.688713 2.535870 0.762921
40.573357 18.688713 2.238317 0.752941
40.573357 18.688713 1.942356 0.754818
40.573357 18.688713 1.647347 0.772793
40.573357 18.688713 1.352653 0.764706
40.573357 18.688715 1.057643 0.758770
40.573357 18.688713 0.761683 0.774731
40.573357 18.688713 0.464130 0.753994
40.573357 18.688713 0.164327 0.758679
40.728767 19.433311 0.000002 0.292271
40.994099 20.704546 0.000002 0.269642
41.189583 21.641134 0.000001 0.272450
40.509041 18.688709 3.758826 0.747890
40.509041 18.688709 3.447645 0.775143
40.509041 18.688713 3.140833 0.760845
40.509041 18.688713 2.837655 0.761349
40.509041 18.688713 2.537407 0.752941
40.509041 18.688713 2.239412 0.764706
40.509041 18.688713 1.943013 0.755062
40.509041 18.688713 1.647565 0.753811
40.509041 18.688713 1.352435 0.761303
40.509041 18.688713 1.056987 0.754086
40.509041 18.688713 0.760588 0.733669
40.509045 18.688713 0.462593 0.766445
40.509041 18.688713 0.162346 0.752941
40.672470 19.445267 0.000002 0.255711
40.946671 20.714619 0.000002 0.243473
41.148689 21.649818 0.000001 0.328786
40.444534 18.688711 3.762292 0.738415
40.444534 18.688709 3.450634 0.753033
40.444538 18.688713 3.143351 0.738415
40.444538 18.688713 2.839707 0.770397
40.444538 18.688713 2.538999 0.771511
40.444538 18.688713 2.240547 0.738415
40.444538 18.688713 1.943693 0.759854
40.444538 18.688713 1.647792 0.770397
40.444538 18.688713 1.352208 0.768750
40.444538 18.688713 1.056307 0.755520
40.444538 18.688713 0.759453 0.738415
40.444538 18.688713 0.461001 0.738415
40.444538 18.688715 0.160293 0.776471
40.616257 19.457615 0.000002 0.304753
40.899315 20.725021 0.000002 0.327611
41.107857 21.658787 0.000001 0.289982
40.379829 18.688709 3.765881 0.713252
40.379829 18.688709 3.453728 0.733669
40.379829 18.688713 3.145957 0.722118
40.379829 18.688711 2.841833 0.717205
40.379829 18.688713 2.540647 0.733364
40.379829 18.688713 2.241721 0.721569
40.379829 18.688713 1.944397 0.728832
40.379829 18.688713 1.648026 0.733333
40.379829 18.688713 1.351974 0.721569
40.379829 18.688713 1.055603 0.733333
40.379829 18.688713 0.758278 0.733333
40.379829 18.688715 0.459353 0.730938
40.379829 18.688713 0.158168 0.730648
40.560135 19.470356 0.000002 0.304723
40.852032 20.735754 0.000002 0.283757
41.067085 21.668041 0.000001 0.244816
40.314915 18.688713 3.769590 0.738262
40.314915 18.688713 3.456927 0.738262
40.314915 18.688713 3.148653 0.772931
40.314915 18.688713 2.844030 0.739178
40.314915 18.688713 2.542351 0.759518
40.314915 18.688713 2.242936 0.771237
40.314915 18.688713 1.945124 0.740017
40.314915 18.688713 1.648269 0.758175
40.314915 18.688713 1.351731 0.755199
40.314915 18.688713 1.054876 0.738262
40.314915 18.688713 0.757064 0.741176
40.314915 18.688713 0.457649 0.741176
40.314915 18.688713 0.155970 0.757641
40.504101 19.483486 0.000002 0.267597
40.804825 20.746817 0.000001 0.248234
41.026382 21.677582 0.000001 0.273838
40.249779 18.688711 3.773424 0.735149
40.249779 18.688709 3.460232 0.761700
40.249779 18.688713 3.151437 0.749706
40.249779 18.688713 2.846300 0.756710
40.249779 18.688713 2.544112 0.756756
40.249779 18.688713 2.244191 0.756130
40.249779 18.688713 1.945876 0.759533
40.249779 18.688713 1.648519 0.745342
40.249779 18.688713 1.351481 0.764706
40.249779 18.688713 1.054124 0.764706
40.249779 18.688713 0.755809 0.733333
40.249779 18.688713 0.455889 0.764706
40.249779 18.688715 0.153700 0.744488
40.448158 19.497009 0.000002 0.255131
40.757694 20.758209 0.000001 0.238407
40.985748 21.687405 0.000001 0.246494
40.184425 18.688709 3.777382 0.758038
40.184425 18.688709 3.463645 0.728878
40.184425 18.688713 3.154312 0.758175
40.184425 18.688713 2.848644 0.754681
40.184425 18.688711 2.545929 0.752621
40.184425 18.688713 2.245486 0.764706
40.184425 18.688713 1.946652 0.762127
40.184425 18.688713 1.648778 0.752941
40.184425 18.688713 1.351222 0.752392
40.184425 18.688713 1.053348 0.759609
40.184425 18.688713 0.754514 0.765072
40.184425 18.688713 0.454071 0.748714
40.184425 18.688713 0.151357 0.761440
40.392315 19.510921 0.000002 0.320836
40.710648 20.769930 0.000001 0.317250
40.945183 21.697510 0.000001 0.321492
40.118835 18.688711 3.781465 0.727001
40.118835 18.688711 3.467165 0.707042
40.118835 18.688713 3.157278 0.703548
40.118835 18.688713 2.851061 0.729992
40.118835 18.688713 2.547804 0.729992
40.118835 18.688713 2.246823 0.730373
40.118835 18.688713 1.947453 0.707179
40.118835 18.688713 1.649045 0.704814
40.118835 18.688713 1.350955 0.723720
40.118835 18.688715 1.052547 0.741176
40.118835 18.688713 0.753177 0.703090
40.118835 18.688715 0.452196 0.704219
40.118835 18.688713 0.148939 0.709804
40.336567 19.525225 0.000002 0.302907
40.663681 20.781979 0.000001 0.253422
40.904686 21.707901 0.000001 0.271138
40.053013 18.688713 3.785673 0.678431
40.053013 18.688713 3.470793 0.651316
40.053013 18.688713 3.160336 0.678614
40.053013 18.688711 2.853554 0.677485
40.053013 18.688713 2.549737 0.678431
40.053013 18.688713 2.248201 0.660655
40.053013 18.688713 1.948278 0.660914
40.053013 18.688713 1.649319 0.673945
40.053013 18.688715 1.350681 0.679957
40.053013 18.688713 1.051722 0.678431
40.053013 18.688713 0.751799 0.685481
40.053013 18.688715 0.450263 0.678431
40.053013 18.688713 0.146446 0.686931
40.280922 19.539915 0.000002 0.274830
40.616802 20.794355 0.000001 0.264271
40.864265 21.718571 0.000001 0.302586
39.986938 18.688711 3.790010 0.760113
39.986938 18.688713 3.474533 0.731151
39.986938 18.688713 3.163486 0.754971
39.986938 18.688713 2.856122 0.760922
39.986938 18.688715 2.551729 0.764706
39.986938 18.688713 2.249620 0.764614
39.986938 18.688713 1.949129 0.760754
39.986938 18.688715 1.649603 0.764706
39.986938 18.688715 1.350397 0.754589
39.986938 18.688715 1.050871 0.763836
39.986938 18.688715 0.750380 0.756344
39.986938 18.688717 0.448271 0.750179
39.986938 18.688717 0.143879 0.758541
40.225380 19.554993 0.000002 0.287434
40.570011 20.807060 0.000001 0.313329
40.823921 21.729527 0.000001 0.368688
39.920612 18.688709 3.794475 0.764706
39.920612 18.688713 3.478383 0.733410
39.920612 18.688713 3.166728 0.764157
39.920612 18.688713 2.858766 0.760067
39.920612 18.688713 2.553780 0.756451
39.920612 18.688717 2.251081 0.763790
39.920612 18.688713 1.950005 0.764630
39.920612 18.688715 1.649894 0.764706
39.920612 18.688715 1.350106 0.764523
39.920612 18.688713 1.049995 0.764614
39.920612 18.688715 0.748918 0.755535
39.920612 18.688713 0.446221 0.752636
39.920612 18.688713 0.141234 0.759152
40.169949 19.570459 0.000002 0.254841
40.523308 20.820087 0.000001 0.332387
40.783649 21.740761 0.000001 0.252888
39.854023 18.688711 3.799070 0.602808
39.854023 18.688713 3.482344 0.654902
39.854023 18.688713 3.170066 0.686580
39.854023 18.688713 2.861486 0.684153
39.854023 18.688713 2.555890 0.680415
39.854023 18.688713 2.252586 0.649165
39.854023 18.688713 1.950906 0.614801
39.854023 18.688715 1.650195 0.685588
39.854023 18.688715 1.349805 0.665705
39.854023 18.688713 1.049094 0.686458
39.854023 18.688715 0.747414 0.666407
39.854023 18.688717 0.444111 0.667475
39.854023 18.688715 0.138514 0.670619
40.114620 19.586315 0.000002 0.256352
40.476700 20.833447 0.000001 0.245060
40.743462 21.752277 0.000001 0.266178
39.787163 18.688709 3.803795 0.724941
39.787163 18.688713 3.486419 0.705074
39.787163 18.688711 3.173499 0.701671
39.787163 18.688713 2.864285 0.721569
39.787163 18.688713 2.558060 0.727626
39.787163 18.688713 2.254133 0.722347
39.787163 18.688713 1.951833 0.734737
39.787163 18.688713 1.650503 0.735759
39.787163 18.688713 1.349497 0.733333
39.787163 18.688715 1.048168 0.694987
39.787163 18.688713 0.745867 0.696254
39.787163 18.688713 0.441940 0.711177
39.787163 18.688713 0.135715 0.724254
40.059410 19.602552 0.000002 0.297887
40.430183 20.847126 0.000001 0.280568
40.703354 21.764072 0.000001 0.327810
39.720024 18.688709 3.808653 0.755932
39.720024 18.688709 3.490608 0.732067
39.720024 18.688711 3.177028 0.757443
39.720024 18.688713 2.867162 0.760983
39.720024 18.688713 2.560291 0.753750
39.720024 18.688713 2.255723 0.748302
39.720024 18.688713 1.952785 0.765164
39.720024 18.688713 1.650821 0.759899
39.720024 18.688713 1.349179 0.768612
39.720024 18.688713 1.047215 0.735164
39.720024 18.688713 0.744277 0.764172
39.720024 18.688713 0.439709 0.754269
39.720024 18.688713 0.132838 0.749432
40.004311 19.619177 0.000002 0.270283
40.383762 20.861130 0.000001 0.292744
40.663330 21.776148 0.000000 0.255253
39.652599 18.688713 3.813644 0.764706
39.652599 18.688711 3.494912 0.766735
39.652599 18.688713 3.180654 0.760250
39.652599 18.688713 2.870118 0.743008
39.652599 18.688713 2.562583 0.764706
39.652599 18.688713 2.257357 0.764065
39.652599 18.688713 1.953764 0.757855
39.652599 18.688715 1.651147 0.760174
39.652599 18.688715 1.348853 0.746914
39.652599 18.688713 1.046236 0.759014
39.652599 18.688713 0.742643 0.753979
39.652599 18.688713 0.437417 0.753429
39.652599 18.688717 0.129882 0.773968
39.949329 19.636185 0.000002 0.252827
40.337444 20.875462 0.000001 0.355871
40.623390 21.788502 0.000001 0.244984
39.584877 18.688713 3.818770 0.743343
39.584877 18.688713 3.499331 0.745159
39.584877 18.688713 3.184377 0.732586
39.584877 18.688713 2.873153 0.738186
39.584877 18.688713 2.564938 0.736324
39.584877 18.688713 2.259035 0.750317
39.584877 18.688717 1.954769 0.736904
39.584877 18.688715 1.651481 0.748669
39.584877 18.688715 1.348518 0.758618
39.584877 18.688717 1.045231 0.743343
39.584877 18.688715 0.740965 0.743343
39.584877 18.688715 0.435063 0.746334
39.584877 18.688715 0.126847 0.743343
39.894466 19.653576 0.000002 0.331258
40.291225 20.890114 0.000001 0.330632
40.583538 21.801136 0.000001 0.328054
39.516850 18.688711 3.824033 0.740658
39.516850 18.688709 3.503870 0.733333
39.516853 18.688713 3.188200 0.740063
39.516850 18.688713 2.876270 0.736217
39.516853 18.688713 2.567355 0.704707
39.516853 18.688713 2.260757 0.723430
39.516853 18.688713 1.955802 0.737560
39.516853 18.688713 1.651825 0.735454
39.516853 18.688713 1.348175 0.733333
39.516853 18.688713 1.044198 0.740597
39.516853 18.688713 0.739243 0.733333
39.516853 18.688713 0.432645 0.684749
39.516853 18.688713 0.123730 0.729076
