# This PCD file was generated using the MATLABÂ® pcwrite function
# from Computer Vision ToolboxÂ®.
# .PCD v.7 - Point Cloud Data file format
VERSION .7
FIELDS x y z intensity
SIZE 4 4 4 4
TYPE F F F F
COUNT 1 1 1 1
WIDTH 1310
HEIGHT 1
VIEWPOINT 0 0 0 1 0 0 0
POINTS 1310
DATA ascii
189.967743 150.675369 3.211384 0.641871
189.967743 150.675369 2.719789 0.668177
189.967743 150.675369 2.230827 0.643503
189.967743 150.675369 1.743435 0.673564
189.967743 150.675369 1.256565 0.689357
189.967743 150.675369 0.769173 0.657435
189.967743 150.675369 0.280210 0.723186
188.189056 150.214157 0.000005 0.282536
185.356079 149.479568 0.000004 0.293904
183.547470 149.010605 0.000004 0.300450
182.290405 148.684647 0.000004 0.322683
181.364258 148.444504 0.000003 0.278325
189.967743 150.568268 5.219684 0.648936
189.967758 150.568268 4.707253 0.650156
189.967743 150.568268 4.202015 0.708492
189.967743 150.568268 3.702762 0.689006
189.967743 150.568268 3.208333 0.653315
189.967743 150.568268 2.717615 0.691966
189.967743 150.568268 2.229524 0.617136
189.967743 150.568268 1.743001 0.646143
189.967743 150.568268 1.256999 0.662974
189.967743 150.568268 0.770476 0.690608
189.967743 150.568268 0.282385 0.642161
188.211594 150.125961 0.000005 0.311711
185.373566 149.411179 0.000004 0.305745
183.561722 148.954849 0.000004 0.309987
182.302414 148.637680 0.000004 0.287572
181.374619 148.404007 0.000004 0.274250
189.967743 150.461548 5.213246 0.699184
189.967758 150.461548 4.701701 0.612222
189.967743 150.461548 4.197338 0.647395
189.967743 150.461548 3.698948 0.708583
189.967743 150.461548 3.205376 0.630243
189.967743 150.461548 2.715507 0.635615
189.967743 150.461548 2.228261 0.708659
189.967743 150.461548 1.742581 0.692409
189.967743 150.461548 1.257420 0.647059
189.967743 150.461548 0.771738 0.654551
189.967743 150.461548 0.284492 0.708583
188.233521 150.037613 0.000004 0.305211
185.390564 149.342651 0.000004 0.277775
183.575577 148.898987 0.000004 0.292836
182.314087 148.590622 0.000003 0.262623
181.384689 148.363419 0.000004 0.339742
190.201691 150.410645 5.267235 0.667201
190.201691 150.410645 4.748252 0.668330
190.201706 150.410645 4.236557 0.721752
189.991074 150.360718 3.698812 0.699855
190.201691 150.410645 3.230171 0.701122
190.201691 150.410645 2.733180 0.689754
190.201691 150.410645 2.238850 0.682948
190.201691 150.410645 1.746107 0.705226
190.201691 150.410645 1.253893 0.703761
190.201691 150.410645 0.761150 0.621592
190.201691 150.410645 0.266820 0.604791
188.254822 149.949127 0.000005 0.311711
185.407089 149.274017 0.000004 0.252552
183.589050 148.843033 0.000004 0.274434
182.325439 148.543472 0.000004 0.280674
181.394470 148.322784 0.000004 0.266438
190.483734 150.367706 5.333590 0.757610
190.483749 150.367706 4.805469 0.731472
190.670731 150.410660 4.319668 0.649729
190.266418 150.317780 3.737139 0.720806
190.213364 150.305603 3.228733 0.693874
190.213364 150.305603 2.732155 0.708659
190.213364 150.305603 2.238235 0.693049
190.213364 150.305603 1.745903 0.691295
190.213364 150.305603 1.254097 0.733303
190.200912 150.302734 0.762392 0.647059
190.670654 150.410645 0.229373 0.634607
188.275513 149.860474 0.000005 0.303304
185.423126 149.205276 0.000004 0.286015
183.602127 148.786987 0.000004 0.266102
182.336456 148.496262 0.000004 0.314626
181.403976 148.282074 0.000003 0.280522
192.093994 150.616318 5.740742 0.741176
192.008530 150.597305 5.137619 0.049668
191.169144 150.410660 4.408124 0.624155
190.645050 150.294128 3.791148 0.715114
191.243851 150.427277 3.347449 0.112551
191.458664 150.475037 2.834814 0.124224
191.458664 150.475037 2.299743 0.102342
191.458664 150.475037 1.766390 0.119951
191.458664 150.475037 1.233609 0.116976
190.364105 150.231644 0.755342 0.601541
191.169098 150.410645 0.189508 0.635828
188.295593 149.771683 0.000004 0.272892
185.438705 149.136414 0.000004 0.283909
183.614822 148.730850 0.000004 0.355520
182.347153 148.448975 0.000004 0.285695
181.413193 148.241287 0.000003 0.318196
192.305435 150.540894 5.788450 0.739864
192.305435 150.540894 5.197664 0.771603
191.381424 150.342178 4.443197 0.612818
191.467621 150.360718 3.912460 0.691432
191.699829 150.410645 3.398286 0.119875
192.164810 150.510651 2.892002 0.741176
192.164810 150.510651 2.334007 0.741176
192.164810 150.510651 1.777804 0.747631
192.164810 150.510651 1.222196 0.741176
191.699829 150.410660 0.689358 0.614084
191.699829 150.410660 0.146995 0.609674
188.315033 149.682755 0.000005 0.303456
185.453781 149.067444 0.000004 0.309911
183.627106 148.674622 0.000004 0.319509
182.357513 148.401596 0.000004 0.282612
181.422119 148.200455 0.000003 0.239445
192.350433 150.428162 5.793636 0.733333
192.350433 150.428162 5.202135 0.732525
191.649719 150.282578 4.488716 0.631281
192.266190 150.410660 4.029887 0.686732
191.756012 150.304672 3.402088 0.692424
192.506348 150.460556 2.918551 0.115160
192.506348 150.460556 2.349914 0.103975
192.506348 150.460556 1.783102 0.107790
192.506348 150.460556 1.216897 0.112963
192.266129 150.410645 0.662139 0.635447
192.266129 150.410645 0.101566 0.631128
188.333862 149.593704 0.000005 0.269184
185.468384 148.998383 0.000004 0.318914
183.639023 148.618317 0.000004 0.324926
182.367538 148.354156 0.000004 0.260426
181.430771 148.159546 0.000004 0.257374
192.871796 150.410645 5.920715 0.669490
192.871796 150.410645 5.311707 0.664256
192.871796 150.410645 4.711249 0.633127
192.871796 150.410645 4.117905 0.667231
192.622803 150.360718 3.501079 0.711650
192.622803 150.360718 2.926271 0.714580
192.622803 150.360718 2.354538 0.692424
192.622818 150.360718 1.784643 0.713008
192.622818 150.360718 1.215357 0.733211
192.871857 150.410645 0.632982 0.603555
192.871857 150.410645 0.052901 0.492409
188.352066 149.504517 0.000005 0.303471
185.482498 148.929214 0.000004 0.286381
183.650528 148.561935 0.000004 0.252369
182.377228 148.306656 0.000004 0.333837
181.439133 148.118591 0.000004 0.279606
194.585602 150.616318 6.351872 0.741176
194.585617 150.616318 5.683468 0.741176
194.585617 150.616318 5.024450 0.741176
193.521255 150.410645 4.212430 0.628901
193.262878 150.360718 3.573328 0.687221
194.029602 150.508881 3.041797 0.141375
194.029602 150.508881 2.423756 0.136416
194.029602 150.508881 1.807699 0.163912
194.029602 150.508881 1.192302 0.129030
193.521317 150.410660 0.601677 0.630823
193.521301 150.410660 0.000652 0.633555
188.369644 149.415192 0.000005 0.295995
185.496140 148.859940 0.000004 0.283528
183.661636 148.505463 0.000004 0.306813
182.386597 148.259079 0.000004 0.286091
181.447205 148.077560 0.000004 0.238727
194.805450 150.519653 6.401465 0.727657
194.805450 150.519653 5.726227 0.742260
194.805435 150.519653 5.060470 0.760937
194.219406 150.410660 4.314179 0.632517
193.950928 150.360718 3.651097 0.697932
194.756989 150.510651 3.100422 0.741176
194.756989 150.510651 2.458880 0.741176
194.756989 150.510651 1.819399 0.741176
194.756989 150.510651 1.180601 0.741176
194.219421 150.410660 0.567982 0.612131
193.552841 150.286667 0.000006 0.273899
188.386612 149.325760 0.000005 0.268452
185.509293 148.790588 0.000004 0.261967
183.672363 148.448914 0.000004 0.291356
182.395630 148.211441 0.000004 0.233265
181.454987 148.036484 0.000004 0.281392
194.850449 150.388931 6.406678 0.728985
194.850433 150.388931 5.730722 0.739742
194.850449 150.388931 5.064258 0.736019
194.972031 150.410660 4.424009 0.629206
194.649078 150.352921 3.729949 0.707790
195.099197 150.433395 3.126889 0.107713
195.099197 150.433395 2.474738 0.115969
195.099197 150.433395 1.824681 0.121859
195.099197 150.433395 1.175319 0.103471
194.972000 150.410660 0.531610 0.638498
193.575745 150.161026 0.000006 0.312413
188.402939 149.236206 0.000005 0.301625
185.521957 148.721130 0.000004 0.265782
183.682693 148.392303 0.000004 0.309117
182.404327 148.163742 0.000004 0.295460
181.462494 147.995361 0.000004 0.273060
195.785660 150.410645 6.638362 0.666362
195.535370 150.367706 5.875644 0.741436
195.535385 150.367706 5.186354 0.762402
195.410507 150.346283 4.486427 0.609583
195.106537 150.294128 3.780620 0.717372
195.332794 150.332947 3.144335 0.695888
195.332794 150.332947 2.485190 0.693629
195.332794 150.332947 1.828162 0.729854
195.332794 150.332947 1.171838 0.730678
195.521729 150.365356 0.505392 0.726711
193.597794 150.035233 0.000006 0.272801
188.418640 149.146545 0.000005 0.269535
185.534134 148.651596 0.000004 0.345052
183.692627 148.335617 0.000004 0.263981
182.412689 148.115997 0.000004 0.296437
181.469711 147.954178 0.000004 0.255344
196.668442 150.410660 6.856436 0.689738
197.305420 150.515381 6.257943 0.741176
197.305435 150.515381 5.508426 0.748165
197.305435 150.515381 4.767786 0.733333
196.364685 150.360718 3.924627 0.687037
197.276550 150.510635 3.303926 0.741176
197.275787 150.510513 2.580770 0.053681
197.270920 150.509705 1.859918 0.062013
197.268738 150.509354 1.140118 0.065217
197.280487 150.511276 0.418996 0.051347
193.618958 149.909286 0.000006 0.321370
188.433731 149.056778 0.000005 0.281041
185.545837 148.581970 0.000004 0.308232
183.702148 148.278854 0.000004 0.315022
182.420731 148.068176 0.000004 0.281270
181.476639 147.912949 0.000004 0.288060
197.629501 150.410660 7.094116 0.654841
197.356354 150.367706 6.263739 0.732738
197.356323 150.367706 5.513301 0.749645
197.356262 150.367691 4.771754 0.757504
197.629517 150.410660 4.069201 0.663355
197.629471 150.410660 3.331195 0.702052
197.629471 150.410660 2.597146 0.692607
197.629471 150.410660 1.865454 0.693034
197.629471 150.410660 1.134546 0.700603
197.629471 150.410660 0.402854 0.680491
193.639236 149.783188 0.000005 0.271260
188.448181 148.966904 0.000005 0.318837
185.557037 148.512283 0.000004 0.340093
183.711288 148.222031 0.000004 0.293996
182.428436 148.020309 0.000004 0.338231
181.483276 147.871674 0.000004 0.213519
nan nan nan 0.000000
nan nan nan 0.000000
nan nan nan 0.000000
nan nan nan 0.000000
nan nan nan 0.000000
nan nan nan 0.000000
nan nan nan 0.000000
227.701141 154.766846 2.362666 0.433188
225.488724 154.434753 0.673944 0.453986
205.762390 151.473770 0.000009 0.291814
193.658630 149.656967 0.000006 0.312398
188.462006 148.876938 0.000005 0.249348
185.567764 148.442505 0.000005 0.353933
183.720032 148.165146 0.000004 0.367468
182.435791 147.972382 0.000004 0.257130
181.489624 147.830353 0.000004 0.244892
nan nan nan 0.000000
nan nan nan 0.000000
nan nan nan 0.000000
nan nan nan 0.000000
nan nan nan 0.000000
nan nan nan 0.000000
nan nan nan 0.000000
227.450745 154.359268 2.357645 0.350896
225.512100 154.082092 0.674402 0.529961
205.793243 151.262863 0.000012 0.283330
193.677139 149.530594 0.000006 0.291981
188.475220 148.786865 0.000004 0.265660
185.578018 148.372650 0.000002 0.275715
183.728394 148.108215 0.000002 0.349172
182.442825 147.924408 0.000002 0.278996
181.495682 147.789001 0.000002 0.243549
nan nan nan 0.000000
nan nan nan 0.000000
nan nan nan 0.000000
nan nan nan 0.000000
nan nan nan 0.000000
nan nan nan 0.000000
nan nan nan 0.000000
224.282288 153.559570 2.304485 0.643427
224.400269 153.575592 0.693566 0.659876
205.822693 151.051743 0.000011 0.290684
193.694778 149.404114 0.000005 0.311666
188.487793 148.696716 0.000003 0.295186
185.587753 148.302734 0.000003 0.289357
183.736328 148.051208 0.000002 0.342672
182.449524 147.876389 0.000002 0.266743
181.501465 147.747589 0.000002 0.282063
nan nan nan 0.000000
nan nan nan 0.000000
nan nan nan 0.000000
nan nan nan 0.000000
nan nan nan 0.000000
nan nan nan 0.000000
nan nan nan 0.000000
224.032471 153.181351 2.299620 0.672038
224.141464 153.195389 0.698581 0.492531
205.850647 150.840424 0.000012 0.292241
193.711533 149.277496 0.000005 0.297246
188.499725 148.606476 0.000004 0.232609
185.597015 148.232742 0.000003 0.318608
183.743881 147.994156 0.000002 0.238590
182.455887 147.828323 0.000002 0.259022
181.506943 147.706146 0.000002 0.270283
nan nan nan 0.000000
nan nan nan 0.000000
nan nan nan 0.000000
nan nan nan 0.000000
nan nan nan 0.000000
nan nan nan 0.000000
nan nan nan 0.000000
223.785645 152.807678 2.294853 0.658732
223.885803 152.819855 0.703496 0.489982
205.877121 150.628922 0.000012 0.289387
193.727386 149.150772 0.000006 0.294469
188.511032 148.516144 0.000004 0.248539
185.605789 148.162689 0.000003 0.318212
183.751038 147.937042 0.000002 0.316960
182.461914 147.780212 0.000002 0.271382
181.512146 147.664658 0.000002 0.300816
nan nan nan 0.000000
nan nan nan 0.000000
nan nan nan 0.000000
nan nan nan 0.000000
nan nan nan 0.000000
nan nan nan 0.000000
226.860779 152.818710 4.036357 0.285298
223.541733 152.438400 2.290182 0.603601
223.633286 152.448883 0.708311 0.483528
205.902115 150.417221 0.000012 0.298909
193.742371 149.023941 0.000006 0.274723
188.521713 148.425751 0.000003 0.303700
185.614075 148.092590 0.000002 0.259785
183.757782 147.879898 0.000002 0.319844
182.467590 147.732056 0.000002 0.253071
181.517044 147.623138 0.000002 0.280629
nan nan nan 0.000000
nan nan nan 0.000000
nan nan nan 0.000000
nan nan nan 0.000000
nan nan nan 0.000000
nan nan nan 0.000000
226.568695 152.424789 4.019959 0.389929
223.324860 152.076035 2.285999 0.654414
223.410889 152.085281 0.712585 0.485863
205.925644 150.205368 0.000012 0.298772
193.756470 148.897003 0.000006 0.276280
188.531769 148.335281 0.000003 0.279988
185.621857 148.022430 0.000003 0.272663
183.764130 147.822693 0.000002 0.259236
182.472946 147.683868 0.000002 0.256550
181.521652 147.581589 0.000002 0.325551
nan nan nan 0.000000
nan nan nan 0.000000
nan nan nan 0.000000
nan nan nan 0.000000
nan nan nan 0.000000
nan nan nan 0.000000
226.140442 152.021866 3.996985 0.640360
223.472595 151.753860 2.287857 0.653544
223.560486 151.762695 0.710696 0.563958
205.947693 149.993347 0.000011 0.288884
193.769684 148.769974 0.000006 0.290517
188.541168 148.244736 0.000003 0.275914
185.629166 147.952209 0.000003 0.240482
183.770096 147.765442 0.000002 0.269078
182.477966 147.635651 0.000002 0.351263
181.525986 147.540009 0.000002 0.288930
nan nan nan 0.000000
nan nan nan 0.000000
nan nan nan 0.000000
nan nan nan 0.000000
nan nan nan 0.000000
nan nan nan 0.000000
225.883392 151.641464 3.982614 0.644388
223.621017 151.430130 2.289765 0.650111
223.710815 151.438522 0.708759 0.577874
205.968262 149.781189 0.000012 0.283436
193.781998 148.642868 0.000006 0.293706
188.549957 148.154129 0.000003 0.332250
185.635971 147.881943 0.000003 0.250675
183.775650 147.708160 0.000002 0.310155
182.482635 147.587387 0.000002 0.281025
181.530014 147.498398 0.000002 0.260487
nan nan nan 0.000000
nan nan nan 0.000000
nan nan nan 0.000000
nan nan nan 0.000000
nan nan nan 0.000000
nan nan nan 0.000000
225.634705 151.265869 3.968794 0.635462
223.770172 151.104828 2.291719 0.673609
223.861877 151.112747 0.706775 0.549020
205.987350 149.568878 0.000012 0.290272
193.793427 148.515656 0.000006 0.279881
188.558105 148.063477 0.000003 0.310399
185.642303 147.811630 0.000002 0.276600
183.780792 147.650848 0.000002 0.242206
182.486984 147.539093 0.000002 0.253376
181.533752 147.456757 0.000002 0.294453
nan nan nan 0.000000
nan nan nan 0.000000
nan nan nan 0.000000
nan nan nan 0.000000
nan nan nan 0.000000
228.160553 151.114349 5.825923 0.358511
225.388092 150.894379 3.955213 0.649424
223.920090 150.777893 2.293722 0.662181
224.013702 150.785324 0.704741 0.464317
206.004944 149.356445 0.000012 0.294362
193.803986 148.388382 0.000006 0.302983
188.565628 147.972763 0.000003 0.305653
185.648132 147.741272 0.000002 0.240299
183.785553 147.593491 0.000002 0.238941
182.490982 147.490768 0.000002 0.331472
181.537216 147.415100 0.000002 0.304387
nan nan nan 0.000000
nan nan nan 0.000000
nan nan nan 0.000000
nan nan nan 0.000000
nan nan nan 0.000000
227.855026 150.722977 5.798518 0.317372
225.142761 150.526810 3.941830 0.646998
222.598511 150.342804 2.271619 0.602609
222.598511 150.342804 0.728380 0.554788
206.021042 149.143906 0.000012 0.299565
193.813644 148.261032 0.000006 0.280888
188.572510 147.881989 0.000003 0.291447
185.653458 147.670883 0.000003 0.322408
183.789902 147.536102 0.000002 0.251301
182.494644 147.442429 0.000002 0.258534
181.540375 147.373413 0.000002 0.303639
nan nan nan 0.000000
nan nan nan 0.000000
nan nan nan 0.000000
nan nan nan 0.000000
nan nan nan 0.000000
227.553680 150.336533 5.771692 0.389715
224.995453 150.169449 3.933405 0.644465
222.264404 149.991104 2.265769 0.536721
222.264404 149.991104 0.734230 0.556909
206.035690 148.931244 0.000012 0.298466
193.822403 148.133621 0.000006 0.319631
188.578751 147.791168 0.000003 0.278843
185.658310 147.600449 0.000003 0.292836
183.793854 147.478683 0.000002 0.324895
182.497986 147.394058 0.000002 0.306325
181.543243 147.331696 0.000002 0.321523
nan nan nan 0.000000
nan nan nan 0.000000
nan nan nan 0.000000
nan nan nan 0.000000
nan nan nan 0.000000
227.531281 149.970901 5.768009 0.363714
222.774719 149.693604 3.823073 0.339391
221.935303 149.644653 2.260045 0.531716
221.935318 149.644653 0.739955 0.701732
206.048828 148.718491 0.000012 0.295247
193.830292 148.006149 0.000006 0.289052
188.584366 147.700317 0.000004 0.312184
185.662659 147.529984 0.000002 0.304234
183.797394 147.421249 0.000002 0.343252
182.500977 147.345657 0.000002 0.251423
181.545822 147.289978 0.000002 0.260990
nan nan nan 0.000000
nan nan nan 0.000000
nan nan nan 0.000000
nan nan nan 0.000000
nan nan nan 0.000000
227.523361 149.606628 5.765727 0.363699
222.424438 149.345078 3.804953 0.354360
221.611099 149.303345 2.254442 0.541253
221.611099 149.303345 0.745558 0.596551
206.060501 148.505646 0.000012 0.290669
193.837280 147.878632 0.000005 0.320485
188.589355 147.609436 0.000003 0.325383
185.666534 147.459503 0.000002 0.268437
183.800552 147.363770 0.000002 0.295735
182.503632 147.297241 0.000002 0.241062
181.548111 147.248230 0.000002 0.288273
nan nan nan 0.000000
nan nan nan 0.000000
nan nan nan 0.000000
nan nan nan 0.000000
nan nan nan 0.000000
227.521118 149.242981 5.764119 0.348379
222.079666 149.001923 3.787229 0.393347
221.291595 148.967010 2.248956 0.571145
221.291595 148.967010 0.751043 0.560265
206.070679 148.292740 0.000012 0.284413
193.843369 147.751068 0.000006 0.294270
188.593704 147.518509 0.000003 0.297948
185.669891 147.388977 0.000002 0.285344
183.803299 147.306290 0.000002 0.231174
182.505936 147.248825 0.000002 0.291707
181.550110 147.206467 0.000002 0.276799
nan nan nan 0.000000
nan nan nan 0.000000
nan nan nan 0.000000
nan nan nan 0.000000
nan nan nan 0.000000
227.519257 148.879608 5.762752 0.374380
222.209137 148.681503 3.792944 0.423621
221.474075 148.654083 2.251731 0.486030
221.474075 148.654083 0.748269 0.779995
206.079361 148.079742 0.000012 0.288792
193.848572 147.623459 0.000006 0.294240
188.597412 147.427551 0.000004 0.273014
185.672775 147.318451 0.000002 0.289677
183.805649 147.248779 0.000002 0.261204
182.507919 147.200378 0.000002 0.281010
181.551804 147.164703 0.000002 0.340780
nan nan nan 0.000000
nan nan nan 0.000000
nan nan nan 0.000000
nan nan nan 0.000000
nan nan nan 0.000000
227.517639 148.516449 5.761613 0.397375
222.525620 148.365097 3.807957 0.341314
221.770142 148.342194 2.256402 0.581353
221.770142 148.342194 0.743598 0.524056
206.086548 147.866714 0.000013 0.296361
193.852890 147.495819 0.000006 0.295918
188.600479 147.336578 0.000003 0.300175
185.675171 147.247894 0.000002 0.248310
183.807587 147.191269 0.000002 0.301701
182.509552 147.151917 0.000002 0.318578
181.553223 147.122925 0.000002 0.301976
nan nan nan 0.000000
nan nan nan 0.000000
nan nan nan 0.000000
nan nan nan 0.000000
nan nan nan 0.000000
227.515610 148.153458 5.760650 0.348943
222.846436 148.044525 3.823291 0.401984
222.069931 148.026413 2.261166 0.537820
222.069931 148.026413 0.738833 0.537743
206.092270 147.653625 0.000013 0.299077
193.856323 147.368149 0.000006 0.314382
188.602921 147.245575 0.000003 0.262211
185.677048 147.177322 0.000003 0.348363
183.809128 147.133743 0.000002 0.308782
182.510849 147.103439 0.000002 0.236622
181.554337 147.081131 0.000002 0.319844
nan nan nan 0.000000
nan nan nan 0.000000
nan nan nan 0.000000
227.813873 147.795532 9.251030 0.639185
225.002579 147.749573 7.187792 0.622644
224.164978 147.735886 5.485287 0.627436
222.673798 147.711502 3.814486 0.486275
221.571136 147.693481 2.252899 0.584695
221.563904 147.693359 0.747220 0.636912
206.096497 147.440506 0.000013 0.297795
193.858841 147.240463 0.000006 0.277378
188.604721 147.154572 0.000003 0.311742
185.678452 147.106735 0.000003 0.300786
183.810272 147.076202 0.000002 0.332006
182.511810 147.054962 0.000002 0.271138
181.555176 147.039337 0.000002 0.267063
nan nan nan 0.000000
nan nan nan 0.000000
nan nan nan 0.000000
228.151489 147.433884 9.300419 0.398108
225.403671 147.408142 7.233424 0.286229
224.286896 147.397690 5.494927 0.604761
222.673492 147.382584 3.814263 0.597910
221.272324 147.369461 2.247941 0.650782
221.272324 147.369461 0.752060 0.671092
206.099243 147.227371 0.000013 0.291615
193.860489 147.112762 0.000006 0.286091
188.605896 147.063553 0.000003 0.308110
185.679367 147.036148 0.000002 0.285878
183.811005 147.018646 0.000002 0.286244
182.512436 147.006485 0.000002 0.282979
181.555710 146.997528 0.000002 0.264347
nan nan nan 0.000000
nan nan nan 0.000000
nan nan nan 0.000000
228.150955 147.066757 9.300020 0.431128
225.403320 147.060211 7.233147 0.351156
224.286911 147.057556 5.494763 0.594156
224.286896 147.057556 3.893430 0.570306
221.360382 147.050583 2.249350 0.568200
221.360382 147.050583 0.750649 0.648188
206.100494 147.014206 0.000013 0.291402
193.861237 146.985046 0.000006 0.280858
188.606430 146.972519 0.000003 0.290501
185.679779 146.965546 0.000002 0.300511
183.811356 146.961090 0.000002 0.306416
182.512726 146.958008 0.000002 0.275486
181.555954 146.955719 0.000001 0.248798
nan nan nan 0.000000
nan nan nan 0.000000
nan nan nan 0.000000
228.151062 146.699646 9.300095 0.388815
225.403381 146.712280 7.233201 0.278065
224.286926 146.717422 5.494795 0.657252
224.286911 146.717422 3.893449 0.711833
221.360382 146.730881 2.249357 0.567025
221.360382 146.730881 0.750643 0.619211
206.100266 146.801056 0.000013 0.284443
193.861099 146.857330 0.000006 0.305791
188.606339 146.881500 0.000003 0.284184
185.679703 146.894958 0.000002 0.291905
183.811295 146.903549 0.000001 0.304707
182.512665 146.909515 0.000002 0.288670
181.555908 146.913910 0.000001 0.367926
nan nan nan 0.000000
nan nan nan 0.000000
nan nan nan 0.000000
228.151794 146.332520 9.300645 0.345098
225.403885 146.364349 7.233582 0.315755
224.286896 146.377274 5.495020 0.620371
221.272324 146.412186 3.745477 0.645945
221.360382 146.411163 2.249399 0.684627
221.360382 146.411163 0.750601 0.696162
206.098541 146.587906 0.000013 0.288899
193.860062 146.729630 0.000006 0.293111
188.605591 146.790466 0.000003 0.278553
185.679123 146.824356 0.000002 0.301991
183.810822 146.845993 0.000002 0.280324
182.512283 146.861038 0.000002 0.287755
181.555573 146.872116 0.000002 0.282506
nan nan nan 0.000000
nan nan nan 0.000000
nan nan nan 0.000000
228.153152 145.965302 9.301667 0.383581
225.404831 146.016312 7.234295 0.352834
224.286911 146.037079 5.495440 0.608576
221.360382 146.091400 3.750041 0.552743
221.360382 146.091400 2.249477 0.667521
221.360382 146.091400 0.750522 0.701473
206.095322 146.374771 0.000013 0.296925
193.858139 146.601929 0.000006 0.269062
188.604218 146.699448 0.000004 0.296880
185.678070 146.753769 0.000002 0.249653
183.809952 146.788452 0.000001 0.337011
182.511551 146.812546 0.000001 0.251194
181.554947 146.830307 0.000002 0.264652
nan nan nan 0.000000
nan nan nan 0.000000
nan nan nan 0.000000
228.155151 145.597961 9.303165 0.408713
225.406235 145.668182 7.235339 0.363989
224.286926 145.696777 5.496055 0.620569
221.360382 145.771545 3.750386 0.597726
221.360382 145.771545 2.249593 0.666072
221.360382 145.771545 0.750407 0.720348
206.090622 146.161652 0.000013 0.299550
193.855331 146.474243 0.000006 0.283314
188.602219 146.608444 0.000003 0.316258
185.676514 146.683197 0.000002 0.357855
183.808685 146.730911 0.000002 0.320882
182.510483 146.764084 0.000001 0.302556
181.554016 146.788513 0.000001 0.278294
nan nan nan 0.000000
nan nan nan 0.000000
nan nan nan 0.000000
228.157776 145.230423 9.305136 0.390509
225.408051 145.319901 7.236711 0.261936
224.249695 145.357574 5.493812 0.400595
221.360367 145.451584 3.750842 0.725902
221.360382 145.451584 2.249744 0.750515
221.360382 145.451584 0.750255 0.659312
206.084427 145.948593 0.000013 0.295933
193.851608 146.346588 0.000007 0.280934
188.599579 146.517456 0.000003 0.291981
185.674454 146.612625 0.000002 0.285969
183.807022 146.673386 0.000001 0.263142
182.509079 146.715607 0.000001 0.320470
181.552811 146.746719 0.000001 0.289174
nan nan nan 0.000000
nan nan nan 0.000000
nan nan nan 0.000000
228.161011 144.862671 9.307582 0.375204
225.410309 144.971390 7.238415 0.394354
224.270782 145.016434 5.496547 0.328695
221.360382 145.131470 3.751409 0.663294
221.333282 145.132538 2.249490 0.409903
221.360382 145.131470 0.750066 0.740810
206.076736 145.735565 0.000014 0.289174
193.847015 146.218948 0.000007 0.296864
188.596298 146.426483 0.000003 0.323232
185.671921 146.542068 0.000002 0.257572
183.804947 146.615875 0.000002 0.259373
182.507324 146.667160 0.000001 0.305715
181.551300 146.704941 0.000002 0.285557
nan nan nan 0.000000
nan nan nan 0.000000
nan nan nan 0.000000
228.164917 144.494644 9.310505 0.436790
225.413025 144.622665 7.240450 0.335195
224.286911 144.675049 5.499071 0.532799
221.360382 144.811188 3.752085 0.691569
221.360382 144.811188 2.250159 0.664988
221.360382 144.811188 0.749841 0.642832
206.067581 145.522598 0.000014 0.292134
193.841522 146.091354 0.000007 0.280476
188.592377 146.335541 0.000004 0.320714
185.668884 146.471542 0.000003 0.278248
183.802475 146.558365 0.000002 0.241474
182.505249 146.618713 0.000001 0.270436
181.549500 146.663177 0.000001 0.280354
nan nan nan 0.000000
nan nan nan 0.000000
nan nan nan 0.000000
228.169434 144.126282 9.313908 0.369223
225.416168 144.273621 7.242818 0.334661
224.286896 144.334061 5.500467 0.658671
221.360382 144.490692 3.752872 0.686152
221.360382 144.490692 2.250420 0.796674
221.360382 144.490692 0.749579 0.689845
206.056931 145.309708 0.000014 0.287907
193.835144 145.963806 0.000007 0.295003
188.587845 146.244629 0.000004 0.269215
185.665359 146.401031 0.000002 0.328450
183.799591 146.500885 0.000001 0.301305
182.502823 146.570297 0.000001 0.325673
181.547409 146.621429 0.000001 0.259098
nan nan nan 0.000000
nan nan nan 0.000000
nan nan nan 0.000000
228.174591 143.757538 9.317781 0.342504
225.419769 143.924271 7.245520 0.334447
224.286911 143.992844 5.502062 0.789502
221.360382 144.169952 3.753769 0.725292
221.360367 144.169952 2.250720 0.595102
221.360367 144.169952 0.749280 0.700313
206.044785 145.096893 0.000014 0.289479
193.827881 145.836288 0.000006 0.283574
188.582657 146.153748 0.000004 0.313268
185.661331 146.330551 0.000002 0.281956
183.796326 146.443436 0.000001 0.300969
182.500061 146.521881 0.000001 0.258595
181.545044 146.579681 0.000001 0.350927
nan nan nan 0.000000
nan nan nan 0.000000
nan nan nan 0.000000
228.180389 143.388382 9.322140 0.400763
225.423813 143.574539 7.248553 0.332204
224.286911 143.651321 5.503850 0.731563
221.272339 143.854904 3.750441 0.637491
221.360382 143.848953 2.251056 0.530175
221.360382 143.848953 0.748945 0.792813
206.031158 144.884171 0.000014 0.295674
193.819717 145.708847 0.000006 0.312840
188.576843 146.062912 0.000004 0.321874
185.656830 146.260101 0.000002 0.271519
183.792648 146.386002 0.000002 0.343465
182.496964 146.473495 0.000001 0.237644
181.542358 146.537964 0.000001 0.264225
nan nan nan 0.000000
nan nan nan 0.000000
nan nan nan 0.000000
228.186829 143.018738 9.326977 0.395499
225.428284 143.224380 7.251923 0.322957
224.286896 143.309479 5.505836 0.609964
224.286911 143.309479 3.900065 0.488106
221.360382 143.527649 2.251428 0.602258
221.360382 143.527649 0.748572 0.738811
206.016068 144.671555 0.000014 0.295979
193.810669 145.581451 0.000006 0.280034
188.570389 145.972107 0.000004 0.289464
185.651825 146.189682 0.000002 0.348699
183.788559 146.328583 0.000002 0.263294
182.493530 146.425140 0.000001 0.255711
181.539398 146.496262 0.000001 0.256046
nan nan nan 0.000000
nan nan nan 0.000000
nan nan nan 0.000000
228.193893 142.648575 9.332295 0.369116
225.433212 142.873764 7.255626 0.357092
224.286896 142.967270 5.508018 0.655802
224.286911 142.967270 3.901374 0.645121
221.360382 143.205994 2.251838 0.644129
221.360382 143.205994 0.748163 0.760739
205.999481 144.459030 0.000014 0.295094
193.800720 145.454117 0.000006 0.309941
188.563309 145.881363 0.000004 0.282216
185.646332 146.119308 0.000002 0.294957
183.784088 146.271210 0.000002 0.281895
182.489761 146.376801 0.000001 0.298604
181.536148 146.454590 0.000001 0.294102
nan nan nan 0.000000
nan nan nan 0.000000
nan nan nan 0.000000
228.201599 142.277832 9.338099 0.336645
225.438583 142.522644 7.259665 0.361196
224.286911 142.624680 5.510403 0.580041
222.635696 142.770996 3.821364 0.712062
221.272339 142.891800 2.250838 0.668864
221.272339 142.891785 0.749162 0.642908
205.981400 144.246643 0.000014 0.285756
193.789886 145.326874 0.000007 0.283055
188.555588 145.790649 0.000004 0.283925
185.640335 146.048965 0.000003 0.283177
183.779205 146.213867 0.000002 0.285237
182.485641 146.328476 0.000001 0.234028
181.532608 146.412933 0.000001 0.326268
nan nan nan 0.000000
nan nan nan 0.000000
nan nan nan 0.000000
228.209976 141.906448 9.344390 0.303822
225.444397 142.170959 7.264045 0.313832
224.286911 142.281677 5.512981 0.725216
222.637939 142.439392 3.822968 0.590631
221.571152 142.541412 2.256233 0.672999
221.563904 142.542114 0.743886 0.738079
205.961838 144.034378 0.000014 0.291691
193.778168 145.199692 0.000007 0.311711
188.547241 145.700012 0.000004 0.301503
185.633865 145.978668 0.000002 0.322759
183.773926 146.156555 0.000002 0.249531
182.481201 146.280197 0.000001 0.253727
181.528763 146.371292 0.000001 0.274952
nan nan nan 0.000000
nan nan nan 0.000000
nan nan nan 0.000000
228.218979 141.534393 9.351164 0.292897
225.450684 141.818695 7.268763 0.363882
224.286911 141.938202 5.515760 0.576181
224.286911 141.938202 3.906011 0.488121
221.272339 142.247787 2.251841 0.629664
221.272339 142.247787 0.748158 0.642573
205.940811 143.822266 0.000014 0.292546
193.765579 145.072601 0.000007 0.296452
188.538254 145.609436 0.000004 0.261219
185.626907 145.908417 0.000002 0.343145
183.768250 146.099289 0.000002 0.242588
182.476410 146.231949 0.000001 0.315190
181.524643 146.329697 0.000001 0.355901
nan nan nan 0.000000
nan nan nan 0.000000
nan nan nan 0.000000
228.228638 141.161606 9.358431 0.297002
225.457413 141.465759 7.273821 0.343191
224.286896 141.594238 5.518740 0.631983
224.286911 141.594238 3.907795 0.505760
221.360382 141.915436 2.253849 0.511650
221.360382 141.915436 0.746152 0.742687
205.918289 143.610291 0.000014 0.288396
193.752075 144.945602 0.000007 0.310842
188.528641 145.518906 0.000004 0.262623
185.619446 145.838211 0.000002 0.302861
183.762161 146.042053 0.000002 0.310460
182.471283 146.183731 0.000001 0.241993
181.520233 146.288116 0.000001 0.276020
nan nan nan 0.000000
nan nan nan 0.000000
nan nan nan 0.000000
228.238968 140.788040 9.366191 0.361807
225.464600 141.112167 7.279221 0.312795
224.286911 141.249741 5.521921 0.633783
224.286896 141.249756 3.909702 0.495491
221.360382 141.591644 2.254446 0.648112
220.846588 141.651672 0.754020 0.552453
205.894287 143.398499 0.000014 0.295491
193.737701 144.818710 0.000007 0.292958
188.518402 145.428467 0.000003 0.324758
185.611496 145.768066 0.000002 0.254627
183.755692 145.984863 0.000002 0.240467
182.465836 146.135559 0.000001 0.270237
181.515518 146.246582 0.000001 0.271107
nan nan nan 0.000000
nan nan nan 0.000000
nan nan nan 0.000000
228.249939 140.413635 9.374441 0.334554
225.472229 140.757828 7.284965 0.438041
224.286911 140.904694 5.525301 0.706294
221.272324 141.278229 3.762498 0.646464
221.360382 141.267319 2.255078 0.618021
220.438721 141.381516 0.760118 0.517647
205.868820 143.186859 0.000014 0.292271
193.722443 144.691910 0.000007 0.314961
188.507507 145.338089 0.000004 0.263722
185.603058 145.697968 0.000003 0.315343
183.748810 145.927734 0.000001 0.312917
182.460037 146.087418 0.000001 0.295872
181.510529 146.205078 0.000001 0.250965
nan nan nan 0.000000
nan nan nan 0.000000
nan nan nan 0.000000
228.261566 140.038345 9.383193 0.352758
225.480316 140.402710 7.291054 0.352377
224.286911 140.559036 5.528884 0.603174
221.360382 140.942429 3.768875 0.545922
220.734802 141.024384 2.245428 0.354620
220.055252 141.113403 0.765788 0.499718
205.841858 142.975418 0.000015 0.293797
193.706299 144.565216 0.000007 0.277440
188.496002 145.247787 0.000004 0.273823
185.594131 145.627945 0.000002 0.309697
183.741531 145.870636 0.000002 0.271595
182.453903 146.039322 0.000001 0.317937
181.505234 146.163605 0.000001 0.304173
nan nan nan 0.000000
nan nan nan 0.000000
nan nan nan 0.000000
228.273865 139.662109 9.392445 0.342855
225.488861 140.046753 7.297490 0.397803
224.270782 140.214981 5.531336 0.404105
221.360382 140.616943 3.771007 0.592447
220.334457 140.758636 2.239514 0.352377
219.729279 140.842224 0.770483 0.551186
205.813446 142.764160 0.000015 0.288411
193.689270 144.438644 0.000007 0.309316
188.483856 145.157578 0.000004 0.261021
185.584717 145.557983 0.000002 0.314336
183.733856 145.813599 0.000001 0.273793
182.447433 145.991272 0.000001 0.266926
181.499664 146.122177 0.000001 0.283116
nan nan nan 0.000000
nan nan nan 0.000000
nan nan nan 0.000000
228.286850 139.284882 9.402200 0.333455
225.497910 139.689926 7.304277 0.371420
224.270767 139.868149 5.535326 0.497063
221.360382 140.290833 3.773253 0.529229
220.127655 140.469864 2.236827 0.364126
219.729279 140.527725 0.769761 0.620554
205.783539 142.553101 0.000015 0.289586
193.671356 144.312195 0.000007 0.291722
188.471085 145.067444 0.000004 0.288670
185.574814 145.488083 0.000003 0.312871
183.725784 145.756622 0.000002 0.319036
182.440643 145.943268 0.000001 0.284153
181.493805 146.080780 0.000001 0.338689
nan nan nan 0.000000
nan nan nan 0.000000
nan nan nan 0.000000
228.300476 138.906601 9.412457 0.404196
225.507385 139.332184 7.311412 0.383825
224.286896 139.518143 5.540857 0.635111
221.360382 139.964050 3.775617 0.471321
220.128448 140.151764 2.237606 0.356863
219.700623 140.216949 0.769476 0.332433
205.752167 142.342270 0.000015 0.293202
193.652557 144.185867 0.000007 0.313375
188.457687 144.977402 0.000004 0.256504
185.564423 145.418259 0.000003 0.339605
183.717316 145.699692 0.000002 0.316930
182.433502 145.895309 0.000001 0.325704
181.487640 146.039429 0.000001 0.256153
nan nan nan 0.000000
nan nan nan 0.000000
nan nan nan 0.000000
228.314789 138.527222 9.423225 0.330053
225.517334 138.973465 7.318902 0.362951
224.286911 139.169754 5.545258 0.712367
221.360367 139.636597 3.778096 0.545113
220.129303 139.832977 2.238422 0.409430
219.700623 139.901352 0.768680 0.350454
205.719315 142.131653 0.000015 0.297612
193.632874 144.059692 0.000007 0.289830
188.443665 144.887466 0.000004 0.280766
185.553543 145.348495 0.000003 0.293629
183.708450 145.642838 0.000002 0.278294
182.426025 145.847397 0.000001 0.249454
181.481201 145.998123 0.000001 0.346990
nan nan nan 0.000000
nan nan nan 0.000000
nan nan nan 0.000000
228.329803 138.146683 9.434509 0.385565
225.527771 138.613739 7.326748 0.422461
224.286911 138.820572 5.549868 0.517647
221.360382 139.308395 3.780692 0.575830
220.130188 139.513443 2.239279 0.343969
219.729279 139.580276 0.767372 0.605325
205.685013 141.921280 0.000015 0.296818
193.612320 143.933640 0.000007 0.299901
188.429016 144.797623 0.000004 0.264714
185.542191 145.278824 0.000003 0.247028
183.699188 145.586029 0.000001 0.255772
182.418228 145.799545 0.000001 0.265080
181.474472 145.956863 0.000001 0.310979
nan nan nan 0.000000
nan nan nan 0.000000
nan nan nan 0.000000
228.345490 137.764923 9.446310 0.336446
225.538681 138.252945 7.334953 0.339345
224.286911 138.470581 5.554685 0.624781
221.378937 138.976196 3.784329 0.644572
220.648071 139.103271 2.248761 0.336309
219.729279 139.263031 0.766501 0.535012
205.649216 141.711136 0.000015 0.297017
193.590866 143.807739 0.000007 0.289952
188.413742 144.707886 0.000004 0.259236
185.530334 145.209229 0.000003 0.283619
183.689514 145.529297 0.000002 0.300221
182.410095 145.751755 0.000001 0.310445
181.467453 145.915649 0.000001 0.341268
nan nan nan 0.000000
nan nan nan 0.000000
nan nan nan 0.000000
228.361877 137.381882 9.458634 0.347799
225.550079 137.891022 7.343520 0.406470
224.286896 138.119751 5.559711 0.521324
221.272339 138.665604 3.781839 0.662638
221.360382 138.649658 2.261533 0.538842
220.159683 138.867081 0.758434 0.554620
205.611984 141.501266 0.000015 0.295308
193.568558 143.681992 0.000008 0.294697
188.397827 144.618256 0.000004 0.277440
185.517990 145.139725 0.000003 0.352880
183.679474 145.472626 0.000002 0.255283
182.401611 145.704010 0.000001 0.243549
181.460159 145.874481 0.000001 0.248798
nan nan nan 0.000000
nan nan nan 0.000000
nan nan nan 0.000000
228.378952 136.997528 9.471478 0.366445
225.561951 137.527939 7.352447 0.323964
224.286911 137.768021 5.564950 0.564218
223.859467 137.848511 3.914114 0.610010
221.360382 138.319061 2.262516 0.591577
220.751862 138.433640 0.747616 0.593469
205.573257 141.291641 0.000015 0.287282
193.545364 143.556396 0.000007 0.292287
188.381302 144.528748 0.000004 0.274159
185.505173 145.070297 0.000003 0.339864
183.669006 145.416031 0.000002 0.323125
182.392807 145.656326 0.000001 0.379980
181.452560 145.833374 0.000001 0.260517
nan nan nan 0.000000
nan nan nan 0.000000
nan nan nan 0.000000
228.396744 136.611771 9.484854 0.317296
225.574310 137.163635 7.361744 0.345754
224.286911 137.415375 5.570399 0.520012
222.729309 137.719925 3.860778 0.620081
221.272339 138.004807 2.262070 0.634272
221.272339 138.004807 0.737929 0.636713
205.533081 141.082306 0.000016 0.289082
193.521286 143.430969 0.000008 0.313497
188.364136 144.439346 0.000005 0.278294
185.491867 145.000961 0.000003 0.285832
183.658173 145.359512 0.000002 0.292744
182.383667 145.608719 0.000001 0.268818
181.444687 145.792313 0.000001 0.275532
nan nan nan 0.000000
nan nan nan 0.000000
nan nan nan 0.000000
228.415237 136.224579 9.498764 0.336858
225.587158 136.798080 7.371406 0.367651
224.286911 137.061752 5.576063 0.644923
222.733429 137.376785 3.864269 0.731273
221.571228 137.612457 2.268121 0.649561
221.563843 137.613968 0.732002 0.587411
205.491440 140.873260 0.000015 0.288350
193.496338 143.305725 0.000008 0.273289
188.346359 144.350082 0.000004 0.320607
185.478088 144.931732 0.000003 0.265217
183.646927 145.303070 0.000002 0.287938
182.374207 145.561157 0.000001 0.273548
181.436508 145.751312 0.000001 0.311589
nan nan nan 0.000000
nan nan nan 0.000000
nan nan nan 0.000000
228.434433 135.835876 9.513207 0.308186
225.600494 136.431198 7.381443 0.342596
224.286926 136.707123 5.581941 0.523095
224.286911 136.707138 3.945663 0.485832
221.571213 137.277618 2.269230 0.482353
221.563828 137.279160 0.730894 0.703487
205.448349 140.664490 0.000016 0.293355
193.470520 143.180649 0.000007 0.288136
188.327957 144.260925 0.000005 0.278355
185.463806 144.862595 0.000003 0.266682
183.635284 145.246704 0.000002 0.278462
182.364395 145.513672 0.000001 0.273716
181.428070 145.710373 0.000001 0.254429
nan nan nan 0.000000
nan nan nan 0.000000
nan nan nan 0.000000
228.454376 135.445602 9.528199 0.349477
225.614349 136.062927 7.391854 0.388098
224.286911 136.351471 5.588036 0.533272
224.286926 136.351471 3.949315 0.588327
221.272339 137.006744 2.265372 0.647059
221.272324 137.006744 0.734627 0.654871
205.403809 140.456039 0.000016 0.295186
193.443832 143.055756 0.000008 0.285130
188.308929 144.171906 0.000005 0.283543
185.449051 144.793549 0.000003 0.273442
183.623260 145.190430 0.000002 0.273686
182.354263 145.466263 0.000001 0.262623
181.419327 145.669479 0.000001 0.271748
nan nan nan 0.000000
nan nan nan 0.000000
nan nan nan 0.000000
228.475021 135.053711 9.543736 0.331502
225.628677 135.693253 7.402641 0.313695
224.286896 135.994736 5.594347 0.488487
224.286911 135.994736 3.953097 0.623468
221.378738 136.648163 2.268339 0.627939
221.211929 136.685654 0.734459 0.636378
205.357803 140.247910 0.000016 0.285847
193.416275 142.931046 0.000008 0.284443
188.289291 144.083023 0.000005 0.281865
185.433823 144.724625 0.000003 0.283482
183.610840 145.134232 0.000002 0.264134
182.343796 145.418915 0.000001 0.244114
181.410309 145.628662 0.000001 0.302251
nan nan nan 0.000000
nan nan nan 0.000000
nan nan nan 0.000000
228.496429 134.660110 9.559830 0.292668
225.643539 135.322083 7.413815 0.407370
224.286911 135.636871 5.600883 0.524514
221.272339 136.336349 3.804979 0.638743
221.378189 136.311798 2.269556 0.587442
220.679276 136.473969 0.742185 0.488487
205.310333 140.040100 0.000016 0.294179
193.387833 142.806534 0.000008 0.291203
188.269028 143.994278 0.000004 0.277699
185.418106 144.655792 0.000003 0.293919
183.598022 145.078125 0.000002 0.308919
182.333008 145.371643 0.000001 0.395743
181.401001 145.587906 0.000001 0.283085
nan nan nan 0.000000
nan nan nan 0.000000
nan nan nan 0.000000
228.518555 134.264771 9.576479 0.312657
225.658905 134.949387 7.425374 0.370962
224.286911 135.277847 5.607635 0.558175
221.272339 135.999542 3.808775 0.664210
220.937012 136.079819 2.263401 0.302602
220.313049 136.229202 0.747099 0.682658
205.261429 139.832626 0.000016 0.287770
193.358536 142.682236 0.000008 0.287755
188.248138 143.905685 0.000005 0.307866
185.401901 144.587082 0.000003 0.292287
183.584824 145.022110 0.000002 0.297490
182.321884 145.324463 0.000002 0.297490
181.391403 145.547211 0.000001 0.337148
nan nan nan 0.000000
nan nan nan 0.000000
nan nan nan 0.000000
228.541443 133.867599 9.593693 0.363043
225.674789 134.575089 7.437320 0.397726
224.270782 134.921600 5.613251 0.376837
221.360229 135.639923 3.817145 0.549020
220.569504 135.835068 2.258502 0.441199
219.961639 135.985092 0.751743 0.522225
205.211075 139.625504 0.000016 0.293690
193.328369 142.558136 0.000008 0.297002
188.226639 143.817230 0.000005 0.279500
185.385223 144.518494 0.000003 0.262455
183.571228 144.966187 0.000002 0.284993
182.310425 145.277344 0.000002 0.299092
181.381531 145.506592 0.000001 0.252628
nan nan nan 0.000000
nan nan nan 0.000000
nan nan nan 0.000000
228.565094 133.468552 9.611483 0.338766
225.691193 134.199158 7.449660 0.371527
224.286911 134.556152 5.621815 0.626963
221.360428 135.300110 3.821210 0.704784
220.206696 135.593414 2.253704 0.298650
219.729279 135.714783 0.754357 0.572610
205.159271 139.418732 0.000016 0.299886
193.297333 142.434250 0.000008 0.303517
188.204514 143.728928 0.000005 0.272648
185.368073 144.450012 0.000003 0.276799
183.557251 144.910355 0.000002 0.337652
182.298645 145.230316 0.000001 0.250645
181.371368 145.466034 0.000001 0.297520
nan nan nan 0.000000
nan nan nan 0.000000
nan nan nan 0.000000
228.589508 133.067551 9.629847 0.354955
225.708115 133.821518 7.462396 0.331945
224.286911 134.193390 5.629244 0.635737
221.360413 134.959152 3.825394 0.517647
220.135834 135.279572 2.253863 0.264302
219.729279 135.385956 0.753013 0.517647
205.106033 139.212326 0.000016 0.290105
193.265427 142.310577 0.000008 0.283177
188.181778 143.640793 0.000005 0.285863
185.350433 144.381653 0.000003 0.315221
183.542877 144.854630 0.000002 0.294804
182.286545 145.183365 0.000002 0.307271
181.360931 145.425552 0.000001 0.239292
nan nan nan 0.000000
nan nan nan 0.000000
nan nan nan 0.000000
228.614700 132.664536 9.648792 0.368292
225.725586 133.442108 7.475535 0.306859
224.286911 133.829315 5.636902 0.675853
221.360397 134.616943 3.829705 0.568322
220.137253 134.946136 2.255286 0.371283
219.729279 135.055939 0.751627 0.575982
205.051361 139.006302 0.000017 0.290578
193.232666 142.187149 0.000008 0.311727
188.158432 143.552811 0.000005 0.269474
185.332336 144.313416 0.000003 0.261158
183.528107 144.798996 0.000002 0.271458
182.274109 145.136505 0.000002 0.273915
181.350204 145.385147 0.000001 0.300832
nan nan nan 0.000000
nan nan nan 0.000000
nan nan nan 0.000000
228.640686 132.259430 9.668328 0.366827
225.743607 133.060883 7.489079 0.299687
224.286896 133.463852 5.644790 0.641352
221.360367 134.273453 3.834145 0.517647
220.138702 134.611404 2.256750 0.378073
219.729294 134.724670 0.750200 0.560540
204.995239 138.800659 0.000017 0.285954
193.199051 142.063934 0.000008 0.282383
188.134460 143.464996 0.000005 0.292592
185.313751 144.245316 0.000004 0.301625
183.512955 144.743469 0.000002 0.277699
182.261337 145.089722 0.000001 0.231098
181.339203 145.344818 0.000001 0.374685
nan nan nan 0.000000
nan nan nan 0.000000
nan nan nan 0.000000
228.667435 131.852173 9.688461 0.327504
225.762146 132.677765 7.503034 0.357473
224.286896 133.096985 5.652910 0.586923
221.360382 133.928619 3.838721 0.450980
220.453323 134.186371 2.263587 0.327611
219.729294 134.392120 0.748731 0.528252
204.937683 138.595413 0.000017 0.290593
193.164566 141.940964 0.000008 0.286107
188.109894 143.377350 0.000005 0.286366
185.294678 144.177338 0.000004 0.303181
183.497421 144.688065 0.000002 0.243290
182.248245 145.043030 0.000002 0.338155
181.327911 145.304565 0.000001 0.265217
nan nan nan 0.000000
nan nan nan 0.000000
nan nan nan 0.000000
228.695007 131.442688 9.709199 0.338445
225.781265 132.292709 7.517404 0.416037
224.286896 132.728668 5.661268 0.599802
221.272339 133.608093 3.838921 0.622263
221.360367 133.582413 2.280584 0.542885
219.847214 134.023849 0.745209 0.638041
204.878708 138.390579 0.000017 0.290166
193.129227 141.818237 0.000009 0.292790
188.084702 143.289871 0.000005 0.285374
185.275146 144.109497 0.000003 0.271809
183.481491 144.632751 0.000002 0.286854
182.234833 144.996445 0.000002 0.238041
181.316345 145.264389 0.000002 0.259266
nan nan nan 0.000000
nan nan nan 0.000000
nan nan nan 0.000000
228.723389 131.030899 9.730549 0.375082
225.800919 131.905655 7.532191 0.314290
224.286896 132.358826 5.669863 0.627466
222.964233 132.754730 3.930513 0.514153
221.360367 133.234802 2.282197 0.497658
220.828552 133.393982 0.726888 0.611826
204.818298 138.186157 0.000017 0.289403
193.093033 141.695755 0.000008 0.305592
188.058899 143.202576 0.000005 0.302968
185.255142 144.041794 0.000003 0.308461
183.465179 144.577560 0.000003 0.340734
182.221085 144.949951 0.000002 0.350347
181.304489 145.224304 0.000001 0.252171
nan nan nan 0.000000
236.306366 128.298172 15.222362 0.639979
nan nan nan 0.000000
228.752609 130.616730 9.752519 0.358724
225.821136 131.516525 7.547403 0.334142
224.286896 131.987457 5.678697 0.649424
222.825119 132.436127 3.928513 0.704280
221.258118 132.917114 2.282104 0.636042
221.258118 132.917114 0.717896 0.652277
204.756454 137.982178 0.000017 0.290852
193.055984 141.573547 0.000009 0.289357
188.032501 143.115463 0.000005 0.299550
185.234665 143.974228 0.000003 0.304479
183.448486 144.522491 0.000002 0.281819
182.207031 144.903549 0.000002 0.330770
181.292374 145.184296 0.000001 0.300816
nan nan nan 0.000000
235.027649 128.235458 14.962645 0.641138
237.030670 127.605316 13.223948 0.606516
228.782639 130.200134 9.775111 0.365164
225.841949 131.125259 7.563047 0.304265
224.286896 131.614471 5.687773 0.517647
222.833450 132.071732 3.934215 0.548119
221.571320 132.468796 2.289175 0.517647
221.563751 132.471176 0.710956 0.699611
204.693192 137.778625 0.000017 0.291096
193.018082 141.451584 0.000009 0.279637
188.005478 143.028534 0.000005 0.267674
185.213715 143.906815 0.000003 0.274571
183.431412 144.467529 0.000003 0.282338
182.192627 144.857239 0.000002 0.257053
181.279968 145.144363 0.000001 0.246952
nan nan nan 0.000000
235.372803 127.667015 15.070931 0.640208
235.564240 127.605316 12.969705 0.598566
228.813522 129.780991 9.798342 0.321065
225.863312 130.731796 7.579125 0.347539
224.286911 131.239853 5.697094 0.604959
224.286926 131.239853 4.014654 0.561791
221.431641 132.160065 2.288530 0.644846
221.432129 132.159927 0.711463 0.631968
204.628510 137.575500 0.000017 0.291310
192.979324 141.329895 0.000008 0.278614
187.977859 142.941803 0.000005 0.303990
185.192291 143.839554 0.000003 0.286824
183.413940 144.412689 0.000002 0.305699
182.177917 144.811050 0.000002 0.272343
181.267273 145.104538 0.000001 0.242283
235.241302 127.248482 17.240391 0.317876
234.160019 127.605316 14.826033 0.555611
