# This PCD file was generated using the MATLABÂ® pcwrite function
# from Computer Vision ToolboxÂ®.
# .PCD v.7 - Point Cloud Data file format
VERSION .7
FIELDS x y z intensity
SIZE 4 4 4 4
TYPE F F F F
COUNT 1 1 1 1
WIDTH 1215
HEIGHT 1
VIEWPOINT 0 0 0 1 0 0 0
POINTS 1215
DATA ascii
134.641602 18.792217 3.620211 0.678431
134.641602 18.792217 3.286215 0.694240
134.641602 18.792217 2.956174 0.716670
134.641602 18.792217 2.629324 0.655024
134.641602 18.792217 2.304926 0.654841
134.641602 18.792217 1.982265 0.619455
134.641602 18.792217 1.660640 0.678431
134.641602 18.792217 1.339360 0.678431
134.641602 18.792215 1.017735 0.429877
134.641602 18.792213 0.695073 0.696788
134.641586 18.792213 0.370675 0.690196
134.641586 18.792213 0.043825 0.690990
135.245789 20.244465 -0.000012 0.257130
135.744644 21.443485 -0.000011 0.350057
136.112167 22.326866 -0.000009 0.327901
134.567154 18.792217 3.966187 0.665522
134.567154 18.792217 3.626439 0.516564
134.567154 18.792217 3.291462 0.524392
134.567154 18.792217 2.960452 0.580362
134.567154 18.792217 2.632642 0.670176
134.567154 18.792217 2.307290 0.586801
134.567154 18.792217 1.983682 0.617929
134.567154 18.792217 1.661112 0.553643
134.567154 18.792217 1.338888 0.659068
134.567154 18.792217 1.016318 0.409552
134.567154 18.792217 0.692709 0.535790
134.567154 18.792213 0.367358 0.620905
134.567154 18.792215 0.039548 0.594232
135.192734 20.266758 -0.000013 0.309789
135.699936 21.462265 -0.000011 0.304372
136.073624 22.343060 -0.000009 0.253330
134.492264 18.792213 3.973574 0.655573
134.492264 18.792213 3.632809 0.674113
134.492264 18.792217 3.296828 0.664897
134.492264 18.792217 2.964827 0.642176
134.492264 18.792215 2.636034 0.651102
134.492264 18.792215 2.309709 0.631251
134.492264 18.792213 1.985131 0.633951
134.492264 18.792215 1.661595 0.707637
134.492264 18.792215 1.338405 0.770397
134.492264 18.792213 1.014869 0.450370
134.492264 18.792213 0.690291 0.689281
134.492264 18.792213 0.363966 0.638575
134.492264 18.792213 0.035173 0.650248
135.139832 20.289421 -0.000012 0.297032
135.655365 21.481359 -0.000011 0.265934
136.035202 22.359524 -0.000010 0.352880
134.416916 18.792215 3.981126 0.467094
134.416916 18.792217 3.639321 0.678706
134.416916 18.792217 3.302314 0.642924
134.416916 18.792217 2.969299 0.643824
134.416916 18.792217 2.639503 0.638804
134.416916 18.792217 2.312181 0.646403
134.416916 18.792213 1.986612 0.643381
134.416916 18.792217 1.662088 0.646235
134.416916 18.792217 1.337912 0.707103
134.416916 18.792213 1.013388 0.322469
134.416916 18.792213 0.687819 0.632319
134.416916 18.792213 0.360497 0.650645
134.416916 18.792213 0.030701 0.606836
135.087082 20.312452 -0.000012 0.317205
135.610931 21.500763 -0.000011 0.335164
135.996887 22.376253 -0.000010 0.266789
134.341110 18.792213 3.988847 0.707317
134.341110 18.792215 3.645977 0.648341
134.341110 18.792217 3.307922 0.667369
134.341110 18.792217 2.973871 0.709438
134.341110 18.792217 2.643048 0.658549
134.341110 18.792217 2.314708 0.740444
134.341110 18.792215 1.988126 0.635294
134.341110 18.792215 1.662592 0.646281
134.341110 18.792215 1.337407 0.697032
134.341110 18.792213 1.011874 0.354498
134.341110 18.792215 0.685292 0.697032
134.341110 18.792213 0.356951 0.693278
134.341110 18.792213 0.026129 0.666331
135.034515 20.335854 -0.000012 0.338323
135.566635 21.520473 -0.000011 0.313344
135.958679 22.393250 -0.000010 0.284047
134.264832 18.792217 3.996737 0.700206
134.264832 18.792217 3.652781 0.655344
134.264832 18.792217 3.313653 0.718990
134.264832 18.792217 2.978544 0.701488
134.264832 18.792217 2.646672 0.660380
134.264832 18.792215 2.317291 0.751522
134.264832 18.792217 1.989673 0.741176
134.264832 18.792217 1.663108 0.776471
134.264832 18.792217 1.336892 0.707408
134.264832 18.792217 1.010327 0.439536
134.264832 18.792213 0.682709 0.716670
134.264832 18.792213 0.353328 0.695796
134.264832 18.792213 0.021456 0.651972
134.982086 20.359617 -0.000012 0.271290
135.522476 21.540497 -0.000011 0.283482
135.920609 22.410515 -0.000009 0.270298
134.188049 18.792217 4.004800 0.640314
134.188049 18.792217 3.659733 0.609827
134.188049 18.792217 3.319511 0.688640
134.188049 18.792217 2.983319 0.676646
134.188049 18.792217 2.650375 0.648188
134.188049 18.792217 2.319930 0.689769
134.188049 18.792217 1.991255 0.666667
134.188049 18.792217 1.663635 0.715557
134.188049 18.792217 1.336365 0.702358
134.188049 18.792217 1.008745 0.430396
134.188049 18.792217 0.680069 0.680598
134.188049 18.792217 0.349625 0.678431
134.188049 18.792213 0.016681 0.681071
134.929840 20.383749 -0.000012 0.289265
135.478455 21.560827 -0.000011 0.295476
135.882660 22.428043 -0.000009 0.289433
134.110779 18.792215 4.013039 0.458030
134.110779 18.792215 3.666837 0.311513
134.110779 18.792217 3.325496 0.741176
134.110779 18.792217 2.988197 0.764706
134.110779 18.792217 2.654159 0.709804
134.110779 18.792217 2.322627 0.708354
134.110779 18.792217 1.992870 0.709804
134.110779 18.792217 1.664173 0.767239
134.110779 18.792217 1.335827 0.733333
134.110779 18.792215 1.007129 0.511574
134.110779 18.792215 0.677373 0.751247
134.110779 18.792213 0.345841 0.753948
134.110779 18.792213 0.011802 0.709804
134.877762 20.408245 -0.000012 0.279484
135.434586 21.581463 -0.000011 0.254932
135.844833 22.445837 -0.000010 0.297749
134.032990 18.792217 4.021454 0.513252
134.032990 18.792217 3.674093 0.549233
134.032990 18.792217 3.331609 0.707393
134.032990 18.792217 2.993181 0.756283
134.032990 18.792217 2.658024 0.709804
134.032990 18.792217 2.325382 0.704890
134.032990 18.792217 1.994521 0.679744
134.032990 18.792217 1.664722 0.726604
134.032990 18.792215 1.335277 0.698344
134.032990 18.792217 1.005479 0.493004
134.032990 18.792217 0.674618 0.761624
134.032990 18.792213 0.341975 0.738766
134.032990 18.792213 0.006819 0.698817
134.825851 20.433102 -0.000012 0.328328
135.390854 21.602406 -0.000011 0.264897
135.807114 22.463894 -0.000009 0.269383
133.954681 18.792217 4.030050 0.709804
133.954681 18.792217 3.681505 0.556100
133.954681 18.792217 3.337853 0.684520
133.954681 18.792217 2.998271 0.740444
133.954681 18.792217 2.661972 0.697063
133.954681 18.792217 2.328196 0.742092
133.954681 18.792217 1.996207 0.758892
133.954681 18.792217 1.665284 0.734844
133.954681 18.792217 1.334716 0.695674
133.954681 18.792217 1.003793 0.491417
133.954681 18.792217 0.671804 0.769024
133.954681 18.792213 0.338027 0.759930
133.954681 18.792217 0.001728 0.680583
134.774124 20.458323 -0.000012 0.331594
135.347275 21.623653 -0.000011 0.293400
135.769547 22.482214 -0.000009 0.257710
133.875824 18.792217 4.038830 0.667994
133.875824 18.792215 3.689075 0.639002
133.875824 18.792217 3.344231 0.624811
133.875824 18.792215 3.003471 0.776471
133.875824 18.792217 2.666004 0.759136
133.875824 18.792217 2.331070 0.776471
133.875824 18.792217 1.997929 0.762646
133.875824 18.792217 1.665858 0.807477
133.875824 18.792215 1.334142 0.776379
133.875824 18.792217 1.002071 0.526055
133.875824 18.792215 0.668930 0.807294
133.875824 18.792213 0.333996 0.768566
133.886246 18.813053 -0.000014 0.320363
134.722565 20.483904 -0.000012 0.299199
135.303833 21.645205 -0.000011 0.288228
135.732086 22.500795 -0.000010 0.239017
133.796417 18.792215 4.047795 0.701991
133.796417 18.792217 3.696805 0.678431
133.796417 18.792217 3.350743 0.672343
133.796417 18.792217 3.008780 0.658915
133.796417 18.792217 2.670121 0.709804
133.796417 18.792217 2.334004 0.703838
133.796417 18.792217 1.999687 0.694408
133.796417 18.792217 1.666443 0.682795
133.796417 18.792215 1.333557 0.711696
133.796417 18.792215 1.000313 0.434424
133.796417 18.792215 0.665995 0.720745
133.796417 18.792215 0.329878 0.631266
133.823227 18.844872 -0.000015 0.296223
134.671188 20.509842 -0.000012 0.274662
135.260559 21.667057 -0.000011 0.244236
135.694778 22.519638 -0.000009 0.277485
133.716446 18.792217 4.056948 0.685328
133.716446 18.792217 3.704697 0.678431
133.716446 18.792217 3.357391 0.654902
133.716446 18.792217 3.014201 0.580148
133.716446 18.792217 2.674325 0.600275
133.716446 18.792217 2.337001 0.698741
133.716446 18.792217 2.001482 0.586465
133.716446 18.792217 1.667041 0.697581
133.716446 18.792217 1.332959 0.653346
133.716446 18.792217 0.998518 0.546990
133.716446 18.792215 0.662999 0.690196
133.716446 18.792215 0.325674 0.601282
133.760437 18.877132 -0.000014 0.309056
134.619995 20.536140 -0.000012 0.300618
135.217422 21.689213 -0.000010 0.364935
135.657578 22.538742 -0.000009 0.251225
133.635880 18.792217 4.066294 0.685328
133.635880 18.792217 3.712755 0.678431
133.635880 18.792217 3.364181 0.635843
133.635895 18.792217 3.019735 0.678431
133.635880 18.792217 2.678617 0.665751
133.635880 18.792217 2.340060 0.667033
133.635880 18.792215 2.003315 0.695674
133.635880 18.792217 1.667652 0.643610
133.635880 18.792217 1.332348 0.646479
133.635880 18.792215 0.996685 0.452262
133.635880 18.792215 0.659940 0.709804
133.635880 18.792217 0.321382 0.664836
133.697861 18.909824 -0.000014 0.319875
134.568985 20.562794 -0.000012 0.291157
135.174454 21.711668 -0.000010 0.329198
135.620529 22.558104 -0.000009 0.297032
133.554733 18.792217 4.075833 0.501762
133.554733 18.792217 3.720981 0.624033
133.554733 18.792217 3.371111 0.671244
133.554733 18.792217 3.025384 0.635294
133.554733 18.792217 2.682999 0.653071
133.554733 18.792217 2.343183 0.663767
133.554733 18.792217 2.005186 0.709163
133.554733 18.792217 1.668275 0.704906
133.554733 18.792217 1.331725 0.640650
133.554733 18.792217 0.994814 0.420340
133.554733 18.792215 0.656817 0.686793
133.554733 18.792213 0.317001 0.678050
133.635529 18.942959 -0.000014 0.295750
134.518173 20.589806 -0.000012 0.276570
135.131638 21.734423 -0.000011 0.272038
135.583618 22.577724 -0.000009 0.311437
133.472977 18.792217 4.085570 0.578927
133.472977 18.792217 3.729377 0.489235
133.472977 18.792217 3.378184 0.588769
133.472977 18.792217 3.031150 0.656626
133.472977 18.792217 2.687471 0.663279
133.472977 18.792215 2.346370 0.665476
133.472977 18.792217 2.007096 0.704311
133.472977 18.792217 1.668911 0.698161
133.472977 18.792217 1.331089 0.616480
133.472977 18.792217 0.992904 0.389487
133.472977 18.792213 0.653629 0.687434
133.472977 18.792213 0.312529 0.695430
133.573425 18.976522 -0.000015 0.300511
134.467545 20.617168 -0.000012 0.258640
135.088989 21.757477 -0.000011 0.288579
135.546844 22.597601 -0.000009 0.243595
133.390594 18.792215 4.095510 0.437537
133.390594 18.792217 3.737946 0.455329
133.390594 18.792217 3.385403 0.678431
133.390594 18.792217 3.037035 0.666087
133.390594 18.792217 2.692035 0.614527
133.390594 18.792217 2.349623 0.664759
133.390594 18.792217 2.009045 0.576684
133.390594 18.792217 1.669561 0.675822
133.390594 18.792217 1.330439 0.681620
133.390594 18.792215 0.990955 0.480354
133.390594 18.792215 0.650376 0.696208
133.390594 18.792217 0.307965 0.678431
133.511551 19.010525 -0.000014 0.283925
134.417099 20.644886 -0.000012 0.299596
135.046494 21.780827 -0.000011 0.254200
135.510193 22.617735 -0.000009 0.288746
133.307571 18.792213 4.105652 0.669001
133.307571 18.792217 3.746691 0.564187
133.307571 18.792213 3.392771 0.477638
133.307571 18.792215 3.043042 0.692866
133.307571 18.792217 2.696693 0.690196
133.307571 18.792217 2.352943 0.702586
133.307571 18.792215 2.011034 0.558267
133.307571 18.792217 1.670223 0.690394
133.307571 18.792217 1.329777 0.723033
133.307571 18.792213 0.988966 0.545159
133.307571 18.792215 0.647056 0.741176
133.307571 18.792215 0.303307 0.741176
133.449921 19.044956 -0.000014 0.345815
134.366852 20.672955 -0.000012 0.289143
135.004166 21.804474 -0.000010 0.257404
135.473694 22.638124 -0.000009 0.255329
133.223892 18.792213 4.116002 0.608133
133.223892 18.792213 3.755616 0.703059
133.223892 18.792215 3.400289 0.438712
133.223892 18.792213 3.049171 0.658808
133.223892 18.792213 2.701447 0.699077
133.223892 18.792213 2.356332 0.721630
133.223892 18.792217 2.013064 0.618082
133.223892 18.792215 1.670899 0.707347
133.223892 18.792213 1.329101 0.726955
133.223892 18.792215 0.986936 0.456794
133.223892 18.792213 0.643668 0.644083
133.223892 18.792212 0.298553 0.695583
133.388535 19.079815 -0.000014 0.288746
134.316803 20.701374 -0.000012 0.368811
134.962006 21.828415 -0.000011 0.257862
135.437347 22.658768 -0.000010 0.249317
133.139542 18.792217 4.126563 0.397162
133.139542 18.792217 3.764722 0.657481
133.139542 18.792213 3.407961 0.423651
133.139542 18.792217 3.055426 0.731121
133.139542 18.792217 2.706297 0.753552
133.139542 18.792217 2.359789 0.757717
133.139542 18.792215 2.015136 0.670314
133.139542 18.792213 1.671589 0.747097
133.139542 18.792213 1.328411 0.763973
133.139542 18.792215 0.984864 0.580789
133.139542 18.792215 0.640211 0.786755
133.139542 18.792213 0.293703 0.800488
133.327377 19.115101 -0.000014 0.293507
134.266968 20.730141 -0.000012 0.232883
134.919998 21.852652 -0.000011 0.351370
135.401138 22.679665 -0.000009 0.268772
133.054504 18.792215 4.137339 0.626108
133.054504 18.792215 3.774013 0.678431
133.054504 18.792217 3.415788 0.660471
133.054504 18.792217 3.061807 0.634073
133.054504 18.792217 2.711246 0.556130
133.054504 18.792213 2.363316 0.632654
133.054504 18.792213 2.017249 0.582040
133.054504 18.792217 1.672293 0.628244
133.054504 18.792217 1.327707 0.739559
133.054504 18.792213 0.982751 0.499611
133.054504 18.792213 0.636683 0.662257
133.054504 18.792213 0.288754 0.738582
133.266479 19.150812 -0.000014 0.231357
134.217316 20.759256 -0.000012 0.317357
134.878174 21.877178 -0.000010 0.292424
135.365082 22.700813 -0.000009 0.322072
132.968750 18.792215 4.148333 0.391531
132.968750 18.792217 3.783492 0.678431
132.968750 18.792215 3.423775 0.677119
132.968750 18.792215 3.068317 0.656306
132.968750 18.792217 2.716295 0.700008
132.968750 18.792217 2.366915 0.709041
132.968750 18.792215 2.019405 0.635294
132.968750 18.792217 1.673011 0.645106
132.968750 18.792215 1.326989 0.660792
132.968750 18.792215 0.980595 0.551858
132.968750 18.792217 0.633085 0.737255
132.968750 18.792215 0.283705 0.755795
133.205841 19.186953 -0.000014 0.333791
134.167877 20.788715 -0.000012 0.264897
134.836533 21.902000 -0.000010 0.265888
135.329163 22.722214 -0.000009 0.355825
132.882294 18.792217 4.159549 0.641047
132.882294 18.792217 3.793163 0.678431
132.882294 18.792217 3.431922 0.399390
132.882294 18.792217 3.074960 0.634104
132.882294 18.792217 2.721447 0.792645
132.882294 18.792215 2.370587 0.678264
132.882294 18.792217 2.021605 0.622431
132.882294 18.792215 1.673744 0.687724
132.882294 18.792215 1.326256 0.678065
132.882294 18.792217 0.978395 0.503304
132.882294 18.792213 0.629413 0.724697
132.882294 18.792213 0.278553 0.691676
133.145447 19.223513 -0.000014 0.240940
134.118637 20.818521 -0.000012 0.285771
134.795044 21.927109 -0.000010 0.312779
135.293396 22.743866 -0.000009 0.249882
132.795090 18.792215 4.170992 0.672969
132.795090 18.792217 3.803029 0.408331
132.795090 18.792217 3.440234 0.664302
132.795090 18.792217 3.081736 0.581491
132.795090 18.792217 2.726702 0.684688
132.795090 18.792217 2.374332 0.612375
132.795090 18.792213 2.023849 0.528252
132.795090 18.792215 1.674492 0.655116
132.795090 18.792215 1.325508 0.666667
132.795090 18.792213 0.976151 0.579690
132.795090 18.792215 0.625668 0.693736
132.795090 18.792215 0.273298 0.714092
133.085312 19.260492 -0.000014 0.269825
134.069626 20.848669 -0.000012 0.293568
134.753754 21.952507 -0.000010 0.344732
135.257782 22.765762 -0.000009 0.278996
132.707123 18.792213 4.182664 0.693263
132.707123 18.792217 3.813094 0.437980
132.707123 18.792215 3.448713 0.686381
132.707123 18.792213 3.088648 0.616053
132.707123 18.792215 2.732063 0.610971
132.707123 18.792215 2.378153 0.698039
132.707123 18.792213 2.026138 0.516701
132.707123 18.792215 1.675254 0.678920
132.707123 18.792213 1.324746 0.691203
132.707123 18.792213 0.973861 0.635294
132.707123 18.792213 0.621847 0.678431
132.707123 18.792213 0.267937 0.729488
133.025436 19.297892 -0.000014 0.283589
134.020813 20.879156 -0.000012 0.255177
134.712631 21.978191 -0.000010 0.338506
135.222321 22.787910 -0.000009 0.239338
132.618378 18.792213 4.194571 0.647456
132.618378 18.792215 3.823361 0.374563
132.618378 18.792215 3.457363 0.482002
132.618378 18.792213 3.095700 0.556878
132.618378 18.792215 2.737532 0.701839
132.618378 18.792217 2.382051 0.675914
132.618378 18.792213 2.028474 0.567483
132.618378 18.792213 1.676032 0.667002
132.618378 18.792213 1.323968 0.689464
132.618378 18.792213 0.971526 0.592157
132.618378 18.792213 0.617949 0.627390
132.618378 18.792213 0.262468 0.724788
132.965820 19.335712 -0.000014 0.262333
133.972214 20.909988 -0.000012 0.292988
134.671677 22.004166 -0.000010 0.265019
135.187027 22.810307 -0.000009 0.300465
132.528854 18.792213 4.206717 0.663066
132.528854 18.792213 3.833834 0.678431
132.528839 18.792213 3.466186 0.403052
132.528854 18.792213 3.102892 0.537423
132.528854 18.792215 2.743109 0.739849
132.528839 18.792213 2.386027 0.692119
132.528854 18.792213 2.030856 0.553079
132.528854 18.792217 1.676826 0.709804
132.528854 18.792217 1.323174 0.697276
132.528839 18.792213 0.969144 0.581231
132.528839 18.792213 0.613973 0.664836
132.528854 18.792213 0.256891 0.772427
132.906479 19.373940 -0.000014 0.365103
133.923828 20.941154 -0.000012 0.270680
134.630920 22.030422 -0.000010 0.262211
135.151871 22.832947 -0.000010 0.249989
132.438492 18.792213 4.219106 0.538903
132.438492 18.792215 3.844516 0.657115
132.438492 18.792213 3.475185 0.510597
132.438492 18.792215 3.110229 0.481254
132.438492 18.792217 2.748799 0.656870
132.438492 18.792215 2.390082 0.663142
132.438492 18.792217 2.033286 0.483299
132.438492 18.792217 1.677635 0.614771
132.438492 18.792217 1.322365 0.684794
132.438492 18.792215 0.966714 0.512642
132.438492 18.792213 0.609918 0.590570
132.438492 18.792213 0.251201 0.700145
132.847397 19.412590 -0.000014 0.290501
133.875656 20.972660 -0.000012 0.307942
134.590347 22.056967 -0.000010 0.300557
135.116898 22.855831 -0.000009 0.282078
132.347305 18.792213 4.231743 0.365072
132.347305 18.792215 3.855411 0.547127
132.347305 18.792213 3.484365 0.669337
132.347305 18.792215 3.117712 0.480140
132.347305 18.792215 2.754603 0.724636
132.347305 18.792215 2.394218 0.709804
132.347305 18.792213 2.035764 0.548531
132.347305 18.792213 1.678460 0.699184
132.347305 18.792213 1.321540 0.654902
132.347305 18.792213 0.964236 0.518776
132.347305 18.792215 0.605781 0.716548
132.347305 18.792213 0.245397 0.741176
132.788589 19.451645 -0.000014 0.276967
133.827713 21.004499 -0.000012 0.289647
134.549957 22.083792 -0.000010 0.300923
135.082062 22.878962 -0.000009 0.250690
132.255264 18.792213 4.244632 0.702693
132.255264 18.792213 3.866525 0.623957
132.255264 18.792213 3.493727 0.663630
132.255264 18.792213 3.125345 0.483238
132.255264 18.792213 2.760523 0.632746
132.255264 18.792213 2.398438 0.615351
132.255264 18.792213 2.038292 0.440345
132.255264 18.792213 1.679302 0.581949
132.255264 18.792213 1.320698 0.614801
132.255264 18.792213 0.961708 0.509896
132.255264 18.792213 0.601562 0.584100
132.255264 18.792213 0.239477 0.650767
132.730042 19.491112 -0.000014 0.297032
133.779999 21.036674 -0.000012 0.244434
134.509750 22.110897 -0.000010 0.274083
135.047409 22.902332 -0.000009 0.364569
132.162354 18.792213 4.257778 0.678431
132.162354 18.792213 3.877860 0.398413
132.162354 18.792213 3.503277 0.639323
132.162354 18.792213 3.133130 0.529534
132.162354 18.792213 2.766560 0.765179
132.162354 18.792213 2.402741 0.752865
132.162354 18.792213 2.040870 0.520775
132.162354 18.792213 1.680161 0.741176
132.162354 18.792213 1.319839 0.736065
132.162354 18.792213 0.959130 0.688853
132.162354 18.792213 0.597259 0.741176
132.162354 18.792212 0.233440 0.766918
132.671799 19.530983 -0.000014 0.333852
133.732513 21.069181 -0.000012 0.272938
134.469742 22.138283 -0.000010 0.274693
135.012909 22.925947 -0.000009 0.288396
132.068527 18.792213 4.271187 0.573785
132.068527 18.792213 3.889422 0.656260
132.068527 18.792213 3.513017 0.631113
132.068527 18.792213 3.141070 0.562814
132.068527 18.792213 2.772718 0.718532
132.068527 18.792213 2.407130 0.706950
132.068527 18.792213 2.043500 0.475090
132.068527 18.792213 1.681037 0.691707
132.068527 18.792213 1.318963 0.653620
132.068527 18.792213 0.956500 0.617090
132.068527 18.792213 0.592869 0.679835
132.068527 18.792213 0.227282 0.708705
132.613815 19.571266 -0.000014 0.277363
133.685242 21.102016 -0.000012 0.233768
134.429916 22.165947 -0.000010 0.277546
134.978561 22.949799 -0.000009 0.300053
131.973785 18.792213 4.284863 0.434195
131.973785 18.792213 3.901213 0.341482
131.973785 18.792213 3.522952 0.311208
131.973785 18.792213 3.149169 0.591180
131.973785 18.792213 2.778999 0.689876
131.973785 18.792213 2.411607 0.721111
131.973785 18.792213 2.046182 0.525093
131.973785 18.792213 1.681931 0.670542
131.973785 18.792213 1.318069 0.699626
131.973785 18.792213 0.953818 0.633951
131.973785 18.792213 0.588392 0.666712
131.973785 18.792213 0.221001 0.692882
132.556122 19.611950 -0.000014 0.270420
133.638214 21.135185 -0.000012 0.315038
134.390289 22.193890 -0.000010 0.268986
134.944397 22.973892 -0.000009 0.247318
131.878098 18.792213 4.298811 0.678431
131.878098 18.792213 3.913241 0.659937
131.878098 18.792213 3.533084 0.276814
131.878098 18.792213 3.157429 0.709804
131.878098 18.792213 2.785405 0.691630
131.878113 18.792213 2.416173 0.692836
131.878113 18.792213 2.048918 0.464240
131.878098 18.792213 1.682842 0.667506
131.878098 18.792213 1.317158 0.668635
131.878113 18.792213 0.951082 0.622522
131.878113 18.792213 0.583827 0.625360
131.878098 18.792212 0.214594 0.689738
132.498703 19.653036 -0.000014 0.327108
133.591400 21.168680 -0.000012 0.317342
134.350861 22.222107 -0.000010 0.285939
134.910400 22.998222 -0.000009 0.268757
131.781448 18.792213 4.313039 0.678431
131.781448 18.792213 3.925508 0.647059
131.781448 18.792213 3.543418 0.572747
131.781448 18.792213 3.165854 0.685237
131.781448 18.792213 2.791939 0.782223
131.781448 18.792213 2.420830 0.743389
131.781448 18.792213 2.051708 0.596750
131.781448 18.792213 1.683771 0.687129
131.781448 18.792213 1.316229 0.715557
131.781448 18.792213 0.948292 0.740169
131.781448 18.792213 0.579169 0.738155
131.781448 18.792213 0.208061 0.767285
132.441589 19.694523 -0.000014 0.262119
133.544830 21.202499 -0.000012 0.269062
134.311630 22.250599 -0.000010 0.232929
134.876572 23.022789 -0.000009 0.230137
131.683807 18.792212 4.327549 0.706538
131.683807 18.792213 3.938019 0.555062
131.683807 18.792213 3.553959 0.678431
131.683807 18.792213 3.174447 0.674510
131.683807 18.792213 2.798604 0.726070
131.683807 18.792213 2.425580 0.708080
131.683807 18.792213 2.054554 0.524758
131.683807 18.792213 1.684719 0.681010
131.683807 18.792213 1.315281 0.659693
131.683807 18.792213 0.945446 0.656825
131.683807 18.792213 0.574419 0.658457
131.683807 18.792212 0.201396 0.714076
132.384766 19.736404 -0.000014 0.288914
133.498505 21.236643 -0.000012 0.268482
134.272614 22.279366 -0.000010 0.264073
134.842926 23.047592 -0.000010 0.328084
131.585144 18.792213 4.342350 0.516136
131.585144 18.792213 3.950781 0.404410
131.585144 18.792213 3.564711 0.555444
131.585144 18.792213 3.183213 0.739834
131.585144 18.792213 2.805401 0.741176
131.585144 18.792213 2.430425 0.697963
131.585144 18.792213 2.057457 0.571130
131.585144 18.792213 1.685686 0.677821
131.585144 18.792213 1.314314 0.697704
131.585144 18.792213 0.942543 0.707469
131.585144 18.792212 0.569574 0.709194
131.585144 18.792212 0.194598 0.741100
132.328217 19.778685 -0.000014 0.271916
133.452423 21.271112 -0.000011 0.304631
134.233780 22.308403 -0.000010 0.308019
134.809448 23.072628 -0.000009 0.328252
131.485443 18.792213 4.357446 0.596857
131.485443 18.792215 3.963797 0.692256
131.485443 18.792213 3.575677 0.663630
131.485443 18.792213 3.192152 0.671092
131.485443 18.792213 2.812335 0.700847
131.485443 18.792213 2.435367 0.667124
131.485443 18.792213 2.060417 0.520317
131.485443 18.792213 1.686673 0.643519
131.485443 18.792213 1.313328 0.676448
131.485443 18.792213 0.939582 0.679652
131.485443 18.792212 0.564633 0.681743
131.485443 18.792212 0.187665 0.694728
132.271988 19.821358 -0.000013 0.298650
133.406570 21.305899 -0.000011 0.316793
134.195145 22.337709 -0.000010 0.259922
134.776138 23.097900 -0.000009 0.258717
131.384659 18.792212 4.372845 0.635294
131.384659 18.792213 3.977074 0.686061
131.384659 18.792213 3.586863 0.641001
131.384659 18.792213 3.201271 0.709804
131.384659 18.792213 2.819407 0.776471
131.384674 18.792213 2.440407 0.726009
131.384659 18.792213 2.063438 0.630930
131.384659 18.792213 1.687678 0.776471
131.384659 18.792213 1.312322 0.776471
131.384659 18.792213 0.936562 0.741176
131.384674 18.792213 0.559592 0.695842
131.384659 18.792212 0.180593 0.776471
132.216049 19.864422 -0.000013 0.253071
133.360962 21.341007 -0.000011 0.274388
134.156723 22.367287 -0.000010 0.288838
134.743011 23.123402 -0.000009 0.318593
131.282791 18.792213 4.388551 0.678431
131.282791 18.792213 3.990617 0.696010
131.282791 18.792213 3.598271 0.465019
131.282791 18.792212 3.210572 0.635294
131.282791 18.792212 2.826620 0.760540
131.282791 18.792212 2.445549 0.724636
131.282791 18.792213 2.066518 0.606470
131.282791 18.792213 1.688705 0.733333
131.282791 18.792213 1.311295 0.747890
131.282791 18.792213 0.933482 0.741176
131.282791 18.792212 0.554451 0.666911
131.282791 18.792212 0.173380 0.751156
132.160400 19.907873 -0.000013 0.335866
133.315613 21.376431 -0.000011 0.334478
134.118515 22.397131 -0.000010 0.266499
134.710068 23.149136 -0.000009 0.265934
131.179794 18.792210 4.404572 0.605127
131.179794 18.792213 4.004432 0.538506
131.179794 18.792212 3.609910 0.557855
131.179794 18.792212 3.220060 0.776471
131.179794 18.792212 2.833978 0.776425
131.179794 18.792210 2.450794 0.734524
131.179794 18.792213 2.069660 0.653407
131.179794 18.792212 1.689751 0.806561
131.179794 18.792212 1.310249 0.759014
131.179794 18.792213 0.930340 0.776471
131.179794 18.792210 0.549206 0.741176
131.179794 18.792212 0.166022 0.787167
132.105072 19.951717 -0.000013 0.298894
133.270493 21.412170 -0.000011 0.300847
134.080505 22.427240 -0.000010 0.269001
134.677292 23.175097 -0.000009 0.339773
131.075638 18.792212 4.420916 0.344488
131.075653 18.792213 4.018524 0.597055
131.075638 18.792212 3.621782 0.678431
131.075638 18.792212 3.229739 0.691905
131.075638 18.792212 2.841484 0.709804
131.075638 18.792212 2.456143 0.710536
131.075653 18.792213 2.072865 0.623255
131.075653 18.792213 1.690819 0.700313
131.075653 18.792213 1.309181 0.665599
131.075653 18.792213 0.927134 0.684565
131.075638 18.792212 0.543856 0.728405
131.075638 18.792212 0.158516 0.691905
132.050049 19.995943 -0.000013 0.289021
133.225632 21.448227 -0.000011 0.334173
134.042725 22.457617 -0.000010 0.243549
134.644714 23.201286 -0.000009 0.266957
130.970306 18.792210 4.437589 0.709804
130.970306 18.792210 4.032900 0.647059
130.970306 18.792210 3.633893 0.678431
130.970306 18.792210 3.239612 0.776959
130.970306 18.792212 2.849142 0.788815
130.970306 18.792213 2.461601 0.774594
130.970306 18.792210 2.076136 0.602701
130.970306 18.792212 1.691908 0.796933
130.970306 18.792210 1.308092 0.765026
130.970306 18.792210 0.923864 0.709804
130.970306 18.792212 0.538399 0.726040
130.970306 18.792210 0.150858 0.785504
131.995331 20.040552 -0.000013 0.277562
133.181030 21.484592 -0.000011 0.236698
134.005142 22.488253 -0.000010 0.253162
134.612305 23.227703 -0.000009 0.356588
130.863754 18.792210 4.454598 0.663813
130.863754 18.792210 4.047565 0.651682
130.863754 18.792210 3.646249 0.640757
130.863754 18.792210 3.249685 0.686992
130.863754 18.792212 2.856953 0.631479
130.863754 18.792210 2.467169 0.683940
130.863754 18.792212 2.079472 0.624018
130.863754 18.792213 1.693019 0.681392
130.863754 18.792213 1.306981 0.698039
130.863754 18.792210 0.920528 0.676600
130.863754 18.792210 0.532831 0.638498
130.863754 18.792210 0.143047 0.692027
131.940918 20.085543 -0.000013 0.250965
133.136673 21.521269 -0.000012 0.306767
133.967773 22.519154 -0.000010 0.249485
134.580093 23.254347 -0.000009 0.274296
130.755966 18.792213 4.471950 0.647059
130.755966 18.792213 4.062527 0.617227
130.755966 18.792213 3.658854 0.599145
130.755966 18.792212 3.259960 0.690196
130.755966 18.792213 2.864923 0.578332
130.755966 18.792212 2.472849 0.722637
130.755966 18.792213 2.082875 0.624018
130.755966 18.792212 1.694153 0.669200
130.755966 18.792212 1.305847 0.660349
130.755966 18.792213 0.917125 0.582483
130.755966 18.792210 0.527151 0.645777
130.755966 18.792210 0.135077 0.634516
131.886841 20.130913 -0.000013 0.298161
133.092590 21.558258 -0.000011 0.302144
133.930634 22.550312 -0.000010 0.301991
134.548050 23.281212 -0.000009 0.252705
130.646881 18.792210 4.489655 0.402670
130.646881 18.792210 4.077793 0.393927
130.646881 18.792210 3.671714 0.488533
130.646881 18.792210 3.270445 0.700465
130.646881 18.792210 2.873054 0.695155
130.646881 18.792210 2.478644 0.690196
130.646881 18.792212 2.086347 0.625071
130.646881 18.792212 1.695309 0.675120
130.646881 18.792212 1.304690 0.640040
130.646881 18.792210 0.913653 0.648280
130.646881 18.792210 0.521355 0.618082
130.646881 18.792210 0.126946 0.675303
131.833054 20.176657 -0.000013 0.279011
133.048752 21.595551 -0.000011 0.267887
133.893692 22.581732 -0.000010 0.276570
134.516220 23.308304 -0.000009 0.240299
130.536499 18.792210 4.507719 0.650278
130.536499 18.792210 4.093369 0.550057
130.536499 18.792210 3.684836 0.706737
130.536499 18.792210 3.281142 0.684962
130.536499 18.792210 2.881351 0.695399
130.536499 18.792212 2.484558 0.690196
130.536499 18.792212 2.089890 0.662821
130.536499 18.792212 1.696489 0.709804
130.536499 18.792212 1.303510 0.638514
130.536499 18.792212 0.910110 0.570092
130.536499 18.792210 0.515442 0.566278
130.536499 18.792210 0.118650 0.652186
131.779617 20.222776 -0.000013 0.276204
133.005173 21.633148 -0.000011 0.308156
133.856995 22.613407 -0.000010 0.291218
134.484558 23.335615 -0.000009 0.227375
130.424759 18.792212 4.526150 0.690196
130.424759 18.792212 4.109261 0.623621
130.424759 18.792212 3.698225 0.680262
130.424759 18.792213 3.292057 0.752941
130.424759 18.792212 2.889815 0.728176
130.424759 18.792213 2.490591 0.678889
130.424759 18.792210 2.093505 0.638682
130.424759 18.792212 1.697694 0.731823
130.424759 18.792212 1.302306 0.736431
130.424759 18.792210 0.906495 0.678614
130.424759 18.792212 0.509409 0.578775
130.424759 18.792212 0.110185 0.709941
131.726486 20.269270 -0.000013 0.317723
132.961868 21.671049 -0.000011 0.275319
133.820496 22.645338 -0.000010 0.317906
134.453094 23.363148 -0.000009 0.228046
130.311646 18.792210 4.544959 0.678340
130.311646 18.792210 4.125478 0.647059
130.311646 18.792210 3.711887 0.486305
130.311646 18.792212 3.303195 0.715694
130.311646 18.792212 2.898453 0.751110
130.311646 18.792213 2.496748 0.692836
130.311646 18.792213 2.097193 0.700084
130.311646 18.792212 1.698922 0.716670
130.311646 18.792212 1.301078 0.728099
130.311646 18.792213 0.902806 0.644251
130.311646 18.792212 0.503252 0.534371
130.311646 18.792210 0.101547 0.722667
131.673691 20.316132 -0.000013 0.289555
132.918823 21.709251 -0.000011 0.242222
133.784241 22.677521 -0.000010 0.275822
134.421829 23.390900 -0.000009 0.317647
130.197113 18.792210 4.564153 0.536065
130.197098 18.792210 4.142028 0.527581
130.197098 18.792210 3.725831 0.545983
130.197098 18.792212 3.314562 0.745464
130.197113 18.792210 2.907268 0.804898
130.197113 18.792212 2.503031 0.744091
130.197098 18.792210 2.100958 0.725826
130.197113 18.792210 1.700176 0.744488
130.197098 18.792210 1.299824 0.737377
130.197098 18.792210 0.899042 0.728679
130.197113 18.792212 0.496969 0.603159
130.197098 18.792210 0.092732 0.759579
131.621216 20.363361 -0.000013 0.264683
132.876038 21.747755 -0.000011 0.268193
133.748199 22.709959 -0.000010 0.312490
134.390762 23.418867 -0.000009 0.335149
130.081100 18.792210 4.583741 0.663584
130.081100 18.792210 4.158918 0.678431
130.081100 18.792210 3.740060 0.492195
130.081100 18.792210 3.326162 0.643931
130.081100 18.792210 2.916265 0.732631
130.081100 18.792210 2.509443 0.618250
130.081100 18.792210 2.104800 0.733730
130.081100 18.792210 1.701456 0.598611
130.081100 18.792210 1.298544 0.680034
130.081100 18.792210 0.895200 0.639536
130.081100 18.792210 0.490557 0.506523
130.081100 18.792208 0.083735 0.710292
131.569077 20.410955 -0.000013 0.300206
132.833542 21.786554 -0.000011 0.250324
133.712387 22.742647 -0.000010 0.314412
134.359879 23.447052 -0.000009 0.272572
129.963608 18.792210 4.603735 0.679667
129.963608 18.792210 4.176157 0.680125
129.963608 18.792208 3.754583 0.709804
129.963608 18.792210 3.338002 0.651850
129.963608 18.792208 2.925447 0.760021
129.963608 18.792210 2.515988 0.704601
129.963608 18.792210 2.108721 0.734142
129.963608 18.792210 1.702762 0.712383
129.963608 18.792210 1.297238 0.666667
129.963608 18.792210 0.891279 0.688685
129.963608 18.792208 0.484012 0.535912
129.963608 18.792208 0.074553 0.802289
131.517258 20.458910 -0.000013 0.269047
132.791306 21.825653 -0.000011 0.298100
133.676804 22.775585 -0.000010 0.280247
134.329208 23.475451 -0.000009 0.276768
129.844574 18.792210 4.624142 0.406134
129.844574 18.792210 4.193753 0.663813
129.844574 18.792210 3.769407 0.678431
129.844574 18.792210 3.350087 0.665400
129.844574 18.792210 2.934820 0.759609
129.844574 18.792210 2.522668 0.624659
129.844574 18.792210 2.112723 0.688609
129.844574 18.792210 1.704095 0.693904
129.844574 18.792210 1.295905 0.675120
129.844574 18.792210 0.887276 0.678660
129.844574 18.792210 0.477332 0.552483
129.844574 18.792210 0.065180 0.766049
131.465790 20.507229 -0.000013 0.272084
132.749344 21.865040 -0.000011 0.307240
133.641449 22.808769 -0.000010 0.283894
134.298721 23.504063 -0.000009 0.338659
129.723953 18.792210 4.644974 0.674159
129.723953 18.792210 4.211716 0.489540
129.723953 18.792210 3.784539 0.678431
129.723953 18.792210 3.362423 0.669123
129.723953 18.792210 2.944387 0.697307
129.723953 18.792210 2.529487 0.626825
129.723953 18.792208 2.116809 0.722057
129.723953 18.792208 1.705456 0.707591
129.723953 18.792208 1.294544 0.722103
129.723953 18.792208 0.883191 0.686336
129.723953 18.792210 0.470512 0.628336
129.723953 18.792210 0.055613 0.739452
131.414658 20.555904 -0.000013 0.345190
132.707657 21.904722 -0.000011 0.327749
133.606339 22.842201 -0.000009 0.292363
134.268448 23.532890 -0.000009 0.310185
129.601715 18.792210 4.666240 0.657343
129.601715 18.792210 4.230052 0.709804
129.601715 18.792208 3.799988 0.591974
129.601715 18.792208 3.375018 0.651987
129.601715 18.792208 2.954154 0.718807
129.601715 18.792210 2.536448 0.579660
129.601715 18.792210 2.120980 0.720623
129.601715 18.792210 1.706846 0.708797
129.601715 18.792210 1.293154 0.698039
129.601715 18.792210 0.879020 0.671168
129.601715 18.792208 0.463551 0.619852
129.601715 18.792208 0.045846 0.715984
131.363876 20.604937 -0.000013 0.253040
132.666245 21.944695 -0.000011 0.309285
133.571457 22.875874 -0.000010 0.302266
134.238358 23.561924 -0.000009 0.323278
129.477798 18.792210 4.687954 0.570336
129.477798 18.792210 4.248774 0.678431
129.477798 18.792210 3.815761 0.622827
129.477798 18.792210 3.387876 0.636393
129.477798 18.792210 2.964126 0.659434
129.477798 18.792210 2.543556 0.642954
129.477798 18.792210 2.125238 0.685374
129.477798 18.792210 1.708264 0.645060
129.477798 18.792210 1.291736 0.653452
129.477798 18.792210 0.874761 0.565438
129.477798 18.792210 0.456443 0.529107
129.477798 18.792210 0.035874 0.715511
131.313416 20.654324 -0.000012 0.266667
132.625122 21.984955 -0.000011 0.315679
133.536804 22.909792 -0.000010 0.310262
134.208481 23.591171 -0.000009 0.263844
129.352188 18.792221 4.710118 0.670665
129.352188 18.792221 4.267885 0.638148
129.352173 18.792219 3.831862 0.631983
129.352173 18.792217 3.401002 0.435508
129.352173 18.792217 2.974306 0.643153
129.352188 18.792221 2.550812 0.571588
129.352188 18.792221 2.129586 0.628885
129.352188 18.792219 1.709712 0.665019
129.352188 18.792219 1.290288 0.656367
129.352188 18.792221 0.870414 0.550393
129.352188 18.792221 0.449188 0.613642
129.352188 18.792221 0.025694 0.699290
131.263336 20.704069 -0.000010 0.294102
132.584290 22.025509 -0.000008 0.352865
133.502411 22.943960 -0.000007 0.269169
134.178818 23.620630 -0.000006 0.341573
129.224792 18.792221 4.732759 0.676249
129.224792 18.792221 4.287406 0.451377
129.224777 18.792217 3.848308 0.677684
129.224792 18.792221 3.414409 0.639124
129.224792 18.792221 2.984704 0.650858
129.224792 18.792221 2.558223 0.540261
129.224792 18.792221 2.134026 0.599237
129.224792 18.792221 1.711191 0.741176
129.224792 18.792221 1.288809 0.771282
129.224792 18.792221 0.865974 0.736767
129.224792 18.792223 0.441777 0.642496
129.224792 18.792221 0.015296 0.667643
131.213577 20.754154 -0.000010 0.324041
132.543732 22.066341 -0.000008 0.355062
133.468231 22.978357 -0.000007 0.257008
134.149368 23.650291 -0.000006 0.348013
129.095566 18.792221 4.755879 0.537957
129.095566 18.792219 4.307343 0.614206
129.095566 18.792221 3.865103 0.558694
129.095566 18.792219 3.428101 0.645869
129.095566 18.792221 2.995323 0.701106
129.095566 18.792221 2.565792 0.470695
129.095566 18.792221 2.138561 0.657481
129.095566 18.792221 1.712701 0.649729
129.095566 18.792221 1.287298 0.703426
129.095566 18.792221 0.861440 0.661784
129.095581 18.792221 0.434209 0.662531
129.095566 18.792221 0.004677 0.705150
131.164169 20.804583 -0.000010 0.296407
132.503448 22.107452 -0.000008 0.253498
133.434296 23.012995 -0.000007 0.269657
134.120102 23.680155 -0.000006 0.235920
126.573425 16.498428 5.609459 0.659968
126.573425 16.498428 5.043331 0.674968
126.573425 16.498428 4.485151 0.663172
126.573425 16.498425 3.933583 0.709804
126.573425 16.498428 3.387345 0.709804
126.573425 16.498428 2.845205 0.345693
126.573425 16.498425 2.305969 0.678431
126.573425 16.498426 1.768465 0.654749
126.573425 16.498426 1.231535 0.600763
126.573425 16.498428 0.694031 0.650660
126.573425 16.498426 0.154794 0.656275
129.003098 18.829258 -0.000013 0.261372
131.115128 20.855358 -0.000010 0.274281
132.463470 22.148844 -0.000008 0.248386
133.400620 23.047867 -0.000007 0.338033
134.091064 23.710220 -0.000006 0.306249
126.421219 16.512106 5.634700 0.666300
126.421219 16.512108 5.065095 0.655451
126.421219 16.512104 4.503488 0.615213
126.421219 16.512100 3.948531 0.709804
126.421219 16.512104 3.398938 0.491051
126.421219 16.512100 2.853468 0.526406
126.421219 16.512100 2.310920 0.671580
126.421219 16.512102 1.770114 0.589426
126.421219 16.512102 1.229886 0.682506
126.421219 16.512106 0.689080 0.581933
126.421219 16.512108 0.146531 0.678431
128.940308 18.895164 -0.000013 0.320882
131.066437 20.906471 -0.000010 0.325719
132.423767 22.190516 -0.000008 0.259159
133.367172 23.082972 -0.000007 0.237247
134.062225 23.740492 -0.000006 0.338628
126.267120 16.525949 5.660460 0.382834
126.267120 16.525948 5.087306 0.325551
126.267120 16.525946 4.522200 0.600183
126.267113 16.525942 3.963786 0.478401
126.267120 16.525944 3.410768 0.387213
126.267120 16.525942 2.861901 0.594934
126.267120 16.525944 2.315972 0.649165
126.267120 16.525942 1.771796 0.628595
126.267113 16.525940 1.228203 0.709804
126.267120 16.525948 0.684028 0.293629
126.267120 16.525946 0.138099 0.653254
128.877991 18.961510 -0.000013 0.270893
131.018097 20.957926 -0.000010 0.290074
132.384369 22.232460 -0.000009 0.297139
133.333969 23.118309 -0.000007 0.334127
134.033600 23.770962 -0.000006 0.234241
126.111076 16.539955 5.686751 0.654002
126.111076 16.539955 5.109975 0.678431
126.111076 16.539955 4.541297 0.566339
126.111069 16.539955 3.979354 0.479652
126.111076 16.539955 3.422843 0.654810
126.111076 16.539955 2.870506 0.647135
126.111069 16.539955 2.321128 0.655528
126.111069 16.539953 1.773514 0.677028
126.111069 16.539953 1.226486 0.612955
126.111069 16.539955 0.678872 0.257420
126.111069 16.539953 0.129493 0.572229
128.816132 19.028290 -0.000013 0.278614
130.970123 21.009716 -0.000010 0.274342
132.345245 22.274681 -0.000008 0.316442
133.301025 23.153879 -0.000007 0.246738
134.005188 23.801632 -0.000006 0.252735
125.953026 16.554134 5.713586 0.677806
125.953026 16.554134 5.133113 0.659129
125.953033 16.554138 4.560789 0.639200
125.953026 16.554136 3.995245 0.678431
125.953033 16.554138 3.435166 0.672007
125.953033 16.554138 2.879290 0.666987
125.953033 16.554138 2.326391 0.675761
125.953033 16.554138 1.775267 0.632807
125.953033 16.554138 1.224733 0.670634
125.953026 16.554132 0.673609 0.636011
125.953026 16.554134 0.120709 0.409293
128.754730 19.095499 -0.000013 0.277729
130.922501 21.061840 -0.000010 0.290044
132.306442 22.317173 -0.000009 0.275364
133.268326 23.189678 -0.000007 0.346685
133.976990 23.832499 -0.000006 0.248112
125.792969 16.568527 5.740963 0.521630
125.792969 16.568527 5.156718 0.661295
125.792961 16.568527 4.580677 0.668437
125.792961 16.568523 4.011458 0.709804
125.792961 16.568527 3.447741 0.690196
125.792969 16.568527 2.888252 0.674617
125.792961 16.568523 2.331761 0.699763
125.792961 16.568527 1.777056 0.623529
125.792961 16.568527 1.222945 0.691173
125.792961 16.568525 0.668239 0.678431
125.792969 16.568527 0.111747 0.636439
128.693802 19.163136 -0.000013 0.272709
130.875259 21.114292 -0.000011 0.241306
132.267914 22.359936 -0.000009 0.255680
133.235870 23.225704 -0.000007 0.255055
133.949005 23.863562 -0.000006 0.236164
125.630791 16.583099 5.768912 0.671672
125.630791 16.583103 5.180816 0.579355
125.630791 16.583101 4.600979 0.645106
125.630791 16.583097 4.028009 0.678431
125.630791 16.583097 3.460577 0.688289
125.630791 16.583099 2.897401 0.666667
125.630791 16.583099 2.337242 0.651469
125.630791 16.583099 1.778881 0.623667
125.630791 16.583099 1.221119 0.678431
125.630791 16.583101 0.662758 0.678431
125.630791 16.583103 0.102599 0.644205
128.633362 19.231194 -0.000014 0.260365
130.828369 21.167076 -0.000011 0.294972
132.229706 22.402969 -0.000008 0.264530
133.203674 23.261957 -0.000007 0.294301
133.921249 23.894819 -0.000006 0.296315
125.466454 16.597866 5.797443 0.666590
125.466454 16.597866 5.205417 0.672984
125.466461 16.597868 4.621704 0.678431
125.466454 16.597862 4.044905 0.357961
125.466454 16.597862 3.473680 0.709804
125.466454 16.597866 2.906741 0.674342
125.466454 16.597860 2.342838 0.654902
125.466454 16.597864 1.780745 0.622385
125.466454 16.597864 1.219255 0.678431
125.466461 16.597866 0.657162 0.647059
125.466454 16.597866 0.093259 0.674891
128.573380 19.299675 -0.000013 0.277928
130.781860 21.220184 -0.000011 0.267185
132.191788 22.446264 -0.000009 0.328038
133.171722 23.298431 -0.000007 0.278370
133.893707 23.926270 -0.000006 0.323796
125.299889 16.612822 5.826573 0.560891
125.299896 16.612823 5.230535 0.675669
125.299896 16.612825 4.642864 0.647059
125.299881 16.612816 4.062156 0.551843
125.299889 16.612820 3.487059 0.359838
125.299889 16.612820 2.916276 0.648798
125.299889 16.612820 2.348551 0.652201
125.299889 16.612820 1.782648 0.659449
125.299889 16.612820 1.217352 0.678431
125.299896 16.612823 0.651449 0.680644
125.299896 16.612822 0.083723 0.668452
128.513901 19.368576 -0.000013 0.259693
130.735718 21.273621 -0.000010 0.324941
132.154175 22.489822 -0.000009 0.297688
133.140045 23.335131 -0.000007 0.282124
133.866379 23.957912 -0.000007 0.320180
125.131035 16.627975 5.856317 0.676356
125.131042 16.627977 5.256180 0.325078
125.131042 16.627975 4.664471 0.678431
125.131035 16.627975 4.079769 0.653788
125.131042 16.627977 3.500718 0.497536
125.131042 16.627975 2.926013 0.390326
125.131042 16.627977 2.354384 0.501472
125.131042 16.627977 1.784591 0.656458
125.131042 16.627977 1.215409 0.696437
125.131035 16.627975 0.645616 0.678431
125.131035 16.627975 0.073987 0.667399
128.454880 19.437885 -0.000014 0.264927
130.689957 21.327374 -0.000010 0.293187
132.116852 22.533644 -0.000009 0.270359
133.108612 23.372049 -0.000007 0.236027
133.839279 23.989744 -0.000006 0.293889
124.959885 16.643377 5.886675 0.469322
124.959885 16.643375 5.282356 0.678431
124.959885 16.643379 4.686523 0.370687
124.959869 16.643368 4.097748 0.674113
124.959869 16.643372 3.514662 0.577569
124.959877 16.643372 2.935951 0.397665
124.959869 16.643368 2.360339 0.548486
124.959869 16.643370 1.786575 0.678431
124.959869 16.643370 1.213425 0.709804
124.959877 16.643375 0.639661 0.678965
124.959877 16.643375 0.064049 0.684810
128.396362 19.507607 -0.000014 0.303609
130.644562 21.381443 -0.000011 0.269001
132.079865 22.577726 -0.000009 0.332433
133.077438 23.409185 -0.000008 0.310903
133.812408 24.021765 -0.000006 0.233127
124.786247 16.658941 5.917695 0.678264
124.786255 16.658943 5.309103 0.678431
124.786255 16.658943 4.709056 0.290196
124.786255 16.658943 4.116117 0.559167
124.786255 16.658947 3.528907 0.662760
124.786255 16.658943 2.946104 0.453773
124.786255 16.658947 2.366422 0.416922
124.786255 16.658947 1.788601 0.626520
124.786255 16.658947 1.211399 0.413245
124.786247 16.658943 0.633578 0.620096
124.786247 16.658943 0.053895 0.356985
128.338318 19.577732 -0.000014 0.282780
130.599564 21.435831 -0.000010 0.280720
132.043167 22.622065 -0.000008 0.254505
133.046524 23.446537 -0.000008 0.288746
133.785751 24.053974 -0.000006 0.236530
124.610184 16.674770 5.949360 0.678431
124.610184 16.674770 5.336406 0.498100
124.610184 16.674770 4.732058 0.659678
124.610184 16.674767 4.134870 0.454459
124.610184 16.674770 3.543450 0.638666
124.610184 16.674768 2.956470 0.669261
124.610184 16.674767 2.372633 0.344793
124.610184 16.674767 1.790670 0.588647
124.610184 16.674767 1.209330 0.671427
124.610184 16.674768 0.627367 0.645380
124.610184 16.674768 0.043530 0.410880
128.280777 19.648266 -0.000014 0.242313
130.554932 21.490532 -0.000010 0.317708
132.006775 22.666656 -0.000009 0.286473
133.015869 23.484108 -0.000007 0.236500
133.759323 24.086365 -0.000007 0.214038
124.431557 16.690819 5.981706 0.360632
124.431564 16.690823 5.364295 0.678431
124.431564 16.690823 4.755554 0.676356
124.431557 16.690815 4.154024 0.668711
124.431557 16.690819 3.558306 0.600656
124.431557 16.690815 2.967058 0.666667
124.431557 16.690817 2.378976 0.678431
124.431557 16.690819 1.792783 0.586770
124.431557 16.690819 1.207217 0.709804
124.431564 16.690819 0.621024 0.656962
124.431557 16.690819 0.032942 0.420325
128.223724 19.719196 -0.000014 0.314199
130.510681 21.545542 -0.000011 0.252110
131.970703 22.711502 -0.000009 0.334310
132.985474 23.521889 -0.000007 0.258122
133.733124 24.118942 -0.000007 0.411551
124.250305 16.707096 6.014750 0.688365
124.250305 16.707098 5.392787 0.658457
124.250305 16.707096 4.779557 0.580972
124.250298 16.707092 4.173593 0.677073
124.250305 16.707098 3.573481 0.456001
124.250298 16.707094 2.977875 0.699229
124.250298 16.707096 2.385457 0.660166
124.250298 16.707096 1.794941 0.474525
124.250298 16.707096 1.205058 0.685054
124.250305 16.707100 0.614543 0.607843
124.250298 16.707096 0.022125 0.628809
128.167160 19.790524 -0.000014 0.274784
130.466827 21.600861 -0.000010 0.285039
131.934952 22.756599 -0.000009 0.324010
132.955353 23.559879 -0.000007 0.320439
133.707138 24.151701 -0.000007 0.281880
124.066330 16.723610 6.048510 0.371435
124.066338 16.723614 5.421896 0.664073
124.066338 16.723612 4.804082 0.650172
124.066338 16.723614 4.193584 0.678431
124.066330 16.723612 3.588987 0.644480
124.066338 16.723614 2.988926 0.675669
124.066330 16.723612 2.392078 0.653559
124.066330 16.723614 1.797147 0.327062
124.066330 16.723614 1.202853 0.678431
124.066330 16.723610 0.607922 0.427970
124.066330 16.723610 0.011073 0.678431
128.111115 19.862247 -0.000014 0.268666
130.423355 21.656483 -0.000010 0.282826
131.899506 22.801945 -0.000008 0.314229
132.925507 23.598083 -0.000007 0.246967
133.681396 24.184641 -0.000007 0.335592
123.879570 16.740364 6.083009 0.634684
123.879570 16.740368 5.451641 0.667735
123.879578 16.740368 4.829141 0.686458
123.879578 16.740372 4.214012 0.413199
123.879578 16.740374 3.604829 0.459037
123.879578 16.740374 3.000218 0.514214
123.879578 16.740376 2.398844 0.659342
123.879578 16.740374 1.799401 0.275151
123.879578 16.740374 1.200600 0.412238
123.879570 16.740368 0.601156 0.382788
123.881500 16.741842 -0.000020 0.291722
128.055557 19.934359 -0.000014 0.315770
130.380264 21.712408 -0.000011 0.286336
131.864395 22.847538 -0.000009 0.281910
132.895905 23.636494 -0.000007 0.302373
133.655884 24.217758 -0.000006 0.249866
