# This PCD file was generated using the MATLABÂ® pcwrite function
# from Computer Vision ToolboxÂ®.
# .PCD v.7 - Point Cloud Data file format
VERSION .7
FIELDS x y z intensity
SIZE 4 4 4 4
TYPE F F F F
COUNT 1 1 1 1
WIDTH 1274
HEIGHT 1
VIEWPOINT 0 0 0 1 0 0 0
POINTS 1274
DATA ascii
141.778915 57.017929 6.485030 0.700984
141.778915 57.017929 5.563942 0.724102
139.660400 57.961151 4.918537 0.734539
138.127625 58.643585 4.074137 0.332509
138.127625 58.643585 3.042274 0.122972
138.127625 58.643585 2.013724 0.128862
138.127609 58.643593 0.986276 0.136416
138.913879 58.293522 0.000008 0.294667
150.095108 53.315319 0.000005 0.292134
154.895645 51.177986 0.000003 0.312291
157.569290 49.987602 0.000003 0.309819
159.276184 49.227642 0.000002 0.244358
160.462540 48.699444 0.000002 0.356130
161.336594 48.310284 0.000004 0.343709
141.778915 57.227955 8.384126 0.712566
141.778915 57.227955 7.435753 0.733333
141.778915 57.227951 6.500695 0.726757
141.778915 57.227951 5.576713 0.722255
139.745453 58.150372 4.918535 0.732403
138.127625 58.884254 4.082226 0.333333
138.127625 58.884254 3.047121 0.147005
138.127609 58.884258 2.015338 0.150622
138.127609 58.884258 0.984661 0.159182
139.001251 58.487953 0.000008 0.296208
150.147461 53.431808 0.000005 0.297307
154.932953 51.261013 0.000003 0.287938
157.598221 50.051994 0.000002 0.293736
159.299774 49.280136 0.000002 0.301427
160.482407 48.743668 0.000001 0.278721
161.353745 48.348419 0.000003 0.335988
141.778915 57.439308 8.406164 0.721569
141.778915 57.439308 7.454755 0.721569
141.778915 57.439308 6.516704 0.736797
141.778915 57.439308 5.589764 0.709804
139.831818 58.338997 4.918535 0.735271
138.127609 59.126446 4.090494 0.333333
138.127609 59.126446 3.052074 0.167086
138.127609 59.126450 2.016989 0.186831
138.127609 59.126450 0.983011 0.207599
139.089996 58.681759 0.000008 0.293263
150.200623 53.547928 0.000005 0.293187
154.970856 51.343781 0.000003 0.292790
157.627609 50.116180 0.000003 0.304952
159.323730 49.332466 0.000002 0.282551
160.502594 48.787754 0.000001 0.262181
161.371140 48.386429 0.000004 0.343465
141.836121 57.625114 8.412848 0.725597
141.778915 57.652035 7.474174 0.714992
141.778915 57.652035 6.533064 0.724376
141.778915 57.652035 5.603101 0.727779
139.919495 58.527004 4.918534 0.732433
138.127609 59.370205 4.098941 0.341924
138.127609 59.370209 3.057135 0.162249
138.127609 59.370209 2.018674 0.202823
138.127609 59.370209 0.981326 0.240162
139.180084 58.874947 0.000008 0.295598
150.254608 53.663673 0.000005 0.307179
155.009323 51.426277 0.000004 0.305913
157.657440 50.180164 0.000002 0.364172
159.348053 49.384624 0.000002 0.279362
160.523087 48.831696 0.000002 0.359960
161.388809 48.424316 0.000004 0.345022
141.836090 57.838760 8.435807 0.733333
141.778915 57.866161 7.494011 0.698039
141.778915 57.866161 6.549776 0.722118
141.778915 57.866161 5.616724 0.714488
140.008484 58.714409 4.918533 0.734142
138.127609 59.615574 4.107571 0.351232
138.127609 59.615574 3.062305 0.172610
138.127609 59.615574 2.020396 0.214099
138.127609 59.615574 0.979603 0.249393
139.271515 59.067505 0.000008 0.292714
150.309387 53.779045 0.000005 0.283970
155.048370 51.508507 0.000004 0.272740
157.687729 50.243935 0.000003 0.261265
159.372742 49.436615 0.000002 0.260563
160.543884 48.875496 0.000001 0.306722
161.406738 48.462082 0.000004 0.334585
141.836105 58.053837 8.459253 0.722393
141.778915 58.081730 7.514273 0.713481
141.778915 58.081726 6.566846 0.727962
141.778915 58.081726 5.630641 0.714488
140.098785 58.901180 4.918531 0.735210
138.127609 59.862591 4.116387 0.343999
138.127594 59.862591 3.067587 0.130388
138.127594 59.862595 2.022156 0.137255
138.127594 59.862595 0.977844 0.138720
139.364288 59.259422 0.000008 0.291905
150.364960 53.894032 0.000005 0.292592
155.087982 51.590462 0.000003 0.270634
157.718460 50.307495 0.000003 0.310491
159.397797 49.488430 0.000002 0.299443
160.564987 48.919147 0.000001 0.305180
161.460815 48.482227 0.010001 1.000000
141.836105 58.270374 8.483200 0.719265
141.778915 58.298767 7.534969 0.724239
141.814529 58.281082 6.577046 0.730663
141.778915 58.298763 5.644855 0.708614
140.190384 59.087318 4.918531 0.720150
138.127594 60.111294 4.125390 0.537743
138.127594 60.111294 3.072982 0.511482
138.127594 60.111294 2.023952 0.517784
138.127594 60.111294 0.976048 0.526131
139.458389 59.450684 0.000008 0.291936
150.421356 54.008621 0.000005 0.272892
155.128174 51.672138 0.000003 0.324987
157.749619 50.370838 0.000003 0.269490
159.423203 49.540066 0.000002 0.369985
160.586395 48.962650 0.000001 0.282002
161.479141 48.519489 0.010000 1.000000
141.836105 58.488426 8.507656 0.739147
141.778915 58.517315 7.556105 0.699504
141.836121 58.488419 6.590427 0.730571
141.778915 58.517311 5.659371 0.720653
140.283279 59.272812 4.918530 0.731044
138.127625 60.361713 4.134583 0.353353
138.127625 60.361713 3.078489 0.134920
138.127625 60.361713 2.025788 0.220813
138.127625 60.361713 0.974213 0.251926
139.553848 59.641277 0.000008 0.289937
150.478546 54.122818 0.000005 0.291325
155.168930 51.753532 0.000003 0.276280
157.781235 50.433960 0.000003 0.323400
159.448975 49.591530 0.000002 0.305257
160.608109 49.006004 0.000001 0.275410
161.497726 48.556622 0.010000 1.000000
141.836105 58.708015 8.532628 0.721935
141.778915 58.737408 7.577686 0.727352
141.836121 58.708008 6.608567 0.737713
141.778915 58.737408 5.674192 0.698039
140.377457 59.457657 4.918530 0.733516
138.127625 60.613918 4.143971 0.341329
138.127625 60.613914 3.084115 0.160784
138.127625 60.613918 2.027661 0.203922
138.127625 60.613918 0.972339 0.235294
139.650620 59.831207 0.000008 0.289296
150.536514 54.236614 0.000004 0.297642
155.210251 51.834641 0.000003 0.283391
157.813278 50.496864 0.000003 0.297917
159.475098 49.642807 0.000002 0.328420
160.630112 49.049206 0.000002 0.285389
161.516586 48.593624 0.010000 1.000000
141.836105 58.929188 8.558122 0.733333
141.778915 58.959091 7.599718 0.723445
141.836121 58.929184 6.627085 0.739559
141.778915 58.959091 5.689327 0.719585
140.472961 59.641827 4.918528 0.719570
138.127625 60.867939 4.153556 0.338293
138.127625 60.867943 3.089858 0.163729
138.127625 60.867943 2.029573 0.102846
138.127609 60.867950 0.970426 0.094118
139.748718 60.020454 0.000008 0.287861
150.595291 54.349998 0.000005 0.290379
155.252151 51.915455 0.000003 0.310262
157.845764 50.559540 0.000003 0.338506
159.501587 49.693905 0.000002 0.284138
160.652435 49.092255 0.000002 0.314855
161.535690 48.630493 0.009999 1.000000
141.836105 59.151978 8.584150 0.752941
141.778915 59.182388 7.622212 0.733333
141.836121 59.151970 6.645993 0.733333
141.778915 59.182388 5.704775 0.725978
140.569702 59.825333 4.918528 0.731899
138.127625 61.123817 4.163342 0.322850
138.127625 61.123814 3.095720 0.191028
138.127625 61.123817 2.031527 0.149020
138.127609 61.123821 0.968473 0.162524
139.848129 60.209003 0.000008 0.290028
150.654846 54.462971 0.000004 0.284779
155.294601 51.995972 0.000003 0.297047
157.878693 50.621986 0.000003 0.296864
159.528427 49.744812 0.000002 0.255329
160.675049 49.135143 0.000002 0.296468
161.555069 48.667229 0.009999 1.000000
141.836121 59.376431 8.610718 0.752941
141.778915 59.407360 7.645174 0.724010
141.836121 59.376427 6.665294 0.739178
141.778915 59.407356 5.720544 0.694881
140.667755 60.008156 4.918525 0.734478
138.127625 61.381607 4.173331 0.333562
138.127625 61.381607 3.101706 0.191028
138.127609 61.381611 2.033521 0.177966
138.127609 61.381611 0.966480 0.192065
139.948868 60.396862 0.000008 0.286519
150.715210 54.575523 0.000005 0.281727
155.337616 52.076199 0.000003 0.299367
157.912064 50.684204 0.000003 0.249668
159.555618 49.795532 0.000002 0.279683
160.697952 49.177872 0.000001 0.351125
161.574677 48.703827 0.009998 1.000000
141.836121 59.602581 8.637835 0.749264
141.778915 59.634029 7.668608 0.717067
141.836121 59.602577 6.684991 0.716197
141.778915 59.634026 5.736639 0.731960
140.767090 60.190285 4.918524 0.715892
138.127625 61.641342 4.183525 0.337652
138.127625 61.641346 3.107813 0.176120
138.127609 61.641350 2.035555 0.203922
138.127609 61.641350 0.964445 0.235294
140.050903 60.584015 0.000008 0.289601
150.776337 54.687653 0.000005 0.296284
155.381195 52.156116 0.000003 0.300084
157.945847 50.746185 0.000002 0.294469
159.583160 49.846062 0.000002 0.316777
160.721161 49.220444 0.000001 0.254200
161.594559 48.740288 0.009997 1.000000
141.836105 59.830490 8.665512 0.721569
141.778915 59.862453 7.692526 0.733333
141.836121 59.830482 6.705094 0.721706
141.778915 59.862450 5.753066 0.709804
140.867661 60.371738 4.918524 0.727474
138.127625 61.903095 4.193931 0.348440
138.127625 61.903095 3.114047 0.198672
138.127609 61.903099 2.037632 0.222797
138.127609 61.903099 0.962368 0.272084
140.154236 60.770454 0.000008 0.289967
150.838257 54.799358 0.000005 0.289601
155.425323 52.235733 0.000003 0.282261
157.980072 50.807930 0.000003 0.262531
159.611069 49.896400 0.000002 0.274907
160.744675 49.262852 0.000001 0.289769
161.614685 48.776611 0.009997 1.000000
141.836105 60.060169 8.693754 0.729793
141.778915 60.092663 7.716935 0.729564
141.836121 60.060162 6.725610 0.716472
141.778915 60.092663 5.769830 0.709941
140.969513 60.552467 4.918522 0.709789
138.127609 62.166889 4.204549 0.337835
138.127609 62.166893 3.120409 0.193606
138.127625 62.166885 2.039750 0.118746
138.127625 62.166885 0.960249 0.150072
140.258881 60.956165 0.000008 0.289937
150.900955 54.910622 0.000005 0.285588
155.470001 52.315041 0.000003 0.262379
158.014725 50.869434 0.000003 0.287663
159.639328 49.946541 0.000002 0.248219
160.768478 49.305092 0.000001 0.289326
161.635071 48.812794 0.009996 1.000000
141.840942 60.288895 8.721179 0.701488
141.778915 60.324703 7.741841 0.721614
141.836121 60.291672 6.746546 0.721157
141.778915 60.324703 5.786936 0.709804
141.072601 60.732491 4.918522 0.727214
138.127609 62.432781 4.215384 0.546700
138.127625 62.432781 3.126901 0.481483
138.127625 62.432777 2.041914 0.546700
138.127625 62.432777 0.958087 0.546700
140.364807 61.141136 0.000008 0.290272
150.964417 55.021446 0.000004 0.294087
155.515244 52.394032 0.000003 0.281529
158.049820 50.930695 0.000003 0.350515
159.667923 49.996479 0.000002 0.273014
160.792572 49.347168 0.000001 0.294667
161.621170 48.868774 0.000003 0.335149
141.924530 60.473194 8.726306 0.441184
141.778915 60.558624 7.767254 0.724712
141.836121 60.525059 6.767906 0.734035
141.778915 60.558624 5.804391 0.716289
141.176971 60.911777 4.918520 0.719829
138.127609 62.700836 4.226442 0.352941
138.127594 62.700836 3.133526 0.179248
138.127594 62.700836 2.044120 0.186145
138.127594 62.700836 0.955881 0.242313
140.472031 61.325363 0.000008 0.291981
151.028671 55.131828 0.000004 0.294438
155.561035 52.472702 0.000003 0.288640
158.085327 50.991711 0.000002 0.303120
159.696869 50.046219 0.000002 0.266331
160.816956 49.389072 0.000001 0.267659
161.642197 48.904907 0.000003 0.349599
141.924530 60.707661 8.756201 0.255619
141.778915 60.794464 7.793184 0.732326
141.836121 60.760361 6.789701 0.724285
141.778915 60.794464 5.822199 0.721569
141.282593 61.090332 4.918519 0.726894
138.127609 62.971085 4.237721 0.334112
138.127609 62.971085 3.140284 0.234607
138.127609 62.971081 2.046370 0.192935
138.127609 62.971081 0.953629 0.252659
140.580536 61.508842 0.000007 0.301152
151.093674 55.241756 0.000004 0.270604
155.607376 52.551052 0.000003 0.285985
158.121262 51.052475 0.000002 0.276036
159.726166 50.095757 0.000002 0.309468
160.841644 49.430805 0.000001 0.302815
161.663483 48.940891 0.000003 0.341527
141.924530 60.944099 8.786703 0.295583
141.778915 61.032288 7.819638 0.733333
141.836121 60.997635 6.811938 0.721569
141.778915 61.032284 5.840367 0.721569
141.389435 61.268162 4.918519 0.737423
138.127609 63.243591 4.249229 0.349905
138.127609 63.243591 3.147178 0.234867
138.127609 63.243591 2.048667 0.115297
138.127625 63.243584 0.951333 0.112963
140.690323 61.691555 0.000007 0.293721
151.159454 55.351227 0.000005 0.282750
155.654251 52.629082 0.000003 0.291493
158.157623 51.112988 0.000002 0.284489
159.755814 50.145092 0.000002 0.246326
160.866608 49.472366 0.000001 0.313985
161.685013 48.976727 0.000004 0.345525
141.924530 61.182541 8.817823 0.258824
141.778915 61.272118 7.846625 0.729656
141.836136 61.236923 6.834621 0.709804
141.778915 61.272118 5.858903 0.721569
141.497528 61.445229 4.918517 0.727306
138.127625 63.518417 4.260969 0.332418
138.127625 63.518414 3.154212 0.249042
138.127625 63.518410 2.051011 0.151415
138.127625 63.518410 0.948990 0.168505
140.801392 61.873497 0.000008 0.301106
151.225998 55.460239 0.000005 0.301488
155.701675 52.706779 0.000003 0.309636
158.194397 51.173244 0.000003 0.341436
159.785797 50.194214 0.000002 0.307118
160.891876 49.513752 0.000002 0.246464
161.706787 49.012409 0.000003 0.346899
141.924530 61.423042 8.849569 0.229313
141.778915 61.514027 7.874157 0.721569
141.836136 61.478271 6.857761 0.709804
141.778931 61.514023 5.877812 0.733333
141.606873 61.621536 4.918515 0.723598
138.127625 63.795616 4.272946 0.335256
138.127609 63.795616 3.161389 0.248539
138.127625 63.795605 2.053401 0.183520
138.127625 63.795605 0.946599 0.206821
140.913712 62.054668 0.000007 0.293187
151.293289 55.568783 0.000004 0.266346
155.749649 52.784142 0.000003 0.293584
158.231598 51.233246 0.000002 0.292409
159.816132 50.243126 0.000002 0.284916
160.917419 49.554958 0.000001 0.343450
161.728821 49.047943 0.000003 0.322377
141.924515 61.665646 8.881951 0.240574
141.914581 61.671955 7.867539 0.302739
141.836136 61.721733 6.881368 0.712200
141.778915 61.758045 5.897100 0.709804
141.717422 61.797073 4.918515 0.721599
138.127625 64.075226 4.285163 0.345098
138.127625 64.075226 3.168707 0.248066
138.127625 64.075226 2.055839 0.207828
138.127625 64.075226 0.944161 0.247059
141.027298 62.235039 0.000007 0.291035
151.361343 55.676849 0.000005 0.297734
155.798157 52.861168 0.000003 0.302922
158.269226 51.292984 0.000002 0.244923
159.846786 50.291828 0.000002 0.309133
160.943253 49.595989 0.000001 0.229221
161.751099 49.083317 0.000003 0.338308
141.924515 61.910412 8.914986 0.215702
141.924637 61.910332 7.893448 0.238788
141.836121 61.967377 6.905452 0.709804
141.778915 62.004242 5.916777 0.709804
141.778915 62.004242 4.925395 0.752941
138.127625 64.357338 4.297626 0.338476
138.127625 64.357338 3.176175 0.270832
138.127625 64.357338 2.058326 0.198779
138.127625 64.357338 0.941674 0.240253
141.142151 62.414612 0.000008 0.292958
151.430161 55.784447 0.000004 0.287114
155.847198 52.937855 0.000003 0.277836
158.307266 51.352455 0.000003 0.274571
159.877792 50.340313 0.000002 0.255299
160.969391 49.636833 0.000001 0.286687
161.773621 49.118538 0.000003 0.339681
141.924515 62.157391 8.948681 0.227115
141.924637 62.157310 7.922502 0.215869
141.898941 62.174126 6.916355 0.735714
141.778915 62.252663 5.936847 0.709804
141.725891 62.287361 4.948250 0.709804
138.127640 64.641998 4.310338 0.350515
138.127625 64.641998 3.183792 0.243046
138.127640 64.641998 2.060863 0.137255
138.127640 64.641998 0.939137 0.155734
141.258240 62.593384 0.000008 0.291264
151.499710 55.891556 0.000004 0.293019
155.896774 53.014198 0.000003 0.248295
158.345703 51.411663 0.000002 0.297749
159.909134 50.388580 0.000001 0.286534
160.995789 49.677498 0.000001 0.265415
161.796387 49.153599 0.000003 0.321599
141.924515 62.406635 8.983047 0.258228
141.924637 62.406555 7.952135 0.208927
141.924622 62.406555 6.935733 0.516670
141.778915 62.503365 5.957319 0.713436
141.841080 62.462067 4.948250 0.710536
138.127625 64.929283 4.323304 0.322957
138.127625 64.929283 3.191561 0.239109
138.127625 64.929283 2.063450 0.150454
138.127625 64.929283 0.936549 0.166674
141.375580 62.771347 0.000008 0.290059
151.570023 55.998177 0.000005 0.288563
155.946884 53.090195 0.000003 0.267353
158.384567 51.470600 0.000003 0.291478
159.940826 50.436630 0.000001 0.295338
161.022476 49.717976 0.000001 0.288884
161.819397 49.188503 0.000003 0.325109
141.924515 62.658203 9.018103 0.247059
141.924637 62.658119 7.982359 0.205341
141.924622 62.658119 6.961198 0.268971
141.778915 62.756401 5.978199 0.738109
141.836121 62.717827 4.965094 0.709804
138.127625 65.219238 4.336532 0.345098
138.127625 65.219238 3.199485 0.305913
138.127625 65.219238 2.066091 0.202914
138.127625 65.219238 0.933909 0.234607
141.494171 62.948471 0.000008 0.292576
151.641068 56.104301 0.000005 0.306706
155.997528 53.165836 0.000003 0.287922
158.423843 51.529263 0.000003 0.352026
159.972839 50.484451 0.000002 0.242603
161.049454 49.758266 0.000002 0.292836
161.842667 49.223244 0.000003 0.318669
141.924500 62.912155 9.053860 0.252567
141.924622 62.912067 8.013189 0.238056
141.924622 62.912071 6.987170 0.239368
141.778915 63.011841 5.999497 0.733333
141.836105 62.972679 4.981573 0.709804
138.127625 65.511932 4.350021 0.346654
138.127625 65.511932 3.207568 0.305150
138.127625 65.511940 2.068783 0.095720
138.127609 65.511948 0.931217 0.098253
141.613983 63.124779 0.000008 0.291463
151.712860 56.209934 0.000004 0.291981
156.048691 53.241123 0.000003 0.296635
158.463516 51.587654 0.000002 0.293278
160.005188 50.532051 0.000002 0.252110
161.076706 49.798370 0.000001 0.301869
161.866165 49.257820 0.000003 0.340276
141.836105 63.229973 9.117292 0.711543
141.924622 63.168453 8.044635 0.275700
141.924622 63.168453 7.013660 0.202823
141.778915 63.269722 6.021219 0.721477
141.836105 63.229977 4.998381 0.709804
138.127625 65.807442 4.363780 0.345098
138.127625 65.807442 3.215812 0.328374
138.127625 65.807442 2.071528 0.149020
138.127609 65.807449 0.928471 0.172000
141.735016 63.300240 0.000007 0.290959
151.785370 56.315060 0.000005 0.294362
156.100372 53.316055 0.000003 0.276921
158.503601 51.645763 0.000002 0.298070
160.037872 50.579426 0.000002 0.326757
161.104233 49.838280 0.000001 0.290181
161.889893 49.292233 0.000003 0.342535
141.836105 63.489784 9.154618 0.712612
141.924622 63.427341 8.076706 0.285039
141.924622 63.427341 7.040681 0.172549
141.778931 63.530125 6.043374 0.741176
141.836105 63.489784 5.015525 0.709804
138.127625 66.105835 4.377815 0.351202
138.127625 66.105835 3.224220 0.320287
138.127609 66.105843 2.074329 0.186526
138.127609 66.105843 0.925671 0.205753
141.857269 63.474854 0.000007 0.287663
151.858627 56.419678 0.000004 0.290227
156.152588 53.390621 0.000003 0.324392
158.544098 51.703594 0.000002 0.279026
160.070877 50.626572 0.000001 0.321233
161.132050 49.877998 0.000001 0.263783
161.913879 49.326477 0.000003 0.340703
141.836105 63.752159 9.192692 0.733761
141.778931 63.793106 8.148119 0.733608
141.924622 63.688793 7.068240 0.198505
141.778915 63.793106 6.065972 0.730983
141.836105 63.752159 5.033010 0.709804
138.127625 66.407181 4.392128 0.345098
138.127609 66.407188 3.232796 0.305882
138.127609 66.407188 2.077186 0.192157
138.127609 66.407188 0.922814 0.235294
141.980743 63.648609 0.000007 0.287984
151.932617 56.523781 0.000004 0.289906
156.205322 53.464817 0.000003 0.299672
158.584991 51.761139 0.000002 0.242893
160.104218 50.673481 0.000002 0.290852
161.160141 49.917519 0.000001 0.297322
161.938095 49.360554 0.000003 0.339742
141.778915 64.058723 9.249229 0.724605
141.778915 64.058723 8.181679 0.733333
141.924622 63.952869 7.096347 0.179477
141.778931 64.058723 6.089019 0.723873
141.836105 64.017174 5.050844 0.734401
138.127609 66.711555 4.406728 0.344823
138.127609 66.711563 3.241543 0.331548
138.127609 66.711555 2.080100 0.129625
138.127609 66.711555 0.919900 0.179019
142.105438 63.821495 0.000007 0.290394
152.007309 56.627365 0.000004 0.280735
156.258560 53.538647 0.000003 0.310018
158.626297 51.818394 0.000003 0.285756
160.137878 50.720161 0.000002 0.253773
161.188492 49.956844 0.000001 0.295338
161.962555 49.394463 0.000003 0.343221
141.778915 64.327057 9.288926 0.710903
141.778915 64.327057 8.215907 0.720974
141.924622 64.219635 7.125013 0.215869
141.778915 64.327057 6.112528 0.721569
141.836105 64.284897 5.069034 0.729839
138.127609 67.019035 4.421618 0.120409
138.127609 67.019035 3.250464 0.167132
138.127609 67.019035 2.083072 0.040925
138.127609 67.019035 0.916928 0.073167
142.231339 63.993500 0.000007 0.296437
152.082748 56.730423 0.000004 0.310048
156.312332 53.612106 0.000003 0.274662
158.667984 51.875362 0.000002 0.294484
160.171875 50.766602 0.000002 0.284291
161.217133 49.995972 0.000001 0.321233
161.987244 49.428200 0.000003 0.335760
141.778915 64.598160 9.329416 0.705577
141.778915 64.598160 8.250818 0.712657
141.924622 64.489166 7.154256 0.222309
141.778931 64.598160 6.136504 0.709804
141.836105 64.555382 5.087586 0.721569
138.127594 67.329704 4.436807 0.333333
138.127594 67.329704 3.259564 0.326711
138.127594 67.329704 2.086102 0.167041
138.127594 67.329704 0.913897 0.189731
142.358429 64.164635 0.000007 0.293095
152.158890 56.832954 0.000004 0.299062
156.366592 53.685184 0.000003 0.293873
158.710083 51.932041 0.000002 0.289570
160.206192 50.812805 0.000002 0.321584
161.246048 50.034897 0.000001 0.318578
162.012161 49.461761 0.000003 0.348013
141.778931 64.872116 9.370712 0.710674
141.778931 64.872116 8.286426 0.694881
141.884628 64.791878 7.193215 0.684932
141.778915 64.872116 6.160962 0.719219
141.836105 64.828712 5.106512 0.721752
138.127609 67.643616 4.452297 0.345098
138.127609 67.643616 3.268845 0.339025
138.127594 67.643623 2.089195 0.192157
138.127625 67.643608 0.910806 0.264927
142.486710 64.334869 0.000007 0.289342
152.235748 56.934952 0.000004 0.305943
156.421387 53.757881 0.000003 0.300847
158.752563 51.988419 0.000002 0.296574
160.240829 50.858768 0.000002 0.284672
161.275223 50.073616 0.000001 0.250187
162.037323 49.495152 0.000003 0.342199
141.778931 65.148987 9.412835 0.721569
141.778931 65.148979 8.322745 0.709575
141.924606 65.036789 7.214503 0.209598
141.778931 65.148987 6.185906 0.733196
141.836105 65.104950 5.125813 0.724056
138.127609 67.960876 4.468097 0.364706
138.127609 67.960876 3.278311 0.343816
138.127609 67.960869 2.092348 0.127428
138.127625 67.960861 0.907653 0.143359
142.616180 64.504211 0.000007 0.293690
152.313324 57.036407 0.000004 0.280735
156.476669 53.830193 0.000003 0.284367
158.795441 52.044502 0.000003 0.229984
160.275787 50.904488 0.000002 0.321767
161.304688 50.112129 0.000004 0.333944
162.062714 49.528362 0.000003 0.340749
141.778915 65.428848 9.455804 0.721569
141.778931 65.428848 8.359793 0.733333
141.924606 65.315025 7.245533 0.176959
141.778931 65.428848 6.211350 0.731823
141.836105 65.384178 5.145502 0.726497
138.127609 68.281570 4.484213 0.364706
138.127609 68.281570 3.287968 0.351080
138.127625 68.281555 2.095563 0.149020
138.127625 68.281555 0.904436 0.191608
142.746826 64.672638 0.000007 0.287526
152.391602 57.137321 0.000004 0.335271
156.532471 53.902122 0.000003 0.268116
158.838715 52.100285 0.000002 0.249683
160.311050 50.949963 0.000002 0.309560
161.334396 50.150440 0.000004 0.345876
162.088348 49.561394 0.000003 0.338354
141.778915 65.711784 9.499630 0.721767
141.778931 65.711784 8.397583 0.737560
141.924622 65.596313 7.277182 0.237476
141.778931 65.711784 6.237304 0.741451
141.836105 65.666466 5.165584 0.733333
138.127625 68.605774 4.500651 0.345159
138.127609 68.605774 3.297817 0.350408
138.127625 68.605766 2.098845 0.212467
138.127625 68.605766 0.901156 0.247059
142.878647 64.840149 0.000007 0.298177
152.470566 57.237690 0.000004 0.289708
156.588760 53.973660 0.000003 0.305104
158.882370 52.155766 0.000002 0.348028
160.346649 50.995193 0.000002 0.297398
161.364380 50.188545 0.000004 0.340902
162.114197 49.594250 0.000003 0.350317
141.778931 65.997871 9.544337 0.714305
141.836090 65.951904 8.420287 0.737591
141.924622 65.880730 7.309471 0.203922
141.778931 65.997871 6.263781 0.733333
141.836105 65.951897 5.186069 0.739178
138.127625 68.933594 4.517422 0.352209
138.127625 68.933586 3.307864 0.343542
138.127625 68.933594 2.102191 0.221439
138.127625 68.933594 0.897809 0.258824
143.011627 65.006752 0.000007 0.294804
152.550247 57.337502 0.000004 0.284916
156.645538 54.044800 0.000003 0.263447
158.926407 52.210938 0.000002 0.262943
160.382553 51.040173 0.000001 0.330556
161.394623 50.226437 0.000004 0.330724
162.140274 49.626923 0.000003 0.338521
141.778931 66.287178 9.589943 0.700710
141.836090 66.240555 8.459522 0.728328
141.924622 66.168358 7.342406 0.182086
141.778931 66.287178 6.290788 0.723964
141.836105 66.240547 5.206967 0.711269
138.127625 69.265099 4.534527 0.346502
138.127625 69.265099 3.318113 0.346502
138.127625 69.265099 2.105604 0.137255
138.127625 69.265099 0.894395 0.145434
143.145782 65.172401 0.000007 0.294438
152.630630 57.436749 0.000004 0.289174
156.702835 54.115540 0.000003 0.311910
158.970840 52.265797 0.000002 0.281544
160.418762 51.084896 0.000002 0.353536
161.461014 50.234859 0.010001 1.000000
162.166580 49.659409 0.000003 0.338048
141.778915 66.579811 9.636471 0.725063
141.836105 66.532509 8.499544 0.741100
141.924622 66.459282 7.376005 0.173678
141.778915 66.579811 6.318340 0.740993
141.836105 66.532501 5.228286 0.727031
138.127609 69.600433 4.551981 0.352941
138.127609 69.600441 3.328571 0.352941
138.127609 69.600433 2.109088 0.176532
138.127609 69.600433 0.890912 0.197360
143.281067 65.337120 0.000007 0.295674
152.711685 57.535442 0.000004 0.282109
156.760605 54.185883 0.000003 0.303273
159.015656 52.320351 0.000002 0.292515
160.455292 51.129368 0.000002 0.265858
161.491577 50.272079 0.010000 1.000000
162.193115 49.691715 0.000003 0.322988
141.778915 66.875832 9.683935 0.722667
141.836105 66.827850 8.540376 0.709804
141.924622 66.753586 7.410284 0.140017
141.778915 66.875832 6.346448 0.733333
141.836105 66.827850 5.250034 0.710399
138.127609 69.939651 4.569785 0.345098
138.127609 69.939651 3.339238 0.333333
138.127609 69.939651 2.112641 0.203922
138.127609 69.939651 0.887359 0.246098
143.417526 65.500885 0.000007 0.289677
152.793442 57.633560 0.000004 0.271168
156.818878 54.255814 0.000003 0.284810
159.060837 52.374588 0.000002 0.282826
160.492142 51.173584 0.000001 0.253101
161.522415 50.309082 0.010000 1.000000
162.219879 49.723835 0.000003 0.339208
141.778931 67.175354 9.732360 0.734310
141.836105 67.126686 8.582035 0.709804
141.924622 67.051353 7.445256 0.137255
141.778915 67.175354 6.375126 0.726345
141.836105 67.126678 5.272223 0.733333
138.127609 70.282860 4.587950 0.361944
138.127609 70.282860 3.350120 0.333333
138.127609 70.282867 2.116266 0.133883
138.127625 70.282852 0.883734 0.149020
143.555115 65.663696 0.000007 0.291447
152.875870 57.731110 0.000004 0.299367
156.877640 54.325344 0.000003 0.307744
159.106400 52.428509 0.000002 0.319509
160.529282 51.217545 0.000002 0.279561
161.553497 50.345875 0.009999 1.000000
162.246872 49.755768 0.000003 0.347723
141.778931 67.478455 9.781770 0.761166
141.836105 67.429092 8.624538 0.724605
141.924622 67.352684 7.480937 0.166369
141.778915 67.478455 6.404384 0.748119
141.836105 67.429092 5.294863 0.685328
138.127609 70.630188 4.606484 0.345098
138.127594 70.630188 3.361225 0.345190
138.127609 70.630173 2.119965 0.174029
138.127609 70.630173 0.880035 0.190036
143.693832 65.825546 0.000007 0.296696
152.958984 57.828079 0.000004 0.300740
156.936874 54.394463 0.000003 0.307393
159.152344 52.482113 0.000002 0.286061
160.566742 51.261242 0.000001 0.287694
161.584839 50.382446 0.009998 1.000000
162.274078 49.787510 0.000003 0.344900
141.778915 67.785217 9.832183 0.733333
141.836105 67.735153 8.667908 0.736645
141.924622 67.657661 7.517344 0.180392
141.778915 67.785217 6.434239 0.734157
141.836105 67.735153 5.317966 0.730434
138.127609 70.981705 4.625394 0.364706
138.127609 70.981705 3.372554 0.345098
138.127609 70.981697 2.123739 0.198596
138.127609 70.981697 0.876261 0.246555
143.833664 65.986420 0.000007 0.284398
153.042770 57.924461 0.000004 0.323720
156.996597 54.463158 0.000003 0.247730
159.198654 52.535393 0.000002 0.265019
160.604492 51.304676 0.000001 0.273289
161.616425 50.418797 0.009997 1.000000
162.301498 49.819061 0.000003 0.349950
141.778931 68.095764 9.883623 0.723125
141.836105 68.044991 8.712161 0.734096
141.924637 67.966393 7.554491 0.129412
141.778915 68.095764 6.464703 0.750408
141.836121 68.044983 5.341535 0.729061
138.127609 71.337555 4.644690 0.345098
138.127609 71.337555 3.384115 0.347494
138.127609 71.337555 2.127590 0.155886
138.127609 71.337555 0.872410 0.208881
143.974640 66.146317 0.000007 0.286427
153.127228 58.020260 0.000004 0.287465
157.056793 54.531441 0.000003 0.293599
159.245346 52.588348 0.000002 0.327245
160.642548 51.347847 0.000002 0.303014
161.648285 50.454926 0.009997 1.000000
162.329147 49.850422 0.000003 0.341482
141.778915 68.410179 9.936119 0.733333
141.924622 68.278992 8.731594 0.252079
141.924637 68.278976 7.592401 0.141619
141.778931 68.410179 6.495790 0.733333
141.836105 68.358688 5.365589 0.721569
138.127594 71.697845 4.664381 0.179049
138.127609 71.697845 3.395913 0.108873
138.127594 71.697845 2.131520 0.136889
138.127594 71.697845 0.868480 0.157961
144.116714 66.305222 0.000006 0.287968
153.212357 58.115471 0.000004 0.276204
157.117462 54.599300 0.000003 0.256138
159.292404 52.640976 0.000002 0.277607
160.680908 51.390751 0.000002 0.300160
161.645996 50.521790 0.000003 0.334157
162.357010 49.881584 0.000003 0.310445
141.778931 68.728577 9.989690 0.733333
141.924622 68.595535 8.777519 0.183841
141.924622 68.595528 7.631093 0.130144
141.778915 68.728584 6.527515 0.733333
141.836121 68.676353 5.390137 0.720012
138.127625 72.062668 4.684473 0.352941
138.127625 72.062668 3.407952 0.352941
138.127625 72.062668 2.135530 0.218265
138.127625 72.062668 0.864470 0.258824
144.259903 66.463135 0.000006 0.294194
153.298141 58.210083 0.000004 0.291875
157.178604 54.666733 0.000003 0.288365
159.339828 52.693272 0.000002 0.347433
160.719574 51.433384 0.000002 0.339162
161.678558 50.557709 0.000004 0.339101
162.385101 49.912556 0.000003 0.331502
141.778931 69.051056 10.044366 0.748425
141.924622 68.916138 8.824389 0.210040
141.924622 68.916130 7.670578 0.148623
141.778931 69.051056 6.559893 0.756619
141.836121 68.998093 5.415189 0.725292
138.127625 72.432190 4.704981 0.362966
138.127625 72.432190 3.420239 0.337514
138.127625 72.432198 2.139623 0.131426
138.127609 72.432213 0.860377 0.199863
144.404175 66.620041 0.000007 0.295705
153.384583 58.304092 0.000004 0.323125
157.240219 54.733742 0.000003 0.286122
159.387604 52.745235 0.000002 0.276295
160.758530 51.475750 0.000001 0.249943
161.711380 50.593399 0.000003 0.342885
162.413391 49.943329 0.000003 0.338399
141.778931 69.377731 10.100174 0.739467
141.924622 69.240921 8.872231 0.182010
141.924622 69.240913 7.710882 0.149294
141.857040 69.304375 6.577044 0.724239
141.836121 69.324028 5.440762 0.723262
138.127625 72.806534 4.725915 0.333837
138.127625 72.806534 3.432781 0.333883
138.127625 72.806534 2.143801 0.158862
138.127609 72.806549 0.856199 0.171817
144.549561 66.775940 0.000007 0.283299
153.471695 58.397499 0.000004 0.287739
157.302307 54.800316 0.000003 0.271611
159.435745 52.796871 0.000002 0.252415
160.797775 51.517838 0.000002 0.297368
161.744446 50.628860 0.000003 0.329946
162.441910 49.973907 0.000003 0.346273
141.778931 69.708717 10.157140 0.733333
141.924606 69.569984 8.921062 0.206363
141.924622 69.569977 7.752023 0.180392
141.836121 69.654251 6.614958 0.723598
141.836121 69.654251 5.466865 0.726436
138.127625 73.185806 4.747283 0.379873
138.127625 73.185806 3.445584 0.334707
138.127625 73.185814 2.148065 0.200656
138.127625 73.185814 0.851935 0.241032
144.696014 66.930817 0.000006 0.295277
153.559433 58.490288 0.000004 0.297932
157.364853 54.866447 0.000003 0.296437
159.484253 52.848160 0.000002 0.261524
160.837326 51.559654 0.000001 0.353124
161.777771 50.664085 0.000003 0.329137
162.470627 50.004280 0.000003 0.338872
141.778931 70.044136 10.215293 0.721569
141.892532 69.934433 8.980545 0.310903
141.924622 69.903450 7.794021 0.203922
141.836121 69.988899 6.649317 0.709163
141.836121 69.988907 5.493511 0.722118
138.127625 73.570160 4.769097 0.385382
138.127625 73.570168 3.458653 0.334340
138.127625 73.570168 2.152418 0.213336
138.127625 73.570168 0.847582 0.278904
144.843552 67.084656 0.000007 0.289296
153.647842 58.582470 0.000004 0.271015
157.427856 54.932152 0.000003 0.312123
159.533127 52.899117 0.000002 0.282216
160.877151 51.601196 0.000001 0.268757
161.811325 50.699081 0.000004 0.343526
162.499557 50.034454 0.000003 0.350088
141.836121 70.328102 10.254609 0.720241
141.924622 70.241432 9.021800 0.180392
141.924622 70.241440 7.836897 0.183703
141.836121 70.328102 6.684397 0.727672
141.778915 70.384117 5.529926 0.709804
138.127625 73.959732 4.791366 0.234623
138.127625 73.959732 3.471996 0.235294
138.127625 73.959732 2.156862 0.031373
138.127625 73.959732 0.843137 0.062745
144.992157 67.237488 0.000006 0.286961
153.736877 58.674030 0.000003 0.272328
157.491318 54.997414 0.000003 0.284031
159.582336 52.949726 0.000002 0.324666
160.917282 51.642452 0.000002 0.288655
161.845123 50.733845 0.000003 0.351720
162.528702 50.064426 0.000002 0.343954
141.836121 70.671967 10.315091 0.713573
141.924622 70.584076 9.073765 0.165606
141.924606 70.584091 7.880676 0.223529
141.836121 70.671967 6.720212 0.763424
141.778915 70.728775 5.557767 0.709804
138.341370 74.142410 4.789404 0.352438
138.341370 74.142410 3.470820 0.327398
138.341370 74.142410 2.156471 0.202457
138.341370 74.142418 0.843529 0.261250
145.141846 67.389252 0.000007 0.291630
153.826538 58.764965 0.000004 0.293919
157.555222 55.062225 0.000003 0.293492
159.631912 52.999992 0.000002 0.316411
160.957687 51.683434 0.000002 0.284230
161.879166 50.768368 0.000003 0.349386
162.558060 50.094193 0.000003 0.344396
nan nan nan 0.000000
nan nan nan 0.000000
nan nan nan 0.000000
nan nan nan 0.000000
nan nan nan 0.000000
nan nan nan 0.000000
228.046555 106.687927 5.739881 0.862852
228.046600 106.687981 2.912287 0.721614
228.046555 106.687927 0.087715 0.732677
188.472504 67.389191 0.000012 0.289067
179.787842 58.764942 0.000007 0.291203
176.059174 55.062218 0.000004 0.302541
173.982498 52.999992 0.000003 0.292363
172.656723 51.683434 0.000002 0.372381
171.735245 50.768372 0.000001 0.320348
171.056351 50.094200 0.000000 0.260578
nan nan nan 0.000000
nan nan nan 0.000000
nan nan nan 0.000000
nan nan nan 0.000000
nan nan nan 0.000000
nan nan nan 0.000000
228.907700 106.687927 5.770005 0.861753
229.372894 107.143463 2.932973 0.713726
228.907715 106.687927 0.077681 0.693233
188.622162 67.237411 0.000012 0.294514
179.877518 58.674007 0.000006 0.312856
176.123093 54.997402 0.000004 0.318990
174.032074 52.949722 0.000003 0.292256
172.697128 51.642452 0.000002 0.287114
171.769287 50.733849 0.000001 0.228290
171.085709 50.064430 0.000001 0.334188
nan nan nan 0.000000
nan nan nan 0.000000
nan nan nan 0.000000
nan nan nan 0.000000
nan nan nan 0.000000
nan nan nan 0.000000
229.781219 106.687927 5.800770 0.816983
230.252945 107.143463 2.943296 0.713726
228.979218 105.913437 0.085678 0.732662
188.770782 67.084595 0.000012 0.288151
179.966553 58.582451 0.000006 0.322850
176.186554 54.932140 0.000004 0.318486
174.081284 52.899113 0.000003 0.329213
172.737244 51.601192 0.000002 0.270619
171.803101 50.699089 0.000001 0.366155
171.114853 50.034462 0.000001 0.254536
nan nan nan 0.000000
nan nan nan 0.000000
nan nan nan 0.000000
nan nan nan 0.000000
nan nan nan 0.000000
nan nan nan 0.000000
230.667465 106.687927 5.832194 0.865843
230.743698 106.760529 2.944756 0.491371
230.667465 106.687927 0.056967 0.718105
188.918320 66.930740 0.000012 0.296208
180.054947 58.490269 0.000007 0.294789
176.249542 54.866440 0.000005 0.295842
174.130142 52.848160 0.000003 0.335576
172.777084 51.559654 0.000002 0.242817
171.836655 50.664093 0.000001 0.329976
171.143784 50.004288 0.000001 0.305867
nan nan nan 0.000000
nan nan nan 0.000000
nan nan nan 0.000000
nan nan nan 0.000000
nan nan nan 0.000000
nan nan nan 0.000000
nan nan nan 0.000000
nan nan nan 0.000000
233.626480 108.622101 0.000038 0.294118
189.064774 66.775864 0.000012 0.293538
180.142700 58.397476 0.000007 0.289601
176.312103 54.800304 0.000004 0.287816
174.178650 52.796864 0.000003 0.299229
172.816620 51.517838 0.000002 0.239521
171.869965 50.628868 0.000001 0.366323
171.172516 49.973911 0.000001 0.254795
nan nan nan 0.000000
nan nan nan 0.000000
nan nan nan 0.000000
nan nan nan 0.000000
nan nan nan 0.000000
nan nan nan 0.000000
nan nan nan 0.000000
nan nan nan 0.000000
232.965820 107.138176 0.024505 0.294118
189.210144 66.619965 0.000012 0.292988
180.229797 58.304070 0.000007 0.292241
176.374176 54.733730 0.000004 0.275059
174.226791 52.745232 0.000003 0.269673
172.855881 51.475746 0.000002 0.249180
171.903030 50.593407 0.000001 0.270466
171.201019 49.943336 0.000001 0.338552
nan nan nan 0.000000
nan nan nan 0.000000
nan nan nan 0.000000
nan nan nan 0.000000
nan nan nan 0.000000
nan nan nan 0.000000
nan nan nan 0.000000
nan nan nan 0.000000
235.604492 108.695175 -0.024524 0.294118
189.354431 66.463058 0.000012 0.294667
180.316238 58.210060 0.000007 0.306615
176.435791 54.666725 0.000004 0.277211
174.274582 52.693268 0.000003 0.351522
172.894836 51.433384 0.000002 0.289006
171.935852 50.557716 0.000001 0.239933
171.229324 49.912563 0.000001 0.256092
nan nan nan 0.000000
nan nan nan 0.000000
nan nan nan 0.000000
nan nan nan 0.000000
nan nan nan 0.000000
nan nan nan 0.000000
nan nan nan 0.000000
nan nan nan 0.000000
234.925827 107.208908 0.000040 0.294118
189.497604 66.305153 0.000012 0.287358
180.402023 58.115448 0.000007 0.276539
176.496933 54.599289 0.000005 0.320790
174.322006 52.640972 0.000003 0.317754
172.933487 51.390751 0.000002 0.308797
171.968414 50.521797 0.000001 0.250919
171.257401 49.881592 0.000001 0.331121
nan nan nan 0.000000
nan nan nan 0.000000
nan nan nan 0.000000
nan nan nan 0.000000
nan nan nan 0.000000
nan nan nan 0.000000
nan nan nan 0.000000
nan nan nan 0.000000
235.352386 106.731880 0.000040 0.294118
189.639679 66.146240 0.000013 0.299138
180.487152 58.020241 0.000007 0.278706
176.557617 54.531429 0.000005 0.275898
174.369064 52.588345 0.000003 0.280873
172.971848 51.347847 0.000002 0.277409
172.000732 50.485649 0.000001 0.260594
171.285263 49.850426 0.000001 0.293278
nan nan nan 0.000000
nan nan nan 0.000000
nan nan nan 0.000000
nan nan nan 0.000000
nan nan nan 0.000000
nan nan nan 0.000000
nan nan nan 0.000000
nan nan nan 0.000000
235.775513 106.251801 0.000040 0.294118
189.780655 65.986343 0.000013 0.295003
180.571609 57.924442 0.000007 0.319783
176.617813 54.463150 0.000004 0.320790
174.415741 52.535389 0.000003 0.353475
173.009918 51.304672 0.000002 0.292180
172.032806 50.449280 0.000001 0.290730
171.312912 49.819065 0.000001 0.270527
nan nan nan 0.000000
nan nan nan 0.000000
nan nan nan 0.000000
nan nan nan 0.000000
nan nan nan 0.000000
nan nan nan 0.000000
nan nan nan 0.000000
nan nan nan 0.000000
236.195313 105.768845 0.000040 0.294118
189.920486 65.825462 0.000013 0.293126
180.655396 57.828056 0.000007 0.265049
176.677521 54.394451 0.000004 0.296254
174.462051 52.482109 0.000003 0.247105
173.047668 51.261242 0.000002 0.266499
172.064621 50.412689 0.000001 0.315602
171.340347 49.787514 0.000001 0.320912
nan nan nan 0.000000
nan nan nan 0.000000
nan nan nan 0.000000
nan nan nan 0.000000
nan nan nan 0.000000
nan nan nan 0.000000
nan nan nan 0.000000
nan nan nan 0.000000
235.608566 104.429169 0.021598 0.294118
190.059204 65.663620 0.000013 0.293446
180.738510 57.731087 0.000007 0.272099
176.736771 54.325333 0.000005 0.282826
174.507996 52.428505 0.000003 0.301183
173.085129 51.217541 0.000002 0.350576
172.096161 50.375874 0.000002 0.312169
171.367554 49.755772 0.000001 0.232059
nan nan nan 0.000000
nan nan nan 0.000000
nan nan nan 0.000000
nan nan nan 0.000000
nan nan nan 0.000000
nan nan nan 0.000000
nan nan nan 0.000000
nan nan nan 0.000000
238.465729 106.003265 -0.030739 0.294118
190.196793 65.500809 0.000013 0.291722
180.820938 57.633541 0.000007 0.287984
176.795517 54.255806 0.000005 0.259358
174.553558 52.374584 0.000003 0.285023
173.122269 51.173584 0.000002 0.313619
172.127457 50.338840 0.000002 0.356512
171.394531 49.723843 0.000001 0.321172
nan nan nan 0.000000
nan nan nan 0.000000
nan nan nan 0.000000
nan nan nan 0.000000
nan nan nan 0.000000
nan nan nan 0.000000
nan nan nan 0.000000
nan nan nan 0.000000
238.482880 105.169907 -0.022225 0.294118
190.333237 65.337051 0.000013 0.295201
180.902695 57.535416 0.000007 0.288319
176.853790 54.185871 0.000005 0.282200
174.598755 52.320351 0.000003 0.340902
173.159103 51.129368 0.000002 0.297276
172.158493 50.301590 0.000001 0.258366
171.421295 49.691723 0.000001 0.242084
nan nan nan 0.000000
nan nan nan 0.000000
nan nan nan 0.000000
nan nan nan 0.000000
nan nan nan 0.000000
nan nan nan 0.000000
nan nan nan 0.000000
nan nan nan 0.000000
237.840607 103.808060 0.000040 0.294118
190.468536 65.172333 0.000013 0.290959
180.983749 57.436729 0.000007 0.286778
176.911560 54.115532 0.000005 0.291722
174.643570 52.265797 0.000003 0.287160
173.195633 51.084896 0.000002 0.263676
172.189270 50.264122 0.000002 0.280217
171.447830 49.659416 0.000001 0.226978
180.270172 56.699123 5.827132 0.751293
180.270172 56.699123 5.231017 0.748135
180.270172 56.699120 4.643270 0.721614
180.270172 56.699123 4.062487 0.726436
180.270172 56.699123 3.487315 0.738964
180.270172 56.699123 2.916459 0.689616
180.270172 56.699123 2.348660 0.728481
180.270172 56.699123 1.782685 0.709804
180.270172 56.699123 1.217315 0.721645
180.270172 56.699123 0.651340 0.740307
180.270172 56.699123 0.083540 0.678431
176.968857 54.044788 0.000005 0.301457
174.687988 52.210930 0.000003 0.275822
173.231857 51.040169 0.000002 0.351965
172.219788 50.226444 0.000002 0.283665
171.474136 49.626926 0.000001 0.247776
180.270172 56.545235 5.803084 0.695735
180.270172 56.545235 5.210281 0.707713
180.270172 56.545235 4.625801 0.737865
180.270172 56.545235 4.048245 0.722408
180.270172 56.545235 3.476270 0.773434
180.270172 56.545235 2.908587 0.702708
180.270172 56.545235 2.343943 0.727245
180.270172 56.545235 1.781114 0.709804
180.270172 56.545235 1.218886 0.728832
180.270172 56.545235 0.656056 0.733455
180.270172 56.545235 0.091413 0.709804
177.025635 53.973648 0.000005 0.285176
174.732040 52.155762 0.000003 0.340993
173.267761 50.995190 0.000002 0.248096
172.250031 50.188549 0.000002 0.294362
171.500214 49.594254 0.000001 0.250614
180.270172 56.393044 5.779510 0.734874
180.270172 56.393044 5.189954 0.757259
180.270172 56.393044 4.608676 0.748989
180.270172 56.393044 4.034284 0.682658
180.270172 56.393044 3.465443 0.714168
180.270172 56.393040 2.900870 0.750210
180.270172 56.393044 2.339320 0.750057
180.270172 56.393044 1.779573 0.709804
180.270172 56.393044 1.220426 0.745678
180.270172 56.393044 0.660680 0.738231
180.270172 56.393040 0.099130 0.712657
177.081940 53.902115 0.000005 0.294377
174.775696 52.100281 0.000003 0.234501
173.303360 50.949963 0.000002 0.265919
172.280014 50.150448 0.000001 0.241489
171.526077 49.561401 0.000001 0.364508
180.270172 56.242500 5.756396 0.738415
180.270172 56.242500 5.170025 0.715816
180.270172 56.242500 4.591887 0.678660
180.270172 56.242500 4.020597 0.725246
180.270172 56.242500 3.454828 0.721569
180.270172 56.242500 2.893304 0.722484
180.270172 56.242500 2.334787 0.741238
180.270172 56.242500 1.778064 0.712474
180.270172 56.242500 1.221936 0.730220
180.270172 56.242500 0.665213 0.774441
180.270172 56.242496 0.106695 0.709804
177.137726 53.830185 0.000005 0.281941
174.818954 52.044498 0.000004 0.278859
173.338623 50.904488 0.000003 0.272648
172.309738 50.112137 0.000002 0.267185
171.551697 49.528366 0.000001 0.240955
180.270172 56.093567 5.733738 0.692073
180.270172 56.093567 5.150487 0.729168
180.270172 56.093567 4.575428 0.689372
180.270172 56.093567 4.007179 0.710491
180.270172 56.093567 3.444421 0.709804
180.270172 56.093567 2.885887 0.684504
180.270172 56.093567 2.330343 0.752285
180.270172 56.093567 1.776584 0.735164
180.270172 56.093567 1.223417 0.719676
180.270172 56.093567 0.669657 0.734585
180.270172 56.093567 0.114112 0.716609
177.193008 53.757874 0.000005 0.258457
174.861832 51.988415 0.000004 0.232334
173.373581 50.858768 0.000002 0.291630
172.339188 50.073620 0.000002 0.319905
171.577087 49.495155 0.000001 0.312032
180.270172 55.946205 5.711524 0.711788
180.270172 55.946205 5.131334 0.690196
180.270172 55.946205 4.559291 0.699260
180.270172 55.946205 3.994024 0.708156
180.270172 55.946205 3.434218 0.717342
180.270172 55.946205 2.878615 0.750912
180.270172 55.946205 2.325986 0.717586
180.270172 55.946205 1.775132 0.709804
180.270172 55.946205 1.224868 0.709804
180.270172 55.946205 0.674013 0.719875
180.270172 55.946205 0.121385 0.739452
177.247787 53.685173 0.000005 0.334005
174.904327 51.932034 0.000004 0.331273
173.408218 50.812805 0.000002 0.311269
172.368362 50.034897 0.000002 0.267903
171.602249 49.461769 0.000001 0.269917
180.270172 55.800373 5.689743 0.774166
180.270172 55.800373 5.112555 0.709804
180.270172 55.800373 4.543470 0.752514
180.270172 55.800369 3.981125 0.727657
180.270172 55.800373 3.424217 0.709804
180.270172 55.800373 2.871486 0.749722
180.270172 55.800373 2.321715 0.709804
180.270172 55.800373 1.773709 0.709804
180.270172 55.800373 1.226291 0.730785
180.270172 55.800373 0.678285 0.709804
180.270172 55.800373 0.128514 0.749187
177.302063 53.612095 0.000005 0.274250
174.946411 51.875359 0.000004 0.239261
173.442535 50.766602 0.000002 0.310002
172.397278 49.995972 0.000002 0.352239
171.627182 49.428204 0.000001 0.294606
180.270172 55.656040 5.668391 0.703929
180.270172 55.656036 5.094144 0.678431
180.270172 55.656036 4.527959 0.720348
180.270172 55.656036 3.968481 0.723690
180.270172 55.656036 3.414410 0.746517
180.270172 55.656036 2.864496 0.732143
180.270172 55.656036 2.317527 0.689342
180.270172 55.656036 1.772314 0.709804
180.270172 55.656036 1.227686 0.724422
180.270172 55.656036 0.682473 0.709804
180.270172 55.656036 0.135504 0.694850
177.355835 53.538643 0.000005 0.297261
174.988113 51.818390 0.000003 0.259373
173.476517 50.720161 0.000002 0.337270
172.425903 49.956844 0.000002 0.360906
171.651871 49.394470 0.000001 0.311498
180.270172 55.513157 5.647455 0.724788
180.270172 55.513153 5.076092 0.773602
180.270172 55.513157 4.512752 0.696330
180.270172 55.513157 3.956083 0.731075
180.270172 55.513153 3.404795 0.708110
180.270172 55.513157 2.857643 0.691188
180.270172 55.513157 2.313421 0.700053
180.270172 55.513153 1.770947 0.686519
180.270172 55.513153 1.229053 0.725704
180.270172 55.513157 0.686579 0.694865
180.270172 55.513157 0.142356 0.703990
177.409073 53.464809 0.000005 0.287404
175.029404 51.761131 0.000004 0.247562
173.510193 50.673481 0.000002 0.274632
172.454269 49.917519 0.000002 0.318471
171.676315 49.360561 0.000001 0.327962
180.270172 55.371700 5.626929 0.717235
180.270172 55.371696 5.058393 0.691783
180.270172 55.371696 4.497841 0.649653
180.270172 55.371696 3.943928 0.737774
180.270172 55.371696 3.395368 0.732143
180.270172 55.371696 2.850923 0.709804
180.270172 55.371696 2.309395 0.694759
180.270172 55.371696 1.769606 0.709804
180.270172 55.371696 1.230394 0.720790
180.270172 55.371696 0.690605 0.709804
180.270172 55.371696 0.149076 0.697520
177.461807 53.390610 0.000005 0.270222
175.070297 51.703590 0.000004 0.334478
173.543518 50.626568 0.000003 0.303853
172.482361 49.877998 0.000002 0.273686
171.700546 49.326485 0.000001 0.259983
180.270172 55.231625 5.606803 0.735836
180.270172 55.231625 5.041040 0.772778
180.270172 55.231625 4.483222 0.673304
180.270172 55.231625 3.932010 0.699138
180.270172 55.231625 3.386125 0.717159
180.270172 55.231625 2.844336 0.702480
180.270172 55.231625 2.305448 0.772900
180.270172 55.231625 1.768291 0.709804
180.270172 55.231625 1.231709 0.773053
180.270172 55.231625 0.694551 0.718303
180.270172 55.231625 0.155664 0.712627
177.514023 53.316044 0.000005 0.266194
175.110794 51.645760 0.000004 0.296025
173.576538 50.579426 0.000002 0.332158
172.510162 49.838280 0.000002 0.241123
171.724518 49.292236 0.000001 0.235508
180.270172 55.092903 5.587071 0.709804
180.270172 55.092903 5.024028 0.681193
180.270172 55.092903 4.468889 0.769955
180.270172 55.092903 3.920325 0.709804
180.270172 55.092903 3.377063 0.722332
180.270172 55.092903 2.837877 0.709804
180.270172 55.092903 2.301579 0.696925
180.270172 55.092903 1.767002 0.709804
180.270172 55.092903 1.232998 0.734127
180.270172 55.092903 0.698421 0.696437
180.270172 55.092903 0.162123 0.698039
177.565704 53.241116 0.000005 0.283558
