# This PCD file was generated using the MATLABÂ® pcwrite function
# from Computer Vision ToolboxÂ®.
# .PCD v.7 - Point Cloud Data file format
VERSION .7
FIELDS x y z intensity
SIZE 4 4 4 4
TYPE F F F F
COUNT 1 1 1 1
WIDTH 1277
HEIGHT 1
VIEWPOINT 0 0 0 1 0 0 0
POINTS 1277
DATA ascii
105.808975 73.870880 6.326906 0.288212
105.808212 73.869919 4.391942 0.285832
107.430939 75.932808 2.506242 0.735393
107.430954 75.932816 0.493757 0.721889
88.290474 51.600456 0.000003 0.291859
80.723267 41.980633 0.000002 0.294102
77.474380 37.850475 0.000001 0.281788
75.664917 35.550198 0.000001 0.281773
74.509735 34.081661 0.000000 0.272602
73.706856 33.061001 -0.000007 0.336507
73.115303 32.308998 -0.000005 0.339101
nan nan nan 0.000000
107.372856 75.171761 14.644266 0.727077
107.199402 74.954399 12.523055 0.192477
107.372864 75.171768 10.527568 0.709804
107.372856 75.171768 8.501253 0.733333
105.811432 73.215073 6.284884 0.280690
105.813065 73.217117 4.366954 0.286030
107.430939 75.244553 2.497414 0.721569
107.430946 75.244553 0.502586 0.721569
88.457558 51.468090 0.000003 0.291020
80.823372 41.901321 0.000002 0.296574
77.545731 37.793945 0.000001 0.283558
75.720253 35.506351 0.000001 0.284489
74.554840 34.045921 0.000000 0.270970
73.744858 33.030891 -0.000007 0.345418
73.148079 32.283035 -0.000005 0.342550
nan nan nan 0.000000
107.372849 74.496490 14.530586 0.709804
107.199417 74.282242 12.427727 0.173571
107.372849 74.496490 10.449492 0.709804
107.372849 74.496490 8.440702 0.698039
105.808884 72.564430 6.243169 0.276387
105.809776 72.565536 4.341902 0.277150
107.430946 74.568253 2.488787 0.721569
107.430946 74.568260 0.511211 0.731350
88.623703 51.334553 0.000003 0.290089
80.922913 41.821312 0.000002 0.258442
77.616676 37.736919 0.000001 0.298222
75.775276 35.462128 0.000001 0.345983
74.599701 34.009869 0.000001 0.286870
73.753510 32.964520 0.009996 1.000000
73.180664 32.256844 -0.000005 0.337011
nan nan nan 0.000000
107.372849 73.832741 14.419475 0.721569
107.199432 73.621544 12.334552 0.189837
107.372841 73.832733 10.373178 0.724239
107.430885 73.903427 8.392042 0.719081
105.813652 71.933846 6.203342 0.266667
105.813751 71.933960 4.317977 0.276265
107.430931 73.903488 2.480357 0.701167
107.430939 73.903488 0.519644 0.701350
88.788918 51.199860 0.000003 0.291859
81.021904 41.740612 0.000002 0.277317
77.687233 37.679401 0.000001 0.333791
75.829994 35.417519 0.000001 0.299763
74.644310 33.973503 0.000000 0.280171
73.790840 32.934090 0.009995 1.000000
73.213066 32.230427 -0.000005 0.342550
nan nan nan 0.000000
107.199448 72.972008 14.252346 0.192157
107.199448 72.972015 12.243477 0.151553
107.372833 73.180199 10.298583 0.731960
107.430893 73.249908 8.334104 0.733333
105.811691 71.305763 6.163551 0.261479
105.808968 71.302490 4.293921 0.265507
107.430939 73.249954 2.472115 0.721035
107.430939 73.249954 0.527885 0.698039
88.953178 51.064011 0.000003 0.296513
81.120323 41.659225 0.000002 0.306996
77.757378 37.621391 0.000001 0.245823
75.884399 35.372528 0.000001 0.319585
74.688660 33.936825 0.000000 0.305165
73.827957 32.903397 0.009995 1.000000
73.245277 32.203785 -0.000005 0.334783
nan nan nan 0.000000
107.199448 72.333252 14.146647 0.200427
107.199455 72.333252 12.154428 0.171405
107.430893 72.607231 10.239000 0.735348
107.430893 72.607224 8.277458 0.731807
105.810501 70.689049 6.124746 0.278431
105.810394 70.688919 4.270871 0.274022
107.430931 72.607269 2.464057 0.694545
107.430939 72.607277 0.535942 0.737102
89.116501 50.927021 0.000003 0.289891
81.218170 41.577148 0.000002 0.263905
77.827118 37.562889 0.000001 0.274006
75.938484 35.327160 0.000001 0.263645
74.732750 33.899837 0.000001 0.266743
73.864853 32.872437 0.009998 1.000000
73.277313 32.176918 -0.000005 0.355444
nan nan nan 0.000000
107.199402 71.704895 14.043273 0.179492
107.199463 71.704971 12.067355 0.203922
107.430893 71.975082 10.167578 0.733333
107.430893 71.975082 8.222068 0.722896
105.807404 70.080231 6.086559 0.262654
105.809380 70.082535 4.248149 0.260426
107.430939 71.975136 2.456178 0.731304
107.430939 71.975136 0.543821 0.731838
89.278854 50.788895 0.000003 0.292393
81.315445 41.494392 0.000002 0.293309
77.896454 37.503906 0.000001 0.336782
75.992256 35.281418 0.000001 0.255314
74.776588 33.862545 0.000001 0.274647
73.901527 32.841217 0.010000 1.000000
73.309151 32.149830 -0.000005 0.320516
nan nan nan 0.000000
107.199417 71.086792 13.942204 0.180652
107.239395 71.132805 11.993279 0.647059
107.430893 71.353172 10.097734 0.732982
105.760689 69.431107 7.874969 0.211780
105.811127 69.489166 6.050066 0.269200
105.809509 69.487297 4.226013 0.277424
107.430939 71.353226 2.448473 0.737804
107.430939 71.353226 0.551526 0.723217
89.440247 50.649651 0.000003 0.289815
81.412132 41.410954 0.000002 0.291264
77.965370 37.444439 0.000001 0.278645
76.045708 35.235298 0.000001 0.282368
74.820160 33.824947 0.000001 0.314321
73.937988 32.809750 0.010002 1.000000
73.340805 32.122517 -0.000005 0.331167
nan nan nan 0.000000
107.199425 70.478516 13.843341 0.164279
107.199417 70.478516 11.898896 0.129412
107.430901 70.741165 10.029418 0.748196
105.760406 68.845657 7.824262 0.137255
105.810875 68.902939 6.013879 0.236622
105.810486 68.902496 4.204426 0.236622
107.430939 70.741211 2.440938 0.728969
107.430939 70.741211 0.559062 0.750912
89.600655 50.509262 0.000003 0.294560
81.508247 41.326847 0.000002 0.275151
78.033875 37.384491 0.000001 0.356558
76.098831 35.188805 0.000001 0.279515
74.863472 33.787048 0.000001 0.321050
73.974228 32.778030 0.010002 1.000000
73.372269 32.094986 -0.000005 0.334768
nan nan nan 0.000000
107.199432 69.879807 13.746628 0.160784
107.199432 69.879814 11.817421 0.177295
107.430893 70.138779 9.962587 0.752941
105.761681 68.271179 7.774929 0.121248
105.809921 68.325150 5.978394 0.259953
105.808151 68.323181 4.183063 0.231754
107.430923 70.138817 2.433564 0.726711
107.430939 70.138824 0.566436 0.738231
89.760078 50.367771 0.000003 0.292424
81.603767 41.242077 0.000002 0.326421
78.101959 37.324066 0.000001 0.303441
76.151627 35.141945 0.000001 0.288991
74.906517 33.748848 0.000000 0.275166
74.041130 32.780609 -0.000006 0.320516
73.403534 32.067234 -0.000005 0.343359
nan nan nan 0.000000
107.199432 69.290359 13.652002 0.193927
107.199455 69.290390 11.737709 0.095201
107.430893 69.545731 9.897200 0.741176
105.761490 67.703957 7.726412 0.137026
105.803474 67.750275 5.943004 0.132433
105.805466 67.752472 4.162137 0.132433
107.430939 69.545776 2.426352 0.731212
107.430954 69.545784 0.573649 0.733333
89.918518 50.225174 0.000003 0.293675
81.698700 41.156635 0.000002 0.313909
78.169617 37.263172 0.000001 0.243427
76.204102 35.094715 0.000001 0.330510
74.949287 33.710342 0.000001 0.297383
74.077171 32.748173 -0.000006 0.337133
73.434608 32.039265 -0.000005 0.343328
nan nan nan 0.000000
107.199432 68.709946 13.559414 0.734371
107.430893 68.961754 11.721933 0.724743
107.430893 68.961746 9.833219 0.728649
105.761024 67.145111 7.678892 0.118029
105.809555 67.197914 5.909888 0.247059
105.808136 67.196365 4.142046 0.238880
107.430939 68.961792 2.419293 0.721569
107.430939 68.961792 0.580707 0.721569
90.075958 50.081463 0.000003 0.293278
81.793022 41.070538 0.000002 0.282841
78.236847 37.201805 0.000001 0.342077
76.256241 35.047123 0.000001 0.290105
74.991798 33.671543 0.000000 0.268879
74.112976 32.715485 -0.000006 0.341329
73.465485 32.011082 -0.000005 0.344121
nan nan nan 0.000000
107.430893 68.386566 13.542122 0.721660
107.430901 68.386574 11.645130 0.721065
107.199448 68.138290 9.720257 0.132326
105.760437 66.594559 7.632368 0.117647
105.813347 66.651321 5.877210 0.177935
105.816071 66.654251 4.122766 0.155459
107.430931 68.386612 2.412387 0.709804
107.430939 68.386612 0.587614 0.732967
90.232391 49.936661 0.000003 0.293156
81.886749 40.983776 0.000002 0.306432
78.303650 37.139969 0.000001 0.290196
76.308052 34.999168 0.000001 0.285664
75.034035 33.632446 0.000001 0.280217
74.148560 32.682549 -0.000006 0.332387
73.496162 31.982681 -0.000005 0.347982
nan nan nan 0.000000
107.430901 67.819962 13.452898 0.730297
107.430901 67.819962 11.569962 0.721569
107.199448 67.575104 9.659347 0.094469
105.759888 66.052261 7.586838 0.123674
105.809784 66.105057 5.844352 0.247059
105.808235 66.103409 4.102773 0.246143
107.430931 67.819984 2.405625 0.721950
107.430939 67.819992 0.594374 0.740276
90.387794 49.790771 0.000003 0.291112
81.979858 40.896370 0.000002 0.260639
78.370010 37.077663 0.000001 0.251789
76.359520 34.950851 0.000001 0.297780
75.075996 33.593060 0.000000 0.309499
74.183914 32.649361 -0.000006 0.310430
73.526642 31.954069 -0.000005 0.348898
nan nan nan 0.000000
107.430908 67.261642 13.365559 0.739086
107.430908 67.261642 11.496380 0.715587
107.210602 67.031830 9.602118 0.400946
105.759560 65.518143 7.542309 0.118181
105.808609 65.569305 5.812469 0.255482
105.811943 65.572784 4.084018 0.223529
107.430931 67.261665 2.399007 0.721569
107.430931 67.261673 0.600992 0.714122
90.542183 49.643799 0.000003 0.290593
82.072365 40.808311 0.000002 0.281834
78.435944 37.014904 0.000001 0.305333
76.410652 34.902176 0.000001 0.285252
75.117676 33.553375 0.000001 0.300313
74.219032 32.615932 -0.000005 0.332692
73.556923 31.925243 -0.000004 0.339651
nan nan nan 0.000000
107.430908 66.711395 13.280055 0.721569
107.430901 66.711395 11.424347 0.740215
107.430901 66.711395 9.590618 0.725597
105.761955 64.994553 7.499162 0.137255
105.809914 65.043892 5.781546 0.243061
105.807968 65.041885 4.065118 0.223529
107.430923 66.711411 2.392530 0.732189
107.430931 66.711426 0.607470 0.731502
90.695557 49.495758 0.000003 0.291478
82.164253 40.719612 0.000001 0.306416
78.501442 36.951683 0.000001 0.296330
76.461449 34.853146 0.000001 0.257389
75.159088 33.513405 0.000001 0.346212
74.253914 32.582256 -0.000005 0.343954
73.587006 31.896208 -0.000005 0.339635
nan nan nan 0.000000
107.430908 66.168999 13.196343 0.699870
107.430908 66.168999 11.353822 0.736843
107.430908 66.168999 9.533124 0.715267
105.760101 64.474075 7.456227 0.124041
105.810516 64.525238 5.751191 0.266667
105.812943 64.527679 4.047236 0.240253
107.430923 66.169022 2.386188 0.721569
107.430931 66.169022 0.613813 0.730755
90.847870 49.346634 0.000003 0.294621
82.255516 40.630272 0.000002 0.284825
78.566490 36.888004 0.000001 0.298619
76.511894 34.803757 0.000001 0.247898
75.200211 33.473145 0.000001 0.340871
74.288559 32.548340 -0.000005 0.337331
73.616882 31.866962 -0.000004 0.336919
nan nan nan 0.000000
92.650742 4.373011 8.596481 0.630961
92.650742 4.373011 7.478575 0.522057
92.650742 4.373016 6.373909 0.600732
92.650734 4.373020 5.279919 0.678431
92.650749 4.373009 4.194139 0.666941
92.650284 4.373472 3.114140 0.678431
92.875252 4.148584 2.042868 0.678431
92.650284 4.373468 0.962337 0.550835
91.006912 6.016239 0.000013 0.292729
82.350792 14.669191 0.000013 0.308202
78.634399 18.384220 0.000011 0.281575
76.564568 20.453297 0.000010 0.297993
75.243156 21.774223 0.000009 0.284443
74.324722 22.692324 0.000009 0.375662
73.648064 23.368734 0.000008 0.263294
nan nan nan 0.000000
92.640854 4.056400 8.643490 0.677852
92.640862 4.056398 7.518180 0.709804
92.640854 4.056400 6.406196 0.709804
92.640862 4.056398 5.304959 0.557870
92.640862 4.056398 4.211986 0.633112
92.640305 4.056961 3.124826 0.678431
92.865211 3.828976 2.046463 0.678431
92.640305 4.056961 0.958778 0.709804
90.855682 5.866014 0.000013 0.299275
82.260185 14.579186 0.000013 0.294957
78.569824 18.320065 0.000011 0.298299
76.514481 20.403543 0.000010 0.279179
75.202324 21.733665 0.000009 0.303532
74.290321 22.658152 0.000009 0.259068
73.618401 23.339272 0.000008 0.364401
nan nan nan 0.000000
92.630852 3.735544 8.691481 0.530388
92.856865 3.503218 7.617586 0.678431
92.856857 3.503222 6.487234 0.678431
92.856865 3.503218 5.367809 0.678431
92.630852 3.735546 4.230206 0.611765
92.630196 3.736217 3.135735 0.647059
92.758156 3.604687 2.047858 0.654902
92.630196 3.736219 0.955144 0.678431
90.703415 5.716846 0.000014 0.289296
82.168953 14.489812 0.000013 0.282032
78.504799 18.256367 0.000011 0.256596
76.464058 20.354141 0.000010 0.246067
75.161217 21.693392 0.000010 0.348333
74.255692 22.624222 0.000009 0.261753
73.588539 23.310017 0.000008 0.305364
nan nan nan 0.000000
92.620972 3.410067 8.740557 0.718257
92.849190 3.172165 7.659939 0.678431
92.849190 3.172165 6.521762 0.678431
92.849197 3.172159 5.394588 0.678431
92.620972 3.410059 4.248837 0.612863
92.619965 3.411114 3.146872 0.543770
92.844841 3.176699 2.053881 0.678431
92.619957 3.411116 0.951435 0.709804
90.550110 5.568747 0.000014 0.289677
82.077103 14.401081 0.000013 0.329091
78.439331 18.193123 0.000011 0.272877
76.413284 20.305092 0.000010 0.272557
75.119820 21.653404 0.000010 0.244419
74.220818 22.590536 0.000009 0.281956
73.558472 23.280970 0.000008 0.227375
nan nan nan 0.000000
92.610954 3.080086 8.790667 0.476493
92.841415 2.836470 7.703191 0.678431
92.841415 2.836468 6.557022 0.678431
92.841415 2.836470 5.421931 0.678431
92.610954 3.080086 4.267860 0.655314
92.609573 3.081543 3.158243 0.473716
92.834396 2.843895 2.057707 0.678431
92.609581 3.081539 0.947647 0.591211
90.395767 5.421722 0.000014 0.286503
81.984627 14.312990 0.000013 0.257710
78.373421 18.130333 0.000011 0.340688
76.362167 20.256397 0.000010 0.257603
75.078148 21.613708 0.000010 0.309514
74.185715 22.557091 0.000009 0.337667
73.528206 23.252132 0.000008 0.234607
nan nan nan 0.000000
92.600800 2.745493 8.841836 0.507347
92.833534 2.496010 7.747359 0.678431
92.833527 2.496014 6.593029 0.678431
92.833534 2.496010 5.449856 0.678431
92.600800 2.745501 4.287285 0.432151
92.599052 2.747370 3.169854 0.556924
92.823807 2.506439 2.061612 0.678431
92.599052 2.747366 0.943779 0.574228
90.240410 5.275774 0.000014 0.296422
81.891548 14.225546 0.000013 0.273060
78.307083 18.068008 0.000011 0.263050
76.310715 20.208063 0.000010 0.325200
75.036209 21.574303 0.000009 0.298436
74.150375 22.523895 0.000009 0.282841
73.497734 23.223511 0.000008 0.342107
nan nan nan 0.000000
92.590500 2.406157 8.894091 0.678431
92.825539 2.150650 7.792471 0.678431
92.825531 2.150656 6.629805 0.678431
92.825531 2.150654 5.478378 0.678431
92.590508 2.406151 4.307124 0.629908
92.588371 2.408466 3.181711 0.614740
92.813065 2.164206 2.065601 0.678431
92.588379 2.408464 0.939830 0.678431
90.084030 5.130917 0.000013 0.292988
81.797859 14.138756 0.000013 0.274937
78.240303 18.006149 0.000011 0.287861
76.258926 20.160088 0.000010 0.259388
74.993988 21.535192 0.000009 0.262242
74.114807 22.490944 0.000009 0.297398
73.467064 23.195099 0.000008 0.344717
nan nan nan 0.000000
92.580063 2.061924 8.947464 0.577783
92.817421 1.800251 7.838549 0.678431
92.817429 1.800247 6.667371 0.678431
92.817421 1.800253 5.507511 0.678431
92.580055 2.061932 4.327387 0.560265
92.705444 1.923702 3.203174 0.647364
92.802170 1.817070 2.069675 0.678431
92.577545 2.064703 0.935796 0.671061
89.926651 4.987152 0.000013 0.290929
81.703560 14.052622 0.000013 0.280171
78.173088 17.944757 0.000011 0.290501
76.206802 20.112474 0.000010 0.307286
74.951492 21.496376 0.000009 0.266102
74.079002 22.458244 0.000009 0.324514
73.436195 23.166904 0.000008 0.240345
nan nan nan 0.000000
92.569458 1.712685 9.001976 0.584878
92.809189 1.444662 7.885621 0.678431
92.809189 1.444660 6.705745 0.678431
92.809181 1.444666 5.537272 0.678431
92.569450 1.712698 4.348081 0.408133
92.694443 1.572950 3.215616 0.652949
92.791115 1.464869 2.073837 0.678431
92.566559 1.715935 0.931676 0.673716
89.768272 4.844488 0.000014 0.287236
81.608665 13.967151 0.000013 0.289067
78.105453 17.883835 0.000011 0.309148
76.154350 20.065224 0.000010 0.269047
74.908730 21.457859 0.000009 0.328359
74.042976 22.425795 0.000009 0.357290
73.405136 23.138924 0.000008 0.289540
nan nan nan 0.000000
92.558693 1.358286 9.057661 0.705440
92.800827 1.083744 7.933712 0.678431
92.800827 1.083742 6.744951 0.678431
92.800827 1.083746 5.567677 0.678431
92.558693 1.358290 4.369222 0.673472
92.683281 1.217018 3.228325 0.671580
92.683296 1.217005 2.075697 0.618570
92.555412 1.362005 0.927466 0.510353
89.608894 4.702938 0.000014 0.291432
81.513184 13.882338 0.000013 0.285115
78.037399 17.823387 0.000011 0.309560
76.101563 20.018345 0.000010 0.319326
74.865700 21.419643 0.000009 0.285298
74.006729 22.393597 0.000009 0.279805
73.373878 23.111162 0.000008 0.259480
nan nan nan 0.000000
92.547775 0.998554 9.114557 0.618723
92.792343 0.717316 7.982854 0.678431
92.792343 0.717321 6.785012 0.678431
92.792343 0.717318 5.598746 0.678431
92.547775 0.998558 4.390822 0.658640
92.671959 0.855751 3.241311 0.658946
92.768570 0.744654 2.082431 0.678431
92.544098 1.002787 0.923166 0.549111
89.448532 4.562511 0.000014 0.292165
81.417107 13.798195 0.000013 0.282841
77.968918 17.763412 0.000011 0.273487
76.048454 19.971836 0.000010 0.277211
74.822403 21.381725 0.000009 0.279423
73.970253 22.361652 0.000009 0.265904
73.342422 23.083618 0.000008 0.267399
nan nan nan 0.000000
92.536697 0.633345 9.172695 0.475044
92.783722 0.345242 8.033071 0.678431
92.783722 0.345240 6.825950 0.678431
92.783722 0.345234 5.630497 0.678431
92.536697 0.633341 4.412895 0.678431
92.660484 0.488974 3.254580 0.647730
92.757019 0.376385 2.086869 0.678431
92.532600 0.638123 0.918772 0.448356
89.287193 4.423195 0.000014 0.297581
81.320435 13.714730 0.000013 0.321736
77.900017 17.703922 0.000011 0.259190
75.995026 19.925697 0.000010 0.271519
74.778847 21.344112 0.000009 0.273869
73.933556 22.329966 0.000009 0.247486
73.310783 23.056295 0.000008 0.250004
nan nan nan 0.000000
92.525444 0.262499 9.232104 0.686305
92.774971 -0.032669 8.084396 0.678431
92.774971 -0.032667 6.867792 0.678431
92.774971 -0.032663 5.662945 0.678431
92.525444 0.262501 4.435449 0.534493
92.648827 0.116550 3.268140 0.662501
92.745285 0.002449 2.091404 0.678431
92.520935 0.267834 0.914283 0.581292
89.124893 4.285015 0.000014 0.290120
81.223198 13.631936 0.000013 0.323751
77.830711 17.644917 0.000011 0.340749
75.941269 19.879932 0.000010 0.260670
74.735023 21.306803 0.000009 0.293629
73.896637 22.298534 0.000009 0.315709
73.278954 23.029194 0.000008 0.255161
nan nan nan 0.000000
92.513992 -0.114128 9.292819 0.632303
92.766083 -0.416578 8.136862 0.678431
92.766083 -0.416578 6.910562 0.678431
92.766083 -0.416574 5.696116 0.678431
92.513992 -0.114126 4.458499 0.703670
92.636978 -0.261683 3.281998 0.657038
92.733376 -0.377333 2.096039 0.678431
92.509094 -0.108242 0.909694 0.557412
88.961639 4.147961 0.000013 0.289555
81.125381 13.549829 0.000013 0.278950
77.760986 17.586391 0.000011 0.239673
75.887199 19.834545 0.000010 0.244205
74.690948 21.269802 0.000009 0.334661
73.859505 22.267361 0.000008 0.238453
73.246933 23.002316 0.000008 0.233097
nan nan nan 0.000000
92.502411 -0.496792 9.354897 0.648463
92.653748 -0.680962 8.160890 0.649012
92.757050 -0.806673 6.954288 0.678431
92.757050 -0.806669 5.730027 0.678431
92.502403 -0.496782 4.482065 0.647059
92.721268 -0.763130 3.303616 0.678431
92.721268 -0.763132 2.100776 0.678431
92.497055 -0.490271 0.905003 0.587640
88.797424 4.012054 0.000013 0.294057
81.026993 13.468404 0.000013 0.320302
77.690865 17.528355 0.000011 0.273106
75.832817 19.789536 0.000010 0.288594
74.646606 21.233109 0.000009 0.255055
73.822151 22.236448 0.000009 0.272221
73.214722 22.975662 0.000008 0.337346
nan nan nan 0.000000
92.490601 -0.885574 9.418344 0.507958
92.650620 -1.083111 8.217226 0.654902
92.650612 -1.083097 6.976079 0.651789
92.650612 -1.083096 5.746926 0.675288
92.490585 -0.885551 4.506152 0.475883
92.612732 -1.036339 3.310646 0.647059
92.612732 -1.036339 2.103117 0.647425
92.484825 -0.878443 0.900208 0.487511
88.632256 3.877306 0.000013 0.296025
80.928032 13.387669 0.000013 0.289937
77.620331 17.470808 0.000011 0.277089
75.778114 19.744907 0.000010 0.258244
74.602013 21.196726 0.000009 0.280232
73.784584 22.205795 0.000009 0.307103
73.182327 22.949234 0.000008 0.268116
nan nan nan 0.000000
92.469391 -1.269175 9.480032 0.372244
92.478348 -1.280399 8.225554 0.624170
92.478355 -1.280405 6.982869 0.564172
92.478371 -1.280418 5.752196 0.651392
92.478226 -1.280241 4.530734 0.537072
92.696526 -1.553595 3.333026 0.678431
92.696526 -1.553595 2.110573 0.678431
92.472397 -1.272940 0.895305 0.535760
88.466148 3.743717 0.000014 0.297093
80.828514 13.307624 0.000013 0.277897
77.549400 17.413757 0.000011 0.318318
75.723106 19.700661 0.000010 0.338796
74.557167 21.160656 0.000009 0.265232
73.746796 22.175407 0.000009 0.287892
73.149757 22.923033 0.000008 0.341711
nan nan nan 0.000000
92.456894 -1.670315 9.546244 0.451850
92.465416 -1.681135 8.281227 0.435782
92.465500 -1.681238 7.028275 0.678431
92.465515 -1.681257 5.787410 0.623407
92.464989 -1.680597 4.555783 0.678431
92.683815 -1.958570 3.348229 0.678431
92.683815 -1.958569 2.115636 0.678431
92.459763 -1.673956 0.890291 0.650629
88.299126 3.611279 0.000014 0.287068
80.728447 13.228275 0.000013 0.286015
77.478073 17.357201 0.000011 0.266285
75.667786 19.656801 0.000010 0.327337
74.512070 21.124899 0.000009 0.336339
73.708809 22.145285 0.000009 0.259907
73.116997 22.897058 0.000008 0.251682
nan nan nan 0.000000
nan nan nan 0.000000
92.452179 -2.088478 8.338142 0.663722
92.452423 -2.088793 7.074713 0.516503
92.452438 -2.088812 5.823425 0.620798
92.451515 -2.087629 4.581400 0.484047
92.670898 -2.370346 3.363776 0.678431
92.670898 -2.370348 2.120816 0.678431
92.446915 -2.081705 0.885164 0.676051
88.131180 3.480015 0.000014 0.294316
80.627815 13.149631 0.000013 0.301060
77.406357 17.301151 0.000011 0.271550
75.612167 19.613329 0.000010 0.295445
74.466728 21.089458 0.000009 0.352956
73.670609 22.115427 0.000009 0.315007
73.084061 22.871313 0.000008 0.270298
nan nan nan 0.000000
nan nan nan 0.000000
92.438644 -2.502642 8.396338 0.546777
92.439125 -2.503275 7.122215 0.588571
92.439117 -2.503262 5.860260 0.491264
92.437828 -2.501583 4.607603 0.561669
92.657745 -2.789120 3.379680 0.678431
92.657761 -2.789129 2.126113 0.678431
92.433853 -2.496384 0.879919 0.590524
87.962311 3.349934 0.000014 0.281727
80.526642 13.071690 0.000013 0.284688
77.334244 17.245594 0.000011 0.291463
75.556244 19.570244 0.000010 0.313069
74.421135 21.054337 0.000009 0.346883
73.632195 22.085835 0.000009 0.239307
73.050941 22.845798 0.000008 0.268116
nan nan nan 0.000000
nan nan nan 0.000000
92.424896 -2.923971 8.455881 0.658732
92.425598 -2.924900 7.170812 0.374640
92.425591 -2.924889 5.897948 0.678431
92.423943 -2.922703 4.634415 0.687465
92.644386 -3.215137 3.395951 0.679408
92.644386 -3.215134 2.131532 0.678431
92.420563 -2.918221 0.874552 0.643046
87.792549 3.221016 0.000013 0.294667
80.424934 12.994452 0.000013 0.270085
77.261749 17.190546 0.000011 0.316579
75.500015 19.527552 0.000010 0.241260
74.375305 21.019531 0.000009 0.232181
73.593582 22.056515 0.000009 0.330724
73.017647 22.820517 0.000008 0.302312
nan nan nan 0.000000
nan nan nan 0.000000
92.410957 -3.352724 8.516823 0.528191
92.411835 -3.353903 7.220537 0.646387
92.411827 -3.353897 5.936514 0.646799
92.409744 -3.351088 4.661839 0.528557
92.630882 -3.648735 3.412607 0.678431
92.630882 -3.648741 2.137081 0.678431
92.407043 -3.347460 0.869061 0.689769
87.621895 3.093290 0.000013 0.291417
80.322685 12.917928 0.000013 0.312230
77.188866 17.136005 0.000011 0.317540
75.443497 19.485252 0.000010 0.239857
74.329224 20.985046 0.000009 0.270100
73.554764 22.027462 0.000008 0.248936
72.984177 22.795467 0.000008 0.267033
nan nan nan 0.000000
nan nan nan 0.000000
92.396721 -3.788998 8.579171 0.678004
92.397827 -3.790504 7.271425 0.637461
92.397827 -3.790508 5.975981 0.563836
92.395348 -3.787121 4.689913 0.585336
92.617035 -4.089897 3.429646 0.678798
92.617027 -4.089890 2.142756 0.678431
92.393280 -3.784296 0.863442 0.651041
87.450348 2.966768 0.000013 0.294408
80.219902 12.842125 0.000013 0.285222
77.115616 17.081974 0.000011 0.251606
75.386681 19.443348 0.000010 0.287800
74.282906 20.950886 0.000009 0.311955
73.515739 21.998684 0.000008 0.262547
72.950531 22.770653 0.000008 0.335317
nan nan nan 0.000000
nan nan nan 0.000000
92.382233 -4.233128 8.642992 0.674861
92.383560 -4.234976 7.323514 0.528267
92.383568 -4.234980 6.016378 0.691829
92.380653 -4.230934 4.718641 0.695644
92.602928 -4.539005 3.447086 0.678431
92.602928 -4.539013 2.148565 0.678431
92.379265 -4.229013 0.857690 0.701717
87.277924 2.841448 0.000013 0.291920
80.116592 12.767041 0.000013 0.292683
77.041977 17.028456 0.000011 0.287846
75.329575 19.401842 0.000010 0.345327
74.236351 20.917049 0.000009 0.342657
73.476524 21.970177 0.000008 0.244190
72.916710 22.746073 0.000008 0.309560
nan nan nan 0.000000
nan nan nan 0.000000
92.367531 -4.685429 8.708344 0.538537
92.369041 -4.687557 7.376840 0.664424
92.369049 -4.687572 6.057736 0.553811
92.365768 -4.682953 4.748062 0.488029
92.588570 -4.996342 3.464941 0.678431
92.588570 -4.996346 2.154512 0.678431
92.364998 -4.681870 0.851802 0.603098
87.104622 2.717333 0.000014 0.292363
80.012764 12.692675 0.000013 0.298543
76.967972 16.975452 0.000011 0.272679
75.272186 19.360737 0.000010 0.289937
74.189568 20.883539 0.000009 0.283787
73.437103 21.941944 0.000008 0.256931
72.882721 22.721729 0.000008 0.263935
nan nan nan 0.000000
nan nan nan 0.000000
92.352493 -5.146023 8.775241 0.581552
92.354256 -5.148537 7.431443 0.623072
92.354248 -5.148521 6.100080 0.504128
92.350693 -5.143456 4.778200 0.560693
92.573944 -5.462166 3.483224 0.678431
92.573944 -5.462162 2.160602 0.678431
92.350471 -5.143135 0.845771 0.585351
86.930458 2.594433 0.000014 0.295323
79.908417 12.619040 0.000013 0.286229
76.893600 16.922966 0.000011 0.291981
75.214508 19.320032 0.000010 0.303838
74.142548 20.850355 0.000009 0.283375
73.397491 21.913988 0.000008 0.316579
72.848564 22.697624 0.000008 0.245914
nan nan nan 0.000000
nan nan nan 0.000000
92.337196 -5.615295 8.843758 0.538369
92.472290 -5.811039 7.522126 0.678431
92.472282 -5.811039 6.170409 0.678431
92.335609 -5.612995 4.809105 0.679469
92.432938 -5.754028 3.491042 0.664210
92.432938 -5.754025 2.163207 0.525231
92.335663 -5.613075 0.839596 0.573526
86.755440 2.472752 0.000014 0.295491
79.803558 12.546130 0.000013 0.260090
76.818863 16.871002 0.000011 0.334813
75.156540 19.279732 0.000010 0.281209
74.095291 20.817501 0.000009 0.318715
73.357681 21.886311 0.000008 0.267384
72.814240 22.673759 0.000008 0.219974
nan nan nan 0.000000
nan nan nan 0.000000
92.321609 -6.093513 8.913942 0.469612
92.458710 -6.295170 7.580235 0.678431
92.458702 -6.295166 6.215475 0.678431
92.320320 -6.091618 4.840774 0.507713
92.320297 -6.091587 3.501596 0.616907
92.320297 -6.091591 2.166723 0.626673
92.320305 -6.091595 0.833277 0.571588
86.579590 2.352282 0.000014 0.288823
79.698196 12.473961 0.000013 0.304845
76.743767 16.819561 0.000011 0.298741
75.098297 19.239838 0.000010 0.286595
74.047813 20.784977 0.000009 0.261494
73.317680 21.858910 0.000008 0.340032
72.779755 22.650135 0.000008 0.246494
75.566734 18.413509 4.270162 0.622126
75.566734 18.413509 3.888538 0.624475
75.566734 18.413502 3.512274 0.589487
75.566734 18.413504 3.140465 0.620310
75.566734 18.413509 2.772248 0.628473
75.566734 18.413506 2.406795 0.608255
75.566734 18.413502 2.043299 0.614084
75.566734 18.413506 1.680970 0.597391
75.566734 18.413506 1.319030 0.608942
75.566734 18.413502 0.956701 0.624247
75.566734 18.413502 0.593204 0.612497
75.566734 18.413506 0.227752 0.601480
75.039780 19.200348 0.000010 0.287892
74.000107 20.752785 0.000008 0.299931
73.277489 21.831789 0.000008 0.296803
72.745094 22.626751 0.000008 0.290867
75.292709 18.688709 4.174757 0.760021
75.292709 18.688711 3.806276 0.751263
75.292709 18.688711 3.442969 0.741451
75.292709 18.688709 3.083965 0.768200
75.292709 18.688713 2.728431 0.754772
75.292709 18.688711 2.375565 0.760021
75.292709 18.688711 2.024587 0.760021
75.292709 18.688713 1.674738 0.746090
75.292709 18.688713 1.325262 0.754162
75.292709 18.688711 0.975412 0.760021
75.292709 18.688711 0.624435 0.748867
75.292709 18.688713 0.271569 0.759243
74.980988 19.161270 0.000010 0.299504
73.952171 20.720926 0.000009 0.309712
73.237106 21.804951 0.000008 0.306706
72.710281 22.603607 0.000008 0.265431
75.203812 18.688711 4.162560 0.668589
75.203812 18.688713 3.795759 0.728832
75.203812 18.688713 3.434109 0.714794
75.203812 18.688713 3.076742 0.731823
75.203812 18.688713 2.722829 0.730892
75.203812 18.688713 2.371572 0.718563
75.203812 18.688713 2.022195 0.721569
75.203812 18.688713 1.673941 0.661128
75.203812 18.688713 1.326059 0.653895
75.203812 18.688713 0.977804 0.665553
75.203812 18.688713 0.628428 0.659266
75.203812 18.688713 0.277171 0.690196
74.921921 19.122604 0.000010 0.256458
73.904022 20.689407 0.000009 0.245853
73.196541 21.778395 0.000008 0.315297
72.675301 22.580711 0.000008 0.230381
75.115715 18.688709 4.150602 0.764706
75.115715 18.688713 3.785449 0.764706
75.115715 18.688713 3.425423 0.752758
75.115715 18.688713 3.069661 0.752941
75.115715 18.688713 2.717338 0.762753
75.115715 18.688713 2.367658 0.754223
75.115715 18.688713 2.019850 0.755474
75.115715 18.688713 1.673160 0.759106
75.115715 18.688713 1.326840 0.761212
75.115715 18.688713 0.980150 0.758022
75.115715 18.688713 0.632342 0.768109
75.115715 18.688713 0.282662 0.755474
74.862587 19.084351 0.000009 0.287999
73.855652 20.658222 0.000009 0.358557
73.155792 21.752121 0.000008 0.247257
72.640167 22.558056 0.000007 0.258503
75.028404 18.688711 4.138880 0.764706
75.028404 18.688711 3.775342 0.748074
75.028404 18.688713 3.416908 0.741176
75.028397 18.688713 3.062719 0.764706
75.028404 18.688713 2.711954 0.757519
75.028404 18.688713 2.363820 0.756252
75.028404 18.688713 2.017551 0.759396
75.028397 18.688713 1.672394 0.759014
75.028397 18.688713 1.327606 0.754269
75.028404 18.688713 0.982449 0.762127
75.028404 18.688713 0.636179 0.757153
75.028404 18.688713 0.288046 0.753582
74.802994 19.046513 0.000009 0.248478
73.807068 20.627377 0.000009 0.302129
73.114861 21.726133 0.000008 0.318608
72.604874 22.535648 0.000007 0.322347
74.941856 18.688711 4.127388 0.726467
74.941856 18.688711 3.765434 0.731273
74.941856 18.688713 3.408560 0.730663
74.941856 18.688711 3.055914 0.721874
74.941856 18.688713 2.706676 0.733333
74.941856 18.688713 2.360059 0.731868
74.941856 18.688713 2.015297 0.740154
74.941856 18.688713 1.671643 0.736217
74.941856 18.688713 1.328357 0.715129
74.941856 18.688713 0.984702 0.739406
74.941856 18.688713 0.639941 0.731121
74.941856 18.688713 0.293324 0.733150
74.743126 19.009090 0.000009 0.287266
73.758263 20.596867 0.000009 0.236088
73.073746 21.700432 0.000008 0.350072
72.569420 22.513489 0.000008 0.342046
74.856056 18.688711 4.116124 0.765988
74.856056 18.688711 3.755721 0.763714
74.856056 18.688711 3.400378 0.755657
74.856049 18.688713 3.049243 0.764706
74.856056 18.688711 2.701503 0.756756
74.856056 18.688713 2.356371 0.760983
74.856056 18.688713 2.013088 0.761028
74.856049 18.688713 1.670907 0.763424
74.856049 18.688713 1.329093 0.764706
74.856056 18.688713 0.986912 0.761486
74.856056 18.688713 0.643628 0.754726
74.856056 18.688711 0.298497 0.773159
74.683006 18.972088 0.000009 0.261875
73.709251 20.566704 0.000009 0.242618
73.032455 21.675018 0.000008 0.280201
72.533821 22.491577 0.000008 0.250248
74.770981 18.688709 4.105082 0.768017
74.770981 18.688709 3.746200 0.754971
74.770981 18.688709 3.392357 0.764706
74.770981 18.688711 3.042705 0.761028
74.770981 18.688713 2.696431 0.752941
74.770981 18.688711 2.352757 0.753857
74.770981 18.688713 2.010922 0.764706
74.770981 18.688713 1.670186 0.734874
74.770981 18.688713 1.329814 0.755703
74.770981 18.688713 0.989077 0.754940
74.770981 18.688711 0.647243 0.764248
74.770981 18.688713 0.303569 0.764172
74.622627 18.935507 0.000009 0.275502
73.660027 20.536880 0.000009 0.278859
72.990982 21.649893 0.000008 0.340185
72.498062 22.469913 0.000008 0.239750
74.686623 18.688709 4.094258 0.695430
74.686615 18.688711 3.736867 0.696239
74.686623 18.688711 3.384494 0.683192
74.686623 18.688711 3.036295 0.688151
74.686615 18.688713 2.691460 0.690593
74.686615 18.688713 2.349214 0.691646
74.686623 18.688709 2.008800 0.713756
74.686615 18.688711 1.669479 0.693248
74.686615 18.688711 1.330521 0.682399
74.686623 18.688709 0.991200 0.702129
74.686615 18.688713 0.650786 0.701198
74.686615 18.688713 0.308540 0.716854
74.561996 18.899345 0.000009 0.304845
73.610596 20.507401 0.000009 0.335409
72.949341 21.625059 0.000008 0.276204
72.462158 22.448500 0.000008 0.235325
74.602951 18.688709 4.083650 0.681712
74.602951 18.688711 3.727720 0.694942
74.602951 18.688713 3.376788 0.702632
74.602951 18.688713 3.030012 0.686030
74.602951 18.688713 2.686588 0.694942
74.602951 18.688713 2.345741 0.700648
74.602951 18.688713 2.006719 0.698253
74.602951 18.688713 1.668786 0.697795
74.602951 18.688713 1.331214 0.686030
74.602951 18.688713 0.993281 0.693629
74.602951 18.688713 0.654259 0.693156
74.602951 18.688713 0.313412 0.688441
74.501114 18.863613 0.000009 0.267552
73.560966 20.478268 0.000008 0.296956
72.907532 21.600515 0.000008 0.354726
72.426102 22.427338 0.000007 0.279103
74.519958 18.688709 4.073253 0.672419
74.519958 18.688711 3.718755 0.762249
74.519958 18.688711 3.369235 0.758770
74.519958 18.688713 3.023855 0.764446
74.519958 18.688711 2.681813 0.752941
74.519958 18.688713 2.342338 0.753811
74.519958 18.688713 2.004680 0.774792
74.519958 18.688713 1.668106 0.760433
74.519958 18.688713 1.331894 0.762921
74.519958 18.688713 0.995320 0.755795
74.519958 18.688713 0.657662 0.764706
74.519958 18.688713 0.318187 0.756252
74.439980 18.828304 0.000009 0.273884
73.511131 20.449482 0.000008 0.285801
72.865540 21.576267 0.000008 0.233570
72.389900 22.406427 0.000007 0.283726
74.437637 18.688709 4.063063 0.776471
74.437637 18.688713 3.709969 0.776471
74.437637 18.688713 3.361833 0.741176
74.437637 18.688711 3.017821 0.774258
74.437637 18.688713 2.677134 0.741176
74.437630 18.688713 2.339002 0.770397
74.437637 18.688713 2.002681 0.776471
74.437630 18.688713 1.667441 0.741176
74.437630 18.688713 1.332559 0.776471
74.437637 18.688713 0.997318 0.756817
74.437630 18.688713 0.660998 0.770962
74.437637 18.688713 0.322867 0.776471
74.378609 18.793419 0.000009 0.315709
73.461098 20.421047 0.000008 0.311772
72.823387 21.552307 0.000007 0.276387
72.353554 22.385771 0.000007 0.275898
74.355949 18.688709 4.053078 0.730266
74.355949 18.688711 3.701360 0.730434
74.355949 18.688711 3.354580 0.721569
74.355949 18.688711 3.011908 0.728832
74.355949 18.688713 2.672548 0.719203
74.355949 18.688711 2.335733 0.730434
74.355949 18.688713 2.000723 0.718257
74.355949 18.688713 1.666788 0.733333
74.355949 18.688713 1.333212 0.730007
74.355949 18.688713 0.999277 0.728115
74.355949 18.688711 0.664266 0.721569
74.355949 18.688711 0.327453 0.721569
74.316986 18.758968 0.000009 0.280293
73.410866 20.392960 0.000008 0.291691
72.781067 21.528646 0.000008 0.255787
72.317062 22.365368 0.000007 0.400488
74.274895 18.688713 4.043293 0.755840
74.274895 18.688713 3.692923 0.763333
74.274895 18.688711 3.347473 0.758679
74.274895 18.688713 3.006114 0.752712
74.274895 18.688713 2.668054 0.760708
74.274895 18.688713 2.332531 0.753796
74.274895 18.688713 1.998804 0.754665
74.274895 18.688713 1.666149 0.745281
74.274895 18.688713 1.333851 0.762890
74.274895 18.688713 1.001196 0.762387
74.274895 18.688713 0.667469 0.762249
74.274895 18.688713 0.331946 0.733211
74.255127 18.724949 0.000009 0.331228
73.360435 20.365227 0.000008 0.270909
72.738586 21.505280 0.000007 0.271962
72.280434 22.345222 0.000007 0.264683
74.194458 18.688709 4.033707 0.772015
74.194458 18.688711 3.684657 0.758495
74.194458 18.688713 3.340509 0.773068
74.194458 18.688713 3.000436 0.772839
74.194458 18.688713 2.663651 0.763073
74.194458 18.688713 2.329393 0.755581
74.194458 18.688713 1.996924 0.766400
74.194458 18.688713 1.665523 0.745846
74.194458 18.688713 1.334477 0.765942
74.194458 18.688713 1.003076 0.755795
74.194458 18.688713 0.670607 0.751614
74.194458 18.688713 0.336349 0.752850
74.193039 18.691360 0.000009 0.311818
73.309814 20.337843 0.000008 0.263416
72.695938 21.482212 0.000008 0.328481
72.243660 22.325331 0.000007 0.300679
74.114624 18.688711 4.024314 0.706371
74.114624 18.688709 3.676559 0.690578
74.114624 18.688711 3.333686 0.692088
74.114624 18.688711 2.994875 0.698039
74.114624 18.688713 2.659338 0.703731
74.114624 18.688711 2.326318 0.694667
74.114624 18.688713 1.995082 0.700206
74.114624 18.688713 1.664909 0.700893
74.114624 18.688713 1.335091 0.650370
74.114624 18.688713 1.004918 0.642405
74.114624 18.688711 0.673681 0.691981
74.114624 18.688713 0.340662 0.672923
74.114624 18.688711 0.005125 0.714824
73.259003 20.310814 0.000008 0.253941
72.653130 21.459440 0.000008 0.280018
72.206757 22.305698 0.000007 0.272862
74.035370 18.688709 4.015115 0.725216
74.035370 18.688713 3.668627 0.693385
74.035370 18.688711 3.327003 0.693385
74.035370 18.688713 2.989426 0.693385
74.035370 18.688713 2.655112 0.675258
74.035370 18.688713 2.323307 0.691173
74.035370 18.688713 1.993278 0.685405
74.035370 18.688713 1.664308 0.662013
74.035370 18.688713 1.335692 0.693385
74.035370 18.688713 1.006722 0.700481
74.035370 18.688713 0.676693 0.673961
74.035370 18.688713 0.344888 0.693553
74.035370 18.688713 0.010574 0.733577
73.208008 20.284142 0.000008 0.293584
72.610168 21.436970 0.000008 0.312383
72.169708 22.286322 0.000007 0.234821
73.956688 18.688711 4.006103 0.764706
73.956688 18.688709 3.660856 0.760479
73.956688 18.688711 3.320457 0.753124
73.956688 18.688713 2.984089 0.773022
73.956688 18.688713 2.650973 0.757290
73.956688 18.688713 2.320356 0.744778
73.956688 18.688711 1.991510 0.764706
73.956688 18.688713 1.663720 0.764706
73.956688 18.688713 1.336280 0.763668
73.956688 18.688711 1.008490 0.755032
73.956688 18.688713 0.679643 0.764309
73.956688 18.688713 0.349027 0.761944
73.956688 18.688713 0.015911 0.763882
73.156822 20.257826 0.000008 0.314336
72.567047 21.414799 0.000007 0.309850
72.132530 22.267204 0.000007 0.238911
73.878563 18.688713 3.997276 0.768338
73.878571 18.688709 3.653246 0.769162
73.878563 18.688711 3.314045 0.753719
73.878563 18.688709 2.978863 0.754131
73.878563 18.688713 2.646920 0.767468
73.878563 18.688713 2.317467 0.759655
73.878563 18.688711 1.989779 0.741176
73.878563 18.688713 1.663143 0.770779
73.878563 18.688713 1.336857 0.756436
73.878563 18.688711 1.010221 0.757076
73.878563 18.688713 0.682532 0.755428
73.878563 18.688713 0.353080 0.764706
73.878563 18.688709 0.021137 0.764706
73.105461 20.231867 0.000008 0.303517
72.523773 21.392929 0.000007 0.244205
72.095215 22.248348 0.000007 0.228672
73.800987 18.688709 3.988632 0.734554
73.800987 18.688709 3.645793 0.731029
73.800987 18.688711 3.307767 0.733791
73.800987 18.688709 2.973744 0.721981
73.800987 18.688709 2.642950 0.733333
73.800987 18.688709 2.314638 0.725780
73.800987 18.688711 1.988084 0.729747
73.800987 18.688713 1.662578 0.733333
73.800987 18.688713 1.337422 0.732326
73.800987 18.688711 1.011916 0.733791
73.800987 18.688709 0.685362 0.725475
73.800987 18.688709 0.357050 0.735256
73.800987 18.688709 0.026256 0.722164
73.053917 20.206266 0.000008 0.274784
72.480347 21.371363 0.000007 0.221393
72.057777 22.229752 0.000007 0.323537
73.723946 18.688711 3.980169 0.772931
73.723946 18.688713 3.638495 0.773800
73.723946 18.688713 3.301619 0.771374
73.723946 18.688713 2.968732 0.773800
73.723938 18.688713 2.639063 0.771603
73.723946 18.688713 2.311867 0.773800
73.723938 18.688713 1.986424 0.771145
73.723938 18.688713 1.662025 0.772519
73.723938 18.688713 1.337974 0.772839
73.723938 18.688713 1.013576 0.743847
73.723946 18.688713 0.688132 0.773800
73.723938 18.688713 0.360937 0.776425
73.723946 18.688713 0.031268 0.770916
73.002190 20.181026 0.000008 0.289433
72.436775 21.350100 0.000007 0.288640
72.020203 22.211420 0.000007 0.244450
73.647415 18.688713 3.971883 0.766918
73.647415 18.688711 3.631351 0.752941
73.647415 18.688709 3.295600 0.764706
73.647415 18.688711 2.963826 0.762127
73.647415 18.688713 2.635257 0.759289
73.647415 18.688713 2.309155 0.752941
73.647415 18.688713 1.984799 0.763699
73.647415 18.688713 1.661484 0.748531
73.647415 18.688713 1.338516 0.762127
73.647415 18.688713 1.015201 0.752941
73.647415 18.688713 0.690845 0.763470
73.647415 18.688713 0.364743 0.764614
73.647415 18.688711 0.036175 0.776471
72.950294 20.156149 0.000008 0.259434
72.393051 21.329142 0.000007 0.254963
71.982506 22.193350 0.000007 0.263706
73.571396 18.688711 3.963772 0.738338
73.571396 18.688711 3.624357 0.745037
73.571396 18.688711 3.289708 0.744503
73.571396 18.688713 2.959022 0.719356
73.571396 18.688713 2.631533 0.749722
73.571396 18.688711 2.306500 0.745510
73.571396 18.688713 1.983208 0.756024
73.571396 18.688713 1.660954 0.743679
73.571396 18.688713 1.339046 0.742748
73.571396 18.688713 1.016792 0.732555
73.571396 18.688711 0.693500 0.739956
73.571396 18.688713 0.368468 0.750408
73.571396 18.688713 0.040978 0.755901
72.898224 20.131638 0.000008 0.301091
72.349190 21.308489 0.000007 0.260105
71.944679 22.175543 0.000007 0.267994
73.495865 18.688711 3.955833 0.733333
73.495865 18.688711 3.617512 0.733333
73.495865 18.688711 3.283941 0.735897
73.495865 18.688713 2.954321 0.721569
73.495865 18.688713 2.627886 0.730144
73.495865 18.688713 2.303901 0.732616
73.495865 18.688713 1.981651 0.731868
73.495865 18.688713 1.660436 0.721569
73.495865 18.688713 1.339564 0.729625
73.495865 18.688713 1.018349 0.733028
73.495865 18.688713 0.696098 0.721569
73.495865 18.688713 0.372114 0.733333
73.495865 18.688713 0.045679 0.736385
72.845985 20.107487 0.000008 0.259159
72.305176 21.288143 0.000007 0.311147
71.906731 22.157999 0.000007 0.249973
73.420822 18.688709 3.948065 0.762356
73.420822 18.688711 3.610813 0.764706
73.420822 18.688711 3.278297 0.755062
73.420822 18.688709 2.949720 0.762127
73.420822 18.688713 2.624318 0.764706
73.420822 18.688713 2.301358 0.763012
73.420815 18.688713 1.980127 0.763287
73.420822 18.688711 1.659928 0.762356
73.420822 18.688711 1.340072 0.758724
73.420815 18.688713 1.019873 0.765301
73.420822 18.688713 0.698641 0.733333
73.420822 18.688713 0.375682 0.755291
73.420822 18.688709 0.050279 0.764706
72.793579 20.083702 0.000008 0.259617
72.261024 21.268105 0.000007 0.272969
71.868668 22.140720 0.000007 0.356542
73.346245 18.688709 3.940464 0.746456
73.346245 18.688711 3.604260 0.754681
73.346237 18.688713 3.272776 0.754177
73.346237 18.688713 2.945219 0.733333
73.346237 18.688713 2.620827 0.764706
73.346237 18.688713 2.298870 0.762448
73.346237 18.688713 1.978637 0.760113
73.346237 18.688713 1.659432 0.759838
73.346237 18.688713 1.340568 0.763287
73.346237 18.688713 1.021363 0.748028
73.346237 18.688713 0.701130 0.763561
73.346237 18.688713 0.379173 0.750683
73.346237 18.688713 0.054781 0.752941
72.741005 20.060284 0.000008 0.300526
72.216736 21.248375 0.000007 0.264164
71.830475 22.123709 0.000006 0.282673
73.272125 18.688711 3.933027 0.679728
73.272125 18.688713 3.597848 0.697200
73.272125 18.688711 3.267375 0.694438
73.272118 18.688713 2.940815 0.694438
73.272118 18.688713 2.617412 0.694438
73.272125 18.688713 2.296436 0.694438
73.272125 18.688713 1.977178 0.694438
73.272118 18.688713 1.658946 0.650660
73.272118 18.688713 1.341054 0.672679
73.272125 18.688713 1.022822 0.692027
73.272118 18.688713 0.703564 0.694438
73.272118 18.688713 0.382588 0.678431
73.272118 18.688713 0.059185 0.676860
72.688271 20.037231 0.000007 0.263172
72.172310 21.228958 0.000007 0.289067
71.792168 22.106964 0.000006 0.257069
73.198448 18.688711 3.925754 0.723644
73.198448 18.688711 3.591577 0.718441
73.198448 18.688711 3.262092 0.716335
73.198448 18.688711 2.936508 0.707729
73.198448 18.688713 2.614072 0.717983
73.198448 18.688711 2.294055 0.714855
73.198448 18.688713 1.975752 0.720012
73.198448 18.688713 1.658471 0.700160
73.198448 18.688713 1.341529 0.708980
73.198448 18.688713 1.024248 0.707729
73.198448 18.688713 0.705945 0.696132
73.198448 18.688713 0.385928 0.707729
73.198448 18.688711 0.063491 0.680964
72.635376 20.014553 0.000008 0.299626
72.127747 21.209846 0.000007 0.289921
71.753746 22.090488 0.000006 0.239277
73.125214 18.688711 3.918642 0.741176
73.125214 18.688709 3.585445 0.760342
73.125214 18.688713 3.256925 0.764706
73.125214 18.688711 2.932297 0.752941
73.125214 18.688713 2.610806 0.744121
73.125214 18.688713 2.291727 0.756985
73.125214 18.688713 1.974357 0.768933
73.125214 18.688713 1.658006 0.751980
73.125214 18.688713 1.341994 0.757259
73.125214 18.688713 1.025643 0.745663
73.125214 18.688713 0.708273 0.752941
73.125214 18.688713 0.389194 0.772473
73.125214 18.688711 0.067703 0.776471
72.582329 19.992239 0.000008 0.307820
72.083054 21.191050 0.000007 0.365484
71.715210 22.074282 0.000006 0.262852
73.052399 18.688709 3.911689 0.739269
73.052399 18.688711 3.579449 0.774639
73.052399 18.688711 3.251874 0.764706
73.052399 18.688713 2.928179 0.752941
73.052399 18.688713 2.607612 0.755886
73.052399 18.688713 2.289451 0.764248
73.052399 18.688713 1.972993 0.752941
73.052399 18.688713 1.657552 0.747204
73.052399 18.688713 1.342448 0.765393
73.052399 18.688713 1.027007 0.765209
73.052399 18.688713 0.710549 0.736400
73.052399 18.688713 0.392388 0.762722
73.052399 18.688713 0.071821 0.746685
72.529121 19.970297 0.000007 0.282948
72.038231 21.172565 0.000007 0.333577
71.676559 22.058342 0.000006 0.309041
72.980003 18.688711 3.904893 0.694850
72.980003 18.688713 3.573589 0.683421
72.980003 18.688713 3.246937 0.682963
72.980003 18.688713 2.924154 0.701366
72.980003 18.688713 2.604491 0.683192
72.980003 18.688713 2.287226 0.683421
72.980003 18.688713 1.971660 0.666896
72.980003 18.688713 1.657108 0.710674
72.980003 18.688713 1.342892 0.709300
72.980003 18.688713 1.028340 0.684245
72.980003 18.688713 0.712774 0.695201
72.980003 18.688713 0.395509 0.690745
72.980003 18.688713 0.075846 0.688884
72.475769 19.948727 0.000007 0.296696
71.993279 21.154394 0.000007 0.334112
71.637802 22.042675 0.000006 0.273732
72.908012 18.688711 3.898250 0.706477
72.908012 18.688709 3.567862 0.694713
72.908012 18.688709 3.242113 0.720577
72.908012 18.688713 2.920221 0.707118
72.908005 18.688713 2.601440 0.696971
72.908012 18.688711 2.285052 0.702296
72.908012 18.688711 1.970357 0.703212
72.908012 18.688713 1.656674 0.712612
72.908012 18.688713 1.343326 0.685298
72.908012 18.688711 1.029642 0.702327
72.908012 18.688711 0.714948 0.714305
72.908005 18.688713 0.398560 0.698054
72.908012 18.688713 0.079779 0.616175
72.422256 19.927530 0.000007 0.298253
71.948196 21.136536 0.000007 0.244724
71.598938 22.027277 0.000006 0.287694
72.836411 18.688713 3.891762 0.763836
72.836411 18.688711 3.562268 0.754406
72.836411 18.688713 3.237399 0.772290
72.836411 18.688713 2.916378 0.764706
72.836411 18.688713 2.598460 0.764523
72.836411 18.688713 2.282928 0.757031
72.836411 18.688713 1.969085 0.746349
72.836403 18.688715 1.656250 0.764706
72.836403 18.688715 1.343750 0.756664
72.836411 18.688713 1.030915 0.762264
72.836411 18.688713 0.717072 0.752804
72.836411 18.688713 0.401540 0.764706
72.836411 18.688713 0.083622 0.773663
72.368607 19.906712 0.000007 0.286534
71.903000 21.118994 0.000006 0.260487
71.559959 22.012154 0.000006 0.317113
72.765190 18.688713 3.885423 0.776471
72.765190 18.688711 3.556803 0.764340
72.765190 18.688711 3.232795 0.764706
72.765190 18.688713 2.912625 0.754360
72.765190 18.688713 2.595550 0.755520
72.765190 18.688713 2.280853 0.756939
72.765190 18.688711 1.967842 0.758221
72.765190 18.688711 1.655836 0.744778
72.765190 18.688711 1.344164 0.763882
72.765190 18.688711 1.032158 0.754269
72.765190 18.688713 0.719147 0.773983
72.765190 18.688713 0.404450 0.764706
72.765190 18.688713 0.087375 0.746548
72.314812 19.886261 0.000007 0.300587
71.857674 21.101768 0.000006 0.255772
71.520882 21.997299 0.000006 0.243961
72.694344 18.688711 3.879236 0.681620
72.694344 18.688709 3.551466 0.692195
72.694344 18.688711 3.228300 0.678737
72.694344 18.688709 2.908960 0.680430
72.694344 18.688711 2.592707 0.679622
72.694344 18.688709 2.278828 0.674083
72.694344 18.688711 1.966628 0.679652
72.694344 18.688711 1.655432 0.685405
72.694344 18.688711 1.344568 0.655451
72.694344 18.688711 1.033372 0.680079
72.694344 18.688709 0.721172 0.678431
72.694344 18.688711 0.407293 0.618906
72.694344 18.688709 0.091040 0.555947
72.260872 19.866192 0.000007 0.304952
71.812233 21.084858 0.000006 0.262028
71.481697 21.982719 0.000006 0.314260
72.623863 18.688709 3.873194 0.692805
72.623863 18.688713 3.546257 0.708751
