# This PCD file was generated using the MATLABÂ® pcwrite function
# from Computer Vision ToolboxÂ®.
# .PCD v.7 - Point Cloud Data file format
VERSION .7
FIELDS x y z intensity
SIZE 4 4 4 4
TYPE F F F F
COUNT 1 1 1 1
WIDTH 1216
HEIGHT 1
VIEWPOINT 0 0 0 1 0 0 0
POINTS 1216
DATA ascii
117.172684 17.369715 0.526131 0.352209
117.172676 17.369717 0.133647 0.422141
116.316772 18.913147 -0.000011 0.339361
115.410622 20.547176 -0.000008 0.357595
114.780815 21.682888 -0.000006 0.365026
114.316803 22.519625 -0.000005 0.215320
117.073433 17.378511 4.461153 0.492409
117.073433 17.378511 4.053218 0.323568
117.073433 17.378513 3.651010 0.357809
117.073433 17.378513 3.253566 0.408347
117.073433 17.378513 2.859964 0.590692
117.073433 17.378513 2.469315 0.678431
117.073433 17.378513 2.080757 0.631952
117.073433 17.378511 1.693448 0.669703
117.073433 17.378511 1.306553 0.525490
117.073433 17.378513 0.919243 0.484672
117.073433 17.378513 0.530685 0.307546
117.073433 17.378513 0.140036 0.647059
116.254913 18.879128 -0.000011 0.302556
115.360191 20.519444 -0.000008 0.250660
114.738335 21.659521 -0.000006 0.344518
114.280174 22.499477 -0.000004 0.272572
116.975105 17.387217 4.447517 0.654795
116.975105 17.387218 4.041460 0.637995
116.975105 17.387218 3.641105 0.700771
116.975105 17.387220 3.245491 0.476219
116.975105 17.387218 2.853701 0.319478
116.975105 17.387220 2.464851 0.512047
116.975105 17.387218 2.078083 0.670878
116.975105 17.387218 1.692557 0.669337
116.975105 17.387218 1.307443 0.655177
116.975105 17.387218 0.921917 0.465583
116.975105 17.387218 0.535149 0.575326
116.975105 17.387218 0.146299 0.650477
116.192818 18.845535 -0.000011 0.286839
115.309570 20.492060 -0.000008 0.307118
114.695686 21.636452 -0.000006 0.305211
114.243401 22.479588 -0.000005 0.277516
116.877678 17.395844 4.434147 0.650233
116.877678 17.395847 4.029932 0.678431
116.877678 17.395847 3.631393 0.696590
116.877678 17.395847 3.237573 0.650095
116.877678 17.395847 2.847561 0.394842
116.877678 17.395844 2.460474 0.514519
116.877678 17.395847 2.075461 0.666667
116.877678 17.395845 1.691683 0.669566
116.877678 17.395845 1.308317 0.668223
116.877678 17.395847 0.924539 0.515206
116.877678 17.395844 0.539525 0.700664
116.877678 17.395847 0.152439 0.656535
116.130493 18.812382 -0.000011 0.304143
115.258766 20.465031 -0.000009 0.300923
114.652878 21.613682 -0.000006 0.302907
114.206497 22.459953 -0.000005 0.345251
116.781120 17.404404 4.421039 0.636698
116.781120 17.404408 4.018629 0.594003
116.781120 17.404408 3.621870 0.674662
116.781120 17.404406 3.229811 0.657420
116.781120 17.404406 2.841540 0.678431
116.781120 17.404406 2.456183 0.377096
116.781120 17.404404 2.072890 0.505043
116.781120 17.404404 1.690827 0.634989
116.781120 17.404404 1.309173 0.536980
116.781120 17.404404 0.927110 0.376699
116.781120 17.404406 0.543817 0.672358
116.781120 17.404408 0.158460 0.651743
116.067940 18.779661 -0.000011 0.267201
115.207764 20.438354 -0.000009 0.296773
114.609917 21.591209 -0.000006 0.258122
114.169449 22.440577 -0.000005 0.306889
116.685425 17.412880 4.408189 0.655589
116.685425 17.412880 4.007550 0.682506
116.685425 17.412882 3.612536 0.689693
116.685425 17.412882 3.222201 0.641367
116.685425 17.412880 2.835639 0.647059
116.685425 17.412880 2.451977 0.514717
116.685425 17.412880 2.070369 0.628351
116.685425 17.412880 1.689988 0.659068
116.685425 17.412880 1.310013 0.678431
116.685425 17.412880 0.929630 0.419898
116.685425 17.412880 0.548022 0.678431
116.685425 17.412884 0.164361 0.648539
116.005157 18.747379 -0.000012 0.273640
115.156586 20.412041 -0.000008 0.318578
114.566795 21.569038 -0.000006 0.313375
114.132271 22.421461 -0.000005 0.281758
116.590553 17.421284 4.395593 0.648875
116.590553 17.421284 3.996689 0.609735
116.590553 17.421284 3.603386 0.654902
116.590553 17.421284 3.214742 0.678431
116.590553 17.421284 2.829854 0.674754
116.590553 17.421284 2.447854 0.460639
116.590561 17.421282 2.067899 0.638361
116.590553 17.421284 1.689164 0.660685
116.590553 17.421284 1.310836 0.678431
116.590561 17.421280 0.932101 0.450690
116.590553 17.421284 0.552146 0.709804
116.590553 17.421284 0.170146 0.661067
115.942146 18.715538 -0.000012 0.319921
115.105217 20.386082 -0.000009 0.302998
114.523521 21.547169 -0.000007 0.275685
114.094955 22.402605 -0.000005 0.333883
116.496506 17.429615 4.383244 0.590356
116.496506 17.429613 3.986042 0.331762
116.496506 17.429615 3.594416 0.635065
116.496506 17.429615 3.207429 0.437827
116.496506 17.429615 2.824183 0.662379
116.496506 17.429615 2.443812 0.460624
116.496506 17.429615 2.065477 0.337621
116.496506 17.429613 1.688358 0.639841
116.496506 17.429613 1.311642 0.410300
116.496506 17.429613 0.934523 0.328267
116.496506 17.429615 0.556188 0.702571
116.496506 17.429615 0.175817 0.353552
115.878914 18.684135 -0.000012 0.328267
115.053673 20.360481 -0.000009 0.277241
114.480095 21.525602 -0.000007 0.272374
114.057510 22.384008 -0.000005 0.286336
116.403252 17.437862 4.371144 0.570291
116.403252 17.437866 3.975608 0.491402
116.403252 17.437866 3.585626 0.535958
116.403252 17.437866 3.200263 0.647059
116.403252 17.437866 2.818625 0.675303
116.403252 17.437866 2.439850 0.638727
116.403252 17.437866 2.063104 0.514412
116.403252 17.437864 1.687567 0.669947
116.403252 17.437866 1.312433 0.648280
116.403252 17.437866 0.936896 0.558480
116.403252 17.437862 0.560149 0.717647
116.403252 17.437866 0.181375 0.629480
115.815468 18.653175 -0.000012 0.264698
115.001945 20.335243 -0.000009 0.262425
114.436523 21.504339 -0.000007 0.275380
114.019943 22.365675 -0.000005 0.336614
116.310768 17.446056 4.359279 0.653849
116.310768 17.446058 3.965378 0.424033
116.310768 17.446060 3.577007 0.580087
116.310768 17.446060 3.193238 0.647059
116.310768 17.446060 2.813176 0.668849
116.310768 17.446060 2.435966 0.654902
116.310768 17.446058 2.060777 0.472618
116.310768 17.446058 1.686792 0.629969
116.310768 17.446058 1.313208 0.645350
116.310768 17.446058 0.939223 0.591501
116.310768 17.446058 0.564033 0.678798
116.310768 17.446060 0.186824 0.662776
115.751808 18.622658 -0.000012 0.256413
114.950050 20.310364 -0.000009 0.256718
114.392799 21.483379 -0.000007 0.309667
113.982239 22.347603 -0.000005 0.246036
116.219040 17.454184 4.347651 0.666758
116.219040 17.454185 3.955351 0.678431
116.219040 17.454187 3.568560 0.507637
116.219040 17.454185 3.186351 0.533822
116.219040 17.454187 2.807836 0.662867
116.219040 17.454185 2.432160 0.625696
116.219040 17.454184 2.058496 0.459220
116.219040 17.454185 1.686033 0.637125
116.219040 17.454185 1.313967 0.644236
116.219040 17.454184 0.941504 0.615015
116.219040 17.454184 0.567839 0.678431
116.219040 17.454185 0.192164 0.516152
115.687943 18.592588 -0.000012 0.270466
114.897980 20.285851 -0.000009 0.303624
114.348930 21.462727 -0.000007 0.239948
113.944420 22.329796 -0.000005 0.266636
116.128052 17.462248 4.336253 0.664714
116.128052 17.462248 3.945524 0.678264
116.128052 17.462250 3.560281 0.592493
116.128052 17.462248 3.179602 0.553017
116.128052 17.462250 2.802601 0.666117
116.128052 17.462248 2.428429 0.624430
116.128052 17.462250 2.056261 0.468315
116.128052 17.462250 1.685288 0.665461
116.128052 17.462250 1.314712 0.643137
116.128052 17.462250 0.943739 0.624384
116.128052 17.462250 0.571570 0.678676
116.128052 17.462250 0.197399 0.556741
115.623856 18.562965 -0.000012 0.271641
114.845741 20.261700 -0.000009 0.292226
114.304924 21.442383 -0.000007 0.289311
113.906471 22.312252 -0.000005 0.293217
116.037788 17.470234 4.325088 0.645838
116.037788 17.470236 3.935896 0.401709
116.037788 17.470236 3.552170 0.633860
116.037788 17.470238 3.172989 0.295384
116.037788 17.470236 2.797473 0.485771
116.037788 17.470234 2.424774 0.667033
116.037788 17.470234 2.054071 0.503410
116.037788 17.470234 1.684558 0.330831
116.037788 17.470234 1.315442 0.639002
116.037788 17.470234 0.945929 0.672923
116.037788 17.470234 0.575225 0.310414
116.037788 17.470236 0.202527 0.360967
115.559570 18.533791 -0.000012 0.301839
114.793335 20.237915 -0.000009 0.265568
114.260773 21.422344 -0.000007 0.337606
113.868401 22.294975 -0.000005 0.330907
115.948219 17.478172 4.314142 0.658839
115.948219 17.478172 3.926459 0.678248
115.948219 17.478176 3.544219 0.637461
115.948219 17.478174 3.166508 0.406714
115.948219 17.478172 2.792446 0.650309
115.948219 17.478172 2.421192 0.656931
115.948219 17.478172 2.051925 0.452979
115.948219 17.478172 1.683843 0.655772
115.948219 17.478172 1.316157 0.538170
115.948219 17.478172 0.948075 0.629679
115.948219 17.478172 0.578808 0.595560
115.948219 17.478174 0.207554 0.458701
115.495087 18.505064 -0.000012 0.282521
114.740761 20.214497 -0.000009 0.264912
114.216476 21.402615 -0.000007 0.270542
113.830215 22.277962 -0.000006 0.305272
115.859344 17.486038 4.303421 0.386801
115.859344 17.486042 3.917215 0.677821
115.859344 17.486042 3.536432 0.647105
115.859344 17.486042 3.160158 0.673991
115.859344 17.486042 2.787522 0.653971
115.859344 17.486042 2.417681 0.678523
115.859344 17.486042 2.049822 0.441337
115.859344 17.486040 1.683143 0.640635
115.859344 17.486040 1.316857 0.553323
115.859344 17.486042 0.950178 0.611826
115.859344 17.486038 0.582318 0.678264
115.859344 17.486042 0.212478 0.391791
115.430397 18.476786 -0.000012 0.274464
114.688026 20.191444 -0.000009 0.331060
114.172050 21.383194 -0.000007 0.326711
113.791908 22.261219 -0.000006 0.296315
115.771141 17.493858 4.292912 0.400748
115.771141 17.493860 3.908154 0.638193
115.771141 17.493862 3.528798 0.644862
115.771141 17.493860 3.153935 0.703349
115.771141 17.493858 2.782696 0.469047
115.771141 17.493860 2.414242 0.671901
115.771141 17.493858 2.047761 0.467765
115.771141 17.493858 1.682456 0.595315
115.771141 17.493858 1.317543 0.520714
115.771141 17.493858 0.952239 0.689845
115.771141 17.493858 0.585758 0.709514
115.771141 17.493858 0.217304 0.546410
115.365517 18.448963 -0.000013 0.280201
114.635132 20.168764 -0.000009 0.344594
114.127487 21.364084 -0.000007 0.253727
113.753479 22.244741 -0.000005 0.260533
115.683594 17.501608 4.282621 0.545159
115.683586 17.501610 3.899281 0.454322
115.683586 17.501610 3.521322 0.623484
115.683586 17.501610 3.147841 0.661845
115.683586 17.501610 2.777970 0.502007
115.683586 17.501610 2.410873 0.653101
115.683594 17.501608 2.045742 0.533165
115.683594 17.501610 1.681784 0.666804
115.683586 17.501610 1.318216 0.640024
115.683594 17.501608 0.954257 0.661646
115.683594 17.501606 0.589126 0.688807
115.683586 17.501610 0.222030 0.563836
115.300438 18.421593 -0.000012 0.313680
114.582077 20.146450 -0.000009 0.284886
114.082794 21.345285 -0.000008 0.312963
113.714943 22.228535 -0.000005 0.229572
115.596680 17.509300 4.272540 0.673152
115.596680 17.509302 3.890588 0.435477
115.596680 17.509304 3.513999 0.380270
115.596680 17.509304 3.141871 0.666667
115.596680 17.509302 2.773340 0.418280
115.596680 17.509302 2.407573 0.416373
115.596680 17.509300 2.043765 0.497230
115.596680 17.509302 1.681125 0.614771
115.596680 17.509302 1.318874 0.590799
115.596680 17.509300 0.956235 0.515831
115.596680 17.509300 0.592426 0.666484
115.596680 17.509300 0.226660 0.675578
115.235176 18.394680 -0.000013 0.287465
114.528877 20.124508 -0.000010 0.291997
114.037971 21.326801 -0.000007 0.315221
113.676300 22.212597 -0.000005 0.283986
115.510391 17.516953 4.262662 0.672160
115.510384 17.516956 3.882071 0.667063
115.510384 17.516956 3.506824 0.569345
115.510384 17.516954 3.136022 0.663813
115.510384 17.516954 2.768803 0.497749
115.510384 17.516953 2.404340 0.641047
115.510384 17.516953 2.041828 0.618143
115.510384 17.516953 1.680480 0.668315
115.510384 17.516953 1.319520 0.518135
115.510384 17.516953 0.958172 0.679393
115.510384 17.516954 0.595660 0.675151
115.510384 17.516956 0.231197 0.670619
115.169724 18.368219 -0.000013 0.313817
114.475517 20.102938 -0.000010 0.304921
113.993019 21.308630 -0.000007 0.247150
113.637535 22.196928 -0.000006 0.317647
115.424706 17.524540 4.252990 0.543725
115.424706 17.524540 3.873732 0.646159
115.424706 17.524538 3.499799 0.476417
115.424706 17.524540 3.130295 0.638972
115.424706 17.524540 2.764361 0.644266
115.424706 17.524540 2.401174 0.652842
115.424706 17.524540 2.039931 0.431937
115.424706 17.524540 1.679848 0.569085
115.424706 17.524540 1.320151 0.641489
115.424706 17.524540 0.960069 0.690196
115.424706 17.524540 0.598826 0.621988
115.424706 17.524540 0.235638 0.685313
115.104088 18.342220 -0.000012 0.270039
114.422012 20.081741 -0.000010 0.331518
113.947945 21.290771 -0.000008 0.273655
113.598671 22.181530 -0.000005 0.348104
115.339622 17.532074 4.243521 0.659602
115.339622 17.532074 3.865567 0.660945
115.339622 17.532074 3.492919 0.363516
115.339622 17.532074 3.124686 0.633127
115.339622 17.532074 2.760012 0.635935
115.339622 17.532074 2.398074 0.666316
115.339622 17.532074 2.038074 0.642359
115.339622 17.532074 1.679230 0.629389
115.339622 17.532074 1.320770 0.614816
115.339622 17.532072 0.961926 0.675929
115.339622 17.532074 0.601926 0.606561
115.339622 17.532074 0.239988 0.664637
115.038277 18.316681 -0.000012 0.319112
114.368355 20.060921 -0.000010 0.277821
113.902740 21.273232 -0.000008 0.280446
113.559692 22.166405 -0.000006 0.258000
115.255112 17.539557 4.234247 0.583673
115.255112 17.539558 3.857571 0.679164
115.255112 17.539558 3.486184 0.437232
115.255112 17.539558 3.119195 0.646799
115.255112 17.539555 2.755754 0.655116
115.255112 17.539557 2.395039 0.671687
115.255112 17.539557 2.036255 0.670802
115.255112 17.539555 1.678624 0.638987
115.255112 17.539555 1.321376 0.601984
115.255112 17.539557 0.963745 0.697200
115.255112 17.539555 0.604961 0.351141
115.255112 17.539555 0.244246 0.654124
114.972282 18.291592 -0.000013 0.265751
114.314560 20.040472 -0.000010 0.267292
113.857414 21.256004 -0.000008 0.320928
113.520615 22.151550 -0.000006 0.374426
115.171173 17.546989 4.225170 0.581674
115.171173 17.546989 3.849744 0.674525
115.171173 17.546991 3.479590 0.677928
115.171173 17.546991 3.113819 0.646662
115.171173 17.546993 2.751584 0.677928
115.171173 17.546989 2.392067 0.647181
115.171173 17.546989 2.034475 0.690379
115.171173 17.546989 1.678031 0.641535
115.171173 17.546989 1.321969 0.608286
115.171173 17.546989 0.965525 0.678462
115.171173 17.546989 0.607932 0.334386
115.171173 17.546989 0.248416 0.696925
114.906120 18.266973 -0.000013 0.278828
114.260620 20.020401 -0.000010 0.313268
113.811974 21.239096 -0.000008 0.254643
113.481438 22.136971 -0.000006 0.318868
115.087784 17.554375 4.216284 0.382345
115.087784 17.554379 3.842082 0.677440
115.087784 17.554379 3.473135 0.689860
115.087784 17.554377 3.108557 0.646525
115.087784 17.554377 2.747503 0.678080
115.087784 17.554375 2.389158 0.661280
115.087784 17.554377 2.032732 0.665949
115.087784 17.554377 1.677451 0.654597
115.087784 17.554377 1.322549 0.614511
115.087784 17.554377 0.967268 0.666453
115.087784 17.554375 0.610841 0.339254
115.087784 17.554375 0.252497 0.668849
114.839783 18.242817 -0.000013 0.295308
114.206543 20.000706 -0.000010 0.338231
113.766418 21.222502 -0.000008 0.231327
113.442154 22.122663 -0.000006 0.285161
115.004929 17.561712 4.207587 0.627115
115.004929 17.561716 3.834583 0.599145
115.004929 17.561714 3.466817 0.680934
115.004929 17.561714 3.103407 0.535683
115.004929 17.561714 2.743509 0.627436
115.004929 17.561714 2.386312 0.573037
115.004929 17.561712 2.031026 0.677638
115.004929 17.561714 1.676883 0.659403
115.004929 17.561714 1.323118 0.635431
115.004929 17.561712 0.968973 0.695613
115.004929 17.561710 0.613688 0.393027
115.004929 17.561714 0.256491 0.708904
114.773285 18.219120 -0.000013 0.290730
114.152328 19.981390 -0.000010 0.289815
113.720741 21.206230 -0.000008 0.339010
113.402771 22.108631 -0.000006 0.321477
114.922600 17.569008 4.199077 0.677302
114.922600 17.569010 3.827245 0.578729
114.922600 17.569010 3.460635 0.690242
114.922600 17.569008 3.098367 0.476661
114.922600 17.569008 2.739600 0.654551
114.922600 17.569008 2.383526 0.558633
114.922600 17.569008 2.029357 0.677989
114.922600 17.569008 1.676327 0.658015
114.922600 17.569008 1.323674 0.632761
114.922600 17.569008 0.970643 0.696132
114.922600 17.569008 0.616474 0.561090
114.922600 17.569006 0.260399 0.681758
114.706619 18.195892 -0.000013 0.321309
114.097984 19.962452 -0.000010 0.303258
113.674957 21.190277 -0.000008 0.307576
113.363289 22.094877 -0.000006 0.246723
114.840782 17.576252 4.190750 0.676982
114.840782 17.576256 3.820066 0.385504
114.840782 17.576256 3.454586 0.237049
114.840782 17.576256 3.093436 0.360433
114.840782 17.576256 2.735776 0.678111
114.840782 17.576256 2.380800 0.558465
114.840782 17.576254 2.027724 0.676936
114.840782 17.576252 1.675783 0.539651
114.840782 17.576252 1.324218 0.629816
114.840782 17.576254 0.972276 0.698116
114.840782 17.576254 0.619200 0.584375
114.840782 17.576252 0.264224 0.383078
114.639793 18.173130 -0.000013 0.332494
114.043503 19.943895 -0.000010 0.328496
113.629059 21.174641 -0.000008 0.310353
113.323715 22.081398 -0.000006 0.300206
114.759468 17.583458 4.182604 0.666346
114.759468 17.583462 3.813042 0.491341
114.759468 17.583458 3.448670 0.674479
114.759468 17.583458 3.088612 0.444968
114.759468 17.583458 2.732035 0.657542
114.759468 17.583458 2.378134 0.466239
114.759468 17.583458 2.026127 0.677943
114.759468 17.583458 1.675250 0.594369
114.759468 17.583458 1.324750 0.589578
114.759468 17.583458 0.973873 0.693080
114.759468 17.583454 0.621866 0.601862
114.759468 17.583456 0.267964 0.655863
114.572807 18.150833 -0.000013 0.275731
113.988899 19.925716 -0.000010 0.276005
113.583054 21.159328 -0.000008 0.324224
113.284050 22.068192 -0.000006 0.234821
114.678635 17.590620 4.174638 0.410239
114.678635 17.590622 3.806174 0.484703
114.678635 17.590620 3.442883 0.666255
114.678635 17.590622 3.083895 0.514931
114.678635 17.590620 2.728377 0.613214
114.678635 17.590618 2.375526 0.378195
114.678635 17.590618 2.024565 0.647059
114.678635 17.590618 1.674730 0.613458
114.678635 17.590618 1.325270 0.495674
114.678635 17.590618 0.975435 0.336080
114.678635 17.590622 0.624474 0.341634
114.678635 17.590620 0.271623 0.648341
114.505669 18.129005 -0.000013 0.288808
113.934166 19.907923 -0.000010 0.296971
113.536942 21.144337 -0.000008 0.331350
113.244293 22.055265 -0.000006 0.353109
114.598282 17.597740 4.166849 0.656031
114.598282 17.597742 3.799457 0.670314
114.598282 17.597740 3.437225 0.676997
114.598282 17.597740 3.079282 0.623560
114.598282 17.597740 2.724799 0.655253
114.598282 17.597740 2.372976 0.516152
114.598282 17.597740 2.023036 0.678065
114.598282 17.597740 1.674221 0.665080
114.598282 17.597740 1.325779 0.629969
114.598282 17.597740 0.976963 0.678065
114.598282 17.597740 0.627024 0.677211
114.598282 17.597742 0.275201 0.647318
114.438385 18.107645 -0.000013 0.252735
113.879311 19.890512 -0.000010 0.325872
113.490730 21.129665 -0.000008 0.288472
113.204445 22.042618 -0.000006 0.271183
114.518387 17.604820 4.159233 0.650950
114.518387 17.604820 3.792891 0.707301
114.518387 17.604820 3.431693 0.675654
114.518387 17.604820 3.074773 0.656138
114.518387 17.604820 2.721302 0.655421
114.518387 17.604818 2.370483 0.466316
114.518387 17.604820 2.021543 0.620493
114.518387 17.604820 1.673724 0.517678
114.518387 17.604820 1.326276 0.616434
114.518387 17.604820 0.978457 0.666667
114.518387 17.604822 0.629517 0.709636
114.518387 17.604822 0.278699 0.663417
114.370949 18.086754 -0.000014 0.295766
113.824333 19.873484 -0.000010 0.367071
113.444412 21.115320 -0.000008 0.271855
113.164513 22.030249 -0.000006 0.300954
114.438950 17.611847 4.151793 0.623102
114.438950 17.611847 3.786476 0.661936
114.438950 17.611847 3.426289 0.410101
114.438950 17.611847 3.070367 0.655375
114.438950 17.611847 2.717885 0.654994
114.438950 17.611847 2.368048 0.504128
114.438950 17.611845 2.020084 0.679286
114.438950 17.611845 1.673238 0.670680
114.438950 17.611845 1.326762 0.629770
114.438950 17.611847 0.979916 0.682002
114.438950 17.611843 0.631952 0.694270
114.438950 17.611845 0.282115 0.656443
114.303368 18.066336 -0.000014 0.254002
113.769241 19.856838 -0.000010 0.278035
113.398003 21.101297 -0.000008 0.305974
113.124489 22.018158 -0.000007 0.321996
114.359947 17.618849 4.144520 0.423133
114.359947 17.618851 3.780205 0.656825
114.359947 17.618851 3.421005 0.336873
114.359947 17.618847 3.066060 0.621363
114.359947 17.618847 2.714545 0.626154
114.359947 17.618847 2.365667 0.526650
114.359947 17.618847 2.018658 0.678233
114.359947 17.618847 1.672763 0.602319
114.359947 17.618847 1.327238 0.481910
114.359947 17.618847 0.981342 0.677668
114.359947 17.618849 0.634333 0.672465
114.359947 17.618847 0.285455 0.303304
114.235649 18.046394 -0.000013 0.302602
113.714035 19.840576 -0.000010 0.279973
113.351494 21.087599 -0.000008 0.248753
113.084389 22.006344 -0.000007 0.300511
114.281372 17.625813 4.137415 0.394919
114.281372 17.625813 3.774079 0.654292
114.281372 17.625813 3.415844 0.285893
114.281372 17.625813 3.061852 0.671199
114.281372 17.625811 2.711282 0.635126
114.281372 17.625809 2.363341 0.540810
114.281372 17.625813 2.017264 0.678401
114.281372 17.625813 1.672298 0.551049
114.281372 17.625813 1.327702 0.316381
114.281372 17.625813 0.982736 0.657618
114.281372 17.625813 0.636659 0.677974
114.281372 17.625816 0.288719 0.303181
114.167786 18.026922 -0.000013 0.270939
113.658714 19.824701 -0.000011 0.259754
113.304886 21.074226 -0.000008 0.279026
113.044205 21.994814 -0.000006 0.278935
114.203217 17.632727 4.130479 0.381399
114.203217 17.632729 3.768098 0.719203
114.203217 17.632727 3.410806 0.580575
114.203217 17.632725 3.057745 0.674022
114.203217 17.632725 2.708096 0.616175
114.203217 17.632725 2.361071 0.675685
114.203217 17.632725 2.015904 0.709804
114.203217 17.632727 1.671845 0.589593
114.203217 17.632727 1.328155 0.250217
114.203217 17.632725 0.984096 0.674815
114.203217 17.632725 0.638929 0.677485
114.203217 17.632725 0.291904 0.290562
114.099792 18.007919 -0.000014 0.288777
113.603279 19.809216 -0.000011 0.247425
113.258186 21.061178 -0.000008 0.317189
113.003937 21.983564 -0.000007 0.274266
114.125465 17.639618 4.123703 0.548440
114.125465 17.639618 3.762256 0.646326
114.125465 17.639620 3.405884 0.681041
114.125465 17.639618 3.053732 0.708965
114.125465 17.639618 2.704984 0.504967
114.125465 17.639616 2.358852 0.662165
114.125465 17.639616 2.014575 0.709255
114.125465 17.639618 1.671402 0.661982
114.125465 17.639618 1.328598 0.318975
114.125465 17.639618 0.985425 0.708843
114.125465 17.639618 0.641147 0.692500
114.125465 17.639620 0.295016 0.552560
114.031670 17.989403 -0.000014 0.261082
113.547745 19.794117 -0.000010 0.278996
113.211403 21.048458 -0.000008 0.288106
112.963600 21.972595 -0.000007 0.275868
114.048111 17.646461 4.117093 0.628367
114.048111 17.646461 3.756557 0.647150
114.048111 17.646463 3.401081 0.667475
114.048111 17.646463 3.049818 0.725048
114.048111 17.646463 2.701948 0.475807
114.048111 17.646461 2.356689 0.660685
114.048111 17.646461 2.013278 0.705257
114.048111 17.646461 1.670971 0.551400
114.048111 17.646461 1.329029 0.259419
114.048111 17.646461 0.986722 0.673564
114.048111 17.646461 0.643311 0.677791
114.048111 17.646460 0.298052 0.574945
113.963417 17.971355 -0.000014 0.257038
113.492104 19.779404 -0.000011 0.271427
113.164528 21.036062 -0.000009 0.265461
112.923180 21.961908 -0.000007 0.328298
113.971146 17.653286 4.110640 0.677256
113.971146 17.653286 3.750992 0.646220
113.971146 17.653286 3.396394 0.676631
113.971146 17.653286 3.045996 0.669474
113.971146 17.653286 2.698984 0.447227
113.971146 17.653286 2.354576 0.648768
113.971146 17.653284 2.012012 0.706752
113.971146 17.653286 1.670549 0.595987
113.971146 17.653286 1.329451 0.259281
113.971146 17.653286 0.987987 0.651102
113.971146 17.653286 0.645424 0.614862
113.971146 17.653286 0.301016 0.567468
113.895042 17.953783 -0.000014 0.304875
113.436363 19.765079 -0.000011 0.286870
113.117569 21.023994 -0.000009 0.326238
112.882690 21.951504 -0.000007 0.266651
113.894547 17.660063 4.104347 0.676143
113.894547 17.660063 3.745566 0.630671
113.894547 17.660061 3.391824 0.647059
113.894547 17.660063 3.042269 0.698543
113.894547 17.660061 2.696094 0.408637
113.894547 17.660061 2.352517 0.652567
113.894547 17.660061 2.010779 0.668147
113.894547 17.660063 1.670138 0.646326
113.894547 17.660063 1.329862 0.258915
113.894547 17.660061 0.989221 0.681941
113.894547 17.660061 0.647483 0.623713
113.894547 17.660061 0.303905 0.597192
113.826553 17.936689 -0.000014 0.307210
113.380524 19.751144 -0.000011 0.290898
113.070518 21.012255 -0.000009 0.331548
112.842125 21.941383 -0.000007 0.290898
113.818321 17.666821 4.098208 0.656733
113.818314 17.666824 3.740273 0.241932
113.818321 17.666821 3.387364 0.642283
113.818321 17.666821 3.038634 0.699596
113.818314 17.666822 2.693275 0.465049
113.818314 17.666824 2.350507 0.658259
113.818314 17.666824 2.009575 0.619791
113.818321 17.666821 1.669737 0.627207
113.818321 17.666821 1.330263 0.345357
113.818314 17.666824 0.990425 0.667201
113.818314 17.666826 0.649493 0.625849
113.818314 17.666824 0.306725 0.695033
113.757935 17.920078 -0.000014 0.338354
113.324585 19.737602 -0.000011 0.352392
113.023399 21.000847 -0.000009 0.246189
112.801491 21.931543 -0.000007 0.331044
113.742447 17.673538 4.092227 0.651530
113.742447 17.673536 3.735117 0.298177
113.742447 17.673536 3.383019 0.645411
113.742447 17.673536 3.035092 0.707744
113.742447 17.673534 2.690528 0.494316
113.742447 17.673534 2.348549 0.636347
113.742447 17.673534 2.008402 0.647486
113.742447 17.673534 1.669346 0.540841
113.742447 17.673534 1.330654 0.299046
113.742447 17.673534 0.991598 0.658106
113.742447 17.673534 0.651450 0.646052
113.742447 17.673532 0.309471 0.707286
113.689209 17.903942 -0.000014 0.284443
113.268555 19.724449 -0.000011 0.241993
112.976196 20.989765 -0.000009 0.295811
112.760796 21.921989 -0.000007 0.309483
113.666916 17.680233 4.086396 0.664271
113.666908 17.680235 3.730088 0.359197
113.666908 17.680237 3.378783 0.644984
113.666916 17.680233 3.031640 0.676478
113.666908 17.680237 2.687850 0.517266
113.666916 17.680235 2.346640 0.647059
113.666916 17.680235 2.007258 0.666621
113.666916 17.680233 1.668965 0.636698
113.666916 17.680233 1.331035 0.300145
113.666916 17.680235 0.992742 0.656489
113.666908 17.680237 0.653359 0.646113
113.666908 17.680237 0.312150 0.680888
113.620369 17.888290 -0.000014 0.272160
113.212440 19.711687 -0.000011 0.320333
112.928917 20.979015 -0.000009 0.263264
112.720024 21.912720 -0.000007 0.265583
113.591721 17.686890 4.080720 0.661112
113.591721 17.686890 3.725195 0.571298
113.591721 17.686890 3.374661 0.654978
113.591721 17.686890 3.028278 0.567864
113.591721 17.686890 2.685244 0.553368
113.591721 17.686888 2.344783 0.665934
113.591721 17.686890 2.006145 0.677241
113.591721 17.686890 1.668594 0.643626
113.591721 17.686890 1.331406 0.303532
113.591721 17.686890 0.993855 0.648661
113.591721 17.686890 0.655217 0.670573
113.591721 17.686890 0.314756 0.609155
113.551422 17.873117 -0.000014 0.306661
113.156227 19.699318 -0.000011 0.354208
112.881561 20.968594 -0.000009 0.303517
112.679199 21.903734 -0.000007 0.301396
113.516853 17.693516 4.075194 0.629068
113.516853 17.693516 3.720430 0.610910
113.516853 17.693516 3.370646 0.677607
113.516853 17.693514 3.025006 0.660594
113.516853 17.693516 2.682705 0.571847
113.516853 17.693516 2.342973 0.671824
113.516853 17.693512 2.005061 0.668391
113.516853 17.693514 1.668233 0.599634
113.516853 17.693514 1.331766 0.313588
113.516853 17.693516 0.994939 0.705089
113.516853 17.693514 0.657026 0.677440
113.516853 17.693512 0.317294 0.692042
113.482368 17.858429 -0.000014 0.272023
113.099937 19.687342 -0.000011 0.289097
112.834137 20.958504 -0.000009 0.248173
112.638306 21.895035 -0.000007 0.276814
113.442299 17.700130 4.069813 0.641382
113.442299 17.700129 3.715791 0.699199
113.442299 17.700127 3.366738 0.686412
113.442299 17.700127 3.021819 0.412543
113.442299 17.700127 2.680234 0.678203
113.442299 17.700127 2.341212 0.667124
113.442299 17.700127 2.004006 0.667720
113.442299 17.700127 1.667882 0.567285
113.442299 17.700127 1.332118 0.307378
113.442299 17.700127 0.995994 0.575219
113.442299 17.700130 0.658788 0.702403
113.442299 17.700130 0.319766 0.677241
113.413216 17.844217 -0.000014 0.294102
113.043564 19.675760 -0.000011 0.280949
112.786644 20.948746 -0.000009 0.309194
112.597351 21.886620 -0.000007 0.328939
113.368050 17.706699 4.064584 0.420844
113.368050 17.706699 3.711281 0.694804
113.368050 17.706699 3.362938 0.700206
113.368050 17.706699 3.018722 0.383001
113.368050 17.706699 2.677832 0.647181
113.368050 17.706699 2.339500 0.667659
113.368050 17.706699 2.002980 0.645640
113.368050 17.706699 1.667540 0.646372
113.368050 17.706699 1.332460 0.310307
113.368050 17.706699 0.997020 0.534936
113.368050 17.706699 0.660500 0.707179
113.368050 17.706699 0.322168 0.668696
113.343964 17.830494 -0.000014 0.320516
112.987106 19.664570 -0.000011 0.296345
112.739082 20.939320 -0.000009 0.357259
112.556343 21.878492 -0.000008 0.280919
113.316788 17.592152 4.090359 0.647059
113.316788 17.592154 3.733505 0.647059
113.316788 17.592154 3.381662 0.647059
113.294167 17.712914 3.015761 0.315602
113.294167 17.712912 2.675536 0.645655
113.316788 17.592154 2.347937 0.654902
113.316788 17.592154 2.008035 0.666667
113.316788 17.592152 1.669224 0.654902
113.316788 17.592152 1.330776 0.674113
113.294167 17.712910 0.998000 0.545235
113.294167 17.712910 0.662136 0.684810
113.294167 17.712908 0.324463 0.658091
113.274620 17.817253 -0.000014 0.293935
112.930580 19.653776 -0.000011 0.279286
112.691452 20.930223 -0.000009 0.271122
112.515282 21.870651 -0.000008 0.270832
113.242249 17.598755 4.085359 0.647059
113.247009 17.572308 3.734998 0.647059
113.247009 17.572306 3.382919 0.647059
113.220573 17.719055 3.012892 0.321065
113.220573 17.719055 2.673311 0.646189
113.247009 17.572308 2.348504 0.673899
113.247009 17.572306 2.008374 0.658671
113.247009 17.572306 1.669337 0.651957
113.247009 17.572306 1.330663 0.651957
113.220573 17.719055 0.998951 0.545205
113.220573 17.719053 0.663722 0.679042
113.220573 17.719051 0.326689 0.674083
113.205185 17.804497 -0.000014 0.271153
112.873970 19.643375 -0.000011 0.373510
112.643768 20.921463 -0.000009 0.332097
112.474159 21.863098 -0.000007 0.247715
113.167984 17.605335 4.080501 0.653315
113.185608 17.503382 3.747352 0.678431
113.185616 17.503378 3.393328 0.678431
113.147263 17.725147 3.010112 0.294484
113.147263 17.725147 2.671154 0.673808
113.185608 17.503380 2.353195 0.678431
113.185608 17.503380 2.011185 0.678431
113.185608 17.503380 1.670273 0.678431
113.185608 17.503380 1.329727 0.678431
113.147263 17.725147 0.999871 0.550713
113.147263 17.725151 0.665259 0.708522
113.147263 17.725149 0.328845 0.675975
113.135666 17.792225 -0.000014 0.299687
112.817299 19.633369 -0.000012 0.286397
112.596016 20.913034 -0.000009 0.335714
112.432991 21.855829 -0.000008 0.263508
113.093994 17.611893 4.075788 0.675532
113.110878 17.510006 3.743247 0.678431
113.110878 17.510004 3.389869 0.678431
113.074211 17.731247 3.007411 0.675380
113.074211 17.731243 2.669060 0.676555
113.110878 17.510006 2.351636 0.678431
113.110878 17.510006 2.010251 0.678431
113.110878 17.510006 1.669962 0.678431
113.110878 17.510006 1.330038 0.678431
113.074211 17.731247 1.000766 0.647135
113.074211 17.731247 0.666752 0.676921
113.074211 17.731243 0.330940 0.677607
113.066063 17.780437 -0.000014 0.291020
112.760551 19.623764 -0.000011 0.253712
112.548210 20.904940 -0.000009 0.361227
112.391769 21.848848 -0.000008 0.304601
113.020271 17.618425 4.071216 0.666896
113.036415 17.516609 3.739265 0.678431
113.036415 17.516605 3.386515 0.678431
113.001419 17.737320 3.004793 0.709499
113.001419 17.737324 2.667029 0.676753
113.036415 17.516607 2.350124 0.678431
113.036415 17.516609 2.009345 0.678431
113.036415 17.516609 1.669660 0.678431
113.036415 17.516609 1.330340 0.678431
113.001419 17.737320 1.001633 0.524804
113.001419 17.737320 0.668199 0.707362
113.001419 17.737320 0.332970 0.673335
112.996376 17.769135 -0.000015 0.269581
112.703743 19.614552 -0.000012 0.288991
112.500351 20.897179 -0.000009 0.294575
112.350502 21.842157 -0.000008 0.355718
112.946808 17.624935 4.066787 0.654902
112.962212 17.523190 3.735406 0.678431
112.962212 17.523186 3.383264 0.678431
112.928871 17.743378 3.002257 0.682414
112.928871 17.743378 2.665062 0.675685
112.962212 17.523186 2.348659 0.678431
112.962212 17.523186 2.008467 0.678431
112.962212 17.523188 1.669368 0.678431
112.962212 17.523190 1.330632 0.678431
112.928871 17.743378 1.002473 0.536385
112.928871 17.743374 0.669601 0.676600
112.928871 17.743374 0.334937 0.666545
112.926613 17.758322 -0.000015 0.291371
112.646866 19.605736 -0.000012 0.279606
112.452438 20.889750 -0.000010 0.282948
112.309189 21.835754 -0.000008 0.262516
112.873589 17.631424 4.062496 0.655909
112.888260 17.529745 3.731669 0.678431
112.888260 17.529743 3.380115 0.678431
112.856567 17.749409 2.999803 0.673838
112.856567 17.749413 2.663160 0.670970
112.888260 17.529743 2.347240 0.678431
112.888260 17.529743 2.007617 0.678431
112.888260 17.529743 1.669085 0.678431
112.888260 17.529743 1.330915 0.678431
112.856567 17.749411 1.003286 0.601938
112.856567 17.749409 0.670957 0.679591
112.856567 17.749407 0.336840 0.606317
112.856773 17.747997 -0.000015 0.298711
112.589935 19.597317 -0.000012 0.290929
112.404472 20.882660 -0.000010 0.371542
112.267838 21.829639 -0.000008 0.263096
112.800613 17.637894 4.058344 0.647059
112.814552 17.536278 3.728053 0.678431
112.814552 17.536278 3.377069 0.678431
112.784500 17.755396 2.997434 0.698421
112.784500 17.755396 2.661323 0.676921
112.814552 17.536278 2.345868 0.678431
112.814552 17.536280 2.006795 0.678431
112.814552 17.536278 1.668811 0.678431
112.814552 17.536278 1.331189 0.678431
112.784500 17.755396 1.004070 0.649958
112.784500 17.755398 0.672267 0.677424
112.784500 17.755398 0.338678 0.674617
112.786865 17.738159 -0.000015 0.263066
112.532944 19.589296 -0.000012 0.338979
112.356461 20.875902 -0.000010 0.296132
112.226433 21.823812 -0.000008 0.296773
112.727875 17.644346 4.054329 0.647059
112.741081 17.542793 3.724557 0.678431
112.741081 17.542791 3.374124 0.678431
112.712646 17.761391 2.995141 0.692332
112.712646 17.761391 2.659544 0.680125
112.741081 17.542793 2.344540 0.678431
112.741081 17.542791 2.006000 0.678431
112.741081 17.542789 1.668546 0.678431
112.741081 17.542789 1.331454 0.678431
112.712646 17.761391 1.004830 0.647059
112.712646 17.761395 0.673535 0.676066
112.712646 17.761393 0.340456 0.671519
112.712646 17.761391 0.004859 0.658824
112.475899 19.581673 -0.000012 0.307301
112.308403 20.869480 -0.000010 0.330083
112.184998 21.818275 -0.000008 0.325933
112.655357 17.650776 4.050451 0.647730
112.667839 17.549290 3.721179 0.678431
112.667839 17.549286 3.371279 0.678431
112.641022 17.767368 2.992928 0.656580
112.641022 17.767368 2.657828 0.691585
112.667839 17.549288 2.343258 0.678431
112.667839 17.549286 2.005231 0.678431
112.667839 17.549286 1.668290 0.678431
112.667839 17.549286 1.331710 0.678431
112.641022 17.767368 1.005563 0.581155
112.641022 17.767368 0.674758 0.677119
112.641022 17.767368 0.342172 0.678935
112.641022 17.767366 0.007072 0.655497
112.418800 19.574450 -0.000012 0.327688
112.260300 20.863394 -0.000010 0.293660
112.143524 21.813028 -0.000008 0.297215
112.583054 17.657187 4.046709 0.654871
112.594810 17.555763 3.717920 0.678431
112.594810 17.555761 3.368533 0.678431
112.569595 17.773327 2.990793 0.657160
112.569595 17.773327 2.656173 0.677424
112.594810 17.555763 2.342021 0.678431
112.594810 17.555761 2.004490 0.678431
112.594810 17.555763 1.668043 0.678431
112.594810 17.555763 1.331957 0.678431
112.569595 17.773327 1.006269 0.379171
112.569595 17.773327 0.675937 0.549889
112.569595 17.773327 0.343827 0.359152
112.569595 17.773327 0.009206 0.557366
112.361656 19.567623 -0.000012 0.274769
112.212158 20.857643 -0.000010 0.297002
112.102013 21.808071 -0.000008 0.231724
112.510963 17.663578 4.043101 0.647059
112.521988 17.562222 3.714778 0.678431
112.521988 17.562218 3.365886 0.678431
112.498375 17.779270 2.988739 0.684459
112.498375 17.779270 2.654578 0.696620
112.521988 17.562218 2.340828 0.678431
112.521988 17.562218 2.003775 0.678431
112.521988 17.562218 1.667805 0.678431
112.521988 17.562218 1.332195 0.678431
112.498375 17.779266 1.006950 0.632258
112.498375 17.779270 0.677074 0.683589
112.498375 17.779270 0.345422 0.669062
112.498375 17.779266 0.011261 0.674083
112.304459 19.561199 -0.000012 0.268437
112.163971 20.852230 -0.000010 0.274922
112.060463 21.803402 -0.000008 0.283848
112.439072 17.669952 4.039628 0.647059
112.449379 17.568657 3.711754 0.678431
112.449379 17.568657 3.363337 0.678431
112.427338 17.785194 2.986761 0.421576
112.427338 17.785194 2.653045 0.423102
112.449379 17.568657 2.339680 0.678431
112.449379 17.568657 2.003087 0.678431
112.449379 17.568657 1.667576 0.678431
112.449379 17.568657 1.332424 0.678431
112.427338 17.785194 1.007605 0.622141
112.427338 17.785194 0.678167 0.674235
112.427338 17.785194 0.346955 0.667521
112.427338 17.785194 0.013239 0.657893
112.247223 19.555170 -0.000012 0.301778
112.115753 20.847153 -0.000010 0.304387
112.018890 21.799025 -0.000008 0.277119
112.368721 17.662052 4.039875 0.653681
112.376953 17.575081 3.708844 0.678431
112.376953 17.575077 3.360887 0.678431
112.356491 17.791107 2.984860 0.695018
112.356491 17.791105 2.651571 0.708202
112.376953 17.575077 2.338575 0.678431
112.376953 17.575077 2.002425 0.678431
112.376953 17.575079 1.667356 0.678431
112.376953 17.575079 1.332644 0.678431
112.356491 17.791103 1.008234 0.483726
112.356491 17.791103 0.679217 0.550576
112.356491 17.791103 0.348428 0.650645
112.356491 17.791103 0.015139 0.655177
112.189949 19.549543 -0.000012 0.258213
112.067497 20.842411 -0.000010 0.287053
111.977280 21.794937 -0.000008 0.258289
112.298225 17.655621 4.039876 0.652949
112.304718 17.581484 3.706050 0.678431
112.304718 17.581482 3.358532 0.678431
112.285828 17.797001 2.983038 0.699321
112.285828 17.797001 2.650158 0.671244
112.304718 17.581482 2.337514 0.678431
112.304718 17.581482 2.001790 0.678431
112.304718 17.581484 1.667144 0.678431
112.304718 17.581484 1.332856 0.678431
112.285828 17.796999 1.008838 0.642252
112.285828 17.796997 0.680224 0.446021
112.285828 17.796997 0.349842 0.611688
112.285828 17.796997 0.016961 0.587030
112.132637 19.544317 -0.000012 0.272374
112.019211 20.838009 -0.000010 0.304692
111.935646 21.791140 -0.000008 0.272633
112.227684 17.649681 4.039876 0.652750
112.232666 17.587873 3.703370 0.678431
112.232666 17.587872 3.356274 0.678431
112.215332 17.802881 2.981292 0.693278
112.215332 17.802881 2.648803 0.706538
112.232666 17.587872 2.336497 0.678431
112.232666 17.587872 2.001181 0.678431
112.232666 17.587872 1.666941 0.678431
112.232666 17.587872 1.333059 0.678431
112.215332 17.802879 1.009416 0.257298
112.215332 17.802879 0.681190 0.676341
112.215332 17.802879 0.351196 0.647898
112.215332 17.802876 0.018707 0.654627
112.075287 19.539492 -0.000012 0.299779
111.970894 20.833942 -0.000010 0.258671
111.893990 21.787634 -0.000009 0.306188
112.157104 17.644234 4.039877 0.647059
112.160782 17.594246 3.700804 0.678431
112.160782 17.594246 3.354112 0.678431
112.144997 17.808748 2.979621 0.708492
112.144997 17.808746 2.647508 0.708858
112.160782 17.594246 2.335523 0.678431
112.160782 17.594246 2.000597 0.678431
112.160782 17.594246 1.666746 0.678431
112.160782 17.594246 1.333254 0.678431
112.144997 17.808746 1.009969 0.278935
112.144997 17.808746 0.682113 0.537743
112.144997 17.808746 0.352491 0.665660
112.144997 17.808743 0.020378 0.652567
112.017906 19.535065 -0.000012 0.273457
111.922554 20.830215 -0.000010 0.265538
111.852310 21.784418 -0.000009 0.304479
112.086487 17.639282 4.039877 0.652384
112.089066 17.600605 3.698350 0.678431
112.089066 17.600601 3.352045 0.678431
112.074814 17.814602 2.978027 0.661997
112.074814 17.814602 2.646272 0.676936
112.089066 17.600605 2.334591 0.678431
112.089066 17.600601 2.000039 0.678431
112.089066 17.600603 1.666560 0.678431
112.089066 17.600603 1.333439 0.678431
112.074814 17.814598 1.010497 0.244938
112.074814 17.814598 0.682994 0.588281
112.074814 17.814598 0.353728 0.651438
112.074814 17.814598 0.021972 0.676219
111.960487 19.531038 -0.000012 0.265095
111.874184 20.826824 -0.000010 0.285618
111.810600 21.781492 -0.000009 0.268940
112.015839 17.634821 4.039878 0.650202
112.017502 17.606951 3.696009 0.678431
112.017502 17.606949 3.350073 0.678431
112.004776 17.820444 2.976509 0.665522
112.004776 17.820442 2.645094 0.674311
112.017502 17.606949 2.333702 0.678431
112.017502 17.606949 1.999506 0.678431
112.017502 17.606949 1.666383 0.678431
112.017502 17.606949 1.333617 0.678431
112.004776 17.820442 1.011000 0.239551
112.004776 17.820442 0.683834 0.535363
112.004776 17.820438 0.354906 0.624903
112.004776 17.820438 0.023491 0.675853
111.903053 19.527416 -0.000012 0.358495
111.825798 20.823771 -0.000010 0.269322
111.768875 21.778862 -0.000009 0.275227
111.945160 17.630856 4.039879 0.648249
111.946091 17.613281 3.693780 0.678431
111.946091 17.613281 3.348194 0.678431
111.934883 17.826271 2.975065 0.700862
111.934883 17.826271 2.643974 0.669215
111.946091 17.613281 2.332856 0.678431
111.946091 17.613281 1.998999 0.678431
111.946091 17.613281 1.666214 0.678431
111.946091 17.613281 1.333786 0.678431
111.934883 17.826269 1.011479 0.263737
111.934883 17.826269 0.684632 0.519539
111.934883 17.826267 0.356025 0.633906
111.934883 17.826267 0.024935 0.676524
111.845589 19.524193 -0.000012 0.311543
111.777390 20.821053 -0.000010 0.325063
111.727135 21.776520 -0.000009 0.288777
111.874817 17.619602 4.041830 0.662165
111.874817 17.619602 3.691662 0.678431
111.874817 17.619602 3.346410 0.678431
111.865128 17.832092 2.973695 0.683940
111.865128 17.832088 2.642912 0.648692
111.874817 17.619602 2.332052 0.678431
111.874817 17.619598 1.998518 0.678431
111.874817 17.619602 1.666054 0.678431
111.874817 17.619602 1.333946 0.678431
111.865128 17.832088 1.011932 0.232639
111.865128 17.832087 0.685389 0.587304
111.865128 17.832087 0.357088 0.619333
111.865128 17.832085 0.026304 0.676555
111.788109 19.521368 -0.000013 0.266285
111.728958 20.818678 -0.000010 0.294682
111.685379 21.774469 -0.000009 0.287816
111.803673 17.625912 4.039501 0.663996
111.803673 17.625912 3.689654 0.678431
111.803673 17.625908 3.344719 0.678431
111.795494 17.837896 2.972400 0.634363
111.795494 17.837894 2.641908 0.592721
111.803673 17.625910 2.331290 0.678431
111.803673 17.625908 1.998061 0.678431
111.803673 17.625908 1.665902 0.678431
111.803673 17.625908 1.334098 0.678431
111.795494 17.837894 1.012361 0.204211
111.795494 17.837894 0.686104 0.485435
111.795494 17.837894 0.358092 0.629328
111.795494 17.837891 0.027599 0.675853
111.730606 19.518948 -0.000013 0.313176
111.680511 20.816637 -0.000010 0.308064
111.643608 21.772711 -0.000009 0.288426
111.732666 17.632206 4.037302 0.665751
111.732666 17.632206 3.687758 0.678431
111.732666 17.632202 3.343121 0.678431
111.725975 17.843693 2.971179 0.662913
111.725975 17.843693 2.640961 0.646448
111.732666 17.632206 2.330570 0.678431
111.732666 17.632206 1.997629 0.678431
111.732666 17.632204 1.665758 0.678431
111.732666 17.632204 1.334242 0.678431
111.725975 17.843693 1.012766 0.301503
111.725975 17.843689 0.686780 0.609583
111.725975 17.843689 0.359039 0.618692
111.725975 17.843689 0.028820 0.675227
111.673088 19.516930 -0.000012 0.300893
111.632057 20.814936 -0.000010 0.292485
111.601830 21.771244 -0.000009 0.315816
111.661774 17.638493 4.035228 0.667491
111.661774 17.638493 3.685970 0.678431
111.661774 17.638489 3.341615 0.678431
111.656578 17.849480 2.970031 0.665248
111.656578 17.849480 2.640071 0.675959
111.661774 17.638493 2.329891 0.678431
111.661774 17.638493 1.997223 0.678431
111.661774 17.638493 1.665623 0.678431
111.661774 17.638493 1.334378 0.678431
111.656578 17.849480 1.013146 0.498009
111.656578 17.849480 0.687414 0.466911
111.656578 17.849478 0.359929 0.355642
111.656578 17.849476 0.029968 0.430900
111.615555 19.515312 -0.000012 0.291295
111.583595 20.813572 -0.000010 0.357443
111.560043 21.770069 -0.000009 0.289784
111.590988 17.644770 4.033282 0.669245
111.590988 17.644768 3.684292 0.678431
111.590988 17.644766 3.340201 0.678431
111.587280 17.855261 2.968957 0.688075
111.587280 17.855259 2.639238 0.630320
111.590988 17.644768 2.329254 0.678431
111.590988 17.644768 1.996841 0.678431
111.590988 17.644766 1.665495 0.678431
111.590988 17.644766 1.334505 0.678431
111.587280 17.855259 1.013501 0.315969
111.587280 17.855259 0.688008 0.500847
111.587280 17.855257 0.360762 0.626230
111.587280 17.855257 0.031042 0.678401
111.558022 19.514097 -0.000013 0.276905
111.535118 20.812548 -0.000010 0.361639
111.518242 21.769186 -0.000009 0.289799
111.520317 17.651037 4.031462 0.670985
111.520317 17.651035 3.682723 0.678431
111.520317 17.651031 3.338879 0.678431
111.518074 17.861031 2.967956 0.386572
111.518074 17.861031 2.638461 0.520409
111.520317 17.651035 2.328658 0.678431
111.520317 17.651031 1.996484 0.678431
111.520317 17.651035 1.665376 0.678431
111.520317 17.651033 1.334624 0.678431
111.518074 17.861031 1.013833 0.357092
111.518074 17.861027 0.688561 0.555032
111.518074 17.861029 0.361539 0.595850
111.518074 17.861027 0.032043 0.675761
111.500473 19.513283 -0.000013 0.252766
111.486633 20.811863 -0.000010 0.260548
111.476440 21.768595 -0.000009 0.248386
111.449738 17.657295 4.029768 0.673014
111.449738 17.657291 3.681262 0.678431
111.449738 17.657290 3.337649 0.678431
111.448967 17.866764 2.967032 0.683757
111.448967 17.866764 2.637744 0.677882
111.449738 17.657291 2.328104 0.678431
111.449738 17.657291 1.996152 0.678431
111.449738 17.657290 1.665266 0.678431
111.449738 17.657291 1.334734 0.678431
111.448967 17.866764 1.014139 0.324331
111.448967 17.866764 0.689072 0.491875
111.448967 17.866766 0.362255 0.622599
111.448967 17.866764 0.032967 0.675364
111.442924 19.512871 -0.000012 0.323278
111.438148 20.811514 -0.000010 0.256413
111.434639 21.768295 -0.000009 0.283391
111.379250 17.663544 4.028199 0.674754
111.379250 17.663542 3.679909 0.678431
111.379250 17.663540 3.336509 0.678431
111.379944 17.872520 2.966177 0.703349
111.379944 17.872517 2.637081 0.647059
111.379250 17.663544 2.327590 0.678431
111.379250 17.663540 1.995844 0.678431
111.379250 17.663540 1.665163 0.678431
111.379250 17.663540 1.334837 0.678431
111.379944 17.872519 1.014422 0.304646
111.379944 17.872522 0.689545 0.396002
111.379944 17.872520 0.362919 0.603998
111.379944 17.872519 0.033823 0.542580
111.385368 19.512859 -0.000013 0.260227
111.389664 20.811506 -0.000010 0.290944
111.392830 21.768286 -0.000009 0.243580
111.308846 17.669785 4.026755 0.676509
111.308846 17.669785 3.678664 0.678431
111.308846 17.669781 3.335460 0.678431
111.310997 17.878269 2.965393 0.669566
111.310997 17.878267 2.636474 0.674266
111.308846 17.669785 2.327118 0.674754
111.308846 17.669785 1.995561 0.740444
111.308846 17.669783 1.665069 0.740444
111.308846 17.669783 1.334931 0.740444
111.310997 17.878267 1.014682 0.315114
111.310997 17.878269 0.689978 0.471168
111.310997 17.878269 0.363526 0.592599
111.310997 17.878269 0.034607 0.676341
111.327820 19.513250 -0.000013 0.245228
111.341179 20.811834 -0.000011 0.310292
111.351021 21.768570 -0.000009 0.301854
111.240257 17.776228 4.000333 0.647059
111.240257 17.776228 3.655881 0.654902
111.240257 17.776226 3.316267 0.647059
111.242119 17.884014 2.964682 0.664668
111.242119 17.884014 2.635922 0.674266
111.240257 17.776226 2.318468 0.647059
111.240257 17.776230 1.990379 0.647059
111.240257 17.776228 1.663343 0.654902
111.240257 17.776226 1.336657 0.651255
111.242119 17.884014 1.014917 0.320592
111.242119 17.884014 0.690371 0.485267
111.242119 17.884014 0.364078 0.585199
111.242119 17.884014 0.035318 0.647120
111.270271 19.514042 -0.000013 0.315480
111.292694 20.812502 -0.000010 0.279728
111.309219 21.769146 -0.000009 0.238102
111.170700 17.782372 3.999156 0.647059
111.170700 17.782372 3.654866 0.654902
111.170700 17.782370 3.315411 0.649241
111.173302 17.889751 2.964043 0.656123
111.173302 17.889751 2.635427 0.673259
111.170700 17.782372 2.318083 0.654108
111.170700 17.782372 1.990147 0.654108
111.170700 17.782373 1.663266 0.654902
111.170700 17.782373 1.336734 0.647486
111.173302 17.889751 1.015129 0.327001
