# This PCD file was generated using the MATLABÂ® pcwrite function
# from Computer Vision ToolboxÂ®.
# .PCD v.7 - Point Cloud Data file format
VERSION .7
FIELDS x y z intensity
SIZE 4 4 4 4
TYPE F F F F
COUNT 1 1 1 1
WIDTH 1216
HEIGHT 1
VIEWPOINT 0 0 0 1 0 0 0
POINTS 1216
DATA ascii
146.305817 18.792210 1.951706 0.730388
146.305817 18.792210 1.650461 0.696376
146.305817 18.792210 1.349539 0.651606
146.305817 18.792210 1.048294 0.469490
146.305817 18.792210 0.746078 0.686275
146.305817 18.792210 0.442236 0.577737
146.305817 18.792210 0.136097 0.650675
146.420258 19.736217 -0.000005 0.315084
146.576553 21.025419 -0.000004 0.338994
146.691696 21.975243 -0.000004 0.306950
146.241089 18.792210 3.805157 0.439933
146.241089 18.792210 3.487593 0.666789
146.241089 18.792210 3.174488 0.712139
146.241089 18.792210 2.865092 0.701671
146.241089 18.792210 2.558686 0.520851
146.241089 18.792212 2.254579 0.678233
146.241089 18.792212 1.952100 0.649393
146.241089 18.792210 1.650592 0.644938
146.241089 18.792210 1.349408 0.658106
146.241089 18.792210 1.047900 0.451102
146.241089 18.792210 0.745421 0.682506
146.241089 18.792210 0.441314 0.604166
146.241089 18.792210 0.134908 0.668849
146.363144 19.743343 -0.000005 0.308492
146.528442 21.031424 -0.000004 0.277211
146.650223 21.980419 -0.000004 0.295506
146.176254 18.792210 3.807281 0.424231
146.176254 18.792210 3.489424 0.674617
146.176254 18.792210 3.176031 0.741176
146.176254 18.792210 2.866349 0.740291
146.176254 18.792210 2.559661 0.545678
146.176254 18.792210 2.255274 0.690196
146.176254 18.792210 1.952516 0.681559
146.176254 18.792210 1.650731 0.644938
146.176254 18.792210 1.349269 0.700710
146.176254 18.792210 1.047484 0.503975
146.176254 18.792210 0.744726 0.733333
146.176254 18.792210 0.440339 0.677653
146.176254 18.792210 0.133651 0.698039
146.306091 19.750866 -0.000005 0.250858
146.480362 21.037762 -0.000004 0.254200
146.608765 21.985886 -0.000004 0.317632
146.111298 18.792210 3.809520 0.378119
146.111298 18.792210 3.491355 0.645533
146.111298 18.792210 3.177658 0.730022
146.111298 18.792210 2.867676 0.741176
146.111298 18.792210 2.560689 0.557626
146.111298 18.792210 2.256006 0.708080
146.111298 18.792212 1.952955 0.677470
146.111298 18.792210 1.650877 0.652445
146.111298 18.792210 1.349123 0.692790
146.111298 18.792210 1.047045 0.515190
146.111298 18.792210 0.743993 0.699382
146.111298 18.792210 0.439311 0.676814
146.111298 18.792210 0.132324 0.727153
146.249084 19.758789 -0.000005 0.297993
146.432343 21.044436 -0.000004 0.259709
146.567352 21.991640 -0.000004 0.311543
146.046219 18.792210 3.811877 0.546670
146.046219 18.792210 3.493387 0.635203
146.046219 18.792210 3.179370 0.658289
146.046219 18.792210 2.869071 0.705852
146.046219 18.792210 2.561772 0.597848
146.046219 18.792210 2.256778 0.709804
146.046219 18.792210 1.953418 0.736339
146.046219 18.792210 1.651031 0.728649
146.046219 18.792210 1.348969 0.727642
146.046219 18.792212 1.046582 0.534966
146.046219 18.792210 0.743222 0.622461
146.046219 18.792210 0.438228 0.634897
146.046219 18.792210 0.130929 0.740902
146.192139 19.767111 -0.000005 0.304646
146.384369 21.051445 -0.000004 0.334356
146.525986 21.997684 -0.000003 0.247578
145.981003 18.792208 3.814352 0.512627
145.981003 18.792210 3.495521 0.654902
145.981003 18.792212 3.181167 0.737743
145.981003 18.792210 2.870537 0.768032
145.981003 18.792210 2.562908 0.636408
145.981003 18.792212 2.257588 0.803449
145.981003 18.792210 1.953903 0.764248
145.981003 18.792210 1.651193 0.776471
145.981003 18.792210 1.348807 0.755520
145.981003 18.792210 1.046097 0.515160
145.981003 18.792212 0.742412 0.658091
145.981003 18.792210 0.437092 0.680034
145.981003 18.792212 0.129463 0.779355
146.135254 19.775829 -0.000005 0.276555
146.336441 21.058790 -0.000004 0.296422
146.484665 22.004017 -0.000004 0.335180
145.915634 18.792210 3.816944 0.622736
145.915634 18.792210 3.497758 0.351995
145.915634 18.792210 3.183051 0.654902
145.915634 18.792212 2.872072 0.773953
145.915634 18.792212 2.564099 0.542504
145.915634 18.792210 2.258437 0.696635
145.915634 18.792210 1.954412 0.671748
145.915634 18.792210 1.651362 0.593133
145.915634 18.792210 1.348638 0.754177
145.915634 18.792210 1.045588 0.522454
145.915634 18.792210 0.741563 0.627787
145.915634 18.792212 0.435901 0.706096
145.915634 18.792212 0.127928 0.771847
146.078415 19.784943 -0.000005 0.310079
146.288559 21.066469 -0.000004 0.228992
146.443390 22.010639 -0.000003 0.321859
145.850113 18.792210 3.819657 0.603861
145.850113 18.792210 3.500096 0.678172
145.850113 18.792210 3.185021 0.654902
145.850113 18.792210 2.873679 0.748165
145.850113 18.792210 2.565345 0.445258
145.850113 18.792210 2.259325 0.639628
145.850113 18.792210 1.954943 0.641550
145.850113 18.792210 1.651540 0.548302
145.850113 18.792210 1.348460 0.681514
145.850113 18.792210 1.045056 0.522667
145.850113 18.792210 0.740675 0.603113
145.850113 18.792210 0.434655 0.671351
145.850113 18.792210 0.126321 0.738109
146.021667 19.794453 -0.000005 0.285710
146.240753 21.074482 -0.000004 0.294591
146.402161 22.017548 -0.000004 0.334020
145.784454 18.792210 3.822488 0.437171
145.784454 18.792208 3.502538 0.663767
145.784454 18.792210 3.187078 0.741176
145.784454 18.792210 2.875355 0.802548
145.784454 18.792212 2.566645 0.447730
145.784454 18.792210 2.260252 0.741176
145.784454 18.792212 1.955499 0.709804
145.784454 18.792210 1.651724 0.699748
145.784454 18.792210 1.348276 0.647059
145.784454 18.792212 1.044501 0.523537
145.784454 18.792210 0.739748 0.698039
145.784454 18.792213 0.433355 0.727932
145.784454 18.792210 0.124645 0.753384
145.964966 19.804361 -0.000005 0.285145
146.192978 21.082829 -0.000004 0.274418
146.360977 22.024744 -0.000004 0.248096
145.718613 18.792210 3.825441 0.635386
145.718613 18.792208 3.505084 0.657572
145.718613 18.792212 3.189223 0.741176
145.718613 18.792210 2.877104 0.741497
145.718613 18.792210 2.568001 0.480262
145.718613 18.792210 2.261218 0.741176
145.718613 18.792210 1.956078 0.699626
145.718613 18.792210 1.651917 0.666667
145.718613 18.792210 1.348083 0.666667
145.718613 18.792210 1.043922 0.524392
145.718613 18.792210 0.738782 0.591684
145.718613 18.792210 0.431999 0.676295
145.718613 18.792212 0.122896 0.839216
145.908340 19.814665 -0.000005 0.297124
146.145279 21.091507 -0.000004 0.255421
146.319839 22.032228 -0.000004 0.235096
145.652603 18.792208 3.828514 0.650996
145.652603 18.792210 3.507733 0.276005
145.652603 18.792210 3.191455 0.731121
145.652603 18.792208 2.878924 0.628092
145.652603 18.792210 2.569413 0.443107
145.652603 18.792208 2.262224 0.580423
145.652603 18.792208 1.956681 0.646723
145.652603 18.792210 1.652118 0.637079
145.652603 18.792210 1.347882 0.666667
145.652603 18.792208 1.043319 0.576745
145.652603 18.792210 0.737776 0.641108
145.652603 18.792210 0.430587 0.653742
145.652603 18.792210 0.121076 0.702235
145.851791 19.825361 -0.000005 0.301640
146.097641 21.100521 -0.000004 0.282750
146.278763 22.039999 -0.000003 0.259800
145.586426 18.792210 3.831709 0.625895
145.586426 18.792210 3.510488 0.635416
145.586426 18.792210 3.193776 0.709804
145.586426 18.792210 2.880816 0.755703
145.586426 18.792210 2.570880 0.486641
145.586426 18.792212 2.263270 0.702083
145.586426 18.792210 1.957307 0.732921
145.586426 18.792210 1.652327 0.678431
145.586426 18.792210 1.347673 0.676127
145.586426 18.792210 1.042693 0.569711
145.586426 18.792210 0.736730 0.709804
145.586426 18.792210 0.429120 0.746746
145.586426 18.792210 0.119184 0.801968
145.795319 19.836452 -0.000005 0.264973
146.050064 21.109865 -0.000004 0.250370
146.237747 22.048058 -0.000003 0.349737
145.520050 18.792208 3.835027 0.306935
145.520050 18.792210 3.513349 0.634730
145.520050 18.792208 3.196187 0.680995
145.520050 18.792210 2.882781 0.732830
145.520050 18.792210 2.572404 0.488670
145.520050 18.792210 2.264356 0.711315
145.520050 18.792210 1.957958 0.741176
145.520050 18.792210 1.652544 0.704295
145.520050 18.792210 1.347456 0.708583
145.520050 18.792210 1.042042 0.501701
145.520065 18.792212 0.735644 0.631220
145.520050 18.792210 0.427596 0.742382
145.520065 18.792210 0.117220 0.780026
145.738922 19.847939 -0.000005 0.317479
146.002548 21.119541 -0.000004 0.327749
146.196777 22.056400 -0.000004 0.273014
145.453491 18.792210 3.838469 0.679225
145.453491 18.792210 3.516316 0.624765
145.453491 18.792210 3.198686 0.643732
145.453491 18.792210 2.884819 0.710658
145.453491 18.792210 2.573984 0.482353
145.453491 18.792210 2.265483 0.730800
145.453491 18.792210 1.958633 0.647059
145.453491 18.792210 1.652768 0.649760
145.453491 18.792210 1.347232 0.703426
145.453491 18.792210 1.041367 0.507973
145.453491 18.792210 0.734517 0.620325
145.453491 18.792210 0.426016 0.678431
145.453491 18.792210 0.115182 0.731929
145.682617 19.859819 -0.000005 0.294347
145.955109 21.129551 -0.000004 0.276936
146.155869 22.065029 -0.000004 0.255024
145.386734 18.792210 3.842035 0.638239
145.386734 18.792210 3.519391 0.386114
145.386734 18.792210 3.201277 0.659449
145.386734 18.792210 2.886930 0.776471
145.386734 18.792210 2.575623 0.495491
145.386734 18.792210 2.266650 0.692683
145.386734 18.792210 1.959332 0.647059
145.386734 18.792210 1.653002 0.691295
145.386734 18.792210 1.346999 0.679713
145.386734 18.792210 1.040668 0.509316
145.386734 18.792208 0.733349 0.677424
145.386734 18.792210 0.424378 0.700664
145.386734 18.792212 0.113070 0.724407
145.626389 19.872093 -0.000005 0.280522
145.907745 21.139889 -0.000004 0.253910
146.115021 22.073944 -0.000003 0.264729
145.319763 18.792210 3.845726 0.653010
145.319763 18.792208 3.522574 0.591714
145.319763 18.792210 3.203958 0.662074
145.319763 18.792210 2.889117 0.721736
145.319763 18.792210 2.577318 0.493812
145.319763 18.792210 2.267859 0.689540
145.319763 18.792210 1.960056 0.605920
145.319763 18.792210 1.653243 0.682353
145.319763 18.792210 1.346757 0.698039
145.319763 18.792210 1.039944 0.511330
145.319763 18.792210 0.732141 0.666667
145.319763 18.792212 0.422683 0.695186
145.319763 18.792212 0.110884 0.688060
145.570251 19.884758 -0.000005 0.291905
145.860443 21.150560 -0.000004 0.349615
146.074249 22.083143 -0.000004 0.331594
145.252594 18.792210 3.849543 0.599786
145.252594 18.792210 3.525866 0.564401
145.252594 18.792210 3.206731 0.633982
145.252594 18.792210 2.891377 0.690196
145.252594 18.792210 2.579071 0.482353
145.252594 18.792210 2.269108 0.656367
145.252594 18.792212 1.960805 0.578241
145.252594 18.792210 1.653492 0.584558
145.252594 18.792210 1.346508 0.678431
145.252594 18.792212 1.039195 0.496483
145.252594 18.792210 0.730892 0.650431
145.252594 18.792210 0.420929 0.615747
145.252594 18.792210 0.108623 0.679652
145.514191 19.897814 -0.000005 0.278157
145.813217 21.161560 -0.000004 0.252186
146.033524 22.092628 -0.000003 0.322957
145.185181 18.792208 3.853489 0.678431
145.185181 18.792210 3.529267 0.637568
145.185181 18.792210 3.209597 0.709804
145.185181 18.792210 2.893713 0.722133
145.185181 18.792210 2.580883 0.546868
145.185181 18.792210 2.270400 0.678431
145.185181 18.792210 1.961579 0.650339
145.185181 18.792210 1.653750 0.695644
145.185181 18.792210 1.346250 0.673381
145.185181 18.792210 1.038421 0.507073
145.185181 18.792210 0.729600 0.688136
145.185181 18.792210 0.419117 0.697185
145.185181 18.792210 0.106287 0.722515
145.458237 19.911261 -0.000005 0.332387
145.766083 21.172890 -0.000004 0.246494
145.992874 22.102398 -0.000003 0.258335
145.117538 18.792210 3.857563 0.647059
145.117538 18.792210 3.532780 0.277790
145.117538 18.792208 3.212556 0.540627
145.117538 18.792210 2.896126 0.687266
145.117538 18.792210 2.582754 0.432715
145.117538 18.792210 2.271733 0.618936
145.117538 18.792210 1.962378 0.585153
145.117538 18.792210 1.654016 0.603555
145.117538 18.792210 1.345984 0.653162
145.117538 18.792210 1.037622 0.520653
145.117554 18.792210 0.728267 0.593927
145.117538 18.792210 0.417246 0.614282
145.117538 18.792210 0.103874 0.625147
145.402374 19.925100 -0.000005 0.331533
145.719009 21.184547 -0.000004 0.388464
145.952301 22.112450 -0.000003 0.275700
145.049667 18.792210 3.861765 0.647059
145.049667 18.792210 3.536403 0.475868
145.049667 18.792210 3.215609 0.536202
145.049667 18.792210 2.898614 0.653544
145.049667 18.792210 2.584684 0.428305
145.049667 18.792210 2.273109 0.603922
145.049667 18.792210 1.963202 0.676982
145.049667 18.792210 1.654291 0.642603
145.049667 18.792210 1.345710 0.697307
145.049667 18.792210 1.036798 0.473762
145.049667 18.792208 0.726891 0.627100
145.049667 18.792210 0.415316 0.624735
145.049667 18.792210 0.101385 0.576959
145.346603 19.939327 -0.000005 0.283146
145.672028 21.196533 -0.000004 0.309697
145.911789 22.122784 -0.000004 0.295064
144.981552 18.792208 3.866099 0.621241
144.981552 18.792210 3.540139 0.422446
144.981552 18.792210 3.218757 0.633280
144.981552 18.792210 2.901181 0.678431
144.981552 18.792210 2.586674 0.482353
144.981552 18.792210 2.274528 0.603922
144.981552 18.792210 1.964052 0.669703
144.981552 18.792210 1.654574 0.727535
144.981552 18.792210 1.345427 0.758129
144.981552 18.792210 1.035948 0.475273
144.981552 18.792210 0.725473 0.741176
144.981552 18.792210 0.413326 0.660594
144.981552 18.792210 0.098819 0.625147
145.290939 19.953943 -0.000005 0.293248
145.625137 21.208847 -0.000004 0.264958
145.871353 22.133400 -0.000004 0.364675
144.913177 18.792210 3.870564 0.501030
144.913177 18.792208 3.543990 0.677424
144.913177 18.792208 3.222001 0.614038
144.913177 18.792208 2.903825 0.655238
144.913177 18.792210 2.588725 0.450980
144.913177 18.792210 2.275989 0.643473
144.913177 18.792210 1.964928 0.592157
144.913177 18.792210 1.654865 0.600717
144.913177 18.792210 1.345135 0.658457
144.913177 18.792210 1.035072 0.506981
144.913177 18.792210 0.724011 0.661280
144.913177 18.792210 0.411275 0.690196
144.913177 18.792210 0.096175 0.501244
145.235382 19.968946 -0.000005 0.346181
145.578323 21.221487 -0.000004 0.316289
145.830994 22.144300 -0.000004 0.339010
144.844543 18.792210 3.875162 0.378347
144.844543 18.792208 3.547955 0.678248
144.844543 18.792210 3.225340 0.712276
144.844543 18.792210 2.906548 0.741176
144.844543 18.792210 2.590837 0.458335
144.844543 18.792210 2.277494 0.719921
144.844543 18.792210 1.965829 0.693141
144.844543 18.792208 1.655166 0.644495
144.844543 18.792210 1.344834 0.715709
144.844543 18.792210 1.034170 0.505882
144.844543 18.792210 0.722506 0.712566
144.844543 18.792210 0.409163 0.678981
144.844543 18.792210 0.093452 0.682292
145.179916 19.984341 -0.000005 0.268147
145.531601 21.234455 -0.000004 0.256977
145.790710 22.155483 -0.000003 0.261265
144.775650 18.792208 3.879894 0.433768
144.775650 18.792208 3.552034 0.608850
144.775650 18.792208 3.228778 0.707225
144.775650 18.792208 2.909350 0.719326
144.775650 18.792210 2.593010 0.500740
144.775650 18.792210 2.279043 0.752941
144.775650 18.792210 1.966758 0.741176
144.775650 18.792210 1.655475 0.776471
144.775650 18.792210 1.344525 0.722576
144.775650 18.792210 1.033242 0.481788
144.775650 18.792210 0.720957 0.729686
144.775650 18.792210 0.406990 0.694789
144.775650 18.792210 0.090650 0.686137
145.124573 20.000120 -0.000005 0.307881
145.484985 21.247749 -0.000004 0.286717
145.750504 22.166945 -0.000003 0.299931
144.706467 18.792210 3.884761 0.521508
144.706467 18.792210 3.556231 0.686549
144.706467 18.792210 3.232313 0.624994
144.706467 18.792212 2.912232 0.708110
144.706467 18.792210 2.595245 0.482353
144.706467 18.792210 2.280636 0.710765
144.706467 18.792212 1.967712 0.711894
144.706467 18.792210 1.655793 0.691615
144.706467 18.792210 1.344207 0.701610
144.706467 18.792213 1.032288 0.513390
144.706467 18.792210 0.719363 0.679728
144.706467 18.792210 0.404755 0.688685
144.706467 18.792213 0.087768 0.632242
145.069336 20.016285 -0.000005 0.332387
145.438446 21.261368 -0.000004 0.312413
145.710388 22.178688 -0.000003 0.362799
144.636993 18.792210 3.889765 0.678203
144.636993 18.792210 3.560546 0.676066
144.636993 18.792210 3.235949 0.714977
144.636993 18.792210 2.915196 0.752346
144.636993 18.792210 2.597543 0.560784
144.636993 18.792210 2.282275 0.718196
144.636993 18.792210 1.968693 0.709804
144.636993 18.792210 1.656119 0.742153
144.636993 18.792210 1.343880 0.709804
144.636993 18.792210 1.031306 0.517220
144.636993 18.792210 0.717725 0.727077
144.636993 18.792210 0.402457 0.751110
144.636993 18.792210 0.084804 0.741176
145.014221 20.032833 -0.000005 0.266087
145.391998 21.275309 -0.000004 0.299550
145.670349 22.190708 -0.000003 0.341283
144.567230 18.792206 3.894908 0.660029
144.567230 18.792206 3.564980 0.666987
144.567230 18.792208 3.239684 0.763607
144.567230 18.792210 2.918242 0.742321
144.567230 18.792210 2.599905 0.580392
144.567230 18.792206 2.283958 0.721325
144.567230 18.792210 1.969702 0.709804
144.567230 18.792206 1.656456 0.722545
144.567230 18.792208 1.343544 0.715434
144.567230 18.792210 1.030298 0.483482
144.567230 18.792208 0.716042 0.750637
144.567230 18.792210 0.400095 0.769802
144.567230 18.792210 0.081759 0.776471
144.959213 20.049768 -0.000005 0.298253
145.345673 21.289577 -0.000004 0.329992
145.630386 22.203011 -0.000003 0.284260
144.497162 18.792206 3.900189 0.655116
144.497162 18.792208 3.569534 0.341497
144.497162 18.792208 3.243521 0.725994
144.497162 18.792210 2.921369 0.736828
144.497162 18.792210 2.602331 0.517647
144.497162 18.792210 2.285686 0.715221
144.497162 18.792210 1.970738 0.717891
144.497162 18.792210 1.656800 0.713436
144.497162 18.792210 1.343199 0.702327
144.497162 18.792210 1.029262 0.427695
144.497162 18.792210 0.714313 0.746593
144.497162 18.792210 0.397669 0.741176
144.497162 18.792210 0.078631 0.736690
144.904327 20.067087 -0.000005 0.308141
145.299423 21.304167 -0.000004 0.294301
145.590515 22.215591 -0.000003 0.347189
144.426773 18.792208 3.905612 0.657343
144.426773 18.792208 3.574209 0.656687
144.426773 18.792208 3.247459 0.801038
144.426773 18.792210 2.924580 0.772015
144.426773 18.792210 2.604821 0.593896
144.426773 18.792210 2.287462 0.781735
144.426773 18.792210 1.971802 0.776471
144.426773 18.792210 1.657155 0.796048
144.426773 18.792210 1.342845 0.757076
144.426773 18.792210 1.028198 0.448554
144.426773 18.792210 0.712538 0.786801
144.426773 18.792210 0.395179 0.776471
144.426773 18.792210 0.075420 0.775372
144.849564 20.084787 -0.000005 0.262150
145.253296 21.319078 -0.000004 0.261524
145.550735 22.228449 -0.000003 0.319631
144.356064 18.792210 3.911176 0.326345
144.356079 18.792210 3.579007 0.639292
144.356079 18.792210 3.251502 0.755047
144.356064 18.792210 2.927875 0.742321
144.356064 18.792208 2.607377 0.584833
144.356064 18.792208 2.289283 0.776654
144.356064 18.792210 1.972893 0.744625
144.356079 18.792210 1.657518 0.779538
144.356079 18.792210 1.342482 0.776471
144.356064 18.792210 1.027107 0.420340
144.356079 18.792210 0.710717 0.745052
144.356064 18.792208 0.392623 0.744625
144.356079 18.792210 0.072125 0.764508
144.794922 20.102871 -0.000005 0.247700
145.207260 21.334314 -0.000004 0.287388
145.511047 22.241585 -0.000003 0.272328
144.285034 18.792208 3.916885 0.655085
144.285034 18.792210 3.583929 0.645960
144.285034 18.792208 3.255649 0.686885
144.285034 18.792210 2.931256 0.611765
144.285034 18.792210 2.609999 0.599115
144.285034 18.792210 2.291152 0.711421
144.285034 18.792210 1.974012 0.647059
144.285034 18.792210 1.657891 0.660700
144.285034 18.792210 1.342109 0.698955
144.285034 18.792210 1.025988 0.428046
144.285034 18.792210 0.708848 0.690196
144.285034 18.792210 0.390002 0.600732
144.285034 18.792210 0.068744 0.668803
144.740417 20.121336 -0.000005 0.320516
145.161331 21.349869 -0.000004 0.244038
145.471451 22.254997 -0.000003 0.264118
144.213654 18.792210 3.922739 0.650904
144.213654 18.792208 3.588977 0.666270
144.213654 18.792210 3.259901 0.690196
144.213654 18.792210 2.934723 0.603922
144.213654 18.792210 2.612687 0.591959
144.213654 18.792210 2.293068 0.655085
144.213654 18.792210 1.975160 0.635294
144.213654 18.792208 1.658274 0.665934
144.213654 18.792208 1.341726 0.660853
144.213654 18.792210 1.024839 0.408820
144.213654 18.792210 0.706932 0.674571
144.213654 18.792210 0.387313 0.629191
144.213654 18.792210 0.065277 0.583932
144.686035 20.140181 -0.000005 0.294530
145.115524 21.365746 -0.000004 0.265492
145.431946 22.268684 -0.000004 0.297200
144.141937 18.792208 3.928740 0.647761
144.141937 18.792210 3.594151 0.519661
144.141922 18.792208 3.264260 0.696101
144.141937 18.792210 2.938277 0.670893
144.141937 18.792208 2.615444 0.578210
144.141937 18.792210 2.295032 0.660639
144.141937 18.792210 1.976337 0.741176
144.141937 18.792208 1.658666 0.628595
144.141937 18.792208 1.341334 0.656382
144.141937 18.792210 1.023663 0.387945
144.141937 18.792210 0.704967 0.703670
144.141937 18.792210 0.384557 0.687068
144.141937 18.792210 0.061724 0.671534
144.631790 20.159403 -0.000005 0.272801
145.069824 21.381941 -0.000004 0.287510
145.392548 22.282650 -0.000003 0.267689
144.069839 18.792206 3.934890 0.648112
144.069839 18.792208 3.599454 0.317311
144.069839 18.792210 3.268727 0.694362
144.069839 18.792208 2.941918 0.679118
144.069839 18.792210 2.618268 0.651591
144.069839 18.792206 2.297046 0.669108
144.069839 18.792206 1.977544 0.741176
144.069839 18.792208 1.659067 0.675822
144.069839 18.792208 1.340932 0.639109
144.069839 18.792206 1.022456 0.447074
144.069839 18.792206 0.702954 0.678431
144.069839 18.792210 0.381732 0.635279
144.069839 18.792210 0.058082 0.647059
144.577682 20.179005 -0.000005 0.281483
145.024231 21.398453 -0.000004 0.260410
145.353241 22.296886 -0.000004 0.318303
143.997391 18.792206 3.941190 0.424598
143.997391 18.792208 3.604886 0.431586
143.997391 18.792210 3.273304 0.672129
143.997391 18.792208 2.945650 0.698039
143.997391 18.792208 2.621161 0.647517
143.997391 18.792206 2.299108 0.660655
143.997391 18.792210 1.978779 0.741176
143.997391 18.792208 1.659479 0.711498
143.997391 18.792208 1.340521 0.599329
143.997391 18.792210 1.021221 0.389395
143.997391 18.792208 0.700892 0.690196
143.997391 18.792210 0.378839 0.670527
143.997391 18.792210 0.054351 0.668757
144.523712 20.198982 -0.000005 0.235416
144.978760 21.415285 -0.000004 0.302846
145.314026 22.311401 -0.000003 0.232776
143.924545 18.792210 3.947643 0.312032
143.924545 18.792206 3.610451 0.618265
143.924545 18.792208 3.277992 0.698238
143.924545 18.792206 2.949471 0.698039
143.924545 18.792210 2.624125 0.671351
143.924545 18.792210 2.301220 0.663630
143.924545 18.792210 1.980045 0.652201
143.924545 18.792210 1.659901 0.668757
143.924545 18.792210 1.340099 0.625788
143.924545 18.792210 1.019955 0.389914
143.924545 18.792210 0.698780 0.690532
143.924545 18.792210 0.375875 0.686839
143.924545 18.792210 0.050529 0.614389
144.469879 20.219337 -0.000005 0.302785
144.933411 21.432434 -0.000004 0.271107
145.274933 22.326187 -0.000003 0.310185
143.851318 18.792206 3.954250 0.466651
143.851318 18.792206 3.616147 0.455314
143.851318 18.792206 3.282791 0.776471
143.851318 18.792208 2.953383 0.738872
143.851334 18.792210 2.627159 0.680110
143.851334 18.792210 2.303383 0.698039
143.851334 18.792210 1.981340 0.660975
143.851334 18.792210 1.660332 0.690196
143.851334 18.792210 1.339668 0.721569
143.851334 18.792210 1.018659 0.472679
143.851334 18.792210 0.696617 0.766735
143.851334 18.792210 0.372841 0.720714
143.851334 18.792210 0.046617 0.698528
144.416183 20.240068 -0.000005 0.278141
144.888184 21.449898 -0.000004 0.271763
145.235931 22.341246 -0.000003 0.334508
143.777695 18.792206 3.961013 0.653834
143.777695 18.792208 3.621978 0.699229
143.777695 18.792208 3.287704 0.724392
143.777695 18.792206 2.957388 0.728649
143.777695 18.792208 2.630265 0.709117
143.777695 18.792210 2.305597 0.682719
143.777695 18.792210 1.982667 0.594980
143.777695 18.792210 1.660774 0.676280
143.777695 18.792210 1.339226 0.709987
143.777695 18.792210 1.017333 0.422065
143.777695 18.792210 0.694403 0.714504
143.777695 18.792210 0.369735 0.734417
143.777695 18.792208 0.042612 0.710658
144.362640 20.261173 -0.000005 0.291814
144.843079 21.467678 -0.000004 0.238056
145.197037 22.356575 -0.000003 0.253834
143.703659 18.792210 3.967933 0.323812
143.703659 18.792210 3.627945 0.708598
143.703659 18.792210 3.292730 0.725872
143.703659 18.792208 2.961487 0.705196
143.703659 18.792210 2.633444 0.709758
143.703659 18.792210 2.307862 0.720714
143.703659 18.792206 1.984024 0.704845
143.703659 18.792210 1.661226 0.755245
143.703659 18.792210 1.338774 0.755230
143.703659 18.792210 1.015976 0.440436
143.703659 18.792210 0.692137 0.715068
143.703659 18.792210 0.366556 0.746639
143.703659 18.792210 0.038513 0.716793
144.309250 20.282650 -0.000005 0.256764
144.798096 21.485773 -0.000004 0.321401
145.158249 22.372177 -0.000003 0.301137
143.629211 18.792206 3.975015 0.699260
143.629211 18.792206 3.634051 0.678431
143.629211 18.792208 3.297875 0.736873
143.629211 18.792210 2.965680 0.799786
143.629211 18.792206 2.636696 0.733089
143.629211 18.792210 2.310180 0.735180
143.629211 18.792210 1.985413 0.776471
143.629211 18.792206 1.661689 0.747677
143.629211 18.792206 1.338311 0.753948
143.629211 18.792210 1.014587 0.511162
143.629211 18.792210 0.689820 0.737041
143.629211 18.792210 0.363304 0.757656
143.629211 18.792210 0.034320 0.723491
144.256012 20.304502 -0.000005 0.241627
144.753235 21.504181 -0.000004 0.252491
145.119568 22.388050 -0.000003 0.247761
143.554321 18.792206 3.982258 0.697261
143.554321 18.792206 3.640296 0.661021
143.554321 18.792208 3.303136 0.661387
143.554321 18.792210 2.969969 0.696330
143.554321 18.792208 2.640022 0.730388
143.554321 18.792210 2.312551 0.641505
143.554321 18.792208 1.986834 0.631449
143.554321 18.792210 1.662162 0.573480
143.554321 18.792210 1.337838 0.712902
143.554321 18.792210 1.013166 0.420096
143.554321 18.792210 0.687449 0.637354
143.554321 18.792210 0.359978 0.682795
143.554321 18.792210 0.030031 0.696681
144.202911 20.326721 -0.000005 0.286839
144.708511 21.522902 -0.000004 0.252689
145.081009 22.404192 -0.000003 0.324056
143.478989 18.792208 3.989664 0.708797
143.478989 18.792210 3.646682 0.655955
143.478989 18.792210 3.308516 0.707469
143.478989 18.792208 2.974356 0.707042
143.478989 18.792208 2.643424 0.720104
143.478989 18.792208 2.314976 0.691585
143.478989 18.792206 1.988286 0.654169
143.478989 18.792206 1.662646 0.665202
143.478989 18.792208 1.337354 0.661707
143.478989 18.792206 1.011714 0.364569
143.478989 18.792210 0.685024 0.710781
143.478989 18.792210 0.356576 0.723140
143.478989 18.792210 0.025644 0.733806
144.149979 20.349314 -0.000005 0.273472
144.663910 21.541935 -0.000004 0.261662
145.042557 22.420603 -0.000003 0.341573
143.403198 18.792206 3.997238 0.677195
143.403198 18.792208 3.653213 0.653391
143.403198 18.792210 3.314018 0.684901
143.403198 18.792210 2.978841 0.668406
143.403198 18.792210 2.646903 0.754543
143.403198 18.792208 2.317455 0.692164
143.403198 18.792210 1.989772 0.698451
143.403198 18.792210 1.663141 0.666667
143.403198 18.792210 1.336859 0.666667
143.403198 18.792210 1.010228 0.425742
143.403198 18.792210 0.682545 0.709941
143.403198 18.792210 0.353098 0.700740
143.403198 18.792210 0.021160 0.740322
144.097214 20.372272 -0.000005 0.310872
144.619461 21.561279 -0.000004 0.300496
145.004227 22.437283 -0.000003 0.258656
143.326950 18.792206 4.004981 0.557610
143.326950 18.792206 3.659889 0.280278
143.326950 18.792206 3.319643 0.665522
143.326950 18.792208 2.983426 0.619104
143.326950 18.792208 2.650458 0.737377
143.326950 18.792208 2.319989 0.578119
143.326950 18.792208 1.991290 0.623041
143.326950 18.792208 1.663647 0.642756
143.326950 18.792208 1.336354 0.666667
143.326950 18.792210 1.008710 0.438895
143.326950 18.792208 0.680010 0.673106
143.326950 18.792208 0.349542 0.637812
143.326950 18.792210 0.016575 0.741054
144.044601 20.395605 -0.000005 0.361471
144.575134 21.580933 -0.000004 0.328389
144.966003 22.454227 -0.000003 0.298634
143.250214 18.792208 4.012894 0.389548
143.250214 18.792206 3.666712 0.323705
143.250214 18.792208 3.325391 0.707500
143.250214 18.792208 2.988111 0.766400
143.250214 18.792210 2.654092 0.729686
143.250214 18.792208 2.322580 0.709804
143.250214 18.792208 1.992842 0.622263
143.250214 18.792208 1.664163 0.633402
143.250214 18.792210 1.335837 0.673106
143.250214 18.792208 1.007158 0.459052
143.250214 18.792210 0.677420 0.714351
143.250214 18.792210 0.345908 0.741176
143.250214 18.792210 0.011889 0.698039
143.992157 20.419296 -0.000005 0.251102
144.530945 21.600895 -0.000004 0.250370
144.927902 22.471439 -0.000003 0.265827
143.172989 18.792206 4.020980 0.593454
143.172989 18.792206 3.673684 0.437186
143.172989 18.792208 3.331264 0.595499
143.172989 18.792208 2.992900 0.715496
143.172989 18.792208 2.657806 0.684810
143.172989 18.792206 2.325227 0.720348
143.172989 18.792208 1.994428 0.676036
143.172989 18.792206 1.664692 0.633188
143.172989 18.792206 1.335308 0.709804
143.172989 18.792208 1.005572 0.517342
143.172989 18.792206 0.674773 0.615717
143.172989 18.792210 0.342194 0.707927
143.172989 18.792210 0.007100 0.707103
143.939865 20.443359 -0.000004 0.262776
144.486893 21.621164 -0.000004 0.307149
144.889923 22.488918 -0.000003 0.344564
143.095261 18.792206 4.029243 0.708141
143.095261 18.792206 3.680809 0.681300
143.095261 18.792206 3.337267 0.636118
143.095261 18.792208 2.997793 0.715465
143.095261 18.792208 2.661601 0.734920
143.095261 18.792206 2.327931 0.672129
143.095261 18.792206 1.996049 0.628962
143.095261 18.792206 1.665231 0.681590
143.095276 18.792208 1.334769 0.678431
143.095261 18.792206 1.003951 0.455985
143.095276 18.792208 0.672068 0.640604
143.095276 18.792210 0.338399 0.727886
143.088898 18.778728 -0.000005 0.269291
143.887756 20.467783 -0.000005 0.309148
144.442993 21.641743 -0.000004 0.246632
144.852066 22.506660 -0.000003 0.337392
143.017029 18.792208 4.037684 0.692042
143.017029 18.792208 3.688087 0.675776
143.017029 18.792208 3.343398 0.662989
143.017029 18.792206 3.002792 0.706401
143.017029 18.792206 2.665478 0.737499
143.017029 18.792208 2.330695 0.697490
143.017029 18.792210 1.997704 0.580392
143.017029 18.792208 1.665783 0.678431
143.017029 18.792208 1.334217 0.696361
143.017029 18.792210 1.002296 0.467094
143.017029 18.792210 0.669305 0.663264
143.017029 18.792210 0.334522 0.719203
143.017029 18.792210 -0.002792 0.741176
143.835815 20.492573 -0.000005 0.304021
144.399231 21.662624 -0.000004 0.299855
144.814346 22.524666 -0.000003 0.238056
142.938263 18.792206 4.046307 0.690715
142.938263 18.792206 3.695521 0.544076
142.938263 18.792206 3.349661 0.616175
142.938263 18.792206 3.007899 0.635981
142.938263 18.792208 2.669438 0.697307
142.938263 18.792208 2.333517 0.662531
142.938263 18.792206 1.999395 0.558724
142.938263 18.792206 1.666346 0.603922
142.938263 18.792206 1.333654 0.683574
142.938263 18.792206 1.000605 0.403250
142.938263 18.792210 0.666483 0.647059
142.938263 18.792210 0.330562 0.634623
142.961685 18.839983 -0.000006 0.261219
143.784042 20.517723 -0.000005 0.256535
144.355621 21.683813 -0.000004 0.291646
144.776733 22.542936 -0.000003 0.263920
142.858963 18.792208 4.055112 0.686275
142.858948 18.792208 3.703114 0.684215
142.858948 18.792206 3.356058 0.662684
142.858948 18.792206 3.013113 0.689586
142.858948 18.792208 2.673482 0.718502
142.858948 18.792206 2.336400 0.682612
142.858948 18.792206 2.001122 0.641245
142.858963 18.792210 1.666921 0.709804
142.858963 18.792210 1.333079 0.678431
142.858948 18.792208 0.998878 0.463264
142.858948 18.792208 0.663600 0.723400
142.858963 18.792210 0.326518 0.726223
142.898407 18.871275 -0.000006 0.331121
143.732468 20.543234 -0.000005 0.348272
144.312164 21.705305 -0.000004 0.325841
144.739258 22.561468 -0.000003 0.332540
142.779099 18.792208 4.064104 0.616098
142.779099 18.792206 3.710867 0.678431
142.779099 18.792206 3.362590 0.674754
142.779099 18.792206 3.018438 0.611765
142.779099 18.792206 2.677612 0.663996
142.779099 18.792208 2.339343 0.631754
142.779099 18.792206 2.002886 0.541329
142.779099 18.792206 1.667509 0.580392
142.779099 18.792208 1.332491 0.649943
142.779099 18.792208 0.997114 0.404318
142.779099 18.792210 0.660657 0.634958
142.779099 18.792208 0.322388 0.634409
142.835342 18.903011 -0.000005 0.286030
143.681046 20.569103 -0.000005 0.298726
144.268845 21.727100 -0.000004 0.230900
144.701920 22.580259 -0.000003 0.250309
142.698669 18.792208 4.073286 0.526314
142.698669 18.792210 3.718784 0.466133
142.698669 18.792210 3.369259 0.656275
142.698669 18.792208 3.023875 0.741176
142.698669 18.792206 2.681829 0.689952
142.698669 18.792206 2.342349 0.768200
142.698669 18.792208 2.004686 0.700236
142.698669 18.792206 1.668109 0.731868
142.698669 18.792206 1.331891 0.720592
142.698669 18.792208 0.995313 0.518380
142.698669 18.792208 0.657651 0.741176
142.698669 18.792210 0.318171 0.749767
142.772491 18.935184 -0.000005 0.305913
143.629822 20.595333 -0.000004 0.283391
144.225693 21.749199 -0.000004 0.332982
144.664703 22.599314 -0.000003 0.308064
142.617645 18.792208 4.082660 0.566690
142.617645 18.792206 3.726867 0.643687
142.617645 18.792206 3.376069 0.618936
142.617645 18.792206 3.029427 0.741176
142.617645 18.792206 2.686134 0.711391
142.617645 18.792206 2.345417 0.741176
142.617645 18.792206 2.006525 0.673808
142.617645 18.792208 1.668721 0.731823
142.617645 18.792210 1.331279 0.710658
142.617645 18.792206 0.993475 0.532021
142.617645 18.792208 0.654582 0.682719
142.617645 18.792210 0.313866 0.740963
142.709885 18.967796 -0.000006 0.325093
143.578781 20.621920 -0.000004 0.315358
144.182693 21.771595 -0.000004 0.295384
144.627625 22.618624 -0.000003 0.289708
142.536041 18.792204 4.092229 0.645075
142.536041 18.792206 3.735117 0.466972
142.536041 18.792206 3.383020 0.542885
142.536041 18.792206 3.035093 0.666667
142.536041 18.792208 2.690529 0.647303
142.536041 18.792206 2.348550 0.701167
142.536041 18.792206 2.008402 0.552941
142.536041 18.792206 1.669346 0.679683
142.536041 18.792208 1.330654 0.611765
142.536041 18.792206 0.991598 0.468132
142.536041 18.792206 0.651450 0.657969
142.536041 18.792208 0.309471 0.680522
142.647507 19.000841 -0.000006 0.306706
143.527924 20.648861 -0.000004 0.356115
144.139847 21.794292 -0.000004 0.282063
144.590683 22.638195 -0.000003 0.339071
142.453827 18.792206 4.101997 0.625986
142.453827 18.792206 3.743540 0.553979
142.453827 18.792210 3.390116 0.508202
142.453827 18.792208 3.040878 0.623529
142.453827 18.792206 2.695015 0.696422
142.453827 18.792206 2.351747 0.752941
142.453827 18.792206 2.010318 0.624781
142.453827 18.792208 1.669984 0.662623
142.453827 18.792210 1.330016 0.698039
142.453827 18.792206 0.989682 0.514641
142.453827 18.792206 0.648252 0.672602
142.453827 18.792208 0.304985 0.660395
142.585358 19.034325 -0.000005 0.326131
143.477249 20.676157 -0.000004 0.249317
144.097153 21.817289 -0.000004 0.305547
144.553879 22.658024 -0.000003 0.287831
142.370972 18.792206 4.111967 0.661753
142.370972 18.792206 3.752136 0.678431
142.370972 18.792206 3.397358 0.403677
142.370972 18.792206 3.046782 0.611948
142.370972 18.792208 2.699593 0.653315
142.370972 18.792206 2.355011 0.696086
142.370972 18.792206 2.012273 0.656992
142.370972 18.792208 1.670636 0.635294
142.370972 18.792208 1.329364 0.657710
142.370972 18.792206 0.987727 0.509957
142.370972 18.792208 0.644989 0.662486
142.370972 18.792210 0.300407 0.671321
142.523438 19.068241 -0.000005 0.304173
143.426773 20.703804 -0.000005 0.254505
144.054642 21.840582 -0.000004 0.280644
144.517212 22.678106 -0.000003 0.293004
142.287491 18.792206 4.122140 0.655467
142.287491 18.792206 3.760909 0.592264
142.287491 18.792206 3.404748 0.457725
142.287491 18.792206 3.052807 0.741176
142.287491 18.792208 2.704266 0.718379
142.287491 18.792208 2.358341 0.767239
142.287491 18.792206 2.014268 0.665919
142.287491 18.792206 1.671300 0.689662
142.287491 18.792206 1.328700 0.718303
142.287491 18.792208 0.985732 0.658396
142.287491 18.792210 0.641659 0.750820
142.287491 18.792210 0.295734 0.750683
142.461761 19.102591 -0.000005 0.267033
143.376495 20.731804 -0.000005 0.306249
144.012268 21.864174 -0.000004 0.259373
144.480682 22.698448 -0.000003 0.290303
142.203354 18.792206 4.132524 0.621347
142.203354 18.792208 3.769861 0.644648
142.203339 18.792206 3.412291 0.675517
142.203354 18.792206 3.058955 0.703456
142.203339 18.792206 2.709035 0.720394
142.203339 18.792206 2.361740 0.739956
142.203339 18.792206 2.016304 0.676860
142.203339 18.792206 1.671979 0.679286
142.203339 18.792206 1.328021 0.677577
142.203339 18.792206 0.983695 0.616480
142.203354 18.792210 0.638260 0.722789
142.203354 18.792206 0.290965 0.727825
142.400314 19.137367 -0.000005 0.265751
143.326416 20.760157 -0.000004 0.308324
143.970078 21.888058 -0.000003 0.251225
144.444305 22.719042 -0.000003 0.295247
142.118530 18.792206 4.143119 0.414771
142.118530 18.792206 3.778997 0.676539
142.118530 18.792208 3.419987 0.691157
142.118530 18.792206 3.065230 0.690196
142.118530 18.792206 2.713901 0.719173
142.118530 18.792206 2.365208 0.698039
142.118530 18.792206 2.018383 0.658091
142.118530 18.792206 1.672671 0.678431
142.118530 18.792206 1.327329 0.690196
142.118530 18.792206 0.981617 0.598856
142.118530 18.792206 0.634792 0.725017
142.118530 18.792206 0.286099 0.733486
142.339127 19.172569 -0.000005 0.320500
143.276520 20.788857 -0.000004 0.298894
143.928055 21.912235 -0.000003 0.282506
144.408066 22.739891 -0.000003 0.290089
142.033020 18.792206 4.153929 0.332357
142.033020 18.792206 3.788317 0.466072
142.033020 18.792206 3.427840 0.699733
142.033020 18.792206 3.071631 0.638361
142.033020 18.792206 2.718865 0.740688
142.033020 18.792206 2.368747 0.666667
142.033020 18.792206 2.020503 0.598413
142.033020 18.792206 1.673377 0.677821
142.033020 18.792206 1.326623 0.677333
142.033020 18.792206 0.979497 0.624537
142.033020 18.792206 0.631253 0.697917
142.033020 18.792206 0.281135 0.740276
142.278183 19.208199 -0.000006 0.335561
143.226837 20.817904 -0.000004 0.306020
143.886200 21.936707 -0.000004 0.291493
144.371979 22.760990 -0.000003 0.263890
141.946808 18.792206 4.164958 0.674372
141.946808 18.792206 3.797828 0.607660
141.946808 18.792206 3.435852 0.670069
141.946808 18.792206 3.078163 0.635904
141.946808 18.792206 2.723931 0.713115
141.946808 18.792206 2.372357 0.668849
141.946808 18.792206 2.022666 0.521553
141.946808 18.792206 1.674097 0.647547
141.946808 18.792206 1.325903 0.710140
141.946808 18.792206 0.977334 0.623102
141.946808 18.792206 0.627643 0.709804
141.946808 18.792208 0.276069 0.733486
142.217484 19.244255 -0.000005 0.287770
143.177368 20.847298 -0.000004 0.287465
143.844513 21.961472 -0.000003 0.268498
144.336029 22.782341 -0.000003 0.284276
141.859879 18.792206 4.176210 0.679469
141.859863 18.792206 3.807530 0.399680
141.859863 18.792206 3.444026 0.642512
141.859863 18.792206 3.084826 0.615106
141.859879 18.792208 2.729099 0.752621
141.859879 18.792208 2.376040 0.721569
141.859879 18.792208 2.024873 0.704250
141.859879 18.792208 1.674833 0.776471
141.859879 18.792210 1.325167 0.764202
141.859879 18.792210 0.975127 0.652537
141.859879 18.792210 0.623959 0.765515
141.859879 18.792210 0.270901 0.752941
142.157043 19.280735 -0.000005 0.272099
143.128082 20.877037 -0.000004 0.285023
143.802994 21.986525 -0.000004 0.333196
144.300247 22.803944 -0.000003 0.278187
141.772186 18.792206 4.187690 0.304417
141.772186 18.792206 3.817428 0.636072
141.772186 18.792206 3.452364 0.664179
141.772186 18.792208 3.091624 0.576379
141.772186 18.792206 2.734371 0.710170
141.772186 18.792206 2.379798 0.710353
141.772186 18.792206 2.027124 0.588632
141.772186 18.792206 1.675583 0.701045
141.772186 18.792206 1.324417 0.752331
141.772186 18.792206 0.972876 0.701030
141.772186 18.792206 0.620202 0.666453
141.772186 18.792206 0.265629 0.710582
142.096863 19.317636 -0.000005 0.303929
143.079025 20.907120 -0.000004 0.311070
143.761658 22.011868 -0.000003 0.307424
144.264603 22.825796 -0.000003 0.219745
141.683746 18.792206 4.199400 0.667277
141.683746 18.792206 3.827525 0.672267
141.683762 18.792206 3.460870 0.536339
141.683762 18.792208 3.098559 0.609003
141.683762 18.792208 2.739749 0.806378
141.683746 18.792206 2.383632 0.763424
141.683762 18.792206 2.029421 0.688777
141.683746 18.792206 1.676348 0.807843
141.683746 18.792206 1.323652 0.735775
141.683762 18.792206 0.970579 0.712108
141.683746 18.792206 0.616368 0.776471
141.683762 18.792210 0.260251 0.775647
142.036942 19.354956 -0.000005 0.326619
143.030167 20.937542 -0.000004 0.313848
143.720505 22.037498 -0.000004 0.354192
144.229111 22.847897 -0.000003 0.327810
141.594543 18.792206 4.211347 0.265080
141.594543 18.792206 3.837825 0.670741
141.594543 18.792206 3.469548 0.573190
141.594543 18.792206 3.105633 0.578256
141.594543 18.792206 2.745235 0.704417
141.594543 18.792206 2.387542 0.725917
141.594543 18.792206 2.031764 0.546990
141.594543 18.792206 1.677128 0.694835
141.594543 18.792206 1.322872 0.647059
141.594543 18.792206 0.968236 0.683375
141.594543 18.792206 0.612458 0.692287
141.594543 18.792208 0.254765 0.713664
141.977280 19.392691 -0.000005 0.234302
142.981537 20.968304 -0.000005 0.297292
143.679535 22.063417 -0.000003 0.313405
144.193787 22.870243 -0.000003 0.269947
141.504517 18.792206 4.223532 0.673136
141.504517 18.792206 3.848332 0.673335
141.504517 18.792206 3.478400 0.678080
141.504517 18.792206 3.112850 0.520409
141.504517 18.792206 2.750832 0.746136
141.504517 18.792206 2.391531 0.739406
141.504517 18.792206 2.034153 0.601892
141.504517 18.792206 1.677924 0.770779
141.504517 18.792206 1.322076 0.702327
141.504517 18.792208 0.965846 0.668772
141.504517 18.792206 0.608469 0.755306
141.504517 18.792206 0.249168 0.759930
141.917877 19.430843 -0.000005 0.292271
142.933105 20.999411 -0.000004 0.269444
143.638733 22.089621 -0.000003 0.259953
144.158600 22.892838 -0.000003 0.307881
141.413696 18.792206 4.235961 0.707561
141.413696 18.792206 3.859048 0.645670
141.413696 18.792206 3.487428 0.603296
141.413696 18.792206 3.120210 0.499886
141.413696 18.792206 2.756540 0.741207
141.413696 18.792206 2.395599 0.729534
141.413696 18.792206 2.036591 0.629801
141.413696 18.792206 1.678736 0.738582
141.413696 18.792206 1.321264 0.752209
141.413696 18.792206 0.963409 0.574975
141.413696 18.792210 0.604400 0.704189
141.413696 18.792208 0.243460 0.702266
141.858749 19.469410 -0.000005 0.279026
142.884903 21.030849 -0.000004 0.244236
143.598114 22.116106 -0.000003 0.297642
144.123581 22.915676 -0.000003 0.313161
141.322021 18.792206 4.248638 0.689647
141.322021 18.792206 3.869980 0.585534
141.322021 18.792206 3.496638 0.665949
141.322021 18.792206 3.127717 0.488304
141.322021 18.792206 2.762363 0.668498
141.322021 18.792206 2.399749 0.701076
141.322021 18.792206 2.039078 0.507759
141.322021 18.792206 1.679564 0.664454
141.322021 18.792206 1.320436 0.655787
141.322021 18.792206 0.960922 0.628550
141.322021 18.792208 0.600250 0.662257
141.322021 18.792208 0.237637 0.585534
141.799881 19.508389 -0.000005 0.302144
142.836914 21.062626 -0.000004 0.311467
143.557693 22.142878 -0.000003 0.294026
144.088730 22.938757 -0.000003 0.262425
141.229492 18.792206 4.261569 0.686488
141.229492 18.792206 3.881130 0.369528
141.229492 18.792206 3.506031 0.663935
141.229492 18.792202 3.135375 0.546105
141.229492 18.792206 2.768301 0.669581
141.229492 18.792206 2.403982 0.677913
141.229492 18.792206 2.041614 0.476219
141.229492 18.792206 1.680409 0.638895
141.229492 18.792206 1.319591 0.653086
141.229492 18.792206 0.958386 0.568505
141.229492 18.792206 0.596018 0.669200
141.229492 18.792208 0.231699 0.674296
141.741287 19.547773 -0.000005 0.348318
142.789154 21.094734 -0.000004 0.261433
143.517456 22.169928 -0.000003 0.308690
144.054031 22.962082 -0.000003 0.256901
141.136093 18.792206 4.274758 0.397391
141.136093 18.792206 3.892502 0.665110
141.136093 18.792206 3.515612 0.640513
141.136093 18.792206 3.143186 0.603647
141.136093 18.792206 2.774359 0.695659
141.136093 18.792206 2.408300 0.680018
141.136093 18.792206 2.044200 0.577356
141.136093 18.792206 1.681271 0.738582
141.136093 18.792206 1.318729 0.653376
141.136093 18.792206 0.955799 0.560784
141.136093 18.792206 0.591700 0.666285
141.136093 18.792206 0.225641 0.709209
141.682983 19.587570 -0.000005 0.253956
142.741623 21.127176 -0.000004 0.287831
143.477402 22.197260 -0.000003 0.300816
144.019501 22.985649 -0.000003 0.231678
141.041779 18.792206 4.288210 0.518380
141.041779 18.792206 3.904101 0.667811
141.041779 18.792208 3.525383 0.641138
141.041779 18.792206 3.151152 0.665385
141.041779 18.792206 2.780537 0.679438
141.041779 18.792206 2.412703 0.664897
141.041779 18.792206 2.046839 0.489097
141.041779 18.792206 1.682149 0.698039
141.041779 18.792206 1.317851 0.622599
141.041779 18.792206 0.953161 0.516396
141.041779 18.792208 0.587297 0.673564
141.041779 18.792210 0.219463 0.697704
141.624954 19.627773 -0.000005 0.280079
142.694305 21.159950 -0.000004 0.280735
143.437546 22.224871 -0.000003 0.264134
143.985138 23.009457 -0.000003 0.291585
140.946548 18.792204 4.301932 0.698070
140.946548 18.792206 3.915931 0.671672
140.946548 18.792206 3.535350 0.325475
140.946548 18.792206 3.159277 0.741176
140.946548 18.792204 2.786839 0.714672
140.946548 18.792206 2.417194 0.690486
140.946548 18.792206 2.049530 0.460533
140.946548 18.792206 1.683046 0.697368
140.946548 18.792206 1.316954 0.727581
140.946548 18.792206 0.950470 0.623102
140.946548 18.792206 0.582805 0.696208
140.946548 18.792206 0.213161 0.732677
141.567200 19.668379 -0.000005 0.286656
142.647232 21.193054 -0.000004 0.302144
143.397888 22.252758 -0.000003 0.253880
143.950943 23.033503 -0.000003 0.320302
140.850372 18.792208 4.315926 0.658122
140.850372 18.792206 3.927997 0.646296
140.850372 18.792206 3.545516 0.634943
140.850372 18.792206 3.167564 0.741176
140.850372 18.792206 2.793265 0.741176
140.850372 18.792206 2.421775 0.717205
140.850372 18.792204 2.052275 0.486976
140.850372 18.792206 1.683960 0.711055
140.850372 18.792206 1.316040 0.716472
140.850372 18.792206 0.947726 0.647059
140.850372 18.792206 0.578225 0.691798
140.850372 18.792208 0.206735 0.741176
141.509735 19.709387 -0.000005 0.267781
142.600388 21.226484 -0.000004 0.321660
143.358429 22.280926 -0.000003 0.272175
143.916916 23.057787 -0.000003 0.340352
140.753220 18.792206 4.330199 0.475929
140.753220 18.792208 3.940304 0.339406
140.753220 18.792208 3.555884 0.675624
140.753220 18.792208 3.176017 0.741176
140.753220 18.792206 2.799821 0.748257
140.753220 18.792206 2.426447 0.776471
140.753220 18.792206 2.055073 0.487205
140.753220 18.792208 1.684892 0.776471
140.753220 18.792208 1.315108 0.752941
140.753220 18.792208 0.944926 0.662501
140.753220 18.792208 0.573552 0.691707
140.753220 18.792208 0.200179 0.761212
141.452560 19.750795 -0.000005 0.290074
142.553772 21.260242 -0.000004 0.286076
143.319153 22.309364 -0.000003 0.238590
143.883057 23.082308 -0.000003 0.260700
140.655075 18.792206 4.344757 0.671321
140.655075 18.792206 3.952857 0.527810
140.655075 18.792206 3.566459 0.675883
140.655075 18.792204 3.184638 0.666667
140.655075 18.792204 2.806507 0.766293
140.655075 18.792204 2.431213 0.678279
140.655075 18.792206 2.057929 0.462959
140.655090 18.792206 1.685843 0.630488
140.655090 18.792206 1.314156 0.773617
140.655075 18.792206 0.942071 0.553948
140.655075 18.792206 0.568787 0.651972
140.655090 18.792206 0.193493 0.766186
141.395676 19.792599 -0.000005 0.303700
142.507401 21.294325 -0.000004 0.257923
143.280075 22.338078 -0.000003 0.271763
143.849365 23.107067 -0.000003 0.246632
140.555923 18.792206 4.359606 0.594980
140.555923 18.792206 3.965660 0.694820
140.555923 18.792208 3.577245 0.675303
140.555923 18.792206 3.193431 0.739727
140.555923 18.792206 2.813327 0.766873
140.555923 18.792206 2.436074 0.708736
140.555923 18.792206 2.060841 0.494667
140.555923 18.792206 1.686813 0.708583
140.555923 18.792206 1.313186 0.647562
140.555923 18.792206 0.939159 0.707500
140.555923 18.792208 0.563926 0.708324
140.555923 18.792206 0.186674 0.772625
141.339081 19.834805 -0.000005 0.337102
142.461258 21.328730 -0.000004 0.256962
143.241211 22.367062 -0.000003 0.249317
143.815857 23.132057 -0.000003 0.321828
140.455719 18.792208 4.374751 0.655299
140.455719 18.792208 3.978719 0.667674
140.455719 18.792208 3.588247 0.657084
140.455719 18.792206 3.202400 0.685908
140.455719 18.792208 2.820282 0.775723
140.455719 18.792208 2.441031 0.633982
