# This PCD file was generated using the MATLABÂ® pcwrite function
# from Computer Vision ToolboxÂ®.
# .PCD v.7 - Point Cloud Data file format
VERSION .7
FIELDS x y z intensity
SIZE 4 4 4 4
TYPE F F F F
COUNT 1 1 1 1
WIDTH 1214
HEIGHT 1
VIEWPOINT 0 0 0 1 0 0 0
POINTS 1214
DATA ascii
116.402435 38.049866 -0.000011 0.301030
114.609047 35.736973 -0.000008 0.331960
113.464127 34.260395 -0.000007 0.290211
112.668358 33.234100 -0.000001 0.350332
112.082077 32.477993 -0.000000 0.327764
127.227440 51.663940 9.122721 0.714626
127.179199 51.602615 8.055746 0.160784
127.179199 51.602615 7.023023 0.219333
127.290771 51.744446 6.029296 0.719081
127.227448 51.663948 5.000875 0.721569
127.290771 51.744453 4.003648 0.698039
127.227440 51.663944 2.995008 0.711635
127.290771 51.744453 1.999657 0.728695
127.290771 51.744453 1.000343 0.733333
127.290756 51.744438 -0.000041 0.735927
119.723129 42.124077 -0.000016 0.301335
116.474174 37.993835 -0.000011 0.289052
114.664688 35.693520 -0.000008 0.338842
113.509491 34.224972 -0.000007 0.295384
112.706573 33.204258 -0.000001 0.336507
112.115028 32.452259 -0.000000 0.339025
127.499245 51.663940 9.165002 0.721569
127.450310 51.602623 8.092110 0.137987
127.450317 51.602627 7.053659 0.168963
127.563492 51.744446 6.054419 0.721569
127.499252 51.663948 5.020294 0.738293
127.563492 51.744453 4.017536 0.727550
127.499252 51.663948 3.003302 0.700755
127.563492 51.744453 2.002428 0.733333
127.563492 51.744453 0.997572 0.727779
127.563484 51.744438 -0.008361 0.735393
119.823235 42.044762 -0.000016 0.293095
116.545525 37.937305 -0.000011 0.310521
114.720024 35.649677 -0.000008 0.336950
113.554596 34.189228 -0.000007 0.308721
112.744576 33.174149 -0.000001 0.345495
112.147797 32.426296 -0.000000 0.342596
127.839249 51.744438 9.234073 0.720378
127.724457 51.602623 8.129204 0.137072
127.724457 51.602631 7.084908 0.149020
127.839256 51.744446 6.080046 0.721569
127.774094 51.663948 5.040102 0.741176
130.886948 55.509445 4.428880 0.345098
130.886948 55.509445 3.254815 0.336690
130.886948 55.509449 2.084520 0.191104
130.886932 55.509430 0.915480 0.247059
127.623802 51.478279 -0.000026 0.292226
119.922775 41.964752 -0.000015 0.270878
116.616478 37.880280 -0.000011 0.282063
114.775047 35.605450 -0.000008 0.260548
113.599457 34.153175 -0.000006 0.329885
112.753250 33.107803 0.009994 1.000000
112.180382 32.400108 -0.000000 0.336767
128.118164 51.744442 9.278219 0.724743
128.001724 51.602631 8.167044 0.129412
128.001724 51.602631 7.116787 0.149020
128.118164 51.744446 6.106188 0.724010
128.052078 51.663948 5.060309 0.741176
131.209625 55.509441 4.445598 0.345708
131.209625 55.509453 3.264832 0.333333
131.209625 55.509453 2.087857 0.129717
131.209610 55.509438 0.912143 0.148379
127.789024 51.343586 -0.000026 0.297383
120.021767 41.884048 -0.000015 0.307683
116.687027 37.822758 -0.000011 0.300587
114.829765 35.560844 -0.000008 0.302235
113.644066 34.116806 -0.000006 0.323400
112.790573 33.077366 0.009995 1.000000
112.212784 32.373692 -0.000000 0.342596
128.400284 51.744442 9.323256 0.736553
128.400284 51.744442 8.245506 0.714534
128.282166 51.602623 7.149306 0.152941
128.400299 51.744446 6.132858 0.724376
128.333252 51.663948 5.080922 0.736309
131.536011 55.509453 4.462653 0.364706
131.536011 55.509453 3.275051 0.355062
131.535995 55.509438 2.091260 0.149020
131.535995 55.509438 0.908740 0.180331
127.953285 51.207729 -0.000025 0.293400
120.120186 41.802658 -0.000015 0.287221
116.757179 37.764748 -0.000011 0.280827
114.884171 35.515854 -0.000008 0.276219
113.688416 34.080132 -0.000007 0.275578
112.827682 33.046665 0.009997 1.000000
112.245003 32.347046 -0.000000 0.334768
128.685715 51.744438 9.369202 0.715129
128.685715 51.744438 8.285122 0.721569
128.565918 51.602623 7.182487 0.105882
128.685715 51.744446 6.160067 0.732647
128.617722 51.663948 5.101954 0.733333
131.866211 55.509453 4.480054 0.350179
131.866211 55.509445 3.285475 0.341146
131.866211 55.509449 2.094733 0.185168
131.866211 55.509453 0.905266 0.240070
128.116608 51.070740 -0.000025 0.295155
120.218040 41.720581 -0.000015 0.281086
116.826920 37.706245 -0.000011 0.324163
114.938255 35.470482 -0.000008 0.252689
113.732506 34.043144 -0.000006 0.358450
112.864586 33.015717 0.009997 1.000000
112.277031 32.320183 -0.000000 0.355459
128.974533 51.744438 9.416080 0.748531
128.974533 51.744438 8.325542 0.721111
128.853027 51.602631 7.216339 0.117647
128.974533 51.744446 6.187828 0.721569
128.905563 51.663948 5.123410 0.709163
132.200348 55.509453 4.497807 0.352941
132.200333 55.509453 3.296112 0.349691
132.200333 55.509453 2.098276 0.194278
132.200333 55.509453 0.901723 0.256245
128.278961 50.932610 -0.000025 0.291508
120.315315 41.637825 -0.000015 0.310170
116.896255 37.647263 -0.000011 0.266255
114.992027 35.424740 -0.000008 0.260502
113.776344 34.005852 -0.000006 0.239857
112.901268 32.984509 0.009996 1.000000
112.308876 32.293091 -0.000000 0.320546
129.266815 51.744442 9.463912 0.721569
129.266815 51.744438 8.366783 0.721569
129.143585 51.602634 7.250879 0.117647
129.266815 51.744446 6.216152 0.711177
129.196869 51.663944 5.145305 0.709804
132.538483 55.509453 4.515920 0.332784
132.538483 55.509453 3.306963 0.343908
132.538483 55.509453 2.101891 0.135027
132.538483 55.509453 0.898109 0.154528
128.440353 50.793358 -0.000025 0.286290
120.412003 41.554382 -0.000015 0.292531
116.965172 37.587791 -0.000011 0.306935
115.045479 35.378620 -0.000008 0.298222
113.819916 33.968254 -0.000006 0.280446
112.937737 32.953045 0.009996 1.000000
112.340523 32.265778 -0.000000 0.331258
129.562668 51.744438 9.512713 0.752941
129.532440 51.710144 8.398993 0.720699
129.437698 51.602638 7.286122 0.163546
129.562668 51.744438 6.245053 0.721386
129.491730 51.663940 5.167642 0.733333
132.880722 55.509422 4.534399 0.157809
132.880737 55.509430 3.318036 0.157809
132.880737 55.509430 2.105579 0.062257
132.880722 55.509430 0.894421 0.062257
128.600769 50.652969 -0.000025 0.297627
120.508110 41.470272 -0.000015 0.287297
117.033676 37.527843 -0.000010 0.288151
115.098602 35.332127 -0.000008 0.295384
113.863228 33.930351 -0.000006 0.230015
112.973984 32.921329 0.009995 1.000000
112.371986 32.238247 0.000000 0.334783
129.862183 51.744442 9.562516 0.728969
129.790237 51.663940 8.428486 0.724300
129.735458 51.602646 7.322085 0.197757
129.862183 51.744438 6.274545 0.697704
129.790237 51.663940 5.190437 0.733852
133.227234 55.509426 4.553259 0.338842
133.227234 55.509430 3.329335 0.327123
133.227234 55.509430 2.109343 0.194278
133.227234 55.509430 0.890657 0.245411
128.760193 50.511467 -0.000025 0.291096
120.603638 41.385502 -0.000015 0.288716
117.101753 37.467422 -0.000010 0.348333
115.151398 35.285263 -0.000008 0.290791
113.906273 33.892151 -0.000006 0.318853
113.040848 32.923866 -0.000001 0.320928
112.403252 32.210495 -0.000000 0.343404
130.165466 51.744438 9.613336 0.733333
130.092499 51.663933 8.472158 0.748959
130.036942 51.602642 7.358786 0.193439
130.165466 51.744438 6.304641 0.702907
130.092499 51.663933 5.213699 0.724468
133.578094 55.509430 4.572506 0.345098
133.578110 55.509438 3.340868 0.337697
133.578110 55.509438 2.113185 0.094118
133.578125 55.509453 0.886815 0.094118
128.918640 50.368866 -0.000025 0.291066
120.698563 41.300056 -0.000015 0.307256
117.169418 37.406521 -0.000010 0.276570
115.203873 35.238033 -0.000008 0.315404
113.949051 33.853645 -0.000006 0.232517
113.076889 32.891430 -0.000001 0.337102
112.434326 32.182526 0.000000 0.343328
130.472610 51.744438 9.665204 0.722438
130.398605 51.663937 8.516731 0.733333
130.342270 51.602642 7.396239 0.160647
130.472610 51.744438 6.335357 0.708888
130.398605 51.663937 5.237440 0.721569
133.933426 55.509430 4.592147 0.345861
133.933426 55.509434 3.352635 0.343313
133.933441 55.509445 2.117105 0.146029
133.933441 55.509445 0.882895 0.183505
129.076065 50.225151 -0.000024 0.294865
120.792892 41.213959 -0.000015 0.314031
117.236649 37.345154 -0.000010 0.312505
115.256012 35.190441 -0.000008 0.311009
113.991554 33.814846 -0.000006 0.242054
113.112694 32.858742 -0.000001 0.341329
112.465210 32.154343 -0.000000 0.344213
130.783722 51.744438 9.718143 0.734218
130.708679 51.663933 8.562223 0.729747
130.651535 51.602646 7.434466 0.160647
130.783722 51.744442 6.366706 0.712108
130.708679 51.663937 5.261672 0.712749
134.293350 55.509434 4.612195 0.354589
134.293350 55.509438 3.364647 0.345098
134.293365 55.509445 2.121106 0.190417
134.293365 55.509445 0.878895 0.223499
129.232498 50.080345 -0.000024 0.285023
120.886612 41.127197 -0.000014 0.278447
117.303452 37.283314 -0.000010 0.279942
115.307823 35.142487 -0.000008 0.310262
114.033791 33.775749 -0.000006 0.226490
113.148277 32.825806 -0.000001 0.332555
112.495888 32.125946 -0.000000 0.348028
131.098907 51.744438 9.772178 0.733608
131.022797 51.663937 8.608658 0.741024
130.964859 51.602646 7.473486 0.114244
131.098907 51.744438 6.398704 0.687297
131.022797 51.663933 5.286405 0.722667
134.657974 55.509438 4.632658 0.352941
134.657990 55.509445 3.376908 0.345098
134.657990 55.509441 2.125189 0.188113
134.657990 55.509441 0.874811 0.246967
129.387909 49.934452 -0.000024 0.296345
120.979729 41.039787 -0.000014 0.263142
117.369812 37.221012 -0.000010 0.283635
115.359291 35.094170 -0.000008 0.265461
114.075752 33.736362 -0.000006 0.284474
113.183624 32.792622 -0.000001 0.310369
112.526367 32.097332 -0.000000 0.348852
131.418274 51.744438 9.827337 0.723125
131.341125 51.663956 8.656064 0.728695
131.282349 51.602642 7.513317 0.125261
131.418274 51.744442 6.431369 0.690684
131.341125 51.663960 5.311657 0.728466
135.027451 55.509430 4.653547 0.341024
135.027466 55.509438 3.389422 0.341787
135.027466 55.509438 2.129357 0.121645
135.027466 55.509438 0.870642 0.148882
129.542297 49.787472 -0.000024 0.290227
121.072227 40.951729 -0.000014 0.314580
117.435745 37.158249 -0.000010 0.291691
115.410431 35.045494 -0.000008 0.293278
114.117439 33.696678 -0.000006 0.280461
113.218742 32.759190 -0.000000 0.332570
112.556648 32.068504 0.000000 0.339605
131.741959 51.744438 9.883646 0.735912
131.663712 51.663952 8.704453 0.721752
131.642990 51.642639 7.564130 0.501472
131.741959 51.744438 6.464716 0.738842
131.663712 51.663956 5.337431 0.721569
135.401932 55.509453 4.674873 0.333333
135.401917 55.509445 3.402200 0.302022
135.352341 55.458443 2.132450 0.527276
135.352325 55.458427 0.867551 0.534386
129.695663 49.639427 -0.000024 0.295384
121.164116 40.863029 -0.000014 0.281621
117.501236 37.095028 -0.000010 0.289708
115.461220 34.996460 -0.000008 0.274006
114.158844 33.656708 -0.000006 0.329778
113.253632 32.725517 -0.000001 0.343984
112.586723 32.039471 0.000000 0.339864
132.070053 51.744438 9.941140 0.743099
131.930267 51.602634 8.735263 0.282872
131.930267 51.602631 7.595493 0.087434
132.070053 51.744438 6.498762 0.720058
131.990707 51.663948 5.363747 0.697093
135.781494 55.509441 4.696644 0.345098
135.781494 55.509441 3.415243 0.279438
135.870804 55.600044 2.140041 0.258824
135.870804 55.600044 0.859960 0.234195
129.847992 49.490303 -0.000024 0.296269
121.255386 40.773685 -0.000014 0.307530
117.566284 37.031349 -0.000010 0.283986
115.511665 34.947075 -0.000007 0.267887
114.199966 33.616447 -0.000006 0.313283
113.288277 32.691597 -0.000000 0.337362
112.616600 32.010227 -0.000000 0.336980
118.947678 17.214439 5.231264 0.661845
118.947678 17.214439 4.717237 0.640513
118.947678 17.214436 4.210428 0.366567
118.947678 17.214436 3.709620 0.704631
118.947678 17.214434 3.213653 0.662989
118.947678 17.214436 2.721406 0.648920
118.947678 17.214436 2.231796 0.647059
118.947678 17.214434 1.743758 0.560632
118.947678 17.214436 1.256242 0.637858
118.947670 17.214443 0.768204 0.457328
118.947670 17.214439 0.278594 0.296529
117.634270 18.527363 -0.000011 0.269230
115.564377 20.596498 -0.000005 0.276036
114.242935 21.917452 -0.000003 0.339727
113.324486 22.835567 -0.000001 0.276432
112.647820 23.511988 0.000000 0.303456
118.787872 17.228354 5.200581 0.624842
118.787865 17.228355 4.690780 0.341482
118.787865 17.228355 4.188138 0.678431
118.787872 17.228352 3.691449 0.697154
118.787865 17.228354 3.199560 0.650126
118.787872 17.228352 2.711362 0.644373
118.787872 17.228354 2.225778 0.650706
118.787872 17.228352 1.741753 0.520775
118.787872 17.228352 1.258247 0.640467
118.787865 17.228355 0.774222 0.449027
118.787865 17.228355 0.288638 0.307897
117.569695 18.463207 -0.000011 0.275425
115.514290 20.546745 -0.000005 0.272084
114.202110 21.876894 -0.000003 0.271489
113.290092 22.801395 -0.000001 0.337331
112.618164 23.482525 0.000000 0.302510
118.630661 17.242039 5.170576 0.481514
118.630661 17.242039 4.664909 0.678431
118.630661 17.242041 4.166342 0.643549
118.630661 17.242041 3.673680 0.673655
118.630661 17.242041 3.185780 0.582788
118.630661 17.242043 2.701540 0.600473
118.630661 17.242041 2.219893 0.422141
118.630661 17.242043 1.739793 0.522744
118.630661 17.242043 1.260207 0.621317
118.630661 17.242039 0.780107 0.629831
118.630661 17.242043 0.298460 0.558114
117.504662 18.399506 -0.000011 0.279835
115.463860 20.497341 -0.000006 0.253025
114.160995 21.836618 -0.000003 0.240009
113.255455 22.767464 -0.000001 0.236759
112.588295 23.453268 0.000000 0.335531
118.475960 17.255527 5.141222 0.671016
118.475960 17.255527 4.639599 0.678431
118.475960 17.255527 4.145019 0.618814
118.475960 17.255527 3.656296 0.486473
118.475960 17.255527 3.172298 0.331060
118.475960 17.255527 2.691931 0.382940
118.475960 17.255527 2.214136 0.421805
118.475960 17.255527 1.737875 0.505928
118.475960 17.255527 1.262125 0.643412
118.475960 17.255531 0.785864 0.625803
118.475960 17.255531 0.308069 0.692302
117.439194 18.336260 -0.000011 0.254307
115.413086 20.448290 -0.000006 0.321736
114.119606 21.796631 -0.000003 0.262211
113.220581 22.733778 -0.000001 0.228107
112.558228 23.424221 -0.000000 0.436698
118.323708 17.268797 5.112510 0.566537
118.323708 17.268797 4.614842 0.294392
118.323715 17.268795 4.124163 0.577325
118.323708 17.268795 3.639294 0.705989
118.323708 17.268799 3.159111 0.660365
118.323708 17.268795 2.682532 0.589914
118.323708 17.268795 2.208505 0.460105
118.323708 17.268795 1.736000 0.511467
118.323708 17.268795 1.264000 0.548058
118.323708 17.268799 0.791495 0.564492
118.323708 17.268799 0.317467 0.709804
117.373291 18.273468 -0.000012 0.310475
115.361977 20.399597 -0.000006 0.299062
114.077934 21.756935 -0.000003 0.258137
113.185478 22.700333 -0.000002 0.295018
112.527962 23.395384 -0.000000 0.306203
118.173843 17.281855 5.084423 0.667399
118.173843 17.281855 4.590624 0.555566
118.173836 17.281857 4.103759 0.667765
118.173843 17.281855 3.622661 0.709804
118.173843 17.281853 3.146212 0.647059
118.173836 17.281855 2.673338 0.647059
118.173843 17.281855 2.202996 0.449088
118.173843 17.281855 1.734165 0.448386
118.173843 17.281855 1.265835 0.644053
118.173836 17.281857 0.797004 0.653223
118.173836 17.281857 0.326662 0.658244
117.306946 18.211142 -0.000012 0.296101
115.310516 20.351261 -0.000006 0.279637
114.035988 21.717529 -0.000004 0.267659
113.150139 22.667135 -0.000002 0.309697
112.497490 23.366760 -0.000000 0.253407
118.026276 17.294708 5.056942 0.654719
118.026276 17.294708 4.566929 0.678431
118.026276 17.294708 4.083797 0.641993
118.026276 17.294708 3.606386 0.675120
118.026276 17.294708 3.133591 0.622110
118.026276 17.294708 2.664342 0.678431
118.026276 17.294708 2.197606 0.678431
118.026276 17.294708 1.732369 0.410834
118.026276 17.294708 1.267631 0.678431
118.026276 17.294708 0.802393 0.630289
118.026276 17.294708 0.335657 0.697276
117.240166 18.149284 -0.000011 0.364614
115.258736 20.303284 -0.000006 0.255543
113.993767 21.678417 -0.000003 0.283330
113.114571 22.634186 -0.000002 0.259342
112.466820 23.338348 -0.000000 0.271397
117.880951 17.307362 5.030050 0.428611
117.880951 17.307365 4.543742 0.507820
117.880951 17.307365 4.064262 0.564187
117.880951 17.307365 3.590461 0.663233
117.880951 17.307365 3.121240 0.671443
117.880951 17.307365 2.655540 0.678431
117.880951 17.307365 2.192332 0.668696
117.880951 17.307365 1.730613 0.417365
117.880951 17.307365 1.269387 0.603922
117.880951 17.307365 0.807668 0.643503
117.880951 17.307365 0.344460 0.666667
117.172958 18.087889 -0.000011 0.297520
115.206604 20.255671 -0.000006 0.304662
113.951279 21.639601 -0.000004 0.252552
113.078773 22.601484 -0.000002 0.334615
112.435951 23.310154 -0.000000 0.260884
117.737793 17.319843 5.003728 0.661906
117.737793 17.319843 4.521047 0.631510
117.737793 17.319843 4.045142 0.670375
117.737793 17.319843 3.574874 0.429221
117.737793 17.319845 3.109151 0.608576
117.737793 17.319843 2.646923 0.655818
117.737793 17.319843 2.187170 0.670756
117.737793 17.319843 1.728893 0.463050
117.737793 17.319843 1.271107 0.678431
117.737793 17.319843 0.812830 0.624491
117.737793 17.319843 0.353077 0.620249
117.105324 18.026962 -0.000012 0.343389
115.154160 20.208418 -0.000007 0.322728
113.908508 21.601084 -0.000004 0.351461
113.042747 22.569035 -0.000002 0.309102
112.404892 23.282173 -0.000001 0.278706
117.596725 17.332157 4.977958 0.686992
117.596725 17.332157 4.498825 0.629465
117.596725 17.332161 4.026421 0.709804
117.596725 17.332159 3.559613 0.678431
117.596725 17.332159 3.097315 0.390127
117.596725 17.332161 2.638486 0.709804
117.596725 17.332157 2.182115 0.670161
117.596725 17.332159 1.727209 0.417533
117.596725 17.332159 1.272791 0.592309
117.596725 17.332157 0.817884 0.638926
117.596725 17.332161 0.361513 0.399695
117.037262 17.966513 -0.000012 0.292103
115.101372 20.161539 -0.000006 0.301640
113.865479 21.562864 -0.000004 0.298589
113.006493 22.536835 -0.000002 0.264240
112.373634 23.254412 -0.000001 0.233234
117.457550 17.344482 4.952666 0.660655
117.457550 17.344486 4.477018 0.647059
117.457550 17.344486 4.008049 0.678431
117.457550 17.344486 3.544635 0.652079
117.457550 17.344486 3.085700 0.529915
117.457550 17.344486 2.630208 0.671778
117.457550 17.344486 2.177155 0.670115
117.457550 17.344486 1.725557 0.458457
117.457550 17.344486 1.274443 0.678431
117.457550 17.344484 0.822845 0.648234
117.457550 17.344486 0.369792 0.446693
116.968781 17.906540 -0.000012 0.298817
115.048264 20.115028 -0.000007 0.300160
113.822189 21.524948 -0.000004 0.247700
112.970016 22.504890 -0.000002 0.310674
112.342178 23.226868 -0.000001 0.255543
117.320374 17.356632 4.927905 0.647059
117.320374 17.356634 4.455670 0.496513
117.320374 17.356636 3.990063 0.603113
117.320374 17.356636 3.529972 0.631601
117.320374 17.356636 3.074328 0.664179
117.320374 17.356636 2.622103 0.493187
117.320374 17.356636 2.172299 0.641886
117.320374 17.356636 1.723939 0.525734
117.320374 17.356636 1.276060 0.652995
117.320374 17.356634 0.827701 0.644877
117.320374 17.356636 0.377897 0.678431
116.899887 17.847048 -0.000012 0.307271
114.994827 20.068890 -0.000006 0.284901
113.778625 21.487333 -0.000004 0.277623
112.933319 22.473202 -0.000002 0.263539
112.310539 23.199545 -0.000001 0.354482
117.185143 17.368614 4.903662 0.647059
117.185143 17.368614 4.434765 0.665202
117.185143 17.368616 3.972453 0.493919
117.185143 17.368616 3.515615 0.641581
117.185143 17.368618 3.063193 0.658534
117.185143 17.368616 2.614167 0.453437
117.185143 17.368616 2.167544 0.647059
117.185143 17.368616 1.722356 0.655787
117.185143 17.368616 1.277644 0.709804
117.185143 17.368616 0.832456 0.647913
117.185143 17.368616 0.385833 0.678431
116.830574 17.788038 -0.000012 0.284382
114.941078 20.023125 -0.000006 0.316701
113.734802 21.450024 -0.000004 0.359701
112.896400 22.441772 -0.000002 0.287663
112.278709 23.172443 -0.000001 0.276600
117.051819 17.380417 4.879925 0.682567
117.051811 17.380417 4.414299 0.662089
117.051811 17.380421 3.955210 0.678431
117.051811 17.380421 3.501558 0.536629
117.051811 17.380421 3.052292 0.666133
117.051811 17.380421 2.606397 0.404105
117.051811 17.380421 2.162889 0.693523
117.051811 17.380421 1.720805 0.603800
117.051811 17.380419 1.279195 0.667094
117.051811 17.380419 0.837111 0.598383
117.051811 17.380421 0.393603 0.674937
116.760849 17.729511 -0.000012 0.272053
114.887009 19.977734 -0.000007 0.296712
113.690727 21.413023 -0.000004 0.320104
112.859268 22.410597 -0.000003 0.268376
112.246689 23.145565 -0.000001 0.272938
116.920319 17.392071 4.856674 0.404883
116.920319 17.392073 4.394252 0.593729
116.920311 17.392075 3.938321 0.707591
116.920311 17.392075 3.487791 0.554696
116.920311 17.392075 3.041614 0.690242
116.920311 17.392075 2.598786 0.684932
116.920311 17.392073 2.158329 0.702998
116.920311 17.392075 1.719286 0.554391
116.920311 17.392073 1.280714 0.673930
116.920311 17.392073 0.841671 0.527382
116.920311 17.392073 0.401214 0.677897
116.690727 17.671473 -0.000012 0.308064
114.832619 19.932726 -0.000007 0.255451
113.646385 21.376328 -0.000004 0.265644
112.821915 22.379684 -0.000002 0.309285
112.214478 23.118912 -0.000001 0.353841
116.790611 17.403557 4.833907 0.447166
116.790611 17.403559 4.374620 0.324147
116.790611 17.403561 3.921782 0.697520
116.790611 17.403561 3.474308 0.678431
116.790611 17.403559 3.031157 0.378592
116.790611 17.403561 2.591333 0.499519
116.790611 17.403561 2.153863 0.637491
116.790611 17.403559 1.717799 0.540688
116.790611 17.403557 1.282201 0.459205
116.790611 17.403561 0.846136 0.514702
116.790611 17.403559 0.408667 0.658030
116.620193 17.613926 -0.000012 0.294774
114.777916 19.888096 -0.000007 0.299992
113.601791 21.339945 -0.000004 0.276478
112.784348 22.349033 -0.000003 0.287953
112.182091 23.092482 -0.000001 0.253239
116.662651 17.414890 4.811606 0.659953
116.662651 17.414890 4.355392 0.618387
116.662643 17.414892 3.905582 0.584161
116.662651 17.414890 3.461101 0.631556
116.662643 17.414892 3.020916 0.431708
116.662651 17.414890 2.584033 0.678431
116.662651 17.414890 2.149490 0.630838
116.662651 17.414890 1.716342 0.615900
116.662651 17.414890 1.283658 0.707652
116.662651 17.414890 0.850510 0.404227
116.662651 17.414890 0.415967 0.652598
116.549263 17.556873 -0.000012 0.282261
114.722908 19.843845 -0.000007 0.334966
113.556953 21.303871 -0.000005 0.304555
112.746567 22.318644 -0.000003 0.287541
112.149513 23.066280 -0.000001 0.255451
116.536377 17.426075 4.789760 0.536110
116.536385 17.426073 4.336555 0.630518
116.536377 17.426075 3.889713 0.381826
116.536377 17.426077 3.448164 0.659129
116.536377 17.426079 3.010882 0.445182
116.536377 17.426077 2.576882 0.624277
116.536377 17.426075 2.145205 0.365377
116.536377 17.426075 1.714915 0.518700
116.536377 17.426075 1.285085 0.678431
116.536377 17.426075 0.854794 0.616297
116.536377 17.426075 0.423118 0.653895
116.477936 17.500317 -0.000013 0.289342
114.667595 19.799988 -0.000007 0.266682
113.511856 21.268116 -0.000005 0.286336
112.708572 22.288519 -0.000003 0.274922
112.116753 23.040304 -0.000001 0.233112
116.411758 17.437111 4.768358 0.496712
116.411758 17.437117 4.318101 0.654231
116.411758 17.437115 3.874167 0.630076
116.411758 17.437119 3.435490 0.648280
116.411758 17.437117 3.001053 0.669200
116.411758 17.437117 2.569876 0.678431
116.411758 17.437115 2.141008 0.364538
116.411758 17.437115 1.713517 0.540032
116.411758 17.437115 1.286483 0.678431
116.411758 17.437115 0.858992 0.617746
116.411758 17.437115 0.430123 0.653284
116.411758 17.437117 -0.001053 0.670893
114.611969 19.756514 -0.000007 0.321324
113.466507 21.232676 -0.000004 0.310811
112.670372 22.258661 -0.000003 0.264759
112.083817 23.014561 -0.000001 0.338338
116.288742 17.448013 4.747389 0.678309
116.288742 17.448013 4.300021 0.428229
116.288742 17.448017 3.858934 0.635111
116.288742 17.448015 3.423073 0.635782
116.288742 17.448013 2.991423 0.683452
116.288742 17.448015 2.563012 0.678431
116.288742 17.448017 2.136895 0.407584
116.288742 17.448013 1.712147 0.609125
116.288742 17.448013 1.287853 0.640284
116.288742 17.448015 0.863104 0.681346
116.288742 17.448013 0.436987 0.581033
116.288742 17.448013 0.008577 0.654902
114.556046 19.713428 -0.000007 0.256657
113.420914 21.197552 -0.000005 0.243076
112.631958 22.229071 -0.000003 0.255085
112.050697 22.989046 -0.000001 0.263447
116.167297 17.458763 4.726848 0.678248
116.167297 17.458763 4.282310 0.665385
116.167290 17.458767 3.844013 0.694606
116.167290 17.458767 3.410908 0.536004
116.167290 17.458767 2.981988 0.662730
116.167297 17.458765 2.556288 0.678431
116.167290 17.458767 2.132866 0.244434
116.167297 17.458765 1.710805 0.667491
116.167297 17.458765 1.289195 0.660914
116.167290 17.458767 0.867133 0.653651
116.167297 17.458763 0.443712 0.332631
116.167290 17.458767 0.018011 0.663523
114.499817 19.670734 -0.000008 0.332662
113.375084 21.162746 -0.000005 0.272694
112.593346 22.199749 -0.000003 0.282277
112.017403 22.963762 -0.000002 0.271015
116.047356 17.469395 4.706715 0.338476
116.047356 17.469395 4.264951 0.406622
116.047356 17.469395 3.829389 0.646983
116.047356 17.469397 3.398985 0.678431
116.047356 17.469395 2.972743 0.413596
116.047356 17.469395 2.549698 0.678431
116.047356 17.469395 2.128918 0.223529
116.047356 17.469395 1.709490 0.394873
116.047356 17.469395 1.290510 0.678431
116.047356 17.469395 0.871082 0.356771
116.047356 17.469395 0.450302 0.402365
116.047356 17.469397 0.027258 0.678431
114.443298 19.628433 -0.000008 0.290837
113.329002 21.128262 -0.000005 0.313283
112.554527 22.170696 -0.000003 0.313710
111.983932 22.938713 -0.000001 0.268284
115.928909 17.479883 4.686989 0.564843
115.928909 17.479883 4.247943 0.635142
115.928909 17.479885 3.815059 0.450858
115.928909 17.479885 3.387304 0.678431
115.928909 17.479885 2.963683 0.656397
115.928909 17.479887 2.543241 0.583368
115.928909 17.479885 2.125049 0.262348
115.928909 17.479885 1.708201 0.667948
115.928909 17.479881 1.291799 0.691539
115.928909 17.479885 0.874951 0.624491
115.928909 17.479885 0.456759 0.587503
115.928909 17.479885 0.036317 0.500694
114.386482 19.586529 -0.000008 0.297490
113.282684 21.094101 -0.000005 0.244495
112.515503 22.141916 -0.000003 0.326726
111.950287 22.913898 -0.000002 0.318563
115.811905 17.490242 4.667659 0.708568
115.811905 17.490244 4.231275 0.635248
115.811905 17.490246 3.801018 0.516930
115.811905 17.490246 3.375857 0.678264
115.811905 17.490248 2.954805 0.680842
115.811905 17.490244 2.536913 0.552911
115.811905 17.490246 2.121258 0.664927
115.811905 17.490246 1.706938 0.666667
115.811905 17.490246 1.293062 0.680415
115.811905 17.490246 0.878742 0.653758
115.811905 17.490246 0.463087 0.582589
115.811905 17.490246 0.045195 0.442283
114.329376 19.545023 -0.000008 0.284474
113.236130 21.060265 -0.000005 0.276478
112.476288 22.113409 -0.000003 0.253361
111.916466 22.889318 -0.000002 0.301427
115.696304 17.500479 4.648714 0.678157
115.696304 17.500483 4.214939 0.299016
115.696304 17.500484 3.787256 0.666880
115.696304 17.500484 3.364637 0.678416
115.696304 17.500484 2.946104 0.477104
115.696304 17.500484 2.530711 0.365438
115.696304 17.500484 2.117542 0.704982
115.696304 17.500481 1.705700 0.654902
115.696304 17.500481 1.294300 0.697429
115.696304 17.500484 0.882458 0.670100
115.696304 17.500481 0.469289 0.678264
115.696304 17.500481 0.053895 0.546975
114.271988 19.503918 -0.000008 0.301915
113.189346 21.026751 -0.000005 0.252293
112.436867 22.085178 -0.000003 0.246082
111.882477 22.864975 -0.000002 0.319966
115.582069 17.510599 4.630144 0.302815
115.582069 17.510601 4.198928 0.431647
115.582069 17.510601 3.773767 0.647227
115.582069 17.510601 3.353641 0.694041
115.582069 17.510601 2.937576 0.467247
115.582069 17.510601 2.524632 0.656428
115.582069 17.510601 2.113900 0.398520
115.582069 17.510601 1.704487 0.627710
115.582069 17.510603 1.295513 0.408011
115.582069 17.510601 0.886099 0.690028
115.582069 17.510601 0.475367 0.534600
115.582069 17.510601 0.062424 0.560861
114.214310 19.463211 -0.000008 0.331624
113.142319 20.993567 -0.000005 0.310750
112.397255 22.057220 -0.000003 0.314870
111.848320 22.840870 -0.000002 0.364218
115.469170 17.520603 4.611942 0.577783
115.469170 17.520603 4.183234 0.674525
115.469170 17.520603 3.760545 0.658854
115.469170 17.520605 3.342862 0.501244
115.469170 17.520603 2.929216 0.485267
115.469170 17.520605 2.518674 0.622568
115.469170 17.520603 2.110331 0.678264
115.469170 17.520605 1.703298 0.678340
115.469170 17.520605 1.296702 0.691478
115.469170 17.520603 0.889669 0.709728
115.469170 17.520605 0.481326 0.651881
115.469170 17.520603 0.070783 0.633707
114.156342 19.422909 -0.000008 0.313268
113.095070 20.960712 -0.000005 0.276921
112.357445 22.029541 -0.000003 0.268818
111.813995 22.817005 -0.000002 0.254032
115.357567 17.530491 4.594101 0.677729
115.357567 17.530491 4.167850 0.684215
115.357567 17.530495 3.747585 0.646250
115.357567 17.530495 3.332297 0.334905
115.357567 17.530495 2.921022 0.617151
115.357567 17.530495 2.512834 0.655818
115.357567 17.530491 2.106832 0.678523
115.357567 17.530493 1.702133 0.663890
115.357567 17.530493 1.297867 0.678523
115.357567 17.530491 0.893168 0.665751
115.357567 17.530495 0.487166 0.678157
115.357567 17.530495 0.078978 0.647105
114.098099 19.383015 -0.000008 0.282979
113.047585 20.928188 -0.000006 0.343435
112.317444 22.002140 -0.000003 0.334310
111.779503 22.793379 -0.000002 0.310796
115.247246 17.540255 4.576616 0.651408
115.247238 17.540257 4.152774 0.597375
115.247238 17.540257 3.734884 0.459846
115.247238 17.540258 3.321943 0.678431
115.247238 17.540257 2.912992 0.666194
115.247238 17.540257 2.507110 0.658778
115.247246 17.540257 2.103402 0.676799
115.247238 17.540257 1.700990 0.663706
115.247238 17.540257 1.299010 0.678126
115.247246 17.540257 0.896597 0.689204
115.247238 17.540257 0.492889 0.677791
115.247238 17.540257 0.087008 0.666667
114.039581 19.343525 -0.000008 0.294316
112.999878 20.895996 -0.000006 0.279164
112.277252 21.975021 -0.000003 0.327871
111.744850 22.769995 -0.000002 0.287755
115.138138 17.549927 4.559471 0.423163
115.138138 17.549927 4.137991 0.412009
115.138138 17.549927 3.722429 0.649897
115.138138 17.549927 3.311789 0.566369
115.138138 17.549927 2.905118 0.667277
115.138138 17.549929 2.501498 0.540536
115.138145 17.549923 2.100040 0.668132
115.138138 17.549927 1.699870 0.376806
115.138138 17.549927 1.300130 0.678157
115.138145 17.549923 0.899960 0.454185
115.138138 17.549931 0.498502 0.666529
115.138138 17.549929 0.094882 0.394308
113.980789 19.304445 -0.000009 0.263386
112.951950 20.864138 -0.000006 0.252750
112.236870 21.948181 -0.000004 0.373144
111.710037 22.746851 -0.000002 0.251667
115.030251 17.559475 4.542667 0.515602
115.030251 17.559479 4.123502 0.610910
115.030251 17.559481 3.710222 0.697429
115.030251 17.559481 3.301838 0.709041
115.030251 17.559479 2.897400 0.656138
115.030251 17.559479 2.495997 0.656168
115.030251 17.559479 2.096744 0.641398
115.030251 17.559475 1.698773 0.668757
115.030251 17.559477 1.301227 0.709316
115.030251 17.559477 0.903256 0.666438
115.030251 17.559479 0.504002 0.611139
115.030251 17.559477 0.102599 0.673381
113.921722 19.265778 -0.000008 0.311086
112.903801 20.832617 -0.000006 0.282490
112.196304 21.921623 -0.000004 0.255222
111.675056 22.723953 -0.000002 0.271473
114.923538 17.568924 4.526194 0.629389
114.923531 17.568928 4.109297 0.678386
114.923531 17.568928 3.698256 0.697963
114.923531 17.568928 3.292083 0.683574
114.923531 17.568928 2.889835 0.667750
114.923531 17.568928 2.490605 0.647242
114.923531 17.568928 2.093513 0.709590
114.923531 17.568928 1.697696 0.663951
114.923531 17.568928 1.302304 0.709621
114.923531 17.568928 0.906487 0.656992
114.923531 17.568928 0.509395 0.721126
114.923531 17.568928 0.110165 0.646922
113.862389 19.227524 -0.000009 0.273838
112.855431 20.801432 -0.000006 0.299168
112.155556 21.895351 -0.000004 0.300542
111.639923 22.701298 -0.000003 0.329366
114.817963 17.578270 4.510043 0.623606
114.817963 17.578274 4.095372 0.518318
114.817963 17.578276 3.686524 0.653895
114.817963 17.578278 3.282518 0.671809
114.817963 17.578276 2.882417 0.668223
114.817963 17.578276 2.485318 0.680491
114.817963 17.578274 2.090346 0.667063
114.817963 17.578274 1.696641 0.539574
114.817963 17.578274 1.303359 0.709514
114.817963 17.578274 0.909654 0.615595
114.817963 17.578274 0.514681 0.638804
114.817963 17.578272 0.117583 0.529305
113.802788 19.189684 -0.000009 0.310201
112.806839 20.770584 -0.000006 0.254582
112.114624 21.869362 -0.000004 0.277287
111.604630 22.678892 -0.000003 0.291112
114.713501 17.587521 4.494208 0.639887
114.713501 17.587528 4.081718 0.646998
114.713501 17.587528 3.675021 0.597559
114.713501 17.587524 3.273141 0.677333
114.713501 17.587528 2.875144 0.654063
114.713501 17.587526 2.480135 0.678248
114.713501 17.587528 2.087240 0.677516
114.713501 17.587524 1.695607 0.651865
114.713501 17.587526 1.304393 0.678035
114.713501 17.587524 0.912760 0.603632
114.713501 17.587524 0.519865 0.471641
114.713501 17.587524 0.124855 0.385245
113.742928 19.152264 -0.000009 0.312551
112.758041 20.740074 -0.000006 0.238621
112.073509 21.843662 -0.000004 0.304997
111.569176 22.656733 -0.000002 0.255695
114.610130 17.596680 4.478683 0.645777
114.610130 17.596684 4.068333 0.582361
114.610130 17.596684 3.663744 0.579355
114.610130 17.596682 3.263947 0.597040
114.610130 17.596684 2.868015 0.668940
114.610130 17.596684 2.475053 0.654261
114.610130 17.596682 2.084195 0.672862
114.610130 17.596682 1.694593 0.665217
114.610130 17.596682 1.305407 0.709453
114.610130 17.596680 0.915804 0.676555
114.610130 17.596680 0.524947 0.432227
114.610130 17.596680 0.131985 0.493156
113.682808 19.115259 -0.000009 0.315419
112.709023 20.709911 -0.000006 0.335836
112.032211 21.818247 -0.000004 0.361227
111.533569 22.634819 -0.000002 0.363272
114.507820 17.605743 4.463462 0.283726
114.507820 17.605747 4.055208 0.416495
114.507820 17.605747 3.652687 0.300420
114.507820 17.605747 3.254933 0.375525
114.507820 17.605747 2.861024 0.645685
114.507820 17.605745 2.470070 0.624735
114.507820 17.605743 2.081210 0.682109
114.507820 17.605747 1.693598 0.597696
114.507820 17.605747 1.306402 0.708507
114.507820 17.605743 0.918790 0.648035
114.507820 17.605743 0.529929 0.339254
114.507820 17.605743 0.138975 0.511818
113.622429 19.078676 -0.000009 0.241108
112.659805 20.680086 -0.000006 0.365591
111.990746 21.793121 -0.000004 0.240253
111.497818 22.613155 -0.000003 0.249149
114.406548 17.614716 4.448538 0.618067
114.406540 17.614721 4.042339 0.678584
114.406540 17.614719 3.641846 0.642664
114.406548 17.614719 3.246096 0.597986
114.406540 17.614719 2.854170 0.308415
114.406540 17.614719 2.465185 0.568994
114.406548 17.614717 2.078283 0.567025
114.406548 17.614717 1.692623 0.653452
114.406548 17.614717 1.307377 0.683055
114.406548 17.614717 0.921717 0.370642
114.406540 17.614719 0.534815 0.351110
114.406548 17.614719 0.145830 0.650690
113.561798 19.042515 -0.000009 0.286259
112.610374 20.650608 -0.000006 0.294652
111.949104 21.768288 -0.000004 0.317586
111.461914 22.591742 -0.000003 0.321080
114.306282 17.623600 4.433906 0.672175
114.306282 17.623600 4.029723 0.676860
114.306274 17.623604 3.631217 0.657755
114.306274 17.623602 3.237430 0.667811
114.306282 17.623600 2.847450 0.607675
114.306274 17.623602 2.460395 0.557778
114.306282 17.623600 2.075413 0.651270
114.306282 17.623600 1.691668 0.662211
114.306282 17.623600 1.308333 0.677760
114.306282 17.623600 0.924587 0.351659
114.306274 17.623604 0.539605 0.378332
114.306282 17.623600 0.152550 0.665690
113.500908 19.006783 -0.000009 0.272969
112.560738 20.621475 -0.000007 0.279149
111.907288 21.743744 -0.000005 0.261051
111.425858 22.570578 -0.000003 0.300511
114.207008 17.632383 4.419563 0.588190
114.207001 17.632387 4.017356 0.678813
114.207001 17.632387 3.620798 0.646067
114.207001 17.632387 3.228937 0.647166
114.207001 17.632387 2.840863 0.620844
114.207008 17.632385 2.455700 0.433906
114.207008 17.632385 2.072600 0.667018
114.207008 17.632385 1.690730 0.548516
114.207008 17.632385 1.309270 0.679515
114.207008 17.632385 0.927400 0.307530
114.207008 17.632383 0.544299 0.575265
114.207008 17.632381 0.159137 0.672496
113.439774 18.971472 -0.000009 0.263340
112.510902 20.592688 -0.000007 0.261387
111.865303 21.719494 -0.000004 0.299657
111.389656 22.549667 -0.000003 0.358755
114.108688 17.641098 4.405496 0.642405
114.108681 17.641102 4.005228 0.678386
114.108681 17.641102 3.610580 0.700816
114.108688 17.641100 3.220607 0.677134
114.108681 17.641102 2.834402 0.677928
114.108681 17.641102 2.451095 0.404837
114.108688 17.641100 2.069841 0.676402
114.108681 17.641102 1.689811 0.646601
114.108681 17.641102 1.310189 0.648646
114.108688 17.641100 0.930158 0.441749
114.108681 17.641102 0.548904 0.708095
114.108688 17.641100 0.165598 0.679606
113.378403 18.936588 -0.000010 0.285756
112.460869 20.564251 -0.000007 0.301640
111.823151 21.695534 -0.000005 0.381521
111.353310 22.529011 -0.000003 0.286763
114.011307 17.649715 4.391709 0.628382
114.011307 17.649719 3.993339 0.630869
114.011307 17.649719 3.600565 0.680552
114.011307 17.649719 3.212442 0.677699
114.011307 17.649719 2.828070 0.678187
114.011307 17.649719 2.446582 0.572473
114.011307 17.649719 2.067137 0.620844
114.011307 17.649719 1.688911 0.655207
114.011307 17.649719 1.311089 0.678477
114.011307 17.649715 0.932863 0.435309
114.011307 17.649715 0.553417 0.706798
114.011314 17.649712 0.171929 0.639048
113.316788 18.902134 -0.000010 0.327703
112.410637 20.536163 -0.000007 0.367269
111.780830 21.671871 -0.000005 0.332021
111.316818 22.508610 -0.000003 0.268711
113.914841 17.658274 4.378184 0.418112
113.914841 17.658276 3.981680 0.593790
113.914841 17.658276 3.590741 0.569100
113.914841 17.658276 3.204434 0.678035
113.914841 17.658274 2.821859 0.647181
113.914841 17.658276 2.442156 0.564446
113.914841 17.658274 2.064485 0.577920
113.914841 17.658274 1.688028 0.441382
113.914841 17.658274 1.311973 0.677699
113.914841 17.658274 0.935515 0.447440
113.914841 17.658276 0.557844 0.592950
113.914841 17.658272 0.178141 0.635248
113.254921 18.868114 -0.000009 0.288487
112.360207 20.508430 -0.000007 0.257649
111.738342 21.648506 -0.000005 0.349004
111.280190 22.488462 -0.000003 0.258976
113.819267 17.666733 4.364932 0.645167
113.819267 17.666735 3.970252 0.527428
113.819267 17.666735 3.581114 0.340032
113.819267 17.666737 3.196584 0.665782
113.819267 17.666735 2.815772 0.677378
113.819267 17.666733 2.437817 0.677714
113.819267 17.666733 2.061886 0.592325
113.819267 17.666735 1.687162 0.633997
113.819267 17.666735 1.312838 0.667903
113.819267 17.666733 0.938114 0.465019
113.819267 17.666733 0.562183 0.676280
113.819267 17.666733 0.184227 0.648905
113.192833 18.834524 -0.000010 0.293339
112.309586 20.481047 -0.000007 0.295171
111.695702 21.625437 -0.000005 0.297429
111.243416 22.468571 -0.000003 0.346609
113.724571 17.675116 4.351937 0.674052
113.724571 17.675117 3.959048 0.708125
113.724571 17.675117 3.571675 0.549187
113.724571 17.675117 3.188890 0.640696
113.724571 17.675117 2.809804 0.667689
113.724571 17.675117 2.433563 0.641596
113.724571 17.675116 2.059337 0.581353
113.724571 17.675116 1.686312 0.677470
113.724571 17.675116 1.313687 0.625162
113.724571 17.675116 0.940663 0.493797
113.724579 17.675114 0.566436 0.702586
113.724579 17.675114 0.190195 0.613581
113.130508 18.801369 -0.000010 0.273228
112.258774 20.454018 -0.000007 0.268757
111.652893 21.602665 -0.000005 0.266499
111.206505 22.448936 -0.000003 0.344442
113.630714 17.683443 4.339193 0.660883
113.630714 17.683445 3.948060 0.359884
113.630714 17.683443 3.562418 0.644892
113.630714 17.683445 3.181343 0.443137
113.630714 17.683445 2.803951 0.449638
113.630714 17.683445 2.429392 0.632700
113.630714 17.683445 2.056838 0.452277
113.630714 17.683443 1.685480 0.404044
113.630714 17.683443 1.314520 0.641779
113.630714 17.683445 0.943162 0.660883
113.630714 17.683449 0.570608 0.377172
113.630714 17.683449 0.196049 0.487526
113.067947 18.768648 -0.000010 0.295552
112.207779 20.427341 -0.000007 0.294514
111.609924 21.580194 -0.000005 0.266056
111.169464 22.429560 -0.000004 0.327352
113.537697 17.691681 4.326705 0.657099
113.537697 17.691681 3.937291 0.677119
113.537697 17.691681 3.553345 0.623819
113.537697 17.691681 3.173947 0.454597
113.537697 17.691681 2.798216 0.661158
113.537697 17.691681 2.425304 0.668940
113.537704 17.691677 2.054389 0.469535
113.537697 17.691681 1.684664 0.615259
113.537697 17.691681 1.315336 0.621988
113.537697 17.691681 0.945611 0.651820
113.537697 17.691683 0.574696 0.677028
113.537697 17.691683 0.201784 0.477150
113.005165 18.736366 -0.000010 0.274769
112.156593 20.401028 -0.000007 0.327916
111.566811 21.558023 -0.000005 0.248203
111.132278 22.410442 -0.000004 0.336568
113.445488 17.699848 4.314461 0.675380
113.445488 17.699848 3.926734 0.676829
113.445496 17.699846 3.544452 0.690913
113.445496 17.699848 3.166697 0.483101
113.445488 17.699848 2.792593 0.666194
113.445488 17.699848 2.421296 0.638865
113.445496 17.699846 2.051987 0.385016
113.445488 17.699848 1.683864 0.637247
113.445488 17.699848 1.316136 0.591394
113.445488 17.699848 0.948013 0.683497
113.445488 17.699852 0.578704 0.677653
113.445488 17.699850 0.207407 0.382650
112.942154 18.704525 -0.000010 0.268284
112.105232 20.375067 -0.000007 0.279194
111.523537 21.536152 -0.000005 0.271916
111.094971 22.391588 -0.000004 0.343694
113.354095 17.707897 4.302472 0.473381
113.357399 17.701197 3.918010 0.708644
113.357399 17.701197 3.537102 0.669108
113.354095 17.707897 3.159597 0.585580
113.354095 17.707897 2.787086 0.589075
113.357399 17.701199 2.417984 0.618708
113.357399 17.701197 2.050003 0.677974
113.357399 17.701199 1.683203 0.374929
113.357399 17.701197 1.316797 0.677287
113.354095 17.707901 0.950364 0.674525
113.354095 17.707901 0.582629 0.677989
113.354095 17.707899 0.212914 0.388632
112.878929 18.673122 -0.000010 0.328756
112.053680 20.349466 -0.000008 0.264302
111.480110 21.514587 -0.000005 0.251438
111.057526 22.372992 -0.000004 0.284062
113.263672 17.715466 4.290836 0.562310
113.323608 17.591545 3.936094 0.647059
113.323608 17.591543 3.552337 0.647059
113.263672 17.715466 3.152706 0.636576
113.263672 17.715466 2.781742 0.399359
113.323608 17.591547 2.424849 0.647059
113.323608 17.591545 2.054116 0.677791
113.323608 17.591545 1.684573 0.654902
113.323608 17.591545 1.315426 0.666346
113.263672 17.715466 0.952646 0.686915
113.263680 17.715462 0.586437 0.641962
113.263680 17.715462 0.218257 0.575738
112.815483 18.642162 -0.000010 0.271504
112.001961 20.324226 -0.000008 0.247868
111.436531 21.493324 -0.000005 0.271733
111.019951 22.354658 -0.000004 0.330373
113.174011 17.722937 4.279440 0.597040
113.246765 17.569798 3.933155 0.647059
113.246765 17.569798 3.549861 0.626383
113.174011 17.722939 3.145958 0.656962
113.174011 17.722939 2.776509 0.518257
113.232605 17.599598 2.421028 0.659358
113.246765 17.569798 2.053447 0.654902
113.246765 17.569798 1.684351 0.647059
113.246765 17.569798 1.315649 0.647059
113.174011 17.722937 0.954881 0.232441
113.174011 17.722937 0.590168 0.677562
113.174011 17.722935 0.223491 0.603937
112.751823 18.611645 -0.000011 0.249042
111.950066 20.299349 -0.000008 0.262181
111.392815 21.472364 -0.000005 0.309895
110.982254 22.336586 -0.000004 0.238712
113.085075 17.730347 4.268271 0.648829
113.191193 17.502878 3.941120 0.678431
113.191193 17.502876 3.556571 0.678431
113.085075 17.730347 3.139344 0.680308
113.085075 17.730345 2.771380 0.469169
113.142342 17.607597 2.417282 0.647059
113.191200 17.502876 2.055259 0.678431
113.191200 17.502874 1.684954 0.678431
113.191200 17.502876 1.315046 0.678431
113.085075 17.730347 0.957072 0.664088
113.085075 17.730345 0.593824 0.706889
113.085075 17.730347 0.228620 0.679988
112.687950 18.581575 -0.000011 0.294926
111.897995 20.274836 -0.000008 0.285374
111.348946 21.451712 -0.000006 0.266407
110.944427 22.318779 -0.000004 0.260258
112.996849 17.737692 4.257328 0.652674
113.100731 17.510899 3.931349 0.678431
113.100731 17.510897 3.548339 0.678431
112.996849 17.737692 3.132863 0.660029
112.996849 17.737692 2.766354 0.588281
113.052803 17.615534 2.413611 0.671443
113.100731 17.510899 2.053037 0.678431
113.100731 17.510899 1.684214 0.678431
113.100731 17.510899 1.315786 0.678431
112.996849 17.737694 0.959218 0.674525
112.996849 17.737694 0.597406 0.639887
112.996849 17.737694 0.233647 0.685557
112.623871 18.551952 -0.000011 0.267475
111.845749 20.250687 -0.000008 0.285512
111.304932 21.431366 -0.000006 0.323095
110.906487 22.301235 -0.000004 0.304463
112.909294 17.745014 4.246594 0.660227
113.010986 17.518858 3.921772 0.678431
113.010986 17.518852 3.540272 0.678431
112.909294 17.745014 3.126507 0.673167
112.909294 17.745014 2.761424 0.676875
112.963974 17.623405 2.410013 0.669017
113.010986 17.518854 2.050859 0.678431
113.010986 17.518856 1.683488 0.678431
113.010986 17.518856 1.316512 0.678431
112.909294 17.745010 0.961323 0.643809
112.909294 17.745010 0.600919 0.621210
112.909302 17.745010 0.238576 0.704784
112.559586 18.522778 -0.000011 0.293065
111.793343 20.226900 -0.000008 0.316548
111.260780 21.411327 -0.000006 0.309606
110.868416 22.283958 -0.000004 0.337682
112.822433 17.752241 4.236087 0.661051
112.921936 17.526752 3.912389 0.678431
112.921936 17.526751 3.532367 0.678431
112.822433 17.752243 3.120285 0.674296
112.822433 17.752241 2.756598 0.677424
112.875839 17.631222 2.406487 0.656931
112.921936 17.526749 2.048724 0.678431
112.921936 17.526751 1.682777 0.678431
112.921936 17.526751 1.317223 0.678431
112.822433 17.752239 0.963384 0.690959
112.822433 17.752241 0.604359 0.612680
112.822433 17.752241 0.243402 0.663249
112.495094 18.494049 -0.000011 0.297749
111.740776 20.203484 -0.000008 0.254276
111.216492 21.391598 -0.000006 0.253758
110.830223 22.266945 -0.000005 0.317968
112.736214 17.759449 4.225783 0.406577
112.833572 17.534590 3.903195 0.678431
112.833572 17.534586 3.524621 0.678431
112.736221 17.759449 3.114183 0.542000
112.736214 17.759449 2.751866 0.677028
112.788376 17.638981 2.403032 0.654902
112.833572 17.534588 2.046633 0.678431
112.833572 17.534588 1.682081 0.678431
112.833572 17.534588 1.317919 0.678431
112.736221 17.759445 0.965405 0.702037
112.736221 17.759445 0.607732 0.344533
112.736221 17.759445 0.248134 0.553094
112.430412 18.465771 -0.000011 0.288411
111.688042 20.180429 -0.000008 0.327886
111.172066 21.372179 -0.000006 0.320195
110.791916 22.250202 -0.000004 0.245960
112.650658 17.766567 4.215698 0.345418
112.745872 17.542366 3.894186 0.678431
112.745872 17.542362 3.517032 0.678431
112.650658 17.766565 3.108210 0.645502
112.650658 17.766567 2.747234 0.670130
112.701576 17.646675 2.399647 0.655818
112.745872 17.542362 2.044584 0.678431
112.745872 17.542362 1.681398 0.678431
112.745872 17.542362 1.318602 0.678431
112.650658 17.766563 0.967383 0.667796
112.650658 17.766567 0.611033 0.321553
112.650658 17.766567 0.252766 0.668269
112.365524 18.437946 -0.000012 0.252964
111.635147 20.157749 -0.000008 0.308278
111.127502 21.353069 -0.000006 0.297398
110.753494 22.233725 -0.000005 0.237751
112.565712 17.773663 4.205811 0.423392
112.658829 17.550087 3.885361 0.678431
112.658829 17.550081 3.509596 0.678431
112.565712 17.773661 3.102355 0.400229
112.565712 17.773663 2.742693 0.584283
112.615417 17.654316 2.396330 0.647059
112.658829 17.550083 2.042576 0.678431
112.658829 17.550083 1.680730 0.678431
112.658829 17.550083 1.319270 0.678431
112.565712 17.773659 0.969322 0.357198
112.565712 17.773659 0.614269 0.353460
112.565712 17.773659 0.257306 0.656001
112.300453 18.410580 -0.000011 0.304448
111.582092 20.135437 -0.000008 0.284459
111.082809 21.334270 -0.000006 0.324147
110.714958 22.217518 -0.000005 0.290486
112.481377 17.780704 4.196127 0.675792
112.572418 17.557747 3.876716 0.678431
112.572418 17.557745 3.502313 0.678431
112.481377 17.780704 3.096621 0.514488
112.481377 17.780704 2.738245 0.660533
112.550896 17.610451 2.397639 0.658335
112.572418 17.557743 2.040610 0.678431
112.572418 17.557743 1.680074 0.678431
112.572418 17.557743 1.319925 0.678431
112.481384 17.780701 0.971221 0.690929
112.481384 17.780701 0.617439 0.558099
112.481384 17.780701 0.261754 0.684215
112.235184 18.383665 -0.000011 0.279301
111.528885 20.113493 -0.000008 0.249638
111.037987 21.315786 -0.000006 0.322362
110.676308 22.201578 -0.000005 0.279713
112.397659 17.787663 4.186651 0.668986
112.486626 17.565353 3.868248 0.678431
112.486626 17.565351 3.495179 0.678431
112.397659 17.787663 3.091009 0.512703
112.397659 17.787663 2.733893 0.655894
112.480034 17.581814 2.397638 0.635401
112.486626 17.565350 2.038684 0.678431
112.486626 17.565353 1.679433 0.678431
112.486626 17.565351 1.320567 0.678431
