# This PCD file was generated using the MATLABÂ® pcwrite function
# from Computer Vision ToolboxÂ®.
# .PCD v.7 - Point Cloud Data file format
VERSION .7
FIELDS x y z intensity
SIZE 4 4 4 4
TYPE F F F F
COUNT 1 1 1 1
WIDTH 1281
HEIGHT 1
VIEWPOINT 0 0 0 1 0 0 0
POINTS 1281
DATA ascii
nan nan nan 0.000000
-64.834221 171.536499 0.000066 0.294118
-12.803997 139.450516 0.000020 0.298650
-2.386464 133.026230 0.000005 0.339376
2.086325 130.267960 0.000011 0.272007
4.577391 128.731766 0.000010 0.300328
6.167723 127.751038 0.000009 0.249134
7.273068 127.069397 0.000008 0.242863
8.087435 126.567192 0.000008 0.351873
nan nan nan 0.000000
nan nan nan 0.000000
nan nan nan 0.000000
nan nan nan 0.000000
nan nan nan 0.000000
nan nan nan 0.000000
nan nan nan 0.000000
nan nan nan 0.000000
-64.496513 172.080032 0.000066 0.294118
-12.691488 139.631561 0.000020 0.286290
-2.319050 133.134705 0.000005 0.337682
2.134374 130.345261 0.000011 0.297307
4.614653 128.791733 0.000010 0.270237
6.198102 127.799919 0.000009 0.258549
7.298661 127.110573 0.000008 0.264942
8.109502 126.602699 0.000007 0.262959
nan nan nan 0.000000
nan nan nan 0.000000
nan nan nan 0.000000
nan nan nan 0.000000
nan nan nan 0.000000
nan nan nan 0.000000
nan nan nan 0.000000
nan nan nan 0.000000
-64.154861 172.621124 0.000066 0.294118
-12.577700 139.811813 0.000020 0.300435
-2.250874 133.242706 0.000006 0.336660
2.182962 130.422241 0.000011 0.291600
4.652337 128.851425 0.000009 0.270909
6.228823 127.848587 0.000008 0.299397
7.324542 127.151581 0.000008 0.323812
8.131817 126.638054 0.000007 0.231785
nan nan nan 0.000000
nan nan nan 0.000000
nan nan nan 0.000000
nan nan nan 0.000000
nan nan nan 0.000000
nan nan nan 0.000000
nan nan nan 0.000000
nan nan nan 0.000000
-63.809532 173.159851 0.000066 0.294118
-12.462667 139.991257 0.000020 0.296483
-2.181947 133.350220 0.000006 0.336278
2.232087 130.498871 0.000011 0.267735
4.690434 128.910858 0.000009 0.334905
6.259881 127.897041 0.000008 0.262684
7.350706 127.192398 0.000008 0.242267
8.154378 126.673248 0.000007 0.334630
nan nan nan 0.000000
nan nan nan 0.000000
nan nan nan 0.000000
nan nan nan 0.000000
nan nan nan 0.000000
nan nan nan 0.000000
nan nan nan 0.000000
nan nan nan 0.000000
-63.460457 173.696167 0.000066 0.294118
-12.346380 140.169907 0.000019 0.295918
-2.112257 133.457245 0.000007 0.338369
2.281744 130.575165 0.000010 0.251957
4.728947 128.970016 0.000009 0.342657
6.291277 127.945274 0.000008 0.317464
7.377158 127.233032 0.000007 0.323415
8.177185 126.708282 0.000007 0.298390
nan nan nan 0.000000
nan nan nan 0.000000
nan nan nan 0.000000
nan nan nan 0.000000
nan nan nan 0.000000
nan nan nan 0.000000
nan nan nan 0.000000
nan nan nan 0.000000
-63.107681 174.230057 0.000066 0.294118
-12.228855 140.347748 0.000019 0.296147
-2.041838 133.563782 0.000008 0.338735
2.331788 130.651199 -0.000010 0.339498
4.767870 129.028915 0.000009 0.311513
6.323008 127.993286 0.000008 0.255131
7.403890 127.273483 0.000007 0.276677
8.200234 126.743164 0.000007 0.289372
nan nan nan 0.000000
nan nan nan 0.000000
nan nan nan 0.000000
nan nan nan 0.000000
nan nan nan 0.000000
nan nan nan 0.000000
nan nan nan 0.000000
nan nan nan 0.000000
-62.751053 174.761383 0.000066 0.294118
-12.110090 140.524750 0.000019 0.296101
-1.970676 133.669830 0.000008 0.337972
2.382506 130.726791 -0.000010 0.339071
4.807203 129.087540 0.000009 0.269535
6.355076 128.041077 0.000008 0.296101
7.430905 127.313744 0.000007 0.261524
8.223528 126.777878 0.000007 0.269291
nan nan nan 0.000000
nan nan nan 0.000000
nan nan nan 0.000000
nan nan nan 0.000000
nan nan nan 0.000000
nan nan nan 0.000000
nan nan nan 0.000000
nan nan nan 0.000000
-62.390892 175.290314 0.000066 0.294118
-11.990091 140.700928 0.000019 0.292897
-1.898774 133.775391 0.000008 0.337514
2.505509 130.752777 0.010002 1.000000
4.846944 129.145889 0.000008 0.327062
6.387473 128.088638 0.000008 0.275166
7.458201 127.353813 0.000007 0.263142
8.247063 126.812431 0.000006 0.237461
nan nan nan 0.000000
nan nan nan 0.000000
nan nan nan 0.000000
nan nan nan 0.000000
nan nan nan 0.000000
nan nan nan 0.000000
nan nan nan 0.000000
nan nan nan 0.000000
-62.026894 175.816620 0.000066 0.294118
-11.868872 140.876251 0.000019 0.294209
-1.826135 133.880432 0.000009 0.339101
2.556921 130.827164 0.010000 1.000000
4.887093 129.203949 0.000008 0.243183
6.420204 128.135986 0.000008 0.295338
7.485773 127.393700 0.000007 0.284031
8.270839 126.846817 0.000007 0.279835
nan nan nan 0.000000
nan nan nan 0.000000
nan nan nan 0.000000
nan nan nan 0.000000
nan nan nan 0.000000
nan nan nan 0.000000
nan nan nan 0.000000
nan nan nan 0.000000
-61.659370 176.340469 0.000066 0.294118
-11.746422 141.050735 0.000019 0.288914
-1.752763 133.984955 0.000009 0.339086
2.537810 130.951416 -0.000011 0.336675
4.927648 129.261734 0.000008 0.298207
6.453264 128.183090 0.000007 0.291493
7.513627 127.433388 0.000007 0.269245
8.294832 126.881058 -0.000000 0.339376
nan nan nan 0.000000
nan nan nan 0.000000
nan nan nan 0.000000
nan nan nan 0.000000
nan nan nan 0.000000
nan nan nan 0.000000
nan nan nan 0.000000
nan nan nan 0.000000
-61.288063 176.861649 0.000066 0.294118
-11.622757 141.224350 0.000018 0.288319
-1.678662 134.088974 0.000010 0.335088
2.590619 131.025558 -0.000011 0.342412
4.968602 129.319244 0.000008 0.262715
6.486652 128.229965 0.000007 0.288273
7.541755 127.472878 0.000006 0.286366
8.319088 126.915108 -0.000000 0.330358
nan nan nan 0.000000
nan nan nan 0.000000
nan nan nan 0.000000
nan nan nan 0.000000
nan nan nan 0.000000
nan nan nan 0.000000
nan nan nan 0.000000
nan nan nan 0.000000
-60.913170 177.380249 0.000066 0.294118
-11.497887 141.397110 0.000018 0.287663
-1.603845 134.192490 0.000010 0.336996
2.643943 131.099335 -0.000011 0.336889
5.009959 129.376450 0.000008 0.285008
6.520367 128.276611 0.000007 0.264897
7.570158 127.512177 0.000006 0.303716
8.343578 126.948990 -0.000000 0.349783
nan nan nan 0.000000
nan nan nan 0.000000
nan nan nan 0.000000
nan nan nan 0.000000
nan nan nan 0.000000
nan nan nan 0.000000
nan nan nan 0.000000
nan nan nan 0.000000
-60.534698 177.896240 0.000066 0.294118
-11.371811 141.568985 0.000018 0.293507
-1.528298 134.295456 0.000011 0.336767
2.697784 131.172729 -0.000011 0.339864
5.051714 129.433380 0.000008 0.344991
6.554407 128.323013 0.000007 0.274876
7.598836 127.551270 0.000006 0.343694
8.400393 126.958984 0.009993 1.000000
nan nan nan 0.000000
nan nan nan 0.000000
nan nan nan 0.000000
nan nan nan 0.000000
nan nan nan 0.000000
nan nan nan 0.000000
nan nan nan 0.000000
nan nan nan 0.000000
-60.152603 178.409546 0.000066 0.294118
-11.244545 141.739990 0.000018 0.291814
-1.452043 134.397903 0.000011 0.338369
2.752135 131.245758 -0.000011 0.337026
5.093863 129.490005 0.000008 0.303990
6.588768 128.369186 0.000007 0.271870
7.627784 127.590164 0.000006 0.238041
8.425189 126.992302 0.009993 1.000000
-11.851055 142.469193 9.379395 0.423896
-11.851055 142.469193 8.293910 0.719066
-11.851057 142.469193 7.223669 0.528603
-11.851055 142.469193 6.166103 0.584878
-11.851055 142.469193 5.118756 0.771008
-11.851055 142.469193 4.079269 0.622644
nan nan nan 0.000000
nan nan nan 0.000000
-59.766983 178.920227 0.000066 0.294118
-11.116076 141.910080 0.000018 0.291234
-1.375072 134.499817 0.000011 0.336385
2.807002 131.318390 -0.000010 0.339666
5.136306 129.546417 -0.000012 0.335424
6.623454 128.415115 0.000007 0.350759
7.656995 127.628860 0.000003 0.336385
8.450217 127.025436 0.009994 1.000000
-11.491631 142.469193 9.307931 0.482567
-11.491636 142.469208 8.232293 0.655116
-11.491623 142.469193 7.171756 0.687343
-11.491629 142.469193 6.123782 0.735073
-11.491631 142.469193 5.085936 0.573358
-11.491632 142.469193 4.055877 0.669947
-11.614737 142.564209 3.038972 0.678431
-11.614735 142.564209 2.012624 0.678431
-11.614735 142.564209 0.987375 0.678431
-10.986435 142.079285 0.000018 0.298833
-1.201015 134.526810 0.009994 1.000000
2.862373 131.390640 -0.000010 0.337560
5.179244 129.602463 -0.000012 0.343038
6.658457 128.460785 0.000006 0.252125
7.686483 127.667351 0.000002 0.330541
8.475477 127.058395 0.009994 1.000000
-11.363352 142.645142 9.309610 0.090684
-11.138651 142.469193 8.172104 0.675776
-11.363354 142.645142 7.172978 0.086275
-11.363352 142.645142 6.124778 0.187518
-11.363352 142.645142 5.086708 0.188830
-11.138655 142.469208 4.033027 0.489189
-11.260004 142.564224 3.025214 0.678431
-11.260004 142.564224 2.008041 0.678431
-11.260012 142.564224 0.991958 0.678431
-10.855600 142.247559 0.000018 0.291859
-1.218993 134.702011 0.000013 0.337591
2.918239 131.462509 -0.000010 0.338811
5.275647 129.616638 0.009987 1.000000
6.693772 128.506241 0.000005 0.337819
7.716239 127.705635 0.000002 0.332311
8.500968 127.091187 0.009995 1.000000
-10.791924 142.469208 9.169930 0.550942
-10.791927 142.469208 8.113306 0.618158
-10.791929 142.469208 7.071514 0.596643
-10.791929 142.469208 6.042062 0.558267
-10.791929 142.469208 5.022559 0.765743
-10.791927 142.469208 4.010704 0.475196
-10.880056 142.539215 3.009798 0.094118
-10.880054 142.539215 2.002906 0.094118
-10.880054 142.539215 0.997094 0.062745
-10.723612 142.414948 0.000017 0.297765
-1.139898 134.802277 0.000013 0.336614
2.974609 131.533997 -0.000010 0.333577
5.319067 129.671707 0.009986 1.000000
6.729405 128.551422 0.000003 0.341802
7.782521 127.714905 0.010002 1.000000
8.495436 127.148613 -0.000001 0.323156
-10.451258 142.469238 9.103303 0.421012
-10.451256 142.469238 8.055855 0.797330
-10.451256 142.469238 7.023113 0.568963
-10.451260 142.469238 6.002604 0.535256
-10.451263 142.469238 4.991957 0.536309
-10.451258 142.469238 3.988893 0.719402
-10.569109 142.564194 2.998636 0.678431
-10.569107 142.564194 1.999189 0.678431
-10.569107 142.564194 1.000811 0.678431
-10.451210 142.469193 0.008802 0.594034
-1.060113 134.902008 0.000014 0.339040
3.031479 131.605072 -0.000010 0.338842
5.362881 129.726456 0.009987 1.000000
6.765354 128.596375 0.000002 0.340261
7.812603 127.752518 0.010001 1.000000
8.521551 127.181259 -0.000001 0.327108
-10.326233 142.640732 9.106056 0.103304
-10.116417 142.469238 7.999702 0.580880
-10.326237 142.640732 7.025115 0.062745
-10.326237 142.640732 6.004234 0.094118
-10.326237 142.640732 4.993221 0.094118
-10.116417 142.469238 3.967575 0.905882
-10.232573 142.564178 2.985798 0.678431
-10.232574 142.564178 1.994913 0.645579
-10.232576 142.564178 1.005088 0.652140
-10.116367 142.469193 0.021575 0.568551
-0.979634 135.001175 0.000014 0.335500
3.088843 131.675751 -0.000009 0.336706
5.354889 129.823563 -0.000010 0.331456
6.844193 128.606262 0.010007 1.000000
7.842948 127.789917 0.009999 1.000000
8.547894 127.213722 -0.000002 0.347311
-9.787239 142.469238 8.974518 0.610620
-9.787241 142.469238 7.944813 0.628397
-9.787241 142.469238 6.929563 0.597055
-9.787239 142.469238 5.926338 0.535912
-9.787237 142.469238 4.932810 0.675746
-9.787235 142.469238 3.946735 0.394842
-9.901770 142.564194 2.973251 0.678431
-9.901770 142.564194 1.990733 0.678431
-9.901770 142.564194 1.009267 0.678431
-9.787193 142.469193 0.034060 0.428763
-0.898459 135.099762 0.000015 0.338659
3.146701 131.746017 -0.000009 0.336645
5.399762 129.878067 -0.000009 0.338491
6.880523 128.650406 0.010006 1.000000
7.873556 127.827103 0.009999 1.000000
8.574463 127.246002 -0.000002 0.333852
-9.463570 142.469238 8.912284 0.472801
-9.463579 142.469238 7.891156 0.624475
-9.463579 142.469238 6.884358 0.563561
-9.463577 142.469238 5.889486 0.673350
-9.463577 142.469238 4.904230 0.428244
-9.463570 142.469238 3.926364 0.454826
-9.576488 142.564194 2.960984 0.593469
-9.576487 142.564194 1.986647 0.635950
-9.576488 142.564194 1.013353 0.635950
-9.463520 142.469193 0.046265 0.641199
-0.816597 135.197784 0.000015 0.338857
3.205047 131.815887 -0.000008 0.335454
5.445019 129.932251 -0.000007 0.332540
6.917157 128.694290 0.010005 1.000000
7.868992 127.893867 -0.000000 0.332525
8.601257 127.278091 -0.000003 0.336919
-9.333378 142.629715 8.913380 0.666697
-9.145212 142.469223 7.838681 0.538048
-9.333385 142.629730 6.885151 0.498466
-9.333382 142.629730 5.890133 0.513954
-9.333385 142.629730 4.904731 0.581323
-9.145206 142.469223 3.906443 0.464088
-9.256550 142.564194 2.948991 0.678431
-9.256556 142.564194 1.982652 0.678431
-9.256556 142.564194 1.017348 0.678431
-9.145174 142.469193 0.058200 0.551003
-0.734056 135.295242 0.000015 0.338476
3.263878 131.885361 -0.000008 0.338201
5.490654 129.986115 -0.000005 0.329839
6.912257 128.773605 -0.000003 0.338918
7.900324 127.930870 -0.000001 0.341146
8.628275 127.309998 -0.000003 0.343359
-9.051647 142.659210 8.864658 0.678431
-8.832001 142.469208 7.787360 0.557443
-9.051640 142.659195 6.849757 0.678431
-9.051638 142.659195 5.861278 0.678431
-9.051643 142.659195 4.882354 0.678431
-8.831997 142.469193 3.886960 0.589410
-8.941832 142.564209 2.937263 0.597513
-8.941832 142.564209 1.978745 0.590448
-8.941832 142.564209 1.021255 0.590448
-8.831995 142.469193 0.069872 0.477943
-0.650835 135.392120 0.000016 0.337423
3.323192 131.954407 -0.000008 0.338003
5.536662 130.039658 -0.000004 0.338125
6.949749 128.817276 -0.000005 0.343496
7.931917 127.967651 -0.000001 0.330877
8.655514 127.341705 -0.000003 0.337514
-8.523838 142.469208 8.733708 0.700847
-8.523836 142.469208 7.737176 0.756115
-8.523832 142.469193 6.754635 0.709834
-8.523834 142.469193 5.783731 0.632898
-8.523834 142.469193 4.822213 0.832425
-8.523834 142.469193 3.867908 0.856611
-8.632130 142.564209 2.925791 0.678431
-8.632130 142.564209 1.974924 0.678431
-8.632128 142.564209 1.025076 0.678431
-8.523834 142.469193 0.081287 0.585321
-0.566941 135.488419 0.000016 0.338048
3.383002 132.023026 -0.000005 0.340002
5.583044 130.092880 -0.000002 0.334005
6.987549 128.860672 -0.000006 0.341741
7.963764 128.004211 -0.000002 0.333318
8.682974 127.373230 -0.000004 0.333135
-8.295162 142.535599 8.701794 0.697871
-8.220549 142.469208 7.688089 0.603067
-8.295153 142.535583 6.731451 0.614496
-8.295153 142.535583 5.764831 0.490272
-8.295153 142.535583 4.807555 0.638956
-8.220547 142.469208 3.849272 0.917037
-8.327320 142.564209 2.914568 0.678431
-8.327320 142.564209 1.971186 0.678431
-8.327320 142.564209 1.028814 0.678431
-8.220539 142.469193 0.092453 0.489342
-0.482383 135.584122 0.000017 0.338720
3.443300 132.091217 -0.000001 0.338643
5.629796 130.145782 0.000000 0.335668
7.025664 128.903793 -0.000004 0.341573
7.995863 128.040558 -0.000003 0.334966
8.710653 127.404564 -0.000004 0.344167
-8.132563 142.659225 8.692125 0.678431
-7.921986 142.469223 7.640065 0.583398
-8.132549 142.659210 6.724427 0.678431
-8.132553 142.659225 5.759107 0.678431
-8.132559 142.659225 4.803116 0.678431
-7.921984 142.469208 3.831040 0.654978
-8.027290 142.564240 2.903593 0.678431
-8.027290 142.564240 1.967530 0.678431
-8.027290 142.564240 1.032470 0.678431
-7.921961 142.469193 0.103377 0.505943
-0.397147 135.679230 0.000017 0.336736
3.504062 132.158997 0.000001 0.336660
5.676916 130.198349 0.000002 0.335119
7.064075 128.946655 -0.000002 0.343908
8.028219 128.076660 -0.000003 0.336538
8.738552 127.435699 -0.000005 0.345861
-7.628002 142.469223 8.566582 0.511925
-7.627995 142.469208 7.593071 0.541207
-7.627995 142.469208 6.633231 0.523613
-7.627991 142.469208 5.684760 0.683223
-7.627998 142.469223 4.745457 0.565942
-7.627995 142.469223 3.813200 0.490944
-7.731802 142.564209 2.892848 0.678431
-7.731804 142.564209 1.963951 0.678431
-7.731802 142.564209 1.036049 0.678431
-7.627970 142.469193 0.114066 0.553094
-0.311260 135.773758 0.000018 0.337758
3.565289 132.226364 0.000002 0.335882
5.724401 130.250580 0.000004 0.332631
7.102785 128.989243 -0.000002 0.342794
8.060827 128.112549 -0.000003 0.333806
8.766665 127.466644 -0.000005 0.332189
-7.338448 142.469208 8.513243 0.567864
-7.338448 142.469208 7.547082 0.476967
-7.338446 142.469208 6.594487 0.784329
-7.338444 142.469208 5.653175 0.530510
-7.338442 142.469208 4.720959 0.750866
-7.380548 142.508270 3.800450 0.608789
-7.440828 142.564209 2.882335 0.678431
-7.440828 142.564209 1.960450 0.678431
-7.440826 142.564209 1.039550 0.678431
-7.338438 142.469193 0.124526 0.356741
-0.224709 135.867661 0.000018 0.336675
3.626980 132.293304 0.000003 0.335180
5.772252 130.302490 0.000006 0.339590
7.141789 129.031555 -0.000001 0.340169
8.093683 128.148209 -0.000003 0.337743
8.794995 127.497383 -0.000005 0.335531
-7.053236 142.469208 8.461044 0.608499
-7.053230 142.469208 7.502073 0.709804
-7.216112 142.622482 6.597267 0.178531
-7.216106 142.622482 5.655440 0.107942
-7.216110 142.622482 4.722716 0.171878
-7.127621 142.539215 3.787030 0.180972
-7.154203 142.564224 2.872048 0.678431
-7.154202 142.564224 1.957023 0.678431
-7.154198 142.564224 1.042977 0.678431
-7.053228 142.469193 0.134763 0.408515
-0.137503 135.960968 0.000019 0.339101
3.689139 132.359802 0.000005 0.339574
5.820461 130.354065 0.000008 0.336477
7.181089 129.073608 0.000001 0.332296
8.126789 128.183624 -0.000003 0.343908
8.823540 127.527931 -0.000005 0.341573
-6.772219 142.469208 8.409951 0.576898
-6.772219 142.469208 7.458021 0.573343
-6.971340 142.659225 6.569539 0.678431
-6.971340 142.659225 5.632836 0.678431
-6.971334 142.659225 4.705185 0.678431
-6.845572 142.539200 3.770243 0.114244
-6.845572 142.539200 2.860197 0.096147
-6.845570 142.539200 1.953075 0.094530
-6.845575 142.539215 1.046924 0.074327
-6.659079 142.361237 0.152466 0.653666
-0.049650 136.053665 0.000019 0.335882
3.751760 132.425873 0.000006 0.336721
5.869029 130.405289 0.000009 0.338827
7.220681 129.115372 0.000002 0.335576
8.160142 128.218811 -0.000003 0.338750
8.852297 127.558273 -0.000005 0.333486
-6.495295 142.469208 8.359938 0.576532
-6.495295 142.469208 7.414897 0.578363
-6.495296 142.469208 6.483126 0.556313
-6.495296 142.469208 5.562390 0.439384
-6.495298 142.469208 4.650554 0.678431
-6.567629 142.539215 3.753811 0.093690
-6.593464 142.564209 2.852119 0.678431
-6.593464 142.564209 1.950384 0.678431
-6.593466 142.564209 1.049615 0.678431
-6.567650 142.539230 0.149645 0.248905
0.038845 136.145737 0.000020 0.338766
3.814841 132.491486 0.000006 0.337209
5.917933 130.456207 0.000006 0.342901
7.260563 129.156860 0.000002 0.338506
8.193738 128.253784 -0.000003 0.334691
8.881269 127.588417 -0.000004 0.343465
-6.222342 142.469223 8.310975 0.509010
-6.222342 142.469223 7.372680 0.350301
-6.218685 142.465637 6.446627 0.499657
-6.218685 142.465637 5.532635 0.821500
-6.218683 142.465637 4.627476 0.870588
-6.319153 142.564240 3.740651 0.372564
-6.319153 142.564224 2.842469 0.663264
-6.319155 142.564240 1.947170 0.662531
-6.319155 142.564240 1.052830 0.661433
-6.293678 142.539230 0.159285 0.153918
0.127671 136.237503 -0.000016 0.338506
3.878379 132.556671 0.000008 0.339345
5.967199 130.506775 0.000005 0.337316
7.300736 129.198074 0.000004 0.329488
8.227577 128.288498 -0.000003 0.338842
8.910448 127.618355 -0.000004 0.338552
-5.953239 142.469223 8.263031 0.454047
-5.953236 142.469223 7.331340 0.517266
-6.144125 142.659195 6.461732 0.678431
-6.144127 142.659195 5.544949 0.678431
-6.144127 142.659195 4.637027 0.678431
-6.048683 142.564209 3.724876 0.506127
-6.048683 142.564209 2.833016 0.678431
-6.048683 142.564209 1.944021 0.678431
-6.048681 142.564209 1.055978 0.678431
-6.023582 142.539230 0.168723 0.094118
0.217413 136.328384 -0.000019 0.338582
3.942369 132.621414 0.000008 0.338460
6.016823 130.556976 0.000006 0.338903
7.341191 129.239014 0.000004 0.336324
8.261660 128.322983 -0.000003 0.332372
8.939837 127.648087 -0.000003 0.336706
-5.687880 142.469223 8.216080 0.617990
-5.687878 142.469223 7.290857 0.840436
-5.687881 142.469223 6.378626 0.685512
-5.687880 142.469223 5.477198 0.549081
-5.687881 142.469223 4.584483 0.606043
-5.757238 142.539215 3.706546 0.094118
-5.757240 142.539215 2.822034 0.086275
-5.757238 142.539215 1.940363 0.074510
-5.757238 142.539215 1.059637 0.081361
-5.757236 142.539215 0.177966 0.089265
0.307824 136.418579 -0.000019 0.338720
4.006805 132.685715 0.000009 0.337102
6.066796 130.606842 0.000006 0.336446
7.381935 129.279663 0.000005 0.342657
8.295982 128.357239 -0.000002 0.337362
8.969432 127.677612 -0.000003 0.344747
-5.426178 142.469238 8.170103 0.751095
-5.426178 142.469238 7.251215 0.415290
-5.426174 142.469238 6.345226 0.592813
-5.426174 142.469238 5.449970 0.793896
-5.426172 142.469238 4.563366 0.759884
-5.518976 142.564209 3.694303 0.671077
-5.518980 142.564209 2.814700 0.678431
-5.518978 142.564209 1.937920 0.678431
-5.518978 142.564209 1.062080 0.678431
-5.494547 142.539200 0.187018 0.094118
0.398868 136.508148 -0.000018 0.337743
4.071686 132.749557 0.000009 0.336339
6.117116 130.656357 0.000006 0.338338
7.422959 129.320023 0.000006 0.332738
8.330542 128.391251 -0.000002 0.341482
8.999231 127.706940 -0.000002 0.338445
-5.168016 142.469238 8.125072 0.595926
-5.180456 142.482147 7.216259 0.612634
-5.180452 142.482147 6.315776 0.561364
-5.180449 142.482147 5.425961 0.822568
-5.180449 142.482147 4.544746 0.752300
-5.236179 142.539978 3.676729 0.094118
-5.236179 142.539978 2.804170 0.193683
-5.236183 142.539978 1.934413 0.094118
-5.236183 142.539978 1.065587 0.213931
-5.221981 142.525238 0.196835 0.090867
0.490539 136.597076 -0.000016 0.338231
4.137014 132.812958 0.000009 0.335744
6.167783 130.705521 0.000006 0.338094
7.464266 129.360092 0.000007 0.335546
8.365336 128.425018 -0.000003 0.330556
9.029238 127.736046 -0.000001 0.324315
-4.913284 142.469223 8.080952 0.593927
-5.055819 142.619217 7.219037 0.117037
-5.093826 142.659210 6.328157 0.663172
-5.093826 142.659210 5.436056 0.663172
-5.093828 142.659225 4.552576 0.678431
-5.003559 142.564224 3.664979 0.628382
-5.003559 142.564224 2.797129 0.628382
-5.003561 142.564224 1.932068 0.627832
-5.003561 142.564224 1.067932 0.630915
-5.003561 142.564224 0.202870 0.504570
0.582825 136.685364 -0.000015 0.338018
4.202773 132.875885 0.000007 0.336477
6.218788 130.754333 0.000006 0.339452
7.543693 129.360062 0.010004 1.000000
8.400370 128.458527 -0.000002 0.323583
9.059444 127.764946 0.000000 0.335409
-4.661905 142.469208 8.037733 0.414160
-4.661896 142.469193 7.137078 0.445121
-4.661901 142.469193 6.249072 0.474495
-4.661903 142.469208 5.371583 0.609369
-4.661903 142.469208 4.502574 0.508934
-4.750929 142.564209 3.650760 0.678431
-4.750929 142.564209 2.788611 0.678431
-4.750929 142.564209 1.929230 0.678431
-4.750931 142.564209 1.070769 0.678431
-4.750931 142.564209 0.211388 0.450584
0.675724 136.773010 -0.000013 0.338735
4.268970 132.938370 0.000006 0.338216
6.270135 130.802780 0.000007 0.341711
7.585258 129.399307 0.010001 1.000000
8.435635 128.491806 -0.000002 0.329900
9.089852 127.793640 0.000001 0.340887
-4.413816 142.469208 7.995401 0.645182
-4.413815 142.469208 7.100579 0.576898
-4.413815 142.469208 6.218322 0.469627
-4.413815 142.469208 5.346514 0.502922
-4.413818 142.469208 4.483132 0.630945
-4.501585 142.564194 3.636832 0.666667
-4.501589 142.564194 2.780267 0.666667
-4.501591 142.564194 1.926451 0.666667
-4.501593 142.564194 1.073550 0.666667
-4.501591 142.564194 0.219733 0.574258
0.769238 136.859985 -0.000012 0.336278
4.335601 133.000397 0.000004 0.337819
6.321818 130.850861 0.000007 0.330724
7.627100 129.438263 0.009998 1.000000
8.471130 128.524841 -0.000002 0.339117
9.120461 127.822113 0.000001 0.341985
-4.168905 142.469208 7.953925 0.787625
-4.168909 142.469208 7.064819 0.586984
-4.168909 142.469208 6.188194 0.590463
-4.168909 142.469208 5.321953 0.424735
-4.168909 142.469208 4.464083 0.518273
-4.255474 142.564209 3.623190 0.678431
-4.255478 142.564224 2.772093 0.678431
-4.255478 142.564224 1.923728 0.678431
-4.255478 142.564224 1.076272 0.678431
-4.255478 142.564209 0.227907 0.678431
0.863369 136.946304 -0.000008 0.338460
4.402666 133.061951 0.000003 0.337285
6.373836 130.898590 0.000007 0.337438
7.669213 129.476929 0.009995 1.000000
8.506853 128.557617 -0.000003 0.337591
9.151266 127.850380 0.000002 0.341833
-3.927084 142.469193 7.913281 0.524285
-4.097818 142.659225 7.084949 0.441413
-4.097820 142.659225 6.205154 0.478447
-4.097818 142.659225 5.335779 0.441413
-4.061867 142.619217 4.468619 0.081132
-4.012468 142.564224 3.609823 0.678431
-4.012466 142.564224 2.764084 0.678431
-4.012468 142.564224 1.921060 0.678431
-4.012466 142.564224 1.078940 0.678431
-4.012466 142.564224 0.235916 0.639826
0.958101 137.031967 -0.000005 0.337606
4.470155 133.123032 0.000001 0.336675
6.426178 130.945969 0.000006 0.335470
7.711611 129.515274 0.009997 1.000000
8.542805 128.590149 -0.000003 0.342672
9.182269 127.878426 0.000003 0.340154
-3.688272 142.469177 7.873456 0.505669
-3.856644 142.659241 7.050272 0.678431
-3.856644 142.659241 6.175940 0.678431
-3.856642 142.659225 5.311963 0.678431
-3.688278 142.469193 4.427128 0.356909
-3.772465 142.564209 3.596721 0.678431
-3.772465 142.564209 2.756233 0.678431
-3.772461 142.564209 1.918445 0.678431
-3.772461 142.564209 1.081555 0.678431
-3.772469 142.564224 0.243766 0.565835
1.053418 137.116974 -0.000002 0.338903
4.538073 133.183640 0.000000 0.335088
6.478849 130.992981 0.000004 0.339193
7.754277 129.553329 0.009999 1.000000
8.578982 128.622437 -0.000004 0.341634
9.213466 127.906258 0.000003 0.351049
-3.452414 142.469193 7.834434 0.407660
-3.452417 142.469193 6.961789 0.738720
-3.452415 142.469193 6.101395 0.592157
-3.452414 142.469193 5.251191 0.540490
-3.452414 142.469193 4.409205 0.545007
-3.535410 142.564194 3.583881 0.678431
-3.535408 142.564194 2.748540 0.678431
-3.535412 142.564194 1.915883 0.678431
-3.535412 142.564209 1.084117 0.678431
-3.535412 142.564194 0.251459 0.614099
1.149328 137.201294 0.000000 0.338399
4.606389 133.243805 -0.000005 0.340383
6.531847 131.039612 0.000003 0.343160
7.761047 129.632477 -0.000000 0.337194
8.615385 128.654465 -0.000004 0.332784
9.244855 127.933868 0.000004 0.333974
-3.219408 142.469177 7.796190 0.437842
-3.219412 142.469193 6.928813 0.478965
-3.219412 142.469193 6.073614 0.496956
-3.219408 142.469177 5.228544 0.746670
-3.219408 142.469177 4.391641 0.539895
-3.289909 142.551041 3.569875 0.094118
-3.289907 142.551041 2.740149 0.222797
-3.289904 142.551025 1.913087 0.192157
-3.289904 142.551025 1.086912 0.217456
-3.289907 142.551041 0.259850 0.185107
1.245853 137.284927 0.000006 0.336996
4.675138 133.303467 -0.000008 0.338872
6.585168 131.085876 0.000001 0.331014
7.804520 129.670181 -0.000001 0.331655
8.652012 128.686234 -0.000005 0.337545
9.276436 127.961266 0.000004 0.329870
-2.989195 142.469193 7.758711 0.375891
-3.104052 142.604446 6.934819 0.543328
-3.104053 142.604446 6.078674 0.659281
-3.104052 142.604446 5.232669 0.725612
-2.989195 142.469193 4.374428 0.756786
-3.069878 142.564194 3.558969 0.678431
-3.069878 142.564194 2.733615 0.678431
-3.069878 142.564194 1.910912 0.678431
-3.069878 142.564194 1.089088 0.678431
-3.069878 142.564194 0.266384 0.678431
1.342930 137.367920 0.000009 0.336278
4.744303 133.362640 -0.000010 0.336355
6.638811 131.131775 -0.000001 0.335790
7.848254 129.707596 -0.000002 0.329412
8.688857 128.717743 -0.000005 0.332143
9.308208 127.988434 0.000004 0.341100
-2.761694 142.469193 7.721975 0.549477
-2.920797 142.659210 6.918350 0.678431
-2.920797 142.659210 6.064800 0.678431
-2.920795 142.659210 5.221357 0.678431
-2.761696 142.469193 4.357557 0.749264
-2.841236 142.564194 3.546884 0.678431
-2.841236 142.564194 2.726374 0.678431
-2.841236 142.564194 1.908499 0.678431
-2.841236 142.564194 1.091501 0.678431
-2.841238 142.564194 0.273625 0.678431
1.440580 137.450226 0.000010 0.335958
4.813894 133.421326 -0.000010 0.334386
6.692774 131.177292 -0.000002 0.333837
7.892251 129.744705 -0.000002 0.338964
8.725923 128.749008 -0.000006 0.325231
9.340168 128.015381 0.000004 0.335668
-2.536833 142.469193 7.685967 0.768414
-2.536836 142.469193 6.833777 0.559060
-2.536839 142.469208 5.993548 0.436454
-2.536839 142.469208 5.163271 0.782971
-2.536839 142.469208 4.341020 0.823896
-2.615261 142.564209 3.535038 0.678431
-2.615260 142.564209 2.719277 0.678431
-2.615264 142.564209 1.906135 0.678431
-2.615259 142.564209 1.093864 0.678431
-2.615259 142.564209 0.280723 0.678431
1.538754 137.531906 0.000006 0.336568
4.883891 133.479523 -0.000010 0.339590
6.747053 131.222427 -0.000004 0.333257
7.936504 129.781494 -0.000003 0.343221
8.763205 128.779999 -0.000007 0.338018
9.372316 128.042114 0.000004 0.341085
-2.314559 142.469208 7.650676 0.728359
-2.314564 142.469208 6.803347 0.807523
-2.314562 142.469208 5.967911 0.615000
-2.314563 142.469208 5.142372 0.524529
-2.314564 142.469208 4.324812 0.481178
-2.371523 142.539200 3.520785 0.094118
-2.371525 142.539200 2.710737 0.094118
-2.371525 142.539200 1.903291 0.094118
-2.371523 142.539200 1.096709 0.075654
-2.371524 142.539200 0.289263 0.086275
1.637491 137.612915 0.000001 0.338842
4.954297 133.537216 -0.000010 0.337469
6.801641 131.267197 -0.000007 0.337774
7.981012 129.817978 -0.000004 0.337026
8.800706 128.810745 -0.000006 0.334768
9.404650 128.068604 0.000004 0.320821
-2.094803 142.469223 7.616084 0.430106
-2.094805 142.469223 6.773519 0.769619
-2.094804 142.469223 5.942782 0.588449
-2.094807 142.469223 5.121887 0.660151
-2.094808 142.469238 4.308925 0.300618
-2.171001 142.564209 3.512045 0.678431
-2.171000 142.564209 2.705501 0.678431
-2.171001 142.564209 1.901546 0.678431
-2.171001 142.564209 1.098454 0.678431
-2.171002 142.564209 0.294499 0.678431
1.736780 137.693237 -0.000005 0.336965
5.025101 133.594421 -0.000010 0.338750
6.856544 131.311569 -0.000009 0.327428
8.025773 129.854156 -0.000005 0.336767
8.838421 128.841202 -0.000005 0.336934
9.437166 128.094879 0.000004 0.353536
-1.877480 142.469223 7.582167 0.597299
-2.018682 142.647766 6.793438 0.062745
-2.018680 142.647766 5.959563 0.325414
-2.018677 142.647766 5.135566 0.238483
-1.877486 142.469238 4.293347 0.619074
-1.932841 142.539230 3.498276 0.094118
-1.932841 142.539230 2.697251 0.094118
-1.932837 142.539215 1.898798 0.094118
-1.932837 142.539215 1.101201 0.094118
-1.932841 142.539230 0.302748 0.094118
1.836635 137.772873 -0.000010 0.337835
5.150235 133.582947 0.009993 1.000000
6.911771 131.355545 -0.000007 0.340536
8.070790 129.890015 -0.000005 0.336675
8.876347 128.871414 -0.000005 0.330251
9.469868 128.120926 0.000004 0.348714
-1.662543 142.469223 7.548917 0.549325
-1.810639 142.659210 6.767632 0.678431
-1.810638 142.659195 5.937823 0.678431
-1.810638 142.659195 5.117842 0.678431
-1.662549 142.469238 4.278078 0.473793
-1.736593 142.564224 3.489950 0.678431
-1.736594 142.564224 2.692262 0.678431
-1.736590 142.564209 1.897137 0.678431
-1.736591 142.564209 1.102863 0.678431
-1.736593 142.564224 0.307737 0.678431
1.937044 137.851791 -0.000016 0.338293
5.221349 133.638794 0.009992 1.000000
6.967313 131.399124 -0.000003 0.336721
8.116056 129.925552 -0.000005 0.336049
8.914488 128.901352 -0.000003 0.344015
9.502745 128.146759 0.000002 0.338872
-1.449937 142.469238 7.516323 0.652918
-1.449937 142.469238 6.687500 0.474678
-1.449935 142.469223 5.870315 0.622995
-1.449935 142.469223 5.062809 0.844221
-1.449938 142.469238 4.263107 0.407935
-1.522920 142.564209 3.479227 0.678431
-1.522920 142.564209 2.685838 0.678431
-1.522921 142.564209 1.894997 0.678431
-1.522921 142.564209 1.105003 0.678431
-1.522920 142.564209 0.314162 0.678431
2.037999 137.930023 -0.000021 0.334936
5.292854 133.694138 0.009992 1.000000
7.064190 131.388916 0.009991 1.000000
8.161570 129.960785 -0.000005 0.341176
8.952832 128.931030 -0.000003 0.335744
9.535802 128.172348 0.000001 0.335012
-1.239589 142.469223 7.484365 0.918990
-1.239588 142.469223 6.659945 0.376486
-1.239590 142.469223 5.847101 0.591852
-1.239587 142.469223 5.043883 0.578882
-1.239589 142.469223 4.248430 0.683543
-1.311528 142.564209 3.468714 0.678431
-1.311529 142.564209 2.679539 0.678431
-1.311529 142.564209 1.892899 0.638849
-1.311529 142.564209 1.107101 0.638849
-1.311528 142.564209 0.320460 0.638849
2.139507 138.007523 -0.000027 0.337896
5.364747 133.748978 0.009991 1.000000
7.119970 131.431412 0.009997 1.000000
8.207328 129.995682 -0.000005 0.341634
8.991385 128.960434 -0.000002 0.323293
9.569041 128.197708 0.000001 0.339681
-1.031457 142.469223 7.453034 0.808499
-1.027553 142.463989 6.631520 0.646448
-1.027552 142.463989 5.823153 0.773434
-1.027550 142.463989 5.024361 0.709209
-1.031458 142.469223 4.234040 0.811414
-1.102365 142.564224 3.458407 0.678431
-1.102363 142.564209 2.673364 0.678431
-1.102364 142.564224 1.890842 0.678431
-1.102364 142.564224 1.109158 0.678431
-1.102363 142.564209 0.326635 0.678431
2.241563 138.084320 -0.000030 0.337011
5.437029 133.803314 0.009994 1.000000
7.176047 131.473526 0.010003 1.000000
8.253328 130.030273 -0.000005 0.339208
9.030142 128.989563 -0.000001 0.338338
9.602454 128.222839 -0.000000 0.327092
-0.825484 142.469223 7.422316 0.581308
-0.965257 142.659225 6.657388 0.562783
-0.965259 142.659225 5.844948 0.562783
-0.965261 142.659241 5.042129 0.562783
-0.825486 142.469223 4.219933 0.601053
-0.876958 142.539185 3.445755 0.086610
-0.876961 142.539200 2.665784 0.094118
-0.876960 142.539200 1.888317 0.094118
-0.876960 142.539200 1.111683 0.074510
-0.876960 142.539200 0.334216 0.090517
2.344200 138.160324 -0.000027 0.335607
5.509690 133.857132 0.009996 1.000000
7.232408 131.515244 0.010008 1.000000
8.299568 130.064545 -0.000005 0.337972
9.069099 129.018433 0.000000 0.340627
9.636042 128.247726 -0.000001 0.340047
-0.621615 142.469208 7.392198 0.569070
-0.759350 142.659210 6.631161 0.678431
-0.759351 142.659210 5.822851 0.678431
-0.759349 142.659210 5.024113 0.678431
-0.621617 142.469223 4.206100 0.533654
-0.690475 142.564209 3.438394 0.678431
-0.690474 142.564209 2.661373 0.678431
-0.690474 142.564209 1.886847 0.678431
-0.690474 142.564209 1.113152 0.678431
-0.690474 142.564209 0.338627 0.678431
2.447354 138.235626 -0.000025 0.334524
5.582722 133.910446 0.009997 1.000000
7.289017 131.556641 0.010002 1.000000
8.346047 130.098480 -0.000005 0.331991
9.108260 129.047028 0.000001 0.340185
9.669804 128.272385 -0.000001 0.314000
-0.419797 142.469208 7.362669 0.739574
-0.419798 142.469208 6.555016 0.464195
-0.419800 142.469208 5.758701 0.548608
-0.419801 142.469208 4.971817 0.577203
-0.419800 142.469208 4.192539 0.711620
-0.469804 142.539215 3.426162 0.086275
-0.469805 142.539215 2.654045 0.086275
-0.469804 142.539215 1.884407 0.077592
-0.469804 142.539215 1.115593 0.086275
-0.469805 142.539215 0.345955 0.086275
2.551029 138.310211 -0.000024 0.338125
5.656125 133.963242 0.009999 1.000000
7.306778 131.652420 0.000009 0.343420
8.392765 130.132095 -0.000004 0.334447
9.147617 129.075333 0.000002 0.335988
9.703735 128.296799 -0.000002 0.340871
-0.219992 142.469208 7.333722 0.615595
-0.219990 142.469208 6.530055 0.595544
-0.219992 142.469208 5.737672 0.857023
-0.219995 142.469223 4.954676 0.588540
-0.219994 142.469208 4.179244 0.811627
-0.286847 142.564209 3.419157 0.669612
-0.286850 142.564209 2.649848 0.669612
-0.286851 142.564209 1.883008 0.669612
-0.286851 142.564209 1.116991 0.669612
-0.286850 142.564209 0.350152 0.669612
2.655222 138.384064 -0.000023 0.336812
5.729897 134.015518 0.010002 1.000000
7.364375 131.693237 0.000011 0.338796
8.439716 130.165375 -0.000003 0.334508
9.187173 129.103378 0.000003 0.331823
9.737838 128.320984 -0.000002 0.339529
-0.022138 142.469223 7.305340 0.563302
-0.022137 142.469208 6.505582 0.435447
-0.022137 142.469208 5.717055 0.585031
-0.022141 142.469223 4.937867 0.439673
-0.022138 142.469223 4.166209 0.586206
-0.088011 142.564209 3.409820 0.678431
-0.088009 142.564209 2.644253 0.678431
-0.088012 142.564209 1.881145 0.678431
-0.088012 142.564209 1.118855 0.678431
-0.088010 142.564209 0.355747 0.678431
2.829489 138.356888 0.009988 1.000000
5.804031 134.067291 0.010003 1.000000
7.422234 131.733688 0.000008 0.344366
8.486893 130.198334 -0.000004 0.321920
9.226921 129.131149 0.000004 0.340307
9.772108 128.344925 -0.000003 0.332265
0.173813 142.469223 7.277511 0.773388
0.056197 142.641388 6.526621 0.093431
0.056197 142.641388 5.734779 0.091508
0.056194 142.641388 4.952317 0.128588
0.173814 142.469223 4.153428 0.773388
0.108912 142.564224 3.400665 0.678431
0.108910 142.564224 2.638769 0.678431
0.108912 142.564224 1.879318 0.678431
0.108912 142.564224 1.120682 0.678431
0.108909 142.564224 0.361231 0.678431
2.933986 138.428818 0.009987 1.000000
5.878522 134.118546 0.010005 1.000000
7.480375 131.773727 0.000004 0.337011
8.534298 130.230972 -0.000005 0.336156
9.266861 129.158630 0.000004 0.341344
9.806545 128.368637 -0.000003 0.345388
0.367905 142.469223 7.250226 0.444160
0.240058 142.659195 6.507519 0.678431
0.240060 142.659195 5.718686 0.678431
0.240059 142.659195 4.939196 0.678431
0.367900 142.469223 4.140898 0.438300
0.310249 142.554901 3.390768 0.220890
0.310244 142.554901 2.632839 0.319951
0.310246 142.554901 1.877343 0.334035
0.310246 142.554901 1.122657 0.336400
0.310245 142.554901 0.367161 0.314519
3.039042 138.499939 0.009995 1.000000
5.953373 134.169281 0.010007 1.000000
7.538792 131.813370 0.000001 0.332387
8.581932 130.263275 -0.000005 0.340002
9.306992 129.185852 0.000004 0.315587
9.841150 128.392090 -0.000002 0.345663
0.560177 142.469223 7.223478 0.530922
0.560179 142.469208 6.434998 0.741848
0.560179 142.469208 5.657589 0.591196
0.560177 142.469223 4.889389 0.431968
0.560177 142.469223 4.128612 0.592325
0.497221 142.564194 3.382887 0.678431
0.497221 142.564194 2.628117 0.678431
0.497219 142.564194 1.875770 0.678431
0.497219 142.564194 1.124230 0.678431
0.497221 142.564194 0.371883 0.676738
3.144448 138.570541 0.009981 1.000000
6.028562 134.219513 0.010007 1.000000
7.597494 131.852585 -0.000000 0.333364
8.629789 130.295242 -0.000006 0.339345
9.347312 129.212769 0.000004 0.337575
9.875917 128.415314 -0.000001 0.350164
0.750681 142.469208 7.197249 0.720088
0.750683 142.469208 6.412385 0.335302
0.750685 142.469208 5.638537 0.708522
0.750685 142.469208 4.873857 0.431312
0.750684 142.469208 4.116567 0.484932
0.688665 142.564209 3.374261 0.565148
0.688664 142.564209 2.622949 0.565148
0.688665 142.564209 1.874048 0.575097
0.688665 142.564209 1.125951 0.575769
0.688665 142.564209 0.377051 0.678431
3.250485 138.640182 0.009989 1.000000
6.104090 134.269211 0.010004 1.000000
7.656469 131.891388 -0.000001 0.339330
8.677868 130.326874 -0.000007 0.339742
9.387818 129.239426 0.000004 0.331472
9.910844 128.438278 -0.000001 0.328130
0.939461 142.469208 7.171537 0.634958
0.939464 142.469208 6.390213 0.739376
0.939466 142.469208 5.619859 0.641840
0.939466 142.469208 4.858629 0.718914
0.939463 142.469208 4.104758 0.387076
0.878383 142.564209 3.365802 0.678431
0.878380 142.564209 2.617880 0.678431
0.878380 142.564209 1.872361 0.678431
0.878381 142.564209 1.127639 0.678431
0.878380 142.564209 0.382119 0.678431
3.291130 138.811554 0.000008 0.339147
6.179969 134.318390 0.010002 1.000000
7.715716 131.929779 -0.000002 0.338323
8.726168 130.358170 -0.000007 0.342885
9.428511 129.265778 0.000004 0.341802
9.945930 128.461014 -0.000001 0.330404
1.048908 142.591843 7.182688 0.772885
1.048908 142.591843 6.399827 0.319112
1.048908 142.591843 5.627958 0.778317
1.048908 142.591843 4.865233 0.422370
1.126550 142.469208 4.093181 0.536873
1.066404 142.564209 3.357510 0.678431
1.066403 142.564209 2.612912 0.678431
1.066402 142.564209 1.870706 0.678431
1.066402 142.564209 1.129294 0.678431
1.066403 142.564209 0.387087 0.678431
3.398777 138.880264 0.000006 0.290028
6.256186 134.367050 0.010000 1.000000
7.775226 131.967758 -0.000003 0.336446
8.774687 130.389130 -0.000007 0.327138
9.469383 129.291870 0.000003 0.339910
9.981174 128.483505 -0.000001 0.341009
1.193558 142.659195 7.177698 0.562890
1.193558 142.659195 6.395526 0.678431
1.193558 142.659195 5.624335 0.678431
1.193556 142.659195 4.862280 0.647913
1.311990 142.469208 4.081832 0.545800
1.252755 142.564224 3.349383 0.678431
1.252758 142.564224 2.608043 0.678431
1.252757 142.564224 1.869084 0.513359
1.252757 142.564224 1.130916 0.505318
1.252758 142.564224 0.391957 0.505318
3.506920 138.948212 0.000006 0.286732
6.332745 134.415161 0.009998 1.000000
7.835001 132.005310 -0.000004 0.335515
8.823423 130.419739 -0.000006 0.328450
9.510434 129.317673 0.000001 0.339544
10.016575 128.505737 -0.000001 0.314992
1.379220 142.659195 7.153235 0.659586
1.379221 142.659195 6.374432 0.678431
1.379221 142.659195 5.606565 0.678431
1.379219 142.659195 4.847792 0.678431
1.495817 142.469208 4.070708 0.676707
1.437516 142.564209 3.341413 0.678431
1.437514 142.564209 2.603268 0.678431
1.437513 142.564209 1.867493 0.678431
1.437511 142.564209 1.132507 0.678431
1.437511 142.564224 0.396732 0.678431
3.615534 139.015396 0.000006 0.307958
6.409635 134.462738 0.009997 1.000000
7.895035 132.042465 -0.000005 0.331121
8.872370 130.450012 -0.000005 0.331777
9.551665 129.343185 -0.000001 0.327703
10.052130 128.527740 -0.000001 0.319966
1.678083 142.469208 7.073654 0.678431
1.678081 142.469223 6.305816 0.583688
1.678079 142.469223 5.548758 0.417777
1.678080 142.469223 4.800665 0.764569
1.678081 142.469223 4.059804 0.807843
1.623024 142.560349 3.333230 0.062745
1.623024 142.560349 2.598365 0.222370
1.623022 142.560349 1.865860 0.246479
1.623023 142.560349 1.134140 0.218204
1.623024 142.560349 0.401634 0.187823
3.724615 139.081818 0.000005 0.295369
6.486859 134.509781 0.009995 1.000000
7.955326 132.079193 -0.000007 0.335027
8.921530 130.479935 -0.000004 0.334722
9.593076 129.368393 -0.000001 0.335393
10.087837 128.549469 -0.000001 0.328679
1.858818 142.469208 7.050377 0.581888
1.858818 142.469208 6.285747 0.607797
1.858815 142.469208 5.531850 0.585641
1.858815 142.469208 4.786880 0.519097
1.858813 142.469223 4.049114 0.483864
1.802325 142.564209 3.325943 0.678431
1.802326 142.564209 2.593999 0.678431
1.802327 142.564209 1.864406 0.678431
1.802327 142.564209 1.135594 0.678431
1.802327 142.564209 0.406001 0.678431
3.834155 139.147476 0.000005 0.306691
6.564409 134.556274 0.009994 1.000000
8.015873 132.115494 -0.000008 0.340352
8.970896 130.509521 -0.000003 0.340459
9.634661 129.393326 -0.000002 0.342550
10.123694 128.570969 -0.000001 0.331090
2.038056 142.469208 7.027565 0.564050
2.038055 142.469208 6.266076 0.493980
2.038054 142.469208 5.515278 0.660319
2.038054 142.469223 4.773372 0.567895
2.038053 142.469223 4.038636 0.597238
1.982460 142.564209 3.318438 0.678431
1.982462 142.564209 2.589503 0.678431
1.982462 142.564209 1.862908 0.678431
1.982462 142.564209 1.137092 0.678431
1.982463 142.564209 0.410497 0.678431
3.944153 139.212372 0.000005 0.290700
6.642280 134.602234 0.009992 1.000000
8.076675 132.151367 -0.000009 0.337224
9.020468 130.538757 -0.000002 0.337865
9.676421 129.417969 -0.000003 0.341695
10.159698 128.592224 -0.000002 0.335409
2.129451 142.619202 7.048563 0.094118
2.129450 142.619202 6.284181 0.094118
2.129447 142.619202 5.530531 0.094118
2.129448 142.619217 4.785807 0.094118
2.215833 142.469208 4.028368 0.657191
2.161116 142.564224 3.311084 0.678431
2.161117 142.564224 2.585097 0.678431
2.161115 142.564224 1.861441 0.678431
2.161115 142.564224 1.138559 0.656123
2.161117 142.564224 0.414903 0.656123
4.054600 139.276489 0.000005 0.282292
6.720475 134.647644 0.009992 1.000000
8.137730 132.186813 -0.000009 0.340124
9.070244 130.567642 -0.000000 0.338613
9.718349 129.442322 -0.000004 0.342687
10.195850 128.613220 -0.000004 0.337285
2.284530 142.659210 7.037994 0.678431
2.284533 142.659210 6.275067 0.678431
2.284534 142.659210 5.522852 0.678431
2.284533 142.659210 4.779547 0.678431
2.392200 142.469208 4.018302 0.552895
2.338360 142.564209 3.303874 0.678431
2.338359 142.564209 2.580777 0.678431
2.338360 142.564209 1.860002 0.678431
2.338362 142.564209 1.139998 0.678431
2.338360 142.564209 0.419223 0.678431
4.165495 139.339844 0.000005 0.292149
6.798988 134.692490 0.009991 1.000000
8.199030 132.221832 -0.000009 0.336385
9.120220 130.596191 0.000001 0.336828
9.760449 129.466370 -0.000004 0.334524
10.232151 128.633957 -0.000004 0.335012
2.461239 142.659210 7.016305 0.678431
2.461239 142.659210 6.256369 0.678431
2.461238 142.659210 5.507099 0.678431
2.461240 142.659210 4.766705 0.678431
2.567163 142.469208 4.008440 0.533272
2.514200 142.564209 3.296810 0.678431
2.514198 142.564209 2.576545 0.678431
2.514200 142.564209 1.858592 0.678431
2.514201 142.564209 1.141408 0.678431
2.514199 142.564209 0.423455 0.678431
4.276825 139.402420 0.000005 0.288502
6.877811 134.736801 0.009991 1.000000
8.260571 132.256409 -0.000009 0.336156
9.170393 130.624390 0.000002 0.333974
9.802717 129.490128 -0.000003 0.347387
10.268594 128.654434 -0.000004 0.328084
2.740775 142.469208 6.940774 0.369985
2.740776 142.469208 6.191240 0.751431
2.740774 142.469208 5.452231 0.891752
2.740774 142.469208 4.721974 0.422431
2.740773 142.469208 3.998775 0.398123
2.688680 142.564209 3.289886 0.425650
2.688679 142.564209 2.572397 0.425650
2.688680 142.564209 1.857210 0.452979
2.688680 142.564209 1.142790 0.452979
2.688681 142.564209 0.427604 0.678431
4.388591 139.464233 0.000005 0.291173
6.956947 134.780548 0.009992 1.000000
8.322354 132.290573 -0.000007 0.340764
9.220760 130.652222 0.000003 0.339605
9.845152 129.513580 -0.000002 0.331945
10.305180 128.674667 -0.000005 0.340063
2.913058 142.469208 6.920158 0.618692
2.913060 142.469208 6.173465 0.549920
2.913061 142.469208 5.437254 0.664256
2.913061 142.469208 4.709765 0.615885
2.913063 142.469208 3.989306 0.413535
2.861822 142.564209 3.283104 0.678431
2.861823 142.564209 2.568333 0.678431
2.861823 142.564209 1.855857 0.678431
2.861824 142.564209 1.144144 0.678431
2.861823 142.564209 0.431667 0.678431
4.500789 139.525238 0.000005 0.281895
7.036407 134.823700 0.009998 1.000000
8.384378 132.324295 -0.000006 0.337423
9.271322 130.679718 0.000003 0.329076
9.887749 129.536743 -0.000002 0.335744
10.341907 128.694641 -0.000005 0.327703
3.084049 142.469208 6.899960 0.722545
3.084050 142.469208 6.156049 0.339467
3.084050 142.469208 5.422583 0.781521
3.084050 142.469208 4.697804 0.539361
3.084053 142.469208 3.980030 0.567758
3.033665 142.564224 3.276460 0.678431
3.033666 142.564209 2.564351 0.678431
3.033667 142.564209 1.854531 0.678431
3.033667 142.564209 1.145470 0.678431
3.033666 142.564209 0.435648 0.678431
4.613405 139.585480 0.000005 0.287816
7.075469 134.943039 0.000011 0.337087
8.446632 132.357590 -0.000006 0.333547
9.322071 130.706863 0.000003 0.331975
9.930504 129.559616 -0.000002 0.335378
10.378771 128.714355 -0.000006 0.341543
3.168646 142.632492 6.926295 0.226535
3.168647 142.632492 6.178756 0.143526
3.168648 142.632492 5.441712 0.194720
3.168646 142.632492 4.713400 0.250355
3.253786 142.469208 3.970942 0.631327
3.219407 142.535141 3.267262 0.094118
3.219407 142.535141 2.558840 0.124544
3.219406 142.535141 1.852695 0.146807
3.219406 142.535141 1.147305 0.185260
3.219407 142.535141 0.441159 0.289128
4.726443 139.644913 0.000005 0.282353
7.156046 134.985382 0.000014 0.341970
8.509113 132.390442 -0.000007 0.335256
9.373011 130.733643 0.000003 0.338872
9.973418 129.582184 -0.000001 0.345663
10.415771 128.733826 -0.000006 0.331624
3.324892 142.659210 6.914267 0.678431
3.324890 142.659210 6.168386 0.678431
3.324890 142.659210 5.432977 0.678431
3.324891 142.659210 4.706278 0.678431
3.422282 142.469208 3.962040 0.589776
3.373585 142.564224 3.263574 0.678431
3.373586 142.564224 2.556631 0.678431
3.373585 142.564224 1.851959 0.678431
3.373585 142.564224 1.148041 0.678431
3.373587 142.564209 0.443369 0.678431
4.839891 139.703568 0.000005 0.307591
7.236911 135.027176 0.000015 0.337728
8.571821 132.422882 -0.000008 0.333364
9.424133 130.760086 0.000003 0.335271
10.016488 129.604446 -0.000002 0.339178
10.452908 128.753021 -0.000007 0.324544
3.493863 142.659210 6.895092 0.678431
3.493860 142.659210 6.151852 0.678431
3.493861 142.659210 5.419047 0.678431
3.493859 142.659210 4.694922 0.678431
3.589584 142.469208 3.953320 0.686854
3.554310 142.539230 3.255033 0.094118
3.554311 142.539230 2.551514 0.094118
3.554311 142.539230 1.850255 0.094118
3.554311 142.539230 1.149746 0.087404
3.554311 142.539230 0.448486 0.080629
4.953747 139.761429 0.000005 0.292668
7.318050 135.068436 0.000012 0.335485
8.634754 132.454865 -0.000009 0.341299
9.475434 130.786163 0.000001 0.337789
10.059713 129.626404 -0.000002 0.339742
10.490181 128.771957 -0.000005 0.333883
3.755707 142.469208 6.823208 0.614649
3.755706 142.469208 6.089872 0.749355
3.755707 142.469208 5.366831 0.555856
3.755709 142.469208 4.652352 0.653544
3.755709 142.469208 3.944781 0.684718
3.708671 142.564224 3.251211 0.678431
3.708672 142.564224 2.549224 0.678431
3.708672 142.564224 1.849492 0.678431
