# This PCD file was generated using the MATLABÂ® pcwrite function
# from Computer Vision ToolboxÂ®.
# .PCD v.7 - Point Cloud Data file format
VERSION .7
FIELDS x y z intensity
SIZE 4 4 4 4
TYPE F F F F
COUNT 1 1 1 1
WIDTH 1211
HEIGHT 1
VIEWPOINT 0 0 0 1 0 0 0
POINTS 1211
DATA ascii
162.329163 77.898811 0.000006 0.338628
141.778915 59.963989 9.832188 0.709895
141.836121 60.014072 8.667904 0.729198
141.778915 59.963997 7.552579 0.741176
141.778915 59.963997 6.434240 0.733333
141.836121 60.014069 5.317964 0.715785
138.127625 56.767525 4.625392 0.345098
138.127625 56.767525 3.372554 0.333333
138.127609 56.767517 2.123739 0.184070
138.127609 56.767517 0.876261 0.213886
143.833221 61.762402 -0.000023 0.292546
153.042603 69.824608 -0.000014 0.290227
156.996506 73.285988 -0.000011 0.270619
159.198608 75.213783 -0.000009 0.298741
160.604462 76.444519 -0.000008 0.280827
161.616455 77.330444 0.010002 1.000000
162.301514 77.930176 0.000007 0.341039
141.778915 60.270760 9.781774 0.742763
141.836121 60.320145 8.624535 0.698039
141.778915 60.270763 7.515960 0.724056
141.778915 60.270763 6.404387 0.743343
141.836121 60.320137 5.294863 0.732601
138.127609 57.119041 4.606483 0.364706
138.127609 57.119038 3.361225 0.345098
138.127609 57.119038 2.119965 0.195010
138.127609 57.119038 0.880034 0.246372
143.693375 61.923279 -0.000023 0.289769
152.958817 69.920998 -0.000015 0.322286
156.936783 73.354691 -0.000011 0.274800
159.152298 75.267067 -0.000009 0.264057
160.566696 76.487953 -0.000008 0.287892
161.584854 77.366791 0.010002 1.000000
162.274078 77.961723 0.000007 0.350484
141.778915 60.573860 9.732365 0.723491
141.836121 60.622543 8.582033 0.721111
141.778915 60.573860 7.480069 0.729656
141.778915 60.573860 6.375126 0.738140
141.836121 60.622543 5.272223 0.723873
138.127609 57.466354 4.587951 0.333333
138.127609 57.466354 3.350121 0.345006
138.127609 57.466354 2.116266 0.095491
138.127609 57.466354 0.883733 0.153521
143.554642 62.085129 -0.000023 0.294591
152.875702 70.017967 -0.000015 0.275898
156.877548 73.423805 -0.000011 0.292012
159.106354 75.320663 -0.000009 0.276539
160.529251 76.531647 -0.000008 0.264729
161.553513 77.403358 0.010002 1.000000
162.246872 77.993469 0.000007 0.318761
141.778915 60.873371 9.683941 0.731121
141.836121 60.921379 8.540371 0.719265
141.778915 60.873375 7.444893 0.726711
141.778915 60.873375 6.346449 0.734249
141.836121 60.921371 5.250034 0.737285
138.094559 57.781837 4.573323 0.709804
138.094574 57.781837 3.341357 0.000000
138.094559 57.781830 2.113347 0.605951
138.094559 57.781830 0.886653 0.609400
143.417053 62.247940 -0.000023 0.290349
152.793259 70.115517 -0.000015 0.304173
156.818787 73.493332 -0.000011 0.307393
159.060776 75.374588 -0.000009 0.298726
160.492096 76.575607 -0.000008 0.303212
161.522415 77.440147 0.010003 1.000000
162.219894 78.025398 0.000007 0.337240
141.778915 61.169399 9.636476 0.733333
141.836121 61.216728 8.499540 0.733364
141.778915 61.169403 7.410414 0.733333
141.778915 61.169403 6.318340 0.727550
141.836121 61.216721 5.228285 0.709804
138.127625 58.148788 4.551981 0.335546
138.127625 58.148785 3.328570 0.335866
138.127625 58.148785 2.109088 0.197070
138.127625 58.148785 0.890912 0.234836
143.280594 62.411705 -0.000024 0.291920
152.711517 70.213638 -0.000015 0.304891
156.760513 73.563263 -0.000011 0.334829
159.015594 75.428825 -0.000009 0.303792
160.455261 76.619820 -0.000008 0.255772
161.491592 77.477158 0.010003 1.000000
162.193130 78.057518 0.000007 0.333623
141.778915 61.462029 9.589948 0.738140
141.836121 61.508682 8.459516 0.722759
141.836121 61.508686 7.363185 0.717754
141.778915 61.462029 6.290790 0.727214
141.836105 61.508675 5.206966 0.733333
138.127625 58.484108 4.534529 0.353292
138.127625 58.484100 3.318114 0.339910
138.127625 58.484104 2.105605 0.097795
138.127609 58.484093 0.894394 0.118608
143.145294 62.576424 -0.000024 0.294026
152.630447 70.312325 -0.000015 0.276310
156.702744 73.633606 -0.000011 0.301152
158.970779 75.483376 -0.000009 0.268467
160.418732 76.664299 -0.000008 0.242557
161.461029 77.514374 0.010004 1.000000
162.166595 78.089821 0.000007 0.345357
141.778915 61.751343 9.544341 0.733333
141.836121 61.797337 8.420280 0.733059
141.924622 61.868484 7.309470 0.271778
141.778931 61.751347 6.263782 0.733333
141.825668 61.788925 5.187611 0.752941
138.127625 58.815624 4.517422 0.364706
138.127625 58.815620 3.307865 0.345098
138.127625 58.815628 2.102191 0.156420
138.127609 58.815613 0.897809 0.151369
143.011139 62.742081 -0.000024 0.287388
152.550079 70.411575 -0.000015 0.321981
156.645447 73.704346 -0.000011 0.270039
158.926361 75.538239 -0.000009 0.379294
160.382507 76.709023 -0.000008 0.276967
161.394653 77.522804 0.000008 0.340566
162.140289 78.122314 0.000007 0.335286
141.778915 62.037422 9.499636 0.729656
141.778915 62.037430 8.397585 0.726665
141.924622 62.152908 7.277184 0.223529
141.778915 62.037426 6.237306 0.738079
141.836136 62.082779 5.165579 0.709804
138.127625 59.143444 4.500652 0.345098
138.127625 59.143448 3.297816 0.333333
138.127625 59.143440 2.098845 0.180392
138.127625 59.143440 0.901155 0.217548
142.878174 62.908684 -0.000024 0.295216
152.470398 70.511391 -0.000015 0.265827
156.588669 73.775490 -0.000011 0.291218
158.882309 75.593414 -0.000009 0.252872
160.346603 76.753998 -0.000008 0.318761
161.364395 77.560692 0.000008 0.318730
162.114212 78.154984 0.000007 0.333959
141.924530 62.434120 9.409521 0.277287
141.778915 62.320358 8.359797 0.723918
141.924622 62.434193 7.245531 0.215686
141.778931 62.320366 6.211351 0.725841
141.836136 62.365067 5.145496 0.709804
138.127625 59.467651 4.484213 0.351751
138.127609 59.467651 3.287969 0.347097
138.127609 59.467644 2.095563 0.192157
138.127609 59.467644 0.904436 0.239979
142.746338 63.076187 -0.000024 0.291173
152.391418 70.611755 -0.000015 0.274052
156.532364 73.847023 -0.000012 0.278904
158.838654 75.648895 -0.000009 0.361242
160.311020 76.799225 -0.000008 0.238224
161.334412 77.598793 0.000008 0.347112
162.088348 78.187836 0.000007 0.344442
141.924530 62.712364 9.366802 0.215686
141.778915 62.600227 8.322748 0.726940
141.924622 62.712429 7.214502 0.193256
141.778931 62.600227 6.185907 0.732647
141.836136 62.644287 5.125809 0.734127
138.127625 59.788349 4.468097 0.339681
138.127625 59.788345 3.278311 0.344656
138.127625 59.788345 2.092348 0.112230
138.127625 59.788345 0.907653 0.152056
142.615677 63.244621 -0.000024 0.291279
152.313141 70.712669 -0.000015 0.301274
156.476578 73.918953 -0.000011 0.319524
158.795380 75.704674 -0.000009 0.339544
160.275742 76.844704 -0.000008 0.257481
161.304703 77.637108 0.000008 0.343252
162.062729 78.220871 0.000007 0.330388
141.924545 62.987633 9.324922 0.247059
141.778915 62.877098 8.286427 0.732601
141.924622 62.987694 7.184081 0.201343
141.778915 62.877098 6.160962 0.725475
141.836136 62.920528 5.106506 0.744671
138.134628 60.110939 4.451574 0.662013
138.134644 60.110947 3.268412 0.011032
138.134644 60.110947 2.089050 0.655192
138.134644 60.110947 0.910951 0.657572
142.486221 63.413971 -0.000024 0.290791
152.235565 70.814133 -0.000015 0.294804
156.421295 73.991272 -0.000011 0.264973
158.752502 75.760757 -0.000009 0.276432
160.240784 76.890427 -0.000008 0.260945
161.275192 77.675583 -0.000007 0.322057
162.037338 78.254082 0.000007 0.344015
141.816437 63.179115 9.317682 0.733333
141.778915 63.151051 8.250820 0.703182
141.924622 63.260052 7.154255 0.179232
141.778915 63.151054 6.136506 0.729793
141.836136 63.193855 5.087584 0.737896
138.127640 60.419540 4.436804 0.338888
138.127640 60.419548 3.259562 0.340780
138.127640 60.419548 2.086101 0.202319
138.127640 60.419548 0.913898 0.234195
142.357925 63.584202 -0.000025 0.294331
152.158691 70.916122 -0.000015 0.293797
156.366501 74.063965 -0.000011 0.279881
158.710022 75.817139 -0.000009 0.291646
160.206146 76.936386 -0.000008 0.337697
161.246017 77.714310 -0.000007 0.314092
162.012177 78.287476 0.000007 0.340597
141.778915 63.422157 9.288927 0.705303
141.778915 63.422157 8.215909 0.733486
141.924622 63.529587 7.125014 0.185473
141.778931 63.422165 6.112528 0.739864
141.836136 63.464340 5.069031 0.731746
138.127625 60.730202 4.421617 0.343450
138.127640 60.730206 3.250463 0.333516
138.127640 60.730202 2.083071 0.141955
138.127625 60.730194 0.916928 0.202945
142.230820 63.755329 -0.000025 0.300008
152.082550 71.018654 -0.000015 0.293187
156.312225 74.137047 -0.000011 0.321187
158.667923 75.873817 -0.000009 0.302174
160.171829 76.982590 -0.000008 0.264942
161.217102 77.753235 -0.000007 0.361730
161.987259 78.321037 0.000007 0.335653
141.778915 63.690483 9.249231 0.723552
141.778915 63.690491 8.181681 0.722164
141.924622 63.796352 7.096345 0.205524
141.778915 63.690491 6.089021 0.721019
141.836121 63.732056 5.050842 0.714214
138.127640 61.037682 4.406726 0.345098
138.127640 61.037682 3.241541 0.340780
138.127640 61.037682 2.080099 0.151781
138.127625 61.037666 0.919901 0.147829
142.104919 63.927345 -0.000025 0.295857
152.007126 71.121719 -0.000015 0.294133
156.258469 74.210503 -0.000011 0.303304
158.626236 75.930786 -0.000010 0.288365
160.137848 77.029030 -0.000008 0.255177
161.188461 77.792358 -0.000007 0.290013
161.962570 78.354774 0.000007 0.333272
141.836121 63.997070 9.192688 0.736095
141.778915 63.956112 8.148121 0.730022
141.924622 64.060432 7.068238 0.168093
141.778915 63.956112 6.065973 0.721569
141.836121 63.997070 5.033008 0.723400
138.127640 61.342052 4.392126 0.352941
138.127640 61.342049 3.232795 0.328008
138.127625 61.342045 2.077186 0.179110
138.127625 61.342033 0.922814 0.180392
141.980225 64.100235 -0.000025 0.295201
151.932419 71.225304 -0.000015 0.273716
156.205215 74.284332 -0.000011 0.288624
158.584930 75.988045 -0.000009 0.295506
160.104172 77.075714 -0.000008 0.239277
161.160110 77.831680 -0.000007 0.274495
161.938110 78.388680 0.000007 0.336416
141.836121 64.259445 9.154615 0.746273
141.924637 64.321877 8.076706 0.160784
141.924622 64.321877 7.040681 0.200839
141.778915 64.219086 6.043375 0.736400
141.836121 64.259445 5.015523 0.721660
138.127640 61.643398 4.377812 0.345098
138.127640 61.643402 3.224218 0.302159
138.127625 61.643387 2.074329 0.203006
138.127609 61.643379 0.925671 0.235294
141.856750 64.273987 -0.000025 0.295262
151.858429 71.329407 -0.000015 0.293599
156.152481 74.358528 -0.000012 0.322301
158.544037 76.045586 -0.000009 0.295705
160.070831 77.122627 -0.000008 0.300038
161.132019 77.871208 -0.000007 0.265934
161.913895 78.422760 0.000007 0.350698
141.836121 64.519249 9.117289 0.752941
141.924637 64.580765 8.044633 0.192157
141.924622 64.580765 7.013661 0.197299
141.778915 64.479492 6.021219 0.721569
141.836121 64.519249 4.998380 0.718944
138.127640 61.941788 4.363779 0.345098
138.127640 61.941784 3.215811 0.324834
138.127625 61.941772 2.071528 0.216175
138.127609 61.941769 0.928471 0.266667
141.734482 64.448608 -0.000025 0.295888
151.785172 71.434021 -0.000015 0.284047
156.100281 74.433098 -0.000012 0.271717
158.503540 76.103416 -0.000010 0.252247
160.037827 77.169769 -0.000008 0.348486
161.104202 77.910919 -0.000007 0.320500
161.889908 78.457001 0.000007 0.342443
141.836121 64.776550 9.080690 0.752941
141.924637 64.837158 8.013189 0.160784
141.924637 64.837158 6.987169 0.279072
141.778915 64.737381 5.999496 0.709804
141.836121 64.776550 4.981572 0.709804
138.127640 62.237297 4.350020 0.346563
138.127625 62.237289 3.207568 0.270115
138.127625 62.237286 2.068783 0.129412
138.127609 62.237278 0.931217 0.146319
141.613434 64.624069 -0.000025 0.296956
151.712646 71.539154 -0.000015 0.293629
156.048584 74.508026 -0.000012 0.295750
158.463455 76.161530 -0.000009 0.248371
160.005142 77.217140 -0.000008 0.312413
161.076675 77.950836 -0.000007 0.316732
161.866165 78.491417 0.000007 0.336996
141.836121 65.031395 9.044811 0.733333
141.924637 65.091103 7.982359 0.165606
141.924637 65.091095 6.961196 0.245289
141.778915 64.992813 5.978199 0.710948
141.836121 65.031395 4.965093 0.720287
138.052628 62.479393 4.343949 0.709804
138.052628 62.479393 3.203929 0.709804
138.052612 62.479389 2.067571 0.709804
138.052628 62.479393 0.932429 0.709804
141.493622 64.800369 -0.000025 0.290578
151.640869 71.644783 -0.000015 0.304280
155.997421 74.583313 -0.000011 0.303410
158.423782 76.219917 -0.000009 0.293828
159.972794 77.264740 -0.000008 0.271351
161.049423 77.990936 -0.000007 0.294957
161.842682 78.525993 0.000007 0.333379
141.836121 65.283859 9.009630 0.721660
141.924637 65.342667 7.952135 0.160784
141.924637 65.342667 6.935734 0.500008
141.778915 65.245850 5.957320 0.724880
141.841095 65.287163 4.948249 0.717357
138.127625 62.819931 4.323306 0.345098
138.127625 62.819935 3.191562 0.304173
138.127625 62.819931 2.063451 0.201480
138.127625 62.819931 0.936549 0.233646
141.375031 64.977509 -0.000025 0.297154
151.569824 71.750916 -0.000015 0.283345
155.946777 74.658958 -0.000012 0.273167
158.384506 76.278580 -0.000009 0.292439
159.940781 77.312569 -0.000008 0.266957
161.022446 78.031227 -0.000007 0.277150
161.819412 78.560730 0.000007 0.339940
141.836121 65.533981 8.975142 0.722057
141.924637 65.591904 7.922502 0.174975
141.898941 65.575089 6.916355 0.713176
141.778915 65.496552 5.936847 0.737530
141.725906 65.461861 4.948249 0.718685
138.127625 63.107208 4.310340 0.341604
138.127625 63.107208 3.183793 0.270344
138.127625 63.107208 2.060863 0.137499
138.127640 63.107224 0.939137 0.204654
141.257690 65.155472 -0.000025 0.291630
151.499512 71.857529 -0.000016 0.274830
155.896667 74.734955 -0.000012 0.296284
158.345642 76.337517 -0.000010 0.322881
159.909103 77.360611 -0.000008 0.351827
160.995758 78.071701 -0.000007 0.350652
161.796402 78.595634 0.000007 0.345663
141.836121 65.781830 8.941330 0.739864
141.924637 65.838882 7.893449 0.149020
141.836121 65.781837 6.905452 0.736309
141.778915 65.744972 5.916777 0.724788
141.778931 65.744972 4.925394 0.721569
138.127625 63.391869 4.297626 0.343343
138.127625 63.391869 3.176176 0.292103
138.127625 63.391872 2.058327 0.135760
138.127640 63.391884 0.941674 0.140932
141.141602 65.334244 -0.000025 0.288014
151.429947 71.964645 -0.000016 0.290303
155.847092 74.811295 -0.000012 0.266850
158.307190 76.396721 -0.000009 0.303502
159.877762 77.408882 -0.000008 0.282368
160.969345 78.112366 -0.000007 0.261265
161.773636 78.630692 0.000007 0.342382
141.778915 65.991165 8.925148 0.698039
141.924637 66.083649 7.864967 0.165011
141.778931 65.991173 6.893700 0.730526
141.778915 65.991173 5.897101 0.725292
141.717422 65.952148 4.918515 0.735409
138.127625 63.673988 4.285163 0.346349
138.127625 63.673985 3.168708 0.276967
138.127640 63.673996 2.055839 0.167956
138.127640 63.673996 0.944161 0.190600
141.026733 65.513824 -0.000025 0.290425
151.361145 72.072235 -0.000016 0.277485
155.798050 74.887985 -0.000012 0.313512
158.269150 76.456200 -0.000010 0.297536
159.846741 77.457367 -0.000008 0.287404
160.943222 78.153214 -0.000007 0.260929
161.751114 78.665916 0.000007 0.310887
141.836121 66.270943 8.875679 0.738201
141.924637 66.326248 7.837048 0.161532
141.836136 66.270943 6.857764 0.740902
141.778931 66.235199 5.877812 0.723308
141.606873 66.127686 4.918515 0.742580
138.127625 63.953613 4.272945 0.345098
138.127625 63.953613 3.161388 0.231724
138.127625 63.953617 2.053401 0.207050
138.127625 63.953617 0.946600 0.238239
140.913147 65.694199 -0.000026 0.291127
151.293076 72.180305 -0.000016 0.288090
155.749542 74.965012 -0.000012 0.324804
158.231537 76.515938 -0.000010 0.272999
159.816086 77.506065 -0.000008 0.292531
160.917389 78.194244 -0.000007 0.242069
161.728836 78.701294 0.000007 0.340002
141.836121 66.512291 8.843821 0.739055
141.924637 66.566742 7.809676 0.172396
141.836136 66.512299 6.834621 0.756436
141.778915 66.477104 5.858903 0.733333
141.497543 66.303993 4.918517 0.726543
138.127625 64.230804 4.260970 0.345098
138.127625 64.230812 3.154212 0.223133
138.127625 64.230812 2.051011 0.214084
138.127625 64.230812 0.948990 0.244114
140.800812 65.875366 -0.000026 0.295827
151.225784 72.288849 -0.000016 0.283925
155.701569 75.042374 -0.000012 0.299153
158.194336 76.575935 -0.000010 0.284184
159.785751 77.554977 -0.000008 0.256657
160.891846 78.235451 -0.000007 0.301122
161.706802 78.736824 0.000008 0.332448
141.836121 66.751579 8.812593 0.735546
141.924637 66.805183 7.782846 0.180392
141.836136 66.751587 6.811937 0.722210
141.778915 66.716942 5.840368 0.733883
141.389435 66.481064 4.918519 0.731914
138.127625 64.505638 4.249227 0.345098
138.127625 64.505638 3.147177 0.235126
138.127625 64.505638 2.048667 0.124163
138.127625 64.505638 0.951333 0.138033
140.689758 66.057320 -0.000026 0.289769
151.159241 72.397865 -0.000016 0.296986
155.654144 75.120071 -0.000012 0.290059
158.157547 76.636192 -0.000010 0.272145
159.755768 77.604103 -0.000008 0.254490
160.866577 78.276840 -0.000007 0.324224
161.685028 78.772507 0.000008 0.346426
141.836121 66.988853 8.781981 0.727306
141.924622 67.041611 7.756546 0.133028
141.836136 66.988853 6.789701 0.733333
141.778915 66.954750 5.822199 0.714809
141.282593 66.658882 4.918519 0.726345
138.112564 64.769165 4.239157 0.300374
138.112564 64.769165 3.141144 0.124544
138.112564 64.769165 2.046657 0.287617
138.112564 64.769165 0.953342 0.293996
140.579971 66.240028 -0.000026 0.295705
151.093460 72.507339 -0.000016 0.284474
155.607269 75.198105 -0.000012 0.272084
158.121201 76.696709 -0.000010 0.267720
159.726120 77.653435 -0.000008 0.339086
160.841599 78.318398 -0.000007 0.251041
161.663498 78.808342 0.000008 0.339742
141.836121 67.224159 8.751978 0.733639
141.924637 67.276085 7.730767 0.172549
141.836136 67.224167 6.767906 0.736187
141.778915 67.190598 5.804390 0.730297
141.176987 66.837440 4.918520 0.715785
138.127640 65.048401 4.226438 0.334066
138.127640 65.048401 3.133523 0.198154
138.127640 65.048401 2.044120 0.207691
138.127640 65.048401 0.955881 0.234836
140.471451 66.423508 -0.000026 0.295155
151.028442 72.617264 -0.000016 0.293553
155.560928 75.276451 -0.000012 0.269978
158.085251 76.757469 -0.000010 0.297414
159.696823 77.702972 -0.000008 0.315022
160.816925 78.360130 -0.000007 0.324681
161.642212 78.844322 0.000008 0.342382
141.836121 67.457542 8.722573 0.749340
141.924622 67.508636 7.705503 0.190600
141.836136 67.457550 6.746545 0.752102
141.778915 67.424515 5.786937 0.725017
141.072601 67.016724 4.918523 0.730953
138.127625 65.316444 4.215384 0.334112
138.127625 65.316444 3.126901 0.220661
138.127625 65.316444 2.041914 0.202258
138.127625 65.316437 0.958087 0.246418
140.364227 66.607742 -0.000026 0.289921
150.964203 72.727646 -0.000016 0.280690
155.515121 75.355125 -0.000013 0.263050
158.049744 76.818489 -0.000010 0.262867
159.667877 77.752716 -0.000008 0.253559
160.792542 78.402039 -0.000007 0.263050
161.621185 78.880455 0.000007 0.344564
141.836121 67.689056 8.693752 0.738109
141.924622 67.739334 7.680740 0.167758
141.836136 67.689064 6.725610 0.733639
141.778915 67.656563 5.769830 0.733288
140.969513 67.196754 4.918522 0.720058
138.127625 65.582336 4.204548 0.339590
138.127625 65.582336 3.120409 0.198932
138.127625 65.582336 2.039750 0.117830
138.127609 65.582329 0.960249 0.120272
140.258286 66.792725 -0.000026 0.294163
150.900742 72.838470 -0.000016 0.285649
155.469894 75.434120 -0.000012 0.279591
158.014664 76.879745 -0.000010 0.297658
159.639267 77.802658 -0.000008 0.269123
160.768433 78.444115 -0.000007 0.306218
161.635101 78.936447 0.010002 1.000000
141.836121 67.918739 8.665509 0.733333
141.924622 67.968193 7.656478 0.129412
141.836136 67.918747 6.705092 0.730892
141.778915 67.886765 5.753067 0.698039
140.867661 67.377480 4.918524 0.719768
138.127625 65.846123 4.193930 0.330617
138.127625 65.846123 3.114047 0.221256
138.127609 65.846123 2.037632 0.149020
138.127609 65.846123 0.962368 0.171130
140.153656 66.978432 -0.000026 0.291218
150.838043 72.949738 -0.000016 0.294011
155.425201 75.513420 -0.000012 0.316091
157.980011 76.941254 -0.000010 0.262486
159.611023 77.852798 -0.000008 0.262089
160.744629 78.486351 -0.000008 0.245228
161.614716 78.972626 0.010002 1.000000
141.836121 68.146637 8.637833 0.745052
141.924622 68.195290 7.632699 0.129412
141.836136 68.146645 6.684989 0.725292
141.778915 68.115189 5.736640 0.733333
140.767090 67.558929 4.918524 0.720897
138.127625 66.107864 4.183526 0.333333
138.127625 66.107872 3.107813 0.192096
138.127609 66.107864 2.035555 0.191608
138.127609 66.107864 0.964445 0.203647
140.050293 67.164864 -0.000026 0.295018
150.776123 73.061447 -0.000016 0.285969
155.381073 75.593040 -0.000012 0.285191
157.945770 77.002998 -0.000010 0.261326
159.583115 77.903137 -0.000009 0.304982
160.721130 78.528763 -0.000007 0.332509
161.594574 79.008942 0.010002 1.000000
141.836121 68.372795 8.610714 0.740154
141.924622 68.420639 7.609399 0.130388
141.836136 68.372803 6.665289 0.724285
141.778915 68.341866 5.720544 0.714214
140.667770 67.741066 4.918525 0.735714
138.127625 66.367607 4.173332 0.333333
138.127609 66.367607 3.101705 0.161959
138.127609 66.367599 2.033521 0.202457
138.127609 66.367607 0.966479 0.235294
139.948257 67.352028 -0.000026 0.293248
150.714981 73.173576 -0.000016 0.313146
155.337494 75.672966 -0.000012 0.288411
157.911987 77.064980 -0.000010 0.330648
159.555573 77.953667 -0.000008 0.291478
160.697922 78.571335 -0.000007 0.253468
161.574707 79.045403 0.010002 1.000000
141.836121 68.597252 8.584146 0.713481
141.924622 68.644302 7.586571 0.138445
141.836136 68.597260 6.645991 0.720241
141.778915 68.566833 5.704774 0.717983
140.569717 67.923889 4.918528 0.737102
138.127609 66.625397 4.163343 0.337835
138.127609 66.625397 3.095721 0.165438
138.127609 66.625397 2.031528 0.206226
138.127609 66.625397 0.968473 0.262089
139.847519 67.539886 -0.000026 0.295583
150.654633 73.286133 -0.000017 0.281956
155.294479 75.753189 -0.000012 0.267033
157.878632 77.127197 -0.000010 0.315312
159.528366 78.004387 -0.000008 0.264469
160.675003 78.614059 -0.000007 0.292393
161.555069 79.082001 0.010002 1.000000
141.836121 68.820038 8.558118 0.740749
141.924622 68.866302 7.564208 0.138170
141.836136 68.820045 6.627083 0.740383
141.778915 68.790138 5.689325 0.709804
140.472961 68.107391 4.918528 0.721843
138.127609 66.881271 4.153558 0.337484
138.127609 66.881271 3.089859 0.114199
138.127609 66.881271 2.029574 0.127718
138.127609 66.881271 0.970426 0.152667
139.748108 67.728447 -0.000026 0.290974
150.595062 73.399109 -0.000017 0.300557
155.252029 75.833710 -0.000012 0.280140
157.845703 77.189644 -0.000010 0.304967
159.501526 78.055298 -0.000009 0.274968
160.652390 78.656952 -0.000007 0.324056
161.535706 79.118736 0.010002 1.000000
141.836121 69.041214 8.532623 0.728466
141.924622 69.086700 7.542304 0.164920
141.836136 69.041222 6.608563 0.733791
141.778915 69.011810 5.674193 0.709804
140.377472 68.291565 4.918529 0.722850
138.052628 67.096756 4.150886 0.709804
138.052612 67.096756 3.088258 0.709804
138.052612 67.096756 2.029041 0.709804
138.052612 67.096756 0.970959 0.709804
139.649994 67.917694 -0.000027 0.292317
150.536285 73.512489 -0.000017 0.272755
155.210129 75.914520 -0.000012 0.302800
157.813202 77.252319 -0.000010 0.248096
159.475037 78.106392 -0.000009 0.268513
160.630081 78.699997 -0.000007 0.267048
161.516602 79.155609 0.010003 1.000000
141.836121 69.260803 8.507650 0.717571
141.924622 69.305511 7.520849 0.158801
141.836136 69.260811 6.590423 0.721111
141.778915 69.231911 5.659371 0.721569
140.283295 68.476410 4.918530 0.738384
138.127625 67.387505 4.134583 0.345495
138.127625 67.387505 3.078490 0.094209
138.127625 67.387505 2.025788 0.210056
138.127625 67.387505 0.974213 0.258824
139.553223 68.107628 -0.000027 0.299397
150.478302 73.626289 -0.000017 0.286992
155.168808 75.995628 -0.000012 0.293172
157.781158 77.315224 -0.000010 0.269078
159.448914 78.157669 -0.000008 0.262669
160.608063 78.743202 -0.000008 0.320394
161.497742 79.192612 0.010003 1.000000
141.836136 69.478859 8.483194 0.752941
141.924622 69.522789 7.499835 0.161975
141.814545 69.468147 6.577044 0.728176
141.778915 69.450455 5.644856 0.709804
140.190399 68.661903 4.918530 0.751736
138.127625 67.637939 4.125389 0.334798
138.127625 67.637932 3.072981 0.192157
138.127625 67.637939 2.023952 0.192157
138.127625 67.637939 0.976048 0.258824
139.457764 68.298225 -0.000027 0.289937
150.421127 73.740486 -0.000016 0.284428
155.128052 76.077026 -0.000012 0.273457
157.749542 77.378349 -0.000010 0.277699
159.423141 78.209129 -0.000008 0.237736
160.586365 78.786552 -0.000007 0.280247
161.479156 79.229744 0.010004 1.000000
141.836136 69.695396 8.459246 0.743832
141.924622 69.738564 7.479259 0.194324
141.778915 69.667496 6.566846 0.737987
141.778915 69.667496 5.630641 0.710079
140.098785 68.848038 4.918531 0.727474
138.127625 67.886642 4.116385 0.331868
138.127625 67.886635 3.067586 0.129183
138.127625 67.886642 2.022155 0.111482
138.127640 67.886642 0.977844 0.105333
139.363663 68.489494 -0.000027 0.297917
150.364731 73.855080 -0.000017 0.308080
155.087860 76.158699 -0.000012 0.298497
157.718384 77.441696 -0.000010 0.307576
159.397736 78.260773 -0.000008 0.272450
160.564957 78.830063 -0.000007 0.278096
161.460815 79.267006 0.010004 1.000000
141.836121 69.910469 8.435801 0.715129
141.924622 69.952873 7.459113 0.203922
141.778915 69.883057 6.549776 0.736309
141.778915 69.883057 5.616724 0.712154
140.008499 69.034813 4.918532 0.732311
138.127625 68.133652 4.107570 0.331914
138.127625 68.133652 3.062304 0.133852
138.127625 68.133652 2.020396 0.153521
138.127640 68.133659 0.979604 0.147417
139.270874 68.681404 -0.000027 0.293263
150.309143 73.970062 -0.000017 0.298253
155.048248 76.240662 -0.000012 0.294087
157.687653 77.505249 -0.000010 0.270497
159.372681 78.312584 -0.000008 0.312749
160.543854 78.873711 -0.000007 0.285222
161.406754 79.287148 0.000008 0.347784
141.795868 70.105164 8.423989 0.721569
141.924622 70.165756 7.439392 0.160784
141.778915 70.097191 6.533062 0.752941
141.778915 70.097191 5.603101 0.709804
139.919495 69.222214 4.918533 0.718990
138.127625 68.379021 4.098940 0.335256
138.127625 68.379021 3.057134 0.154025
138.127625 68.379021 2.018674 0.172549
138.127625 68.379021 0.981326 0.191745
139.179443 68.873970 -0.000027 0.286473
150.254364 74.085434 -0.000017 0.279118
155.009201 76.322891 -0.000012 0.289891
157.657379 77.569023 -0.000010 0.255406
159.348007 78.364578 -0.000008 0.306828
160.523056 78.917511 -0.000007 0.292424
161.388824 79.324913 0.000008 0.333150
141.778915 70.309914 8.406164 0.718624
141.924637 70.377243 7.420087 0.211368
141.778915 70.309914 6.516704 0.733333
141.778915 70.309914 5.589764 0.709804
139.831833 69.410233 4.918534 0.718334
138.127625 68.622780 4.090493 0.345098
138.127625 68.622780 3.052073 0.167590
138.127625 68.622780 2.016989 0.214954
138.127625 68.622780 0.983012 0.238651
139.089355 69.067162 -0.000027 0.290394
150.200394 74.201180 -0.000017 0.286595
154.970734 76.405388 -0.000012 0.309621
157.627533 77.633003 -0.000010 0.282155
159.323685 78.416733 -0.000008 0.290150
160.502563 78.961456 -0.000007 0.269398
161.371155 79.362801 0.000008 0.349737
141.778915 70.521271 8.384127 0.733333
141.924637 70.587372 7.401195 0.215686
141.778915 70.521271 6.500694 0.752941
141.778915 70.521271 5.576714 0.709804
139.745468 69.598862 4.918533 0.730327
138.127625 68.864975 4.082226 0.347021
138.127625 68.864975 3.047120 0.160784
138.127625 68.864975 2.015338 0.215412
138.127625 68.864975 0.984661 0.247059
139.000610 69.260979 -0.000027 0.286458
150.147232 74.317307 -0.000017 0.272908
154.932831 76.488152 -0.000012 0.267353
157.598145 77.697197 -0.000010 0.283345
159.299728 78.469063 -0.000008 0.292271
160.482376 79.005539 -0.000007 0.314199
161.353760 79.400818 0.000008 0.342184
141.778915 70.731293 8.362558 0.730983
141.924637 70.796173 7.382708 0.208286
141.778915 70.731293 6.485030 0.724926
141.778915 70.731293 5.563942 0.709804
139.660400 69.788063 4.918536 0.734234
138.127625 69.105637 4.074137 0.329152
138.127625 69.105637 3.042274 0.125048
138.127625 69.105637 2.013724 0.133318
138.127625 69.105637 0.986276 0.156985
138.913239 69.455406 -0.000027 0.285145
150.094879 74.433800 -0.000017 0.294026
154.895523 76.571182 -0.000012 0.298985
157.569214 77.761589 -0.000010 0.288579
159.276123 78.521561 -0.000008 0.303120
160.462494 79.049767 -0.000007 0.293248
161.336624 79.438950 0.000008 0.341711
141.778915 70.940018 8.341461 0.721569
141.902130 70.993843 7.369927 0.211673
141.778915 70.940018 6.469703 0.714717
141.778915 70.940018 5.551448 0.709804
139.576675 69.977882 4.918536 0.732479
138.127625 69.344803 4.066224 0.249821
138.127625 69.344803 3.037532 0.043366
138.127625 69.344803 2.012145 0.127321
138.127625 69.344803 0.987856 0.151598
138.827209 69.650444 -0.000027 0.288121
150.043335 74.550652 -0.000017 0.297292
154.858780 76.654472 -0.000012 0.331777
157.540726 77.826180 -0.000010 0.299397
159.252899 78.574219 -0.000008 0.266773
160.442932 79.094131 -0.000007 0.240040
161.319748 79.477196 0.000008 0.340612
141.778915 71.147469 8.320824 0.733669
141.924622 71.209915 7.346934 0.190875
141.778915 71.147469 6.454713 0.702037
141.778915 71.147469 5.539226 0.709804
139.494293 70.168274 4.918537 0.733333
138.127609 69.582512 4.058483 0.298222
138.127609 69.582520 3.032895 0.094118
138.127609 69.582520 2.010601 0.132235
138.127609 69.582520 0.989400 0.146075
138.742554 69.846077 -0.000027 0.291783
149.992615 74.667862 -0.000017 0.283818
154.822632 76.738014 -0.000013 0.288319
157.512680 77.890968 -0.000010 0.279652
159.230042 78.627037 -0.000008 0.363104
160.423676 79.138626 -0.000007 0.293614
161.303085 79.515541 -0.000007 0.330816
141.778915 71.353683 8.300640 0.728786
141.924622 71.414932 7.329633 0.210422
141.778915 71.353683 6.440052 0.717708
141.778915 71.353683 5.527273 0.709804
139.413208 70.359230 4.918539 0.732464
138.127609 69.818817 4.050913 0.364706
138.127609 69.818810 3.028359 0.151965
138.127609 69.818810 2.009089 0.209064
138.127609 69.818810 0.990911 0.230060
138.659271 70.042297 -0.000027 0.285054
149.942703 74.785423 -0.000017 0.279469
154.787064 76.821808 -0.000012 0.268208
157.485092 77.955956 -0.000010 0.264622
159.207565 78.680016 -0.000008 0.356146
160.404739 79.183258 -0.000007 0.237385
161.286758 79.554024 -0.000006 0.245029
141.778915 71.558693 8.280905 0.698039
141.924622 71.618744 7.312717 0.185168
141.778915 71.558693 6.425715 0.723354
141.778915 71.558693 5.515588 0.709804
139.333496 70.550758 4.918539 0.721447
138.127609 70.053726 4.043510 0.345098
138.127609 70.053726 3.023923 0.136767
138.127609 70.053726 2.007612 0.137041
138.127625 70.053734 0.992389 0.189975
138.577347 70.239098 -0.000027 0.292592
149.893631 74.903336 -0.000017 0.288487
154.752075 76.905846 -0.000012 0.308019
157.457977 78.021133 -0.000010 0.250172
159.185440 78.733147 -0.000008 0.318212
160.386093 79.228020 -0.000008 0.306706
161.270691 79.592621 -0.000007 0.248905
141.778915 71.762527 8.261614 0.703929
141.924622 71.821388 7.296179 0.205661
141.778915 71.762520 6.411703 0.721569
141.836121 71.785629 5.495013 0.717021
139.255096 70.742836 4.918539 0.716121
138.127609 70.287300 4.036274 0.333333
138.127609 70.287292 3.019589 0.117647
138.127609 70.287300 2.006167 0.133577
138.127625 70.287300 0.993832 0.130388
138.496796 70.436455 -0.000027 0.295354
149.845367 75.021584 -0.000017 0.301976
154.717682 76.990128 -0.000013 0.282872
157.431290 78.086494 -0.000010 0.310887
159.163696 78.786430 -0.000008 0.276234
160.367783 79.272911 -0.000007 0.300633
161.254898 79.631332 -0.000006 0.256062
141.778915 71.965210 8.242760 0.706676
141.924622 72.022896 7.280017 0.212177
141.778915 71.965210 6.398006 0.713115
141.836121 71.987854 5.483873 0.713298
139.178055 70.935455 4.918539 0.751675
138.127609 70.519554 4.029202 0.336965
138.127609 70.519547 3.015351 0.147646
138.127625 70.519554 2.004756 0.149020
138.127625 70.519554 0.995244 0.172412
138.417633 70.634384 -0.000027 0.288624
149.797943 75.140160 -0.000017 0.293721
154.683884 77.074646 -0.000012 0.272938
157.405075 78.152046 -0.000010 0.271321
159.142319 78.839867 -0.000008 0.333791
160.349777 79.317932 -0.000007 0.260243
161.239365 79.670151 -0.000006 0.321950
141.778915 72.166771 8.224336 0.690684
141.924622 72.223289 7.264225 0.203922
141.778915 72.166771 6.384624 0.709804
141.836121 72.188957 5.472987 0.707881
139.102341 71.128593 4.918542 0.735988
138.127609 70.750526 4.022292 0.347524
138.127609 70.750519 3.011210 0.169970
138.127625 70.750526 2.003376 0.190875
138.127625 70.750526 0.996623 0.201999
138.127625 70.750526 -0.011211 0.277256
149.751343 75.259071 -0.000017 0.287556
154.650665 77.159401 -0.000012 0.310414
157.379318 78.217773 -0.000010 0.277165
159.121323 78.893456 -0.000009 0.285740
160.332077 79.363075 -0.000008 0.376303
161.224121 79.709068 -0.000006 0.307774
141.778915 72.367249 8.206341 0.721569
141.924622 72.422600 7.248799 0.215686
141.778915 72.367249 6.371550 0.733333
141.836121 72.388977 5.462355 0.738659
139.027985 71.322273 4.918542 0.725200
138.127609 70.980247 4.015540 0.346319
138.127625 70.980255 3.007166 0.172549
138.127625 70.980255 2.002030 0.208057
138.127625 70.980255 0.997970 0.235294
138.127625 70.980255 -0.007166 0.254856
149.705566 75.378304 -0.000017 0.280827
154.618042 77.244377 -0.000013 0.295872
157.354019 78.283684 -0.000010 0.319066
159.100708 78.947182 -0.000008 0.333272
160.314713 79.408340 -0.000007 0.317205
161.209137 79.748100 -0.000007 0.304860
141.778915 72.566666 8.188766 0.731456
141.924622 72.620857 7.233732 0.206455
141.778915 72.566673 6.358784 0.726482
141.836121 72.587944 5.451971 0.738903
138.955002 71.516464 4.918542 0.729351
138.127625 71.208763 4.008948 0.346197
138.127625 71.208763 3.003216 0.180392
138.127609 71.208763 2.000714 0.222248
138.127609 71.208763 0.999286 0.279347
138.127625 71.208763 -0.003216 0.222065
149.660645 75.497856 -0.000017 0.300084
154.586014 77.329590 -0.000012 0.321126
157.329178 78.349762 -0.000010 0.272496
159.080444 79.001053 -0.000008 0.278157
160.297653 79.453728 -0.000007 0.258930
161.194427 79.787231 -0.000006 0.299794
141.778915 72.765053 8.171608 0.726162
141.924622 72.818085 7.219024 0.199329
141.778915 72.765060 6.346320 0.720470
141.836121 72.785873 5.441833 0.749050
138.883347 71.711151 4.918544 0.737789
138.127609 71.436089 4.002512 0.333333
138.127625 71.436089 2.999360 0.134524
138.127625 71.436089 1.999430 0.117647
138.127625 71.436089 1.000570 0.137072
138.127625 71.436089 0.000640 0.214405
149.616531 75.617714 -0.000017 0.300359
154.554581 77.415016 -0.000012 0.301518
157.304810 78.416016 -0.000010 0.289693
159.060577 79.055069 -0.000008 0.299733
160.280899 79.499229 -0.000007 0.305150
161.179993 79.826469 -0.000006 0.303838
141.778915 72.962433 8.154860 0.714855
141.924622 73.014313 7.204669 0.193256
141.778915 72.962433 6.334155 0.721569
141.836121 72.982803 5.431938 0.757351
138.813065 71.906342 4.918545 0.734249
138.127625 71.662262 3.996230 0.177691
138.127625 71.662262 2.995596 0.061769
138.127625 71.662262 1.998176 0.069352
138.127625 71.662262 1.001824 0.095033
138.127625 71.662262 0.004403 0.135912
149.573273 75.737877 -0.000017 0.285283
154.523743 77.500664 -0.000012 0.285054
157.280884 78.482437 -0.000010 0.335653
159.041077 79.109215 -0.000009 0.240620
160.264481 79.544853 -0.000007 0.287526
161.165817 79.865807 -0.000007 0.309895
141.924622 73.209572 8.099872 0.232471
141.924622 73.209572 7.190660 0.200336
141.778915 73.158836 6.322284 0.721569
141.836121 73.178757 5.422283 0.750179
138.744156 72.102020 4.918545 0.737255
138.127625 71.887321 3.990100 0.217670
138.127625 71.887321 2.991923 0.101564
138.127625 71.887321 1.996953 0.129305
138.127625 71.887321 1.003048 0.129305
138.127625 71.887321 0.008076 0.142718
149.530853 75.858345 -0.000017 0.295201
154.493515 77.586525 -0.000013 0.293950
157.257446 78.549026 -0.000010 0.320424
159.021973 79.163506 -0.000008 0.337942
160.248383 79.590584 -0.000007 0.258198
161.151932 79.905235 -0.000007 0.374731
141.924622 73.403885 8.084026 0.192157
141.924622 73.403885 7.176997 0.196338
141.778915 73.354279 6.310706 0.733791
141.836121 73.373756 5.412865 0.740566
138.676620 72.298172 4.918545 0.731014
138.127625 72.111282 3.984121 0.355383
138.127625 72.111282 2.988340 0.141131
138.127625 72.111282 1.995760 0.214847
138.127625 72.111282 1.004241 0.237736
138.127609 72.111275 0.011658 0.239017
149.489273 75.979103 -0.000017 0.278065
154.463882 77.672600 -0.000013 0.275257
157.234451 78.615776 -0.000010 0.295476
159.003235 79.217918 -0.000008 0.302480
160.232590 79.636429 -0.000007 0.296727
161.138336 79.944763 -0.000006 0.243122
141.924622 73.597275 8.068577 0.217151
141.924622 73.597275 7.163674 0.164721
141.778915 73.548805 6.299416 0.725246
141.836121 73.567833 5.403683 0.741176
138.610443 72.494797 4.918546 0.729351
138.127625 72.334183 3.978291 0.351415
138.127625 72.334183 2.984848 0.182269
138.127625 72.334183 1.994596 0.186572
138.127625 72.334183 1.005404 0.227527
138.127625 72.334175 0.015151 0.242008
149.448532 76.100143 -0.000017 0.289250
154.434845 77.758873 -0.000013 0.286503
157.211945 78.682693 -0.000010 0.351537
158.984879 79.272469 -0.000008 0.263951
160.217133 79.682381 -0.000007 0.359762
161.125000 79.984390 -0.000006 0.330388
141.924622 73.789764 8.053514 0.189731
141.924622 73.789764 7.150688 0.164996
141.778915 73.742424 6.288413 0.724605
141.836121 73.761009 5.394732 0.735042
138.545654 72.691864 4.918546 0.741436
138.127625 72.556046 3.972609 0.324880
138.127625 72.556046 2.981444 0.110704
138.127625 72.556046 1.993462 0.110704
138.127625 72.556046 1.006538 0.106889
138.127625 72.556046 0.018555 0.195132
149.408646 76.221474 -0.000017 0.283879
154.406403 77.845345 -0.000013 0.281880
157.189896 78.749756 -0.000010 0.290028
158.966888 79.327141 -0.000008 0.261524
160.201981 79.728439 -0.000007 0.313405
161.111938 80.024101 -0.000006 0.288014
141.884628 73.968697 8.049352 0.632227
141.884628 73.968697 7.147099 0.727581
141.778915 73.935165 6.277693 0.742992
141.836121 73.953308 5.386013 0.733333
138.482208 72.889389 4.918549 0.731838
138.127625 72.776909 3.967073 0.340185
138.127625 72.776909 2.978127 0.137255
138.127625 72.776901 1.992358 0.156237
138.127625 72.776901 1.007643 0.149844
138.127625 72.776909 0.021872 0.303761
149.369598 76.343079 -0.000017 0.292912
154.378586 77.932014 -0.000013 0.277943
157.168304 78.816971 -0.000010 0.258595
158.949295 79.381935 -0.000008 0.276310
160.187164 79.774605 -0.000007 0.320668
161.099152 80.063911 -0.000006 0.302556
141.924637 74.172165 8.024549 0.187655
141.924622 74.172165 7.125712 0.172549
141.778915 74.127060 6.267251 0.721614
141.836121 74.144768 5.377520 0.732006
138.420166 73.087349 4.918549 0.718517
138.127625 72.996796 3.961681 0.352422
138.127625 72.996796 2.974897 0.142489
138.127625 72.996796 1.991281 0.172549
138.127625 72.996796 1.008719 0.183017
138.127625 72.996796 0.025102 0.245548
149.331421 76.464951 -0.000017 0.299916
154.351364 78.018883 -0.000013 0.291737
157.147202 78.884338 -0.000010 0.261326
158.932098 79.436852 -0.000008 0.264469
160.172668 79.820877 -0.000007 0.264988
161.086655 80.103806 -0.000006 0.298558
141.924637 74.362114 8.010637 0.170764
141.924637 74.362114 7.113718 0.164324
141.778915 74.318123 6.257087 0.724285
141.778915 74.318123 5.378116 0.718807
141.778915 74.318123 4.507640 0.721569
141.778915 74.318123 3.643696 0.716335
141.778931 74.318123 2.784379 0.744976
141.778915 74.318123 1.927821 0.724651
141.778931 74.318123 1.072180 0.733333
141.778931 74.318123 0.215622 0.721569
149.294067 76.587082 -0.000017 0.279133
154.324753 78.105934 -0.000013 0.298482
157.126556 78.951851 -0.000010 0.272389
158.915268 79.491890 -0.000008 0.278126
160.158478 79.867241 -0.000007 0.323720
161.074432 80.143784 -0.000006 0.297581
141.924637 74.551270 7.997101 0.180209
141.924622 74.551270 7.102047 0.172915
141.778915 74.508385 6.247196 0.733333
141.836121 74.525215 5.361207 0.709804
141.778915 74.508385 4.501387 0.709804
141.778915 74.508385 3.639239 0.721889
141.778931 74.508385 2.781708 0.753262
141.778931 74.508385 1.926931 0.718486
141.836121 74.525215 1.074044 0.727825
141.778931 74.508385 0.218292 0.721569
149.257584 76.709473 -0.000017 0.316945
154.298737 78.193169 -0.000012 0.299199
157.106384 79.019501 -0.000010 0.295583
158.898819 79.547043 -0.000008 0.302266
160.144638 79.913712 -0.000007 0.331823
161.062485 80.183846 -0.000006 0.306188
141.924622 74.739647 7.983937 0.167590
141.924622 74.739639 7.090697 0.178592
141.778915 74.697861 6.237578 0.728237
141.836121 74.714264 5.353383 0.709804
141.778915 74.697861 4.495306 0.712047
141.778915 74.697861 3.634905 0.731075
141.778915 74.697861 2.779111 0.727169
141.778931 74.697861 1.926066 0.709804
141.836121 74.714264 1.074908 0.734325
141.778931 74.697861 0.220889 0.721569
149.221954 76.832123 -0.000017 0.303685
154.273346 78.280586 -0.000012 0.309346
157.086700 79.087296 -0.000010 0.274098
158.882767 79.602310 -0.000008 0.306081
160.131104 79.960266 -0.000007 0.268879
161.050827 80.223991 -0.000006 0.295430
141.924622 74.927269 7.971141 0.203922
141.924637 74.927269 7.079662 0.179599
141.778915 74.886581 6.228228 0.735759
141.836121 74.902557 5.345778 0.709804
141.778915 74.886581 4.489394 0.725750
141.778915 74.886581 3.630691 0.728634
141.778915 74.886581 2.776587 0.732876
141.778915 74.886581 1.925225 0.709804
141.836121 74.902557 1.075747 0.734478
141.778931 74.886581 0.223413 0.709804
149.187180 76.955009 -0.000017 0.298726
154.248566 78.368172 -0.000013 0.293263
157.067474 79.155228 -0.000010 0.288685
158.867096 79.657692 -0.000008 0.337209
160.117905 80.006920 -0.000007 0.351461
161.039444 80.264221 -0.000006 0.242741
141.924622 75.114159 7.958710 0.203922
141.924637 75.114159 7.068943 0.222583
141.778915 75.074570 6.219144 0.733059
141.836121 75.090111 5.338391 0.721569
141.778915 75.074570 4.483651 0.721569
141.778915 75.074570 3.626598 0.738903
141.778915 75.074570 2.774135 0.721569
141.778915 75.074570 1.924408 0.732006
141.836121 75.090118 1.076562 0.738201
141.778931 75.074570 0.225866 0.709804
149.153259 77.078140 -0.000017 0.277684
154.224380 78.455933 -0.000013 0.335225
157.048721 79.223289 -0.000010 0.267277
158.851807 79.713181 -0.000008 0.314488
160.105026 80.053665 -0.000007 0.295903
161.028336 80.304527 -0.000006 0.242191
141.924622 75.300346 7.946639 0.184619
141.924622 75.300346 7.058536 0.208148
141.778915 75.261848 6.210324 0.732006
141.836121 75.276962 5.331218 0.721569
141.778915 75.261848 4.478075 0.698039
141.778915 75.261848 3.622623 0.715358
141.778915 75.261848 2.771753 0.711086
141.778931 75.261848 1.923615 0.733333
141.836121 75.276962 1.077353 0.721569
141.778931 75.261848 0.228247 0.733333
149.120209 77.201500 -0.000017 0.288731
154.200836 78.543861 -0.000012 0.273091
157.030457 79.291481 -0.000010 0.290044
158.836914 79.768768 -0.000008 0.293660
160.092484 80.100502 -0.000007 0.296574
161.017517 80.344910 -0.000006 0.283055
141.924622 75.485847 7.934926 0.167452
141.924622 75.485847 7.048438 0.209979
141.778915 75.448433 6.201765 0.722393
141.836121 75.463127 5.324256 0.729061
141.778915 75.448433 4.472664 0.721569
141.778915 75.448433 3.618767 0.733333
141.778915 75.448433 2.769443 0.733333
141.778915 75.448433 1.922845 0.746593
141.836121 75.463120 1.078121 0.723918
141.778931 75.448441 0.230557 0.721569
149.088013 77.325096 -0.000017 0.283314
154.177887 78.631950 -0.000012 0.303975
157.012665 79.359795 -0.000010 0.303929
158.822418 79.824463 -0.000008 0.277501
160.080261 80.147423 -0.000007 0.310887
161.006973 80.385368 -0.000006 0.240299
141.924622 75.670685 7.923570 0.202686
141.924622 75.670685 7.038644 0.182513
141.778915 75.634354 6.193468 0.747433
141.836121 75.648613 5.317506 0.724926
141.778915 75.634354 4.467418 0.727871
141.778915 75.634354 3.615028 0.737652
141.778931 75.634354 2.767201 0.741497
141.778915 75.634354 1.922099 0.737743
141.836121 75.648613 1.078866 0.721569
141.778931 75.634354 0.232798 0.730617
149.056686 77.448906 -0.000017 0.293446
154.155548 78.720200 -0.000012 0.279133
156.995331 79.428238 -0.000010 0.297078
158.808289 79.880257 -0.000008 0.342000
160.068359 80.194427 -0.000007 0.325292
160.996719 80.425896 -0.000006 0.251408
141.924622 75.854874 7.912562 0.206271
141.924622 75.854874 7.029155 0.189807
141.778915 75.819626 6.185426 0.746197
141.836121 75.833466 5.310965 0.725963
141.778915 75.819626 4.462333 0.733333
141.778915 75.819626 3.611404 0.723171
141.924622 75.854874 2.757667 0.109972
141.924622 75.854874 1.918922 0.089799
141.836121 75.833466 1.079587 0.709804
141.778931 75.819626 0.234969 0.747890
149.026215 77.572937 -0.000017 0.295003
154.133835 78.808594 -0.000012 0.277272
156.978500 79.496796 -0.000010 0.299382
158.794571 79.936150 -0.000008 0.330816
160.056793 80.241516 -0.000007 0.327001
160.986755 80.466492 -0.000006 0.244541
141.924622 76.038452 7.901908 0.203922
141.924622 76.038452 7.019966 0.206455
141.778915 76.004272 6.177640 0.735714
141.836121 76.017693 5.304633 0.724697
141.778915 76.004280 4.457410 0.718395
141.778915 76.004280 3.607895 0.715358
141.924622 76.038452 2.755577 0.086275
141.924622 76.038452 1.918227 0.074968
141.836121 76.017693 1.080286 0.709804
141.778931 76.004280 0.237071 0.734401
148.996628 77.697174 -0.000017 0.284718
154.112747 78.897148 -0.000013 0.297322
156.962128 79.565468 -0.000010 0.352071
158.781219 79.992134 -0.000008 0.260761
160.045563 80.288681 -0.000007 0.273960
160.977066 80.507164 -0.000006 0.295872
141.924622 76.221420 7.891596 0.198413
141.924622 76.221420 7.011077 0.203922
141.778915 76.188324 6.170106 0.721019
141.836121 76.201317 5.298505 0.721569
141.778915 76.188324 4.452648 0.733333
141.836136 76.201317 3.599690 0.747005
141.924622 76.221420 2.753555 0.101152
141.924622 76.221420 1.917553 0.086275
141.836121 76.201317 1.080962 0.709804
141.778931 76.188324 0.239105 0.733333
148.967880 77.821617 -0.000017 0.281010
154.092270 78.985847 -0.000013 0.294163
156.946259 79.634254 -0.000010 0.274784
158.768280 80.048210 -0.000008 0.282399
160.034653 80.335922 -0.000007 0.322698
160.967667 80.547897 -0.000006 0.293019
141.924622 76.403816 7.881630 0.223529
141.924622 76.403816 7.002483 0.223529
141.778931 76.371780 6.162824 0.733333
141.836121 76.384361 5.292583 0.728878
141.778915 76.371780 4.448044 0.734401
141.836136 76.384361 3.596416 0.728786
141.924622 76.403816 2.751600 0.129412
141.924622 76.403816 1.916901 0.094118
141.836121 76.384361 1.081615 0.709804
141.778931 76.371780 0.241071 0.754131
148.940033 77.946259 -0.000017 0.283879
154.072403 79.074684 -0.000012 0.311086
156.930862 79.703156 -0.000010 0.255726
158.755722 80.104378 -0.000008 0.248463
160.024078 80.383240 -0.000007 0.313939
160.958542 80.588699 -0.000006 0.297795
141.924622 76.585655 7.872005 0.227939
141.924622 76.585655 6.994184 0.240711
141.778915 76.554680 6.155792 0.741176
141.836121 76.566841 5.286861 0.709804
141.778915 76.554680 4.443598 0.721569
141.836136 76.566841 3.593254 0.725704
141.924622 76.585655 2.749712 0.129412
141.924622 76.585655 1.916273 0.114061
141.836136 76.566841 1.082247 0.710674
141.778931 76.554680 0.242970 0.723598
148.913040 78.071083 -0.000017 0.289693
154.053177 79.163658 -0.000012 0.304372
156.915939 79.772156 -0.000010 0.274525
158.743561 80.160629 -0.000008 0.347921
160.013824 80.430634 -0.000007 0.274739
160.949707 80.629562 -0.000006 0.275608
141.924622 76.766945 7.862718 0.216403
141.924622 76.766945 6.986176 0.234897
141.778915 76.737038 6.149006 0.725658
141.836121 76.748779 5.281343 0.711086
141.778915 76.737038 4.439307 0.734829
141.836136 76.748779 3.590202 0.725109
141.924622 76.766945 2.747891 0.112047
141.924622 76.766945 1.915666 0.081819
141.836136 76.748779 1.082855 0.721477
141.778931 76.737038 0.244802 0.713893
148.886917 78.196098 -0.000017 0.291661
154.034561 79.252762 -0.000012 0.281025
156.901505 79.841263 -0.000010 0.292149
158.731796 80.216965 -0.000008 0.295491
160.003922 80.478096 -0.000007 0.245304
160.941162 80.670486 -0.000006 0.272450
141.924622 76.947723 7.853768 0.205112
141.924622 76.947723 6.978459 0.273793
141.778915 76.918869 6.142467 0.729427
141.836136 76.930199 5.276023 0.709804
141.778915 76.918869 4.435172 0.738674
141.836136 76.930199 3.587263 0.741176
141.924622 76.947723 2.746135 0.114565
141.924622 76.947723 1.915082 0.105882
141.836121 76.930199 1.083442 0.727504
141.778931 76.918877 0.246568 0.709895
