# This PCD file was generated using the MATLABÂ® pcwrite function
# from Computer Vision ToolboxÂ®.
# .PCD v.7 - Point Cloud Data file format
VERSION .7
FIELDS x y z intensity
SIZE 4 4 4 4
TYPE F F F F
COUNT 1 1 1 1
WIDTH 1252
HEIGHT 1
VIEWPOINT 0 0 0 1 0 0 0
POINTS 1252
DATA ascii
39.261066 18.688711 3.102073 0.721569
39.261066 18.688713 2.806057 0.705898
39.261066 18.688713 2.512901 0.698039
39.261066 18.688713 2.221946 0.721569
39.261066 18.688713 1.932548 0.733501
39.261066 18.688713 1.644080 0.736461
39.261066 18.688713 1.355920 0.721981
39.261066 18.688713 1.067452 0.733333
39.261066 18.688713 0.778054 0.702754
39.261066 18.688715 0.487099 0.733379
39.261066 18.688713 0.193943 0.733333
39.270756 19.249628 0.000004 0.272740
39.293182 20.548059 0.000003 0.232715
39.309704 21.504686 0.000003 0.318914
39.199581 18.688709 3.705788 0.680339
39.199581 18.688709 3.401914 0.680339
39.199581 18.688709 3.102305 0.680339
39.199581 18.688711 2.806246 0.650126
39.199581 18.688713 2.513048 0.698039
39.199581 18.688711 2.222051 0.650813
39.199581 18.688711 1.932611 0.672480
39.199581 18.688713 1.644100 0.620584
39.199581 18.688713 1.355899 0.640024
39.199581 18.688713 1.067389 0.591318
39.199581 18.688713 0.777950 0.648280
39.199581 18.688713 0.486952 0.625208
39.199581 18.688713 0.193754 0.666239
39.213215 19.250820 0.000004 0.319005
39.244709 20.549067 0.000003 0.341146
39.267910 21.505554 0.000003 0.284062
39.138073 18.688709 3.706215 0.764706
39.138073 18.688709 3.402282 0.757122
39.138073 18.688711 3.102616 0.738155
39.138073 18.688709 2.806499 0.757259
39.138073 18.688711 2.513245 0.762890
39.138073 18.688713 2.222190 0.764706
39.138073 18.688713 1.932695 0.755657
39.138073 18.688713 1.644129 0.764706
39.138073 18.688713 1.355871 0.764706
39.138073 18.688713 1.067305 0.763424
39.138073 18.688713 0.777810 0.764706
39.138073 18.688713 0.486756 0.757290
39.138073 18.688713 0.193501 0.758633
39.155685 19.252417 0.000004 0.268208
39.196239 20.550411 0.000003 0.274296
39.226116 21.506714 0.000002 0.314199
39.076542 18.688709 3.706750 0.762356
39.076542 18.688711 3.402743 0.758358
39.076542 18.688709 3.103005 0.733333
39.076542 18.688711 2.806816 0.760937
39.076542 18.688711 2.513490 0.759625
39.076542 18.688713 2.222365 0.753262
39.076542 18.688713 1.932800 0.741176
39.076542 18.688713 1.644163 0.756451
39.076542 18.688713 1.355837 0.763836
39.076542 18.688713 1.067201 0.751019
39.076542 18.688713 0.777634 0.756451
39.076542 18.688713 0.486510 0.761196
39.076542 18.688713 0.193184 0.762676
39.098171 19.254414 0.000004 0.277241
39.147785 20.552094 0.000003 0.261128
39.184338 21.508163 0.000002 0.267582
39.014973 18.688709 3.707394 0.723476
39.014973 18.688709 3.403298 0.734661
39.014973 18.688709 3.103472 0.731289
39.014973 18.688711 2.807197 0.742367
39.014973 18.688711 2.513785 0.753536
39.014973 18.688713 2.222576 0.757824
39.014973 18.688713 1.932926 0.758679
39.014973 18.688711 1.644205 0.731289
39.014973 18.688713 1.355795 0.752544
39.014973 18.688713 1.067074 0.742870
39.014973 18.688713 0.777424 0.741176
39.014973 18.688711 0.486214 0.728130
39.014973 18.688713 0.192803 0.731289
39.040668 19.256813 0.000004 0.247639
39.099339 20.554113 0.000003 0.324880
39.142567 21.509907 0.000002 0.291325
38.953369 18.688709 3.708144 0.733333
38.953369 18.688711 3.403945 0.729381
38.953369 18.688713 3.104017 0.721614
38.953369 18.688713 2.807642 0.733333
38.953369 18.688711 2.514131 0.731929
38.953369 18.688713 2.222822 0.736156
38.953369 18.688713 1.933073 0.736385
38.953369 18.688713 1.644255 0.725750
38.953369 18.688713 1.355745 0.721569
38.953369 18.688713 1.066927 0.724910
38.953369 18.688713 0.777178 0.732525
38.953369 18.688713 0.485870 0.729732
38.953369 18.688713 0.192358 0.738598
38.983185 19.259615 0.000004 0.256214
39.050911 20.556473 0.000003 0.303822
39.100811 21.511940 0.000002 0.262821
38.891720 18.688709 3.709003 0.744900
38.891720 18.688709 3.404686 0.761440
38.891720 18.688709 3.104641 0.746685
38.891720 18.688711 2.808151 0.752941
38.891720 18.688711 2.514525 0.752941
38.891720 18.688711 2.223103 0.761944
38.891720 18.688711 1.933241 0.755703
38.891720 18.688713 1.644310 0.753475
38.891720 18.688713 1.355689 0.755703
38.891720 18.688713 1.066759 0.749630
38.891720 18.688713 0.776897 0.772656
38.891720 18.688713 0.485475 0.755245
38.891720 18.688713 0.191850 0.751385
38.925720 19.262814 0.000003 0.293385
39.002499 20.559170 0.000003 0.293065
39.059067 21.514267 0.000002 0.282277
38.830017 18.688709 3.709971 0.753384
38.830017 18.688709 3.405521 0.768124
38.830017 18.688709 3.105344 0.764706
38.830017 18.688709 2.808723 0.764263
38.830017 18.688709 2.514970 0.752941
38.830017 18.688711 2.223420 0.765072
38.830017 18.688709 1.933431 0.752209
38.830017 18.688711 1.644374 0.764706
38.830017 18.688713 1.355626 0.763394
38.830017 18.688711 1.066569 0.764157
38.830017 18.688713 0.776580 0.762753
38.830017 18.688711 0.485031 0.762982
38.830017 18.688711 0.191276 0.753536
38.868282 19.266417 0.000003 0.298787
38.954109 20.562206 0.000003 0.308721
39.017345 21.516884 0.000002 0.250233
38.768257 18.688709 3.711047 0.757259
38.768257 18.688709 3.406449 0.760433
38.768257 18.688709 3.106126 0.764706
38.768257 18.688709 2.809361 0.768612
38.768257 18.688709 2.515464 0.752636
38.768257 18.688713 2.223772 0.775601
38.768257 18.688711 1.933642 0.752941
38.768257 18.688713 1.644444 0.756130
38.768257 18.688713 1.355556 0.752941
38.768257 18.688711 1.066358 0.752529
38.768257 18.688713 0.776228 0.751217
38.768257 18.688711 0.484536 0.764706
38.768257 18.688713 0.190639 0.764523
38.810867 19.270422 0.000003 0.250690
38.905743 20.565578 0.000002 0.337835
38.975639 21.519791 0.000002 0.268376
38.706436 18.688709 3.712232 0.678431
38.706436 18.688709 3.407471 0.673167
38.706436 18.688709 3.106987 0.694743
38.706436 18.688709 2.810063 0.678431
38.706436 18.688711 2.516008 0.694743
38.706436 18.688713 2.224160 0.694499
38.706436 18.688713 1.933875 0.698726
38.706436 18.688713 1.644522 0.674449
38.706436 18.688713 1.355478 0.673167
38.706436 18.688713 1.066125 0.687465
38.706436 18.688713 0.775840 0.692042
38.706436 18.688713 0.483992 0.678431
38.706436 18.688713 0.189937 0.679393
38.753487 19.274826 0.000003 0.267308
38.857399 20.569288 0.000002 0.260227
38.933956 21.522991 0.000002 0.295766
38.644547 18.688709 3.713527 0.709804
38.644547 18.688709 3.408587 0.711025
38.644547 18.688709 3.107928 0.716884
38.644547 18.688709 2.810829 0.713390
38.644547 18.688709 2.516603 0.715892
38.644547 18.688711 2.224584 0.717815
38.644547 18.688713 1.934128 0.701625
38.644547 18.688711 1.644606 0.716075
38.644547 18.688711 1.355394 0.682246
38.644547 18.688713 1.065871 0.727504
38.644547 18.688713 0.775416 0.720455
38.644547 18.688713 0.483397 0.710948
38.644547 18.688713 0.189171 0.711543
38.696133 19.279631 0.000003 0.314687
38.809082 20.573336 0.000002 0.286442
38.892296 21.526482 0.000002 0.266987
38.582577 18.688709 3.714931 0.756848
38.582577 18.688709 3.409797 0.757656
38.582577 18.688711 3.108947 0.764385
38.582577 18.688709 2.811661 0.747509
38.582577 18.688709 2.517248 0.752941
38.582577 18.688711 2.225043 0.759197
38.582577 18.688713 1.934404 0.759060
38.582577 18.688713 1.644698 0.752682
38.582577 18.688713 1.355302 0.754314
38.582577 18.688713 1.065596 0.771237
38.582577 18.688711 0.774956 0.759152
38.582577 18.688713 0.482753 0.737713
38.582577 18.688713 0.188339 0.759518
38.638817 19.284834 0.000003 0.289006
38.760792 20.577721 0.000002 0.260258
38.850658 21.530262 0.000002 0.309743
38.520531 18.688709 3.716445 0.764706
38.520531 18.688709 3.411102 0.751064
38.520531 18.688709 3.110047 0.757992
38.520531 18.688709 2.812558 0.760250
38.520531 18.688711 2.517943 0.762829
38.520531 18.688709 2.225539 0.752483
38.520531 18.688709 1.934701 0.750957
38.520531 18.688713 1.644797 0.754620
38.520531 18.688713 1.355203 0.775982
38.520531 18.688709 1.065299 0.749126
38.520531 18.688713 0.774461 0.764706
38.520531 18.688713 0.482057 0.765377
38.520531 18.688711 0.187443 0.758877
38.581539 19.290440 0.000003 0.323949
38.712540 20.582443 0.000002 0.258640
38.809052 21.534334 0.000002 0.249638
38.458393 18.688709 3.718069 0.768063
38.458393 18.688709 3.412503 0.770336
38.458393 18.688709 3.111227 0.749126
38.458393 18.688709 2.813519 0.769390
38.458393 18.688711 2.518689 0.768063
38.458393 18.688711 2.226071 0.776471
38.458393 18.688713 1.935019 0.773022
38.458393 18.688713 1.644903 0.735576
38.458393 18.688713 1.355097 0.768063
38.458393 18.688711 1.064981 0.755245
38.458393 18.688713 0.773929 0.753063
38.458393 18.688713 0.481312 0.757992
38.458393 18.688711 0.186481 0.762753
38.524303 19.296444 0.000003 0.290181
38.664318 20.587502 0.000002 0.239841
38.767475 21.538696 0.000001 0.292515
38.396164 18.688709 3.719804 0.730510
38.396164 18.688709 3.413999 0.740017
38.396164 18.688709 3.112487 0.724392
38.396164 18.688709 2.814547 0.721904
38.396164 18.688709 2.519485 0.738750
38.396164 18.688711 2.226639 0.724483
38.396164 18.688709 1.935359 0.713298
38.396164 18.688711 1.645016 0.740017
38.396164 18.688711 1.354984 0.741054
38.396164 18.688711 1.064640 0.739040
38.396164 18.688713 0.773361 0.718853
38.396164 18.688709 0.480515 0.713298
38.396164 18.688711 0.185454 0.739178
38.467110 19.302851 0.000003 0.269871
38.616135 20.592899 0.000002 0.238697
38.725929 21.543348 0.000001 0.353979
38.333832 18.688709 3.721649 0.678431
38.333832 18.688709 3.415591 0.678798
38.333832 18.688709 3.113828 0.648722
38.333832 18.688709 2.815639 0.678676
38.333832 18.688711 2.520333 0.678798
38.333832 18.688709 2.227242 0.668788
38.333832 18.688709 1.935722 0.678431
38.333832 18.688709 1.645137 0.678431
38.333832 18.688709 1.354863 0.678660
38.333832 18.688711 1.064278 0.678798
38.333832 18.688711 0.772757 0.678431
38.333832 18.688713 0.479667 0.678630
38.333832 18.688713 0.184361 0.677714
38.409958 19.309652 0.000003 0.279759
38.567986 20.598629 0.000002 0.332647
38.684414 21.548290 0.000001 0.272084
38.271393 18.688705 3.723607 0.764019
38.271393 18.688709 3.417278 0.762295
38.271397 18.688709 3.115250 0.763333
38.271397 18.688709 2.816799 0.758404
38.271397 18.688709 2.521232 0.752941
38.271397 18.688709 2.227883 0.753170
38.271397 18.688711 1.936105 0.771008
38.271397 18.688709 1.645265 0.761074
38.271397 18.688709 1.354735 0.764706
38.271397 18.688713 1.063894 0.764706
38.271397 18.688709 0.772116 0.737697
38.271397 18.688711 0.478768 0.752758
38.271397 18.688711 0.183202 0.758968
38.352859 19.316856 0.000002 0.286473
38.519882 20.604698 0.000002 0.251514
38.642937 21.553522 0.000001 0.262196
38.208843 18.688709 3.725677 0.746319
38.208843 18.688709 3.419062 0.755535
38.208843 18.688709 3.116753 0.753262
38.208843 18.688709 2.818024 0.750820
38.208843 18.688709 2.522183 0.753841
38.208843 18.688713 2.228561 0.753491
38.208843 18.688711 1.936512 0.762753
38.208843 18.688713 1.645400 0.761349
38.208847 18.688713 1.354600 0.761669
38.208847 18.688713 1.063488 0.758038
38.208847 18.688713 0.771439 0.752865
38.208847 18.688713 0.477818 0.735943
38.208843 18.688711 0.181976 0.762829
38.295811 19.324455 0.000002 0.266850
38.471821 20.611101 0.000002 0.274601
38.601498 21.559042 0.000001 0.303258
38.146175 18.688709 3.727858 0.689769
38.146175 18.688709 3.420944 0.700587
38.146175 18.688709 3.118338 0.685237
38.146175 18.688709 2.819316 0.686091
38.146175 18.688711 2.523184 0.702998
38.146175 18.688709 2.229275 0.702083
38.146175 18.688713 1.936939 0.682170
38.146175 18.688711 1.645542 0.668879
38.146175 18.688713 1.354458 0.684871
38.146175 18.688713 1.063061 0.677867
38.146175 18.688709 0.770725 0.669322
38.146175 18.688713 0.476816 0.641917
38.146175 18.688711 0.180684 0.683162
38.238819 19.332455 0.000002 0.313298
38.423805 20.617838 0.000001 0.302892
38.560097 21.564854 0.000001 0.285817
38.083378 18.688709 3.730153 0.732479
38.083378 18.688709 3.422922 0.736767
38.083378 18.688709 3.120005 0.716426
38.083378 18.688709 2.820675 0.736767
38.083378 18.688709 2.524239 0.735088
38.083378 18.688709 2.230026 0.723033
38.083378 18.688711 1.937389 0.732952
38.083378 18.688711 1.645692 0.716426
38.083378 18.688713 1.354308 0.704662
38.083378 18.688711 1.062610 0.720806
38.083378 18.688709 0.769974 0.733730
38.083378 18.688711 0.475762 0.717952
38.083378 18.688713 0.179325 0.669581
38.181881 19.340851 0.000002 0.298329
38.375839 20.624916 0.000002 0.370169
38.518738 21.570953 0.000001 0.311696
38.020451 18.688709 3.732562 0.772976
38.020451 18.688709 3.424999 0.772976
38.020451 18.688709 3.121754 0.744015
38.020451 18.688709 2.822102 0.772976
38.020451 18.688709 2.525345 0.775662
38.020451 18.688709 2.230815 0.772976
38.020451 18.688709 1.937862 0.765988
38.020451 18.688713 1.645850 0.767697
38.020451 18.688713 1.354150 0.744991
38.020451 18.688711 1.062138 0.755291
38.020451 18.688711 0.769185 0.772168
38.020451 18.688713 0.474655 0.738842
38.020451 18.688711 0.177899 0.772976
38.125008 19.349646 0.000002 0.329320
38.327923 20.632322 0.000002 0.347784
38.477421 21.577339 0.000001 0.336873
37.957378 18.688707 3.735085 0.761852
37.957378 18.688707 3.427175 0.752590
37.957378 18.688709 3.123588 0.749126
37.957378 18.688709 2.823596 0.756390
37.957378 18.688709 2.526504 0.769024
37.957378 18.688709 2.231641 0.753109
37.957378 18.688709 1.938357 0.755611
37.957378 18.688709 1.646014 0.763256
37.957378 18.688709 1.353986 0.763012
37.957378 18.688709 1.061643 0.747311
37.957378 18.688711 0.768359 0.755703
37.957378 18.688711 0.473496 0.764706
37.957378 18.688711 0.176404 0.764706
38.068192 19.358835 0.000002 0.283268
38.280056 20.640064 0.000001 0.261479
38.436150 21.584019 0.000001 0.249165
37.894165 18.688709 3.737723 0.741238
37.894165 18.688709 3.429449 0.764706
37.894165 18.688709 3.125504 0.764706
37.894165 18.688709 2.825158 0.763699
37.894165 18.688709 2.527715 0.743862
37.894165 18.688709 2.232504 0.753033
37.894165 18.688709 1.938874 0.762890
37.894165 18.688709 1.646187 0.752895
37.894165 18.688709 1.353813 0.764660
37.894165 18.688711 1.061126 0.747936
37.894165 18.688711 0.767496 0.776379
37.894165 18.688711 0.472285 0.752941
37.894165 18.688711 0.174842 0.762219
38.011444 19.368423 0.000002 0.263752
38.232250 20.648144 0.000001 0.316854
38.394928 21.590982 0.000001 0.285389
37.830799 18.688707 3.740476 0.714580
37.830799 18.688709 3.431823 0.721996
37.830799 18.688709 3.127503 0.724330
37.830799 18.688709 2.826789 0.719127
37.830799 18.688709 2.528980 0.712062
37.830799 18.688709 2.233405 0.719921
37.830799 18.688711 1.939414 0.723964
37.830799 18.688709 1.646367 0.724330
37.830799 18.688709 1.353633 0.724330
37.830799 18.688713 1.060586 0.730114
37.830799 18.688709 0.766594 0.726925
37.830799 18.688711 0.471020 0.720287
37.830799 18.688709 0.173212 0.715969
37.954765 19.378407 0.000002 0.263676
38.184498 20.656549 0.000001 0.299428
38.353756 21.598232 0.000000 0.251575
37.767273 18.688707 3.743346 0.691539
37.767273 18.688709 3.434298 0.687251
37.767273 18.688709 3.129589 0.678431
37.767273 18.688709 2.828487 0.688792
37.767273 18.688709 2.530297 0.678431
37.767273 18.688709 2.234345 0.678431
37.767273 18.688709 1.939977 0.685374
37.767273 18.688709 1.646554 0.687251
37.767273 18.688709 1.353446 0.687251
37.767273 18.688711 1.060023 0.680812
37.767273 18.688709 0.765655 0.682536
37.767273 18.688713 0.469703 0.709804
37.767273 18.688711 0.171512 0.694636
37.898159 19.388784 0.000002 0.338155
38.136810 20.665297 0.000001 0.338781
38.312634 21.605772 0.000000 0.260136
37.703583 18.688707 3.746332 0.764706
37.703583 18.688709 3.436873 0.753902
37.703583 18.688709 3.131758 0.758541
37.703583 18.688707 2.830256 0.761532
37.703583 18.688709 2.531669 0.764706
37.703583 18.688709 2.235322 0.752026
37.703583 18.688709 1.940563 0.750088
37.703583 18.688709 1.646749 0.757076
37.703583 18.688709 1.353251 0.757488
37.703583 18.688711 1.059437 0.757855
37.703583 18.688709 0.764677 0.751019
37.703583 18.688709 0.468331 0.760159
37.703583 18.688709 0.169744 0.763607
37.841621 19.399559 0.000002 0.257496
38.089180 20.674372 0.000001 0.318425
38.271568 21.613598 0.000000 0.275944
37.639717 18.688707 3.749437 0.752941
37.639717 18.688709 3.439550 0.757259
37.639717 18.688709 3.134013 0.758221
37.639717 18.688709 2.832095 0.752941
37.639717 18.688709 2.533095 0.776471
37.639717 18.688709 2.236339 0.764706
37.639717 18.688709 1.941172 0.758968
37.639717 18.688709 1.646952 0.764706
37.639717 18.688709 1.353048 0.763653
37.639717 18.688709 1.058828 0.743160
37.639717 18.688709 0.763661 0.751476
37.639717 18.688709 0.466905 0.764706
37.639717 18.688709 0.167905 0.757351
37.785164 19.410727 0.000002 0.265232
38.041615 20.683781 0.000001 0.283040
38.230556 21.621710 0.000000 0.402289
37.575672 18.688705 3.752661 0.704448
37.575672 18.688705 3.442328 0.710353
37.575672 18.688707 3.136354 0.701793
37.575672 18.688705 2.834004 0.695888
37.575672 18.688709 2.534575 0.657374
37.575672 18.688709 2.237394 0.692683
37.575672 18.688709 1.941803 0.696513
37.575672 18.688709 1.647163 0.724025
37.575672 18.688709 1.352837 0.709773
37.575676 18.688711 1.058196 0.703151
37.575672 18.688709 0.762606 0.704448
37.575672 18.688709 0.465425 0.724025
37.575672 18.688709 0.165996 0.704448
37.728786 19.422287 0.000002 0.276432
37.994118 20.693521 0.000001 0.249439
38.189602 21.630110 0.000000 0.294697
37.511440 18.688705 3.756002 0.740566
37.511440 18.688707 3.445210 0.740169
37.511440 18.688709 3.138782 0.738643
37.511440 18.688709 2.835983 0.732601
37.511440 18.688709 2.536110 0.733333
37.511440 18.688709 2.238488 0.733333
37.511440 18.688709 1.942459 0.733333
37.511440 18.688711 1.647381 0.733333
37.511440 18.688711 1.352619 0.733333
37.511440 18.688711 1.057541 0.741176
37.511440 18.688709 0.761512 0.733333
37.511440 18.688713 0.463890 0.740169
37.511440 18.688711 0.164018 0.733333
37.672489 19.434240 0.000001 0.260151
37.946690 20.703592 0.000001 0.285985
38.148708 21.638794 0.000000 0.285740
37.447014 18.688707 3.759465 0.764431
37.447014 18.688707 3.448196 0.742504
37.447018 18.688709 3.141296 0.753353
37.447018 18.688709 2.838033 0.747662
37.447014 18.688709 2.537701 0.753017
37.447014 18.688709 2.239621 0.752987
37.447014 18.688709 1.943138 0.764523
37.447018 18.688709 1.647607 0.761425
37.447018 18.688709 1.352393 0.763882
37.447018 18.688709 1.056862 0.757885
37.447018 18.688709 0.760379 0.761379
37.447018 18.688709 0.462300 0.764294
37.447018 18.688713 0.161967 0.764706
37.616276 19.446590 0.000001 0.290166
37.899330 20.713995 0.000001 0.304036
38.107876 21.647762 0.000000 0.300359
37.382389 18.688705 3.763049 0.764019
37.382389 18.688709 3.451286 0.752941
37.382389 18.688709 3.143900 0.735042
37.382389 18.688707 2.840156 0.765667
37.382389 18.688709 2.539346 0.764340
37.382389 18.688709 2.240794 0.764706
37.382389 18.688709 1.943841 0.759426
37.382389 18.688709 1.647841 0.759838
37.382389 18.688709 1.352159 0.752941
37.382389 18.688709 1.056159 0.762631
37.382389 18.688711 0.759206 0.750088
37.382389 18.688711 0.460654 0.764706
37.382389 18.688709 0.159845 0.761578
37.560154 19.459332 0.000001 0.329870
37.852051 20.724730 0.000001 0.262058
38.067104 21.657017 -0.000000 0.246128
37.317554 18.688709 3.766753 0.758129
37.317554 18.688707 3.454481 0.772107
37.317554 18.688709 3.146592 0.758846
37.317554 18.688709 2.842350 0.752941
37.317554 18.688709 2.541049 0.754177
37.317554 18.688709 2.242007 0.752941
37.317554 18.688709 1.944568 0.764706
37.317554 18.688709 1.648083 0.761654
37.317554 18.688709 1.351916 0.760021
37.317554 18.688709 1.055432 0.752941
37.317554 18.688709 0.757992 0.762387
37.317554 18.688709 0.458952 0.776379
37.317554 18.688709 0.157650 0.764706
37.504120 19.472462 0.000001 0.246906
37.804844 20.735790 0.000000 0.242008
38.026402 21.666555 0.000000 0.316640
37.252502 18.688707 3.770583 0.727642
37.252502 18.688707 3.457782 0.727871
37.252502 18.688709 3.149373 0.723079
37.252502 18.688709 2.844617 0.727642
37.252502 18.688709 2.542807 0.728511
37.252502 18.688709 2.243261 0.725841
37.252502 18.688709 1.945319 0.668925
37.252502 18.688709 1.648334 0.723949
37.252502 18.688709 1.351666 0.733333
37.252502 18.688709 1.054681 0.706416
37.252502 18.688709 0.756739 0.713161
37.252502 18.688711 0.457194 0.710170
37.252502 18.688711 0.155383 0.723491
37.448177 19.485983 0.000001 0.251926
37.757713 20.747183 0.000000 0.265324
37.985764 21.676378 -0.000000 0.225071
37.187229 18.688705 3.774536 0.699184
37.187229 18.688705 3.461191 0.713207
37.187229 18.688709 3.152244 0.733242
37.187229 18.688709 2.846958 0.713207
37.187229 18.688709 2.544622 0.713207
37.187229 18.688709 2.244555 0.713207
37.187229 18.688709 1.946094 0.697353
37.187229 18.688709 1.648592 0.691798
37.187229 18.688709 1.351408 0.672511
37.187229 18.688709 1.053906 0.713207
37.187229 18.688709 0.755445 0.700496
37.187229 18.688709 0.455378 0.669123
37.187229 18.688709 0.153042 0.714824
37.392334 19.499897 0.000001 0.337530
37.710667 20.758904 0.000000 0.327565
37.945198 21.686485 -0.000000 0.271168
37.121723 18.688705 3.778613 0.762264
37.121723 18.688707 3.464707 0.752941
37.121723 18.688709 3.155207 0.768841
37.121723 18.688707 2.849373 0.753994
37.121723 18.688709 2.546494 0.759152
37.121723 18.688709 2.245890 0.761212
37.121723 18.688709 1.946894 0.751812
37.121723 18.688709 1.648858 0.762264
37.121723 18.688709 1.351142 0.753948
37.121723 18.688711 1.053106 0.740551
37.121723 18.688709 0.754110 0.751675
37.121723 18.688711 0.453506 0.752941
37.121723 18.688709 0.150628 0.762264
37.336586 19.514198 0.000001 0.303090
37.663700 20.770954 0.000000 0.247822
37.904705 21.696875 -0.000000 0.239002
37.055981 18.688707 3.782817 0.750134
37.055981 18.688709 3.468330 0.752667
37.055981 18.688709 3.158260 0.756619
37.055981 18.688709 2.851862 0.747799
37.055981 18.688709 2.548425 0.751019
37.055981 18.688709 2.247265 0.764706
37.055981 18.688709 1.947718 0.752941
37.055981 18.688711 1.649133 0.764340
37.055981 18.688711 1.350867 0.752987
37.055981 18.688709 1.052282 0.762219
37.055981 18.688709 0.752734 0.752804
37.055981 18.688713 0.451575 0.752483
37.055981 18.688709 0.148138 0.764385
37.280941 19.528889 0.000001 0.266239
37.616821 20.783329 0.000000 0.251621
37.864285 21.707546 -0.000000 0.310933
36.989990 18.688705 3.787148 0.678431
36.989990 18.688705 3.472065 0.698192
36.989990 18.688707 3.161407 0.678431
36.989990 18.688709 2.854427 0.678431
36.989990 18.688709 2.550415 0.678431
36.989990 18.688709 2.248683 0.678431
36.989990 18.688709 1.948568 0.678431
36.989990 18.688709 1.649416 0.706493
36.989990 18.688709 1.350584 0.709804
36.989990 18.688709 1.051432 0.678431
36.989990 18.688709 0.751317 0.678431
36.989990 18.688711 0.449586 0.678309
36.989990 18.688711 0.145574 0.650355
37.225399 19.543966 0.000001 0.315831
37.570030 20.796034 0.000000 0.290135
37.823936 21.718500 -0.000000 0.391775
36.923744 18.688705 3.791607 0.706630
36.923744 18.688707 3.475910 0.699336
36.923744 18.688709 3.164646 0.712978
36.923744 18.688707 2.857068 0.712978
36.923744 18.688707 2.552463 0.723964
36.923748 18.688709 2.250143 0.703899
36.923744 18.688709 1.949442 0.702220
36.923748 18.688709 1.649707 0.721538
36.923748 18.688709 1.350293 0.695476
36.923748 18.688709 1.050558 0.714885
36.923748 18.688711 0.749857 0.740490
36.923748 18.688709 0.447538 0.712276
36.923748 18.688709 0.142933 0.684245
37.169964 19.559433 0.000001 0.271412
37.523327 20.809063 -0.000000 0.342336
37.783669 21.729734 -0.000000 0.268742
36.857239 18.688707 3.796196 0.755703
36.857239 18.688709 3.479867 0.753216
36.857239 18.688709 3.167979 0.765805
36.857239 18.688707 2.859785 0.765164
36.857239 18.688709 2.554570 0.754086
36.857239 18.688709 2.251645 0.758358
36.857239 18.688709 1.950342 0.755428
36.857243 18.688711 1.650007 0.764706
36.857243 18.688711 1.349993 0.758221
36.857239 18.688709 1.049658 0.764706
36.857239 18.688709 0.748355 0.766964
36.857243 18.688711 0.445430 0.752941
36.857239 18.688709 0.140215 0.763058
37.114639 19.575287 0.000001 0.273793
37.476715 20.822420 -0.000000 0.252811
37.743481 21.741249 -0.000000 0.264164
36.790462 18.688705 3.800916 0.764706
36.790466 18.688709 3.483936 0.757809
36.790462 18.688707 3.171408 0.764706
36.790462 18.688709 2.862580 0.764706
36.790466 18.688709 2.556738 0.765164
36.790462 18.688707 2.253190 0.761578
36.790466 18.688709 1.951268 0.753124
36.790466 18.688709 1.650315 0.752041
36.790466 18.688709 1.349685 0.757488
36.790466 18.688711 1.048732 0.759838
36.790466 18.688709 0.746810 0.746349
36.790466 18.688709 0.443263 0.764706
36.790466 18.688709 0.137420 0.760937
37.059425 19.591526 0.000001 0.309621
37.430202 20.836100 -0.000000 0.238544
37.703373 21.753046 -0.000001 0.290028
36.723408 18.688705 3.805768 0.726711
36.723408 18.688705 3.488120 0.733333
36.723408 18.688705 3.174932 0.730388
36.723408 18.688707 2.865453 0.754910
36.723408 18.688707 2.558966 0.729931
36.723408 18.688707 2.254778 0.719066
36.723408 18.688707 1.952219 0.746288
36.723408 18.688707 1.650632 0.737911
36.723408 18.688707 1.349368 0.735317
36.723408 18.688709 1.047781 0.730388
36.723408 18.688709 0.745221 0.700710
36.723408 18.688709 0.441034 0.758831
36.723408 18.688709 0.134547 0.698756
37.004326 19.608149 0.000000 0.294163
37.383781 20.850105 -0.000000 0.251057
37.663345 21.765121 -0.000001 0.257023
36.656067 18.688707 3.810752 0.729015
36.656067 18.688707 3.492418 0.732097
36.656067 18.688705 3.178553 0.733333
36.656067 18.688709 2.868406 0.732372
36.656067 18.688707 2.561255 0.738903
36.656067 18.688707 2.256410 0.738033
36.656067 18.688709 1.953197 0.703746
36.656067 18.688709 1.650958 0.715038
36.656067 18.688709 1.349042 0.737194
36.656067 18.688709 1.046803 0.712108
36.656067 18.688709 0.743590 0.721569
36.656067 18.688709 0.438745 0.689311
36.656071 18.688711 0.131595 0.721569
36.949345 19.625156 0.000000 0.265354
37.337463 20.864435 -0.000000 0.385245
37.623409 21.777475 -0.000001 0.245533
36.588432 18.688705 3.815873 0.734203
36.588432 18.688707 3.496833 0.752941
36.588432 18.688705 3.182272 0.763104
36.588432 18.688709 2.871437 0.753307
36.588432 18.688707 2.563607 0.776471
36.588432 18.688709 2.258086 0.754543
36.588432 18.688709 1.954201 0.752941
36.588432 18.688709 1.651292 0.776471
36.588432 18.688709 1.348708 0.776471
36.588432 18.688709 1.045799 0.771603
36.588432 18.688709 0.741914 0.736156
36.588432 18.688709 0.436393 0.742138
36.588432 18.688709 0.128563 0.755245
36.894485 19.642548 0.000000 0.302647
37.291245 20.879087 -0.000000 0.321584
37.583557 21.790110 -0.000001 0.310719
36.520489 18.688705 3.821129 0.739178
36.520489 18.688705 3.501365 0.764706
36.520489 18.688709 3.186090 0.764706
36.520489 18.688707 2.874550 0.744167
36.520489 18.688709 2.566021 0.756115
36.520489 18.688709 2.259806 0.766079
36.520489 18.688709 1.955232 0.758923
36.520489 18.688709 1.651636 0.756069
36.520489 18.688709 1.348364 0.761303
36.520493 18.688709 1.044768 0.764706
36.520493 18.688709 0.740193 0.734066
36.520493 18.688709 0.433979 0.756390
36.520493 18.688709 0.125450 0.766964
36.839745 19.660326 0.000000 0.342260
37.245125 20.894060 -0.000000 0.261021
37.543793 21.803022 -0.000001 0.240452
36.452236 18.688705 3.826522 0.741176
36.452236 18.688705 3.506015 0.776471
36.452240 18.688707 3.190008 0.776471
36.452236 18.688705 2.877744 0.776471
36.452240 18.688707 2.568498 0.776471
36.452240 18.688709 2.261572 0.776471
36.452240 18.688709 1.956290 0.776471
36.452240 18.688709 1.651988 0.776471
36.452240 18.688709 1.348012 0.776471
36.452240 18.688709 1.043710 0.776471
36.452240 18.688709 0.738428 0.741176
36.452240 18.688709 0.431502 0.741176
36.452240 18.688709 0.122256 0.776471
36.785133 19.678480 0.000000 0.274464
37.199116 20.909355 -0.000000 0.309194
37.504124 21.816212 -0.000001 0.238422
36.383663 18.688705 3.832055 0.733333
36.383663 18.688705 3.510786 0.733333
36.383663 18.688705 3.194027 0.731258
36.383663 18.688707 2.881021 0.736553
36.383663 18.688709 2.571039 0.737469
36.383663 18.688709 2.263383 0.723217
36.383663 18.688709 1.957375 0.733333
36.383663 18.688709 1.652350 0.733333
36.383663 18.688709 1.347651 0.722026
36.383663 18.688709 1.042625 0.721569
36.383663 18.688709 0.736617 0.713024
36.383663 18.688709 0.428961 0.722896
36.383663 18.688709 0.118980 0.722347
36.730644 19.697018 0.000000 0.315908
37.153214 20.924973 -0.000000 0.326528
37.464542 21.829674 -0.000001 0.250751
36.314758 18.688705 3.837728 0.741176
36.314758 18.688705 3.515677 0.776471
36.314758 18.688705 3.198148 0.741176
36.314758 18.688705 2.884380 0.741176
36.314758 18.688707 2.573645 0.776471
36.314758 18.688707 2.265240 0.776471
36.314762 18.688709 1.958488 0.733333
36.314762 18.688709 1.652720 0.772152
36.314762 18.688709 1.347280 0.776471
36.314762 18.688709 1.041512 0.739651
36.314758 18.688709 0.734760 0.741176
36.314762 18.688709 0.426356 0.776471
36.314758 18.688709 0.115620 0.758450
36.676292 19.715933 0.000000 0.336690
37.107422 20.940908 -0.000001 0.307851
37.425060 21.843414 -0.000001 0.321019
36.245514 18.688705 3.843544 0.763928
36.245514 18.688705 3.520692 0.744488
36.245518 18.688709 3.202372 0.758404
36.245514 18.688709 2.887824 0.761624
36.245514 18.688705 2.576315 0.764706
36.245518 18.688709 2.267144 0.763928
36.245514 18.688705 1.959628 0.764340
36.245518 18.688709 1.653100 0.745037
36.245518 18.688709 1.346900 0.753628
36.245514 18.688707 1.040372 0.759976
36.245518 18.688709 0.732856 0.754177
36.245514 18.688707 0.423685 0.764706
36.245518 18.688709 0.112177 0.722866
36.622070 19.735229 0.000000 0.297200
37.061741 20.957165 -0.000001 0.306172
37.385674 21.857433 -0.000001 0.341527
36.175922 18.688705 3.849503 0.773983
36.175922 18.688705 3.525830 0.773983
36.175922 18.688705 3.206701 0.774639
36.175922 18.688705 2.891353 0.773068
36.175922 18.688705 2.579052 0.775235
36.175926 18.688705 2.269095 0.750912
36.175926 18.688707 1.960797 0.774639
36.175922 18.688705 1.653489 0.742412
36.175926 18.688707 1.346511 0.743053
36.175926 18.688709 1.039203 0.776059
36.175926 18.688707 0.730905 0.775235
36.175926 18.688709 0.420948 0.743481
36.175926 18.688707 0.108647 0.772473
36.567986 19.754904 0.000000 0.272709
37.016178 20.973740 -0.000001 0.265766
37.346386 21.871725 -0.000001 0.375799
36.105972 18.688705 3.855608 0.733333
36.105972 18.688705 3.531094 0.715404
36.105972 18.688705 3.211135 0.730068
36.105972 18.688707 2.894968 0.718303
36.105972 18.688707 2.581856 0.730068
36.105972 18.688707 2.271093 0.724743
36.105972 18.688709 1.961994 0.731640
36.105972 18.688709 1.653888 0.733333
36.105972 18.688709 1.346112 0.730251
36.105972 18.688709 1.038006 0.738994
36.105972 18.688709 0.728907 0.721569
36.105972 18.688709 0.418145 0.733333
36.105972 18.688709 0.105033 0.721569
36.514042 19.774956 0.000000 0.304280
36.970730 20.990631 -0.000001 0.272755
37.307198 21.886292 -0.000001 0.342123
36.035656 18.688705 3.861858 0.760616
36.035656 18.688705 3.536484 0.760616
36.035656 18.688707 3.215677 0.750546
36.035656 18.688705 2.898670 0.757092
36.035656 18.688707 2.584727 0.727077
36.035656 18.688709 2.273139 0.751812
36.035656 18.688707 1.963220 0.757092
36.035656 18.688709 1.654296 0.738201
36.035656 18.688709 1.345703 0.760616
36.035656 18.688709 1.036780 0.760616
36.035656 18.688709 0.726861 0.760616
36.035656 18.688709 0.415273 0.732372
36.035656 18.688709 0.101330 0.760616
36.460236 19.795380 -0.000000 0.270085
36.925400 21.007839 -0.000001 0.301915
37.268112 21.901127 -0.000001 0.272557
35.964958 18.688704 3.868260 0.764340
35.964958 18.688705 3.542003 0.751614
35.964958 18.688705 3.220327 0.758724
35.964958 18.688705 2.902461 0.759014
35.964958 18.688705 2.587667 0.764569
35.964958 18.688705 2.275235 0.744396
35.964958 18.688709 1.964475 0.764706
35.964958 18.688705 1.654715 0.771603
35.964958 18.688705 1.345285 0.757534
35.964958 18.688709 1.035524 0.764706
35.964958 18.688707 0.724765 0.756024
35.964958 18.688707 0.412333 0.763928
35.964958 18.688709 0.097540 0.713481
36.406574 19.816181 -0.000000 0.312444
36.880192 21.025366 -0.000001 0.233722
37.229134 21.916241 -0.000001 0.311971
35.893875 18.688707 3.874811 0.755062
35.893875 18.688705 3.547652 0.741176
35.893875 18.688705 3.225086 0.741176
35.893875 18.688707 2.906341 0.743755
35.893875 18.688705 2.590676 0.776471
35.893875 18.688709 2.277379 0.741176
35.893875 18.688709 1.965761 0.764523
35.893875 18.688709 1.655142 0.756436
35.893875 18.688709 1.344857 0.764706
35.893875 18.688709 1.034239 0.758831
35.893875 18.688709 0.722621 0.752941
35.893875 18.688709 0.409325 0.776471
35.893875 18.688709 0.093660 0.767468
36.353058 19.837358 -0.000000 0.342550
36.835110 21.043207 -0.000001 0.256641
37.190262 21.931622 -0.000001 0.270359
35.822392 18.688705 3.881516 0.740108
35.822392 18.688705 3.553433 0.702266
35.822392 18.688707 3.229956 0.698222
35.822392 18.688705 2.910311 0.710262
35.822392 18.688707 2.593755 0.733364
35.822392 18.688709 2.279574 0.721706
35.822392 18.688709 1.967076 0.726894
35.822395 18.688709 1.655581 0.733425
35.822395 18.688709 1.344419 0.740719
35.822392 18.688709 1.032924 0.738552
35.822395 18.688709 0.720426 0.708705
35.822395 18.688709 0.406245 0.721798
35.822392 18.688709 0.089689 0.733700
36.299694 19.858908 -0.000000 0.312123
36.790150 21.061359 -0.000001 0.247471
37.151497 21.947275 -0.000001 0.235233
35.750504 18.688705 3.888375 0.736156
35.750504 18.688705 3.559347 0.734264
35.750504 18.688705 3.234939 0.717800
35.750504 18.688705 2.914372 0.736156
35.750504 18.688707 2.596905 0.765789
35.750504 18.688707 2.281819 0.736156
35.750504 18.688707 1.968421 0.765789
35.750504 18.688707 1.656029 0.765789
35.750504 18.688707 1.343971 0.765789
35.750504 18.688709 1.031579 0.713848
35.750504 18.688709 0.718181 0.731121
35.750504 18.688709 0.403095 0.732418
35.750504 18.688707 0.085627 0.724437
36.246483 19.880831 -0.000000 0.279591
36.745319 21.079830 -0.000001 0.266300
37.112843 21.963200 -0.000001 0.310567
35.678192 18.688705 3.895391 0.746822
35.678192 18.688705 3.565397 0.747936
35.678192 18.688705 3.240036 0.758450
35.678192 18.688707 2.918527 0.752026
35.678192 18.688705 2.600127 0.760845
35.678192 18.688705 2.284116 0.759426
35.678196 18.688707 1.969797 0.762829
35.678192 18.688707 1.656487 0.758679
35.678192 18.688707 1.343513 0.760983
35.678196 18.688707 1.030203 0.738811
35.678196 18.688707 0.715884 0.755245
35.678196 18.688709 0.399873 0.751431
35.678196 18.688709 0.081473 0.674357
36.193420 19.903122 -0.000000 0.332952
36.700619 21.098610 -0.000001 0.272801
37.074295 21.979393 -0.000002 0.284199
35.605453 18.688705 3.902566 0.765255
35.605453 18.688705 3.571583 0.762448
35.605453 18.688705 3.245247 0.733333
35.605453 18.688707 2.922776 0.773159
35.605453 18.688705 2.603422 0.763745
35.605453 18.688705 2.286465 0.755016
35.605453 18.688707 1.971204 0.764706
35.605453 18.688705 1.656956 0.747982
35.605453 18.688705 1.343044 0.758831
35.605457 18.688707 1.028796 0.740871
35.605453 18.688707 0.713535 0.762081
35.605457 18.688709 0.396578 0.755657
35.605457 18.688709 0.077224 0.764752
36.140518 19.925785 0.000000 0.258305
36.656048 21.117702 -0.000001 0.286687
37.035866 21.995853 -0.000002 0.257511
35.532276 18.688705 3.909901 0.733333
35.532276 18.688705 3.577908 0.721569
35.532276 18.688705 3.250576 0.734096
35.532276 18.688707 2.927120 0.735485
35.532276 18.688705 2.606791 0.732601
35.532276 18.688705 2.288866 0.739315
35.532276 18.688705 1.972643 0.729686
35.532276 18.688707 1.657435 0.729610
35.532276 18.688709 1.342565 0.735393
35.532276 18.688705 1.027357 0.733333
35.532276 18.688707 0.711134 0.733333
35.532276 18.688707 0.393209 0.730297
35.532276 18.688709 0.072880 0.715221
36.087776 19.948816 -0.000000 0.305318
36.611614 21.137106 -0.000001 0.282918
36.997555 22.012585 -0.000002 0.322332
35.458645 18.688705 3.917400 0.742626
35.458645 18.688705 3.584373 0.741802
35.458645 18.688705 3.256022 0.742321
35.458645 18.688705 2.931561 0.741314
35.458645 18.688705 2.610235 0.743343
35.458645 18.688707 2.291320 0.774548
35.458645 18.688707 1.974113 0.775326
35.458645 18.688707 1.657925 0.743679
35.458645 18.688707 1.342075 0.776379
35.458645 18.688707 1.025887 0.774487
35.458645 18.688709 0.708680 0.773251
35.458645 18.688709 0.389765 0.742626
35.458645 18.688709 0.068440 0.741268
36.035194 19.972214 -0.000000 0.312444
36.567314 21.156818 -0.000001 0.256428
36.959358 22.029581 -0.000002 0.259205
35.384552 18.688705 3.925064 0.692958
35.384552 18.688705 3.590981 0.759838
35.384552 18.688705 3.261590 0.746883
35.384552 18.688705 2.936100 0.763607
35.384552 18.688705 2.613755 0.763561
35.384552 18.688705 2.293829 0.748028
35.384552 18.688707 1.975616 0.771466
35.384552 18.688705 1.658426 0.762783
35.384552 18.688707 1.341574 0.764340
35.384552 18.688707 1.024384 0.762585
35.384552 18.688705 0.706171 0.752941
35.384552 18.688705 0.386245 0.764706
35.384552 18.688707 0.063901 0.666590
35.982780 19.995979 -0.000000 0.320882
36.523155 21.176840 -0.000001 0.285939
36.921284 22.046846 -0.000002 0.371633
35.309982 18.688705 3.932896 0.762310
35.309982 18.688705 3.597734 0.762921
35.309982 18.688705 3.267280 0.733333
35.309982 18.688705 2.940738 0.764706
35.309982 18.688705 2.617352 0.742779
35.309982 18.688707 2.296393 0.776471
35.309982 18.688705 1.977152 0.752941
35.309982 18.688707 1.658937 0.761669
35.309982 18.688707 1.341063 0.752941
35.309982 18.688705 1.022847 0.755215
35.309982 18.688709 0.703607 0.764706
35.309982 18.688707 0.382648 0.762341
35.309982 18.688709 0.059263 0.764706
35.930531 20.020109 -0.000000 0.332570
36.479141 21.197170 -0.000001 0.299626
36.883331 22.064375 -0.000002 0.323095
35.234924 18.688705 3.940898 0.730739
35.234924 18.688705 3.604634 0.735744
35.234924 18.688705 3.273092 0.724254
35.234924 18.688705 2.945476 0.736980
35.234924 18.688705 2.621027 0.733333
35.234924 18.688705 2.299012 0.703929
35.234928 18.688707 1.978722 0.737118
35.234928 18.688709 1.659460 0.680003
35.234928 18.688709 1.340540 0.671855
35.234928 18.688707 1.021278 0.709804
35.234928 18.688707 0.700988 0.703929
35.234928 18.688707 0.378973 0.697093
35.234928 18.688709 0.054524 0.689494
35.878452 20.044605 -0.000000 0.253666
36.435265 21.217804 -0.000002 0.273945
36.845501 22.082169 -0.000002 0.311254
35.159370 18.688705 3.949072 0.758495
35.159370 18.688705 3.611682 0.763058
35.159370 18.688705 3.279029 0.757809
35.159370 18.688705 2.950317 0.764706
35.159370 18.688705 2.624781 0.761486
35.159370 18.688709 2.301688 0.759838
35.159370 18.688709 1.980325 0.752941
35.159370 18.688709 1.659994 0.760067
35.159370 18.688709 1.340006 0.764431
35.159370 18.688709 1.019675 0.750912
35.159370 18.688709 0.698312 0.760250
35.159370 18.688707 0.375219 0.749264
35.159370 18.688709 0.049683 0.764340
35.826542 20.069464 -0.000000 0.299840
36.391533 21.238747 -0.000001 0.284047
36.807793 22.100224 -0.000002 0.256077
35.083305 18.688705 3.957422 0.774258
35.083305 18.688704 3.618881 0.760403
35.083305 18.688705 3.285094 0.760830
35.083305 18.688705 2.955261 0.764981
35.083305 18.688705 2.628616 0.751659
35.083305 18.688705 2.304421 0.764706
35.083305 18.688705 1.981963 0.758572
35.083305 18.688707 1.660539 0.762539
35.083305 18.688709 1.339461 0.742687
35.083305 18.688705 1.018037 0.764706
35.083305 18.688709 0.695579 0.758404
35.083305 18.688705 0.371384 0.741344
35.083305 18.688709 0.044739 0.774731
35.774811 20.094683 -0.000000 0.257282
36.347950 21.259995 -0.000001 0.307027
36.770214 22.118544 -0.000002 0.293294
35.006714 18.688705 3.965949 0.740505
35.006714 18.688704 3.626234 0.722942
35.006714 18.688705 3.291289 0.722942
35.006714 18.688705 2.960311 0.722805
35.006714 18.688705 2.632532 0.722942
35.006714 18.688705 2.307212 0.722942
35.006714 18.688707 1.983635 0.743664
35.006714 18.688705 1.661097 0.712016
35.006714 18.688705 1.338904 0.714488
35.006714 18.688707 1.016365 0.743664
35.006714 18.688705 0.692787 0.722942
35.006714 18.688707 0.367468 0.743664
35.006714 18.688705 0.039689 0.722942
35.723255 20.120262 -0.000000 0.359518
36.304516 21.281544 -0.000001 0.260990
36.732765 22.137125 -0.000002 0.306447
34.929585 18.688705 3.974656 0.729854
34.929585 18.688705 3.633742 0.719295
34.929588 18.688705 3.297614 0.721569
34.929588 18.688705 2.965467 0.712978
34.929588 18.688705 2.636531 0.722393
34.929588 18.688705 2.310063 0.723430
34.929588 18.688705 1.985343 0.723476
34.929588 18.688707 1.661665 0.721569
34.929588 18.688707 1.338335 0.724743
34.929588 18.688705 1.014657 0.726436
34.929588 18.688707 0.689937 0.724743
34.929588 18.688705 0.363469 0.726848
34.929588 18.688707 0.034533 0.714763
35.671883 20.146200 -0.000001 0.304555
36.261234 21.303398 -0.000001 0.284718
36.695446 22.155968 -0.000002 0.315114
34.851906 18.688705 3.983546 0.758724
34.851906 18.688705 3.641408 0.762722
34.851910 18.688707 3.304072 0.757763
34.851906 18.688705 2.970733 0.752941
34.851910 18.688707 2.640614 0.754269
34.851906 18.688705 2.312973 0.741176
34.851910 18.688709 1.987086 0.762493
34.851906 18.688707 1.662246 0.758724
34.851906 18.688707 1.337754 0.753307
34.851910 18.688709 1.012914 0.764706
34.851910 18.688707 0.687027 0.756298
34.851910 18.688709 0.359386 0.760937
34.851910 18.688707 0.029267 0.764706
35.620689 20.172499 -0.000001 0.296727
36.218105 21.325554 -0.000001 0.276326
36.658257 22.175072 -0.000002 0.363470
34.773666 18.688705 3.992624 0.752941
34.773666 18.688705 3.649235 0.750988
34.773666 18.688705 3.310666 0.764218
34.773666 18.688705 2.976108 0.756359
34.773666 18.688705 2.644783 0.748486
34.773666 18.688705 2.315945 0.765805
34.773666 18.688705 1.988867 0.759579
34.773666 18.688707 1.662839 0.772839
34.773666 18.688707 1.337161 0.764584
34.773666 18.688705 1.011133 0.758251
34.773666 18.688705 0.684055 0.752941
34.773666 18.688705 0.355217 0.755993
34.773666 18.688709 0.023893 0.752026
35.569679 20.199152 -0.000001 0.323339
36.175137 21.348007 -0.000001 0.283268
36.621204 22.194433 -0.000002 0.222492
34.694843 18.688705 4.001890 0.722286
34.694847 18.688705 3.657224 0.700526
34.694847 18.688705 3.317397 0.697246
34.694847 18.688705 2.981595 0.699275
34.694847 18.688705 2.649039 0.692775
34.694847 18.688705 2.318978 0.722805
34.694847 18.688707 1.990684 0.723644
34.694847 18.688707 1.663445 0.717800
34.694847 18.688707 1.336556 0.698009
34.694847 18.688707 1.009316 0.721569
34.694847 18.688707 0.681022 0.712932
34.694847 18.688707 0.350961 0.700526
34.694847 18.688709 0.018405 0.712032
35.518860 20.226166 -0.000001 0.287327
36.132320 21.370764 -0.000002 0.261311
36.584290 22.214054 -0.000002 0.350179
34.615433 18.688705 4.011348 0.732784
34.615433 18.688704 3.665379 0.728283
34.615433 18.688705 3.324268 0.709072
34.615433 18.688705 2.987196 0.707576
34.615433 18.688705 2.653383 0.722210
34.615433 18.688705 2.322073 0.707500
34.615437 18.688707 1.992539 0.708431
34.615433 18.688705 1.664062 0.708247
34.615433 18.688705 1.335938 0.706127
34.615437 18.688709 1.007461 0.735195
34.615437 18.688707 0.677926 0.726894
34.615437 18.688705 0.346618 0.733593
34.615437 18.688707 0.012804 0.733394
35.468231 20.253527 -0.000001 0.274601
36.089664 21.393816 -0.000002 0.344747
36.547512 22.233931 -0.000002 0.284291
34.535412 18.688704 4.021001 0.765301
34.535416 18.688705 3.673702 0.767285
34.535412 18.688705 3.331279 0.760937
34.535416 18.688707 2.992912 0.767651
34.535416 18.688707 2.657815 0.756207
34.535412 18.688705 2.325233 0.755199
34.535416 18.688705 1.994432 0.763607
34.535416 18.688707 1.664693 0.760937
34.535416 18.688707 1.335307 0.749447
34.535416 18.688707 1.005568 0.763973
34.535416 18.688705 0.674766 0.763241
34.535416 18.688709 0.342185 0.762539
34.535416 18.688709 0.007088 0.754543
35.417789 20.281244 -0.000001 0.261357
36.047173 21.417166 -0.000002 0.401083
36.510872 22.254063 -0.000002 0.279881
34.454773 18.688704 4.030852 0.776471
34.454773 18.688705 3.682196 0.773571
34.454773 18.688704 3.338435 0.775372
34.454773 18.688705 2.998746 0.776471
34.454773 18.688705 2.662340 0.741176
34.454773 18.688705 2.328458 0.776471
34.454773 18.688705 1.996364 0.763790
34.454773 18.688707 1.665336 0.741176
34.454773 18.688707 1.334664 0.776471
34.454773 18.688705 1.003636 0.772747
34.454773 18.688707 0.671542 0.769055
34.454773 18.688705 0.337660 0.776471
34.450626 18.681343 0.000000 0.320806
35.367546 20.309311 -0.000001 0.302831
36.004845 21.440815 -0.000002 0.266087
36.474373 22.274452 -0.000002 0.262638
34.373497 18.688704 4.040905 0.733089
34.373497 18.688702 3.690865 0.730388
34.373497 18.688705 3.345738 0.721599
34.373497 18.688705 3.004699 0.729335
34.373497 18.688704 2.666957 0.721569
34.373497 18.688705 2.331749 0.730388
34.373497 18.688707 1.998336 0.716808
34.373497 18.688705 1.665993 0.731502
34.373497 18.688705 1.334007 0.724620
34.373497 18.688707 1.001664 0.728664
34.373497 18.688705 0.668251 0.721569
34.373497 18.688705 0.333043 0.722347
34.389236 18.716202 0.000000 0.266972
35.317501 20.337730 -0.000001 0.293278
35.962681 21.464754 -0.000002 0.265034
36.438019 22.295095 -0.000002 0.270146
34.291569 18.688705 4.051163 0.756252
34.291569 18.688705 3.699709 0.763287
34.291569 18.688705 3.353189 0.764431
34.291569 18.688705 3.010774 0.752712
34.291569 18.688705 2.671668 0.756939
34.291569 18.688705 2.335107 0.753079
34.291569 18.688705 2.000348 0.753124
34.291569 18.688705 1.666664 0.733715
34.291569 18.688705 1.333337 0.764706
34.291569 18.688707 0.999652 0.762493
34.291569 18.688707 0.664893 0.764523
34.291569 18.688707 0.328332 0.733196
34.328094 18.751490 0.000000 0.312398
35.267654 20.366497 -0.000001 0.293950
35.920685 21.488991 -0.000002 0.283894
36.401810 22.315994 -0.000002 0.291890
34.208969 18.688705 4.061629 0.762448
34.208969 18.688704 3.708733 0.742962
34.208969 18.688705 3.360792 0.757610
34.208969 18.688705 3.016972 0.764797
34.208969 18.688705 2.676475 0.761379
34.208969 18.688704 2.338533 0.761212
34.208969 18.688705 2.002400 0.758770
34.208973 18.688707 1.667347 0.735317
34.208973 18.688707 1.332653 0.752972
34.208969 18.688705 0.997600 0.760708
34.208969 18.688705 0.661467 0.755535
34.208973 18.688709 0.323525 0.744244
34.267197 18.787199 0.000000 0.297871
35.218010 20.395611 -0.000001 0.254749
35.878860 21.513517 -0.000002 0.238087
36.365749 22.337141 -0.000002 0.261173
34.125687 18.688704 4.072308 0.723949
34.125687 18.688705 3.717941 0.741176
34.125687 18.688705 3.368550 0.709804
34.125687 18.688705 3.023296 0.695827
34.125687 18.688705 2.681379 0.735821
34.125687 18.688707 2.342029 0.709804
34.125687 18.688707 2.004494 0.693568
34.125687 18.688707 1.668045 0.709804
34.125687 18.688707 1.331955 0.677150
34.125687 18.688707 0.995505 0.707530
34.125690 18.688709 0.657972 0.730877
34.125687 18.688707 0.318621 0.690562
34.206551 18.823338 0.000000 0.280308
35.168568 20.425072 -0.000001 0.310628
35.837208 21.538338 -0.000002 0.306401
36.329834 22.358543 -0.000002 0.396994
34.041702 18.688705 4.083202 0.769711
34.041706 18.688705 3.727334 0.753307
34.041702 18.688705 3.376463 0.753307
34.041706 18.688705 3.029747 0.753307
34.041702 18.688705 2.686383 0.748333
34.041702 18.688705 2.345595 0.730648
34.041706 18.688707 2.006631 0.741176
34.041706 18.688705 1.668757 0.720592
34.041706 18.688705 1.331244 0.753307
34.041706 18.688707 0.993369 0.720592
34.041706 18.688705 0.654405 0.752132
34.041706 18.688707 0.313617 0.744900
34.146160 18.859898 0.000000 0.279683
35.119335 20.454876 -0.000001 0.292851
35.795731 21.563446 -0.000002 0.270512
36.294071 22.380192 -0.000002 0.340703
33.957001 18.688705 4.094316 0.656611
33.957001 18.688705 3.736917 0.754162
33.957001 18.688705 3.384536 0.764706
33.957001 18.688705 3.036329 0.756710
33.957001 18.688705 2.691487 0.757763
33.957001 18.688705 2.349233 0.753857
33.957001 18.688705 2.008811 0.753857
33.957001 18.688707 1.669483 0.764706
33.957001 18.688707 1.330517 0.764675
33.957001 18.688705 0.991189 0.736171
33.957001 18.688707 0.650767 0.764309
33.957001 18.688707 0.308513 0.764706
34.086021 18.896877 0.000000 0.323445
35.070313 20.485023 -0.000001 0.314626
35.754429 21.588844 -0.000002 0.267048
36.258457 22.402090 -0.000002 0.297276
33.871563 18.688704 4.105654 0.745159
33.871567 18.688705 3.746692 0.723873
33.871567 18.688705 3.392772 0.743008
33.871563 18.688705 3.043043 0.744320
33.871567 18.688705 2.696694 0.716854
33.871567 18.688707 2.352944 0.724102
