# This PCD file was generated using the MATLABÂ® pcwrite function
# from Computer Vision ToolboxÂ®.
# .PCD v.7 - Point Cloud Data file format
VERSION .7
FIELDS x y z intensity
SIZE 4 4 4 4
TYPE F F F F
COUNT 1 1 1 1
WIDTH 1316
HEIGHT 1
VIEWPOINT 0 0 0 1 0 0 0
POINTS 1316
DATA ascii
92.983246 15.068307 2.901336 0.659037
93.139641 14.898293 2.350948 0.678431
93.139641 14.898292 1.783446 0.678431
93.139641 14.898292 1.216553 0.664576
92.983315 15.068232 0.660395 0.678431
92.983322 15.068227 0.098655 0.647059
90.240341 18.050098 -0.000010 0.287373
88.258919 20.204088 -0.000007 0.358938
86.993950 21.579222 -0.000004 0.280888
86.114761 22.534988 -0.000003 0.256336
85.467010 23.239153 -0.000002 0.242817
93.203186 14.648252 5.895775 0.678431
92.978188 14.896297 5.217875 0.654780
92.978188 14.896298 4.632198 0.543267
93.037476 14.830935 4.066550 0.655879
93.134102 14.724412 3.507011 0.678431
92.977905 14.896608 2.911436 0.356802
93.134102 14.724413 2.357071 0.678431
93.134102 14.724415 1.785486 0.678431
92.999908 14.872348 1.217782 0.417121
92.977982 14.896527 0.654344 0.388891
92.977982 14.896523 0.088555 0.666743
90.173134 17.988705 -0.000010 0.275624
88.206795 20.156475 -0.000007 0.321431
86.951462 21.540405 -0.000005 0.305867
86.078957 22.502287 -0.000003 0.281483
85.436142 23.210958 -0.000002 0.267964
93.197464 14.470875 5.927830 0.678431
92.972740 14.722125 5.245038 0.408240
92.972740 14.722127 4.655083 0.678431
93.031906 14.655976 4.085280 0.669566
93.128479 14.548005 3.521658 0.678431
92.972488 14.722410 2.921751 0.345724
93.128479 14.548004 2.363326 0.678431
93.128479 14.548006 1.787570 0.678431
93.031860 14.656021 1.214802 0.670665
92.972565 14.722321 0.648163 0.678431
92.972565 14.722319 0.078239 0.602426
90.105499 17.927780 -0.000010 0.310780
88.154343 20.109224 -0.000007 0.280812
86.908699 21.501886 -0.000005 0.252995
86.042931 22.469837 -0.000003 0.252674
85.405075 23.182978 -0.000002 0.241230
93.191658 14.290887 5.960573 0.678431
92.967209 14.545381 5.272786 0.666789
92.967201 14.545388 4.678458 0.661585
93.026253 14.478433 4.104415 0.656458
93.122780 14.368989 3.536620 0.678431
92.966980 14.545638 2.932288 0.546639
93.122772 14.368993 2.369715 0.678431
93.122772 14.368994 1.789698 0.678431
93.026199 14.478497 1.212691 0.663951
92.967064 14.545549 0.641850 0.688975
92.967064 14.545544 0.067701 0.666117
90.037437 17.867329 -0.000011 0.280903
88.101563 20.062344 -0.000007 0.279133
86.865669 21.463669 -0.000005 0.295094
86.006683 22.437639 -0.000003 0.268437
85.373817 23.155216 -0.000002 0.371099
93.185776 14.108202 5.994026 0.678431
93.089294 14.219144 5.343165 0.670893
92.961594 14.365998 4.702342 0.703227
93.020515 14.298239 4.123962 0.654902
93.116989 14.187304 3.551905 0.678431
92.961403 14.366215 2.943055 0.680690
93.116989 14.187304 2.376243 0.678431
93.116989 14.187304 1.791872 0.678431
93.020447 14.298319 1.210535 0.654902
92.961487 14.366119 0.635399 0.678431
92.961487 14.366117 0.056934 0.666163
89.968956 17.807356 -0.000011 0.261250
88.048447 20.015833 -0.000007 0.272770
86.822372 21.425751 -0.000005 0.337774
85.970207 22.405695 -0.000003 0.301900
85.342369 23.127670 -0.000002 0.362325
93.179794 13.922752 6.028207 0.678431
93.083389 14.035182 5.372405 0.647059
92.955894 14.183882 4.726745 0.678431
93.014687 14.115313 4.143935 0.694697
93.111107 14.002856 3.567523 0.678431
92.955734 14.184067 2.954055 0.699214
93.111107 14.002858 2.382912 0.678431
93.111107 14.002857 1.794094 0.678431
93.014603 14.115404 1.208332 0.677928
92.955818 14.183967 0.628808 0.672206
92.955826 14.183964 0.045933 0.655863
89.900063 17.747864 -0.000011 0.263111
87.995018 19.969694 -0.000007 0.258412
86.778816 21.388138 -0.000005 0.287007
85.933510 22.374006 -0.000003 0.260868
85.310730 23.100348 -0.000003 0.263539
93.099464 13.822285 6.034326 0.647059
93.099464 13.822284 5.409666 0.647059
92.950111 13.998960 4.751683 0.658732
92.950043 13.999037 4.150852 0.666041
93.105141 13.815575 3.583483 0.676036
92.949982 13.999108 2.965297 0.660349
93.105141 13.815578 2.389728 0.668635
93.105141 13.815576 1.796364 0.678431
93.008682 13.929674 1.206081 0.655680
92.950073 13.999002 0.622072 0.582483
92.950073 13.999002 0.034691 0.351232
89.830750 17.688854 -0.000011 0.354253
87.941261 19.923929 -0.000007 0.284184
86.734993 21.350828 -0.000005 0.322896
85.896591 22.342575 -0.000003 0.308827
85.278893 23.073246 -0.000002 0.255833
93.071220 13.658793 6.061143 0.647059
93.071220 13.658791 5.432791 0.647059
92.944229 13.811152 4.777169 0.574182
92.944168 13.811229 4.171629 0.665248
93.002701 13.741004 3.582477 0.654749
92.944138 13.811265 2.976786 0.419883
93.002701 13.741002 2.389298 0.654902
93.002701 13.741002 1.796221 0.672557
93.002701 13.741002 1.203779 0.673884
92.944229 13.811151 0.615188 0.685359
92.944229 13.811151 0.023201 0.532845
89.761032 17.630327 -0.000011 0.264714
87.887192 19.878538 -0.000007 0.306722
86.690910 21.313826 -0.000005 0.287007
85.859451 22.311401 -0.000004 0.323507
85.246872 23.046368 -0.000002 0.368399
93.161331 13.348896 6.135336 0.678431
93.161331 13.348893 5.496763 0.678431
92.938225 13.620407 4.803211 0.634333
92.938179 13.620465 4.192863 0.704356
92.938179 13.620466 3.588427 0.635294
92.938179 13.620466 2.988527 0.679438
92.938179 13.620465 2.391839 0.673625
92.938179 13.620466 1.797067 0.387182
92.938179 13.620464 1.202932 0.678431
92.938225 13.620406 0.608157 0.520256
92.938225 13.620407 0.011466 0.658213
89.690903 17.572289 -0.000011 0.301396
87.832802 19.833530 -0.000008 0.282139
86.646576 21.277132 -0.000005 0.318288
85.822098 22.280489 -0.000004 0.268208
85.214668 23.019714 -0.000002 0.291264
93.154968 13.151514 6.172638 0.678431
93.154968 13.151514 5.528924 0.678431
92.932129 13.426598 4.829833 0.639719
92.932076 13.426656 4.214567 0.571893
92.932076 13.426658 3.605259 0.664942
92.932076 13.426659 3.000524 0.409491
92.932076 13.426661 2.399027 0.662837
92.932076 13.426661 1.799462 0.306676
92.932076 13.426659 1.200538 0.709804
92.932121 13.426602 0.600969 0.486030
92.928185 13.431460 -0.000018 0.295018
89.620369 17.514742 -0.000011 0.323186
87.778107 19.788900 -0.000008 0.287755
86.601982 21.240749 -0.000005 0.268727
85.784531 22.249836 -0.000004 0.260594
85.182274 22.993284 -0.000003 0.272740
93.148499 12.950919 6.210776 0.678431
93.148499 12.950919 5.561809 0.678431
92.925919 13.229634 4.857052 0.419181
92.925873 13.229690 4.236756 0.639750
92.925873 13.229690 3.622469 0.710658
92.925873 13.229691 3.012790 0.580606
92.925873 13.229689 2.406376 0.652308
92.925873 13.229692 1.801910 0.412695
92.925873 13.229691 1.198090 0.678431
92.925919 13.229637 0.593620 0.385306
92.828667 13.351415 -0.000018 0.331991
89.549438 17.457691 -0.000011 0.292561
87.723099 19.744652 -0.000008 0.296407
86.557137 21.204678 -0.000005 0.313237
85.746750 22.219448 -0.000004 0.339895
85.149696 22.967083 -0.000003 0.240925
93.141922 12.747015 6.249775 0.678431
93.141922 12.747016 5.595434 0.678431
92.919617 13.029413 4.884886 0.654902
92.919571 13.029466 4.259449 0.682612
92.919571 13.029469 3.640067 0.539117
92.919571 13.029467 3.025333 0.709804
92.919571 13.029465 2.413892 0.628168
92.919571 13.029468 1.804413 0.528481
92.919571 13.029466 1.195587 0.669200
92.919617 13.029410 0.586105 0.407507
92.728592 13.272063 -0.000018 0.288716
89.478111 17.401131 -0.000012 0.286320
87.667778 19.700792 -0.000008 0.288609
86.512039 21.168921 -0.000006 0.278752
85.708763 22.189323 -0.000004 0.385138
85.116943 22.941109 -0.000003 0.236835
93.135239 12.539693 6.289660 0.678431
93.135239 12.539694 5.629826 0.678431
92.913200 12.825834 4.913354 0.647059
92.913162 12.825889 4.282656 0.419608
92.913162 12.825886 3.658066 0.581369
92.913162 12.825886 3.038162 0.690196
92.913162 12.825886 2.421577 0.671305
92.913162 12.825885 1.806973 0.641703
92.913162 12.825884 1.193027 0.678431
92.913200 12.825831 0.578419 0.678431
92.627968 13.193417 -0.000018 0.283345
89.406387 17.345079 -0.000011 0.280888
87.612152 19.657318 -0.000008 0.328511
86.466690 21.133480 -0.000005 0.269200
85.670555 22.159466 -0.000004 0.332219
85.084000 22.915363 -0.000003 0.299825
93.128441 12.328850 6.330459 0.678431
93.128441 12.328852 5.665002 0.678431
92.906677 12.618793 4.942473 0.644816
92.906647 12.618836 4.306396 0.657282
92.906639 12.618839 3.676477 0.697276
92.906639 12.618838 3.051285 0.660716
92.906639 12.618840 2.429440 0.466514
92.906639 12.618841 1.809592 0.362844
92.906639 12.618841 1.190408 0.462593
92.906677 12.618793 0.570557 0.349981
92.526794 13.115471 -0.000018 0.299641
89.334282 17.289524 -0.000011 0.251301
87.556229 19.614231 -0.000008 0.307408
86.421104 21.098356 -0.000006 0.309743
85.632149 22.129873 -0.000004 0.277958
85.050880 22.889849 -0.000003 0.332250
93.121521 12.114374 6.372198 0.678431
93.121521 12.114378 5.700992 0.678431
92.900047 12.408173 4.972265 0.671061
92.900009 12.408218 4.330684 0.657771
92.900009 12.408221 3.695312 0.659175
92.900009 12.408218 3.064710 0.659022
92.900009 12.408218 2.437484 0.423239
92.900009 12.408220 1.812271 0.469383
92.900009 12.408217 1.187729 0.676066
92.900047 12.408169 0.562513 0.674434
92.425079 13.038231 -0.000018 0.284108
89.261787 17.234472 -0.000012 0.269810
87.500008 19.571541 -0.000008 0.293919
86.375267 21.063549 -0.000006 0.246921
85.593529 22.100552 -0.000004 0.247776
85.017586 22.864567 -0.000003 0.285191
93.114487 11.896146 6.414906 0.678431
93.114487 11.896150 5.737817 0.678431
92.893295 12.193868 5.002749 0.358038
92.893265 12.193911 4.355536 0.637324
92.893265 12.193913 3.714586 0.423926
92.893265 12.193913 3.078447 0.361471
92.893265 12.193913 2.445714 0.504616
92.893257 12.193914 1.815013 0.589624
92.893257 12.193914 1.184987 0.708385
92.893295 12.193865 0.554283 0.678279
92.322830 12.961704 -0.000019 0.298436
89.188904 17.179928 -0.000012 0.320836
87.443481 19.529238 -0.000008 0.304006
86.329193 21.029066 -0.000006 0.272816
85.554710 22.071501 -0.000004 0.347417
84.984116 22.839518 -0.000003 0.244724
93.107323 11.674055 6.458612 0.678431
93.107323 11.674057 5.775503 0.678431
92.886429 11.975756 5.033947 0.656336
92.886398 11.975798 4.380969 0.591669
92.886398 11.975801 3.734311 0.635737
92.886398 11.975799 3.092506 0.490501
92.886398 11.975799 2.454137 0.641382
92.886398 11.975801 1.817819 0.618662
92.886398 11.975802 1.182181 0.665263
92.886429 11.975756 0.545860 0.591012
92.220047 12.885897 -0.000019 0.287846
89.115646 17.125896 -0.000012 0.319844
87.386673 19.487335 -0.000008 0.305608
86.282875 20.994905 -0.000006 0.289952
85.515694 22.042721 -0.000004 0.265995
84.950470 22.814701 -0.000003 0.257252
93.100037 11.447960 6.503351 0.678431
93.100029 11.447964 5.814077 0.678431
92.879433 11.753712 5.065881 0.645991
92.879410 11.753748 4.407003 0.669947
92.879402 11.753755 3.754502 0.665003
92.879402 11.753757 3.106896 0.652079
92.879410 11.753752 2.462759 0.672358
92.879402 11.753757 1.820690 0.577783
92.879402 11.753757 1.179310 0.669337
92.879433 11.753713 0.537238 0.677699
92.116737 12.810812 -0.000019 0.297520
89.042015 17.072378 -0.000012 0.285847
87.329567 19.445827 -0.000008 0.277195
86.236320 20.961067 -0.000006 0.360403
85.476471 22.014214 -0.000005 0.251087
84.916656 22.790123 -0.000003 0.235538
93.068718 11.251348 6.538822 0.650950
93.068718 11.251350 5.844663 0.647059
92.872314 11.527615 5.098573 0.589075
92.872284 11.527649 4.433655 0.638102
92.872284 11.527649 3.775172 0.667475
92.872284 11.527649 3.121629 0.663798
92.872284 11.527651 2.471586 0.657542
92.872284 11.527647 1.823631 0.647059
92.872284 11.527647 1.176369 0.647395
92.872314 11.527611 0.528411 0.631373
92.012909 12.736441 -0.000019 0.277745
88.968010 17.019371 -0.000012 0.292760
87.272171 19.404720 -0.000009 0.306127
86.189529 20.927555 -0.000006 0.309041
85.437057 21.985981 -0.000005 0.235737
84.882668 22.765778 -0.000003 0.267781
92.989372 11.119844 6.554276 0.654902
92.989372 11.119844 5.857987 0.662440
92.865059 11.297312 5.132050 0.672343
92.865036 11.297346 4.460947 0.644511
92.865036 11.297346 3.796338 0.453849
92.865036 11.297348 3.136715 0.644175
92.865036 11.297348 2.480625 0.661067
92.865036 11.297348 1.826641 0.667842
92.865036 11.297348 1.173358 0.600198
92.865059 11.297314 0.519373 0.486702
91.908562 12.662802 -0.000019 0.282368
88.893631 16.966885 -0.000013 0.286656
87.214493 19.364014 -0.000009 0.311116
86.142509 20.894371 -0.000006 0.302449
85.397438 21.958025 -0.000005 0.305684
84.848511 22.741673 -0.000003 0.273442
92.981766 10.882858 6.601926 0.684398
93.077301 10.744431 5.935400 0.678431
92.857666 11.062675 5.166336 0.495796
92.857651 11.062710 4.488898 0.646906
92.857643 11.062712 3.818015 0.633906
92.857643 11.062710 3.152166 0.496101
92.857643 11.062712 2.489882 0.678248
92.857643 11.062712 1.829725 0.677073
92.857643 11.062712 1.170275 0.598169
92.857666 11.062677 0.510116 0.444770
91.803703 12.589892 -0.000019 0.269902
88.818893 16.914917 -0.000013 0.320119
87.156525 19.323715 -0.000009 0.247807
86.095253 20.861517 -0.000006 0.282200
85.357628 21.930346 -0.000005 0.262684
84.814186 22.717808 -0.000003 0.328573
92.957092 10.666241 6.643200 0.523720
93.069458 10.500967 5.977825 0.678431
92.850136 10.823563 5.201456 0.636713
92.850113 10.823589 4.517530 0.449866
92.850113 10.823591 3.840220 0.683345
92.850113 10.823589 3.167992 0.414267
92.850113 10.823593 2.499364 0.604593
92.850113 10.823593 1.832884 0.614649
92.850113 10.823593 1.167116 0.463432
92.850136 10.823566 0.500634 0.608408
91.698334 12.517720 -0.000019 0.312047
88.743797 16.863476 -0.000013 0.267918
87.098282 19.283821 -0.000009 0.309590
86.047775 20.828991 -0.000006 0.322118
85.317627 21.902945 -0.000005 0.324910
84.779694 22.694183 -0.000003 0.360372
92.842331 10.579992 6.645030 0.682353
93.061462 10.252785 6.021293 0.678431
92.842461 10.579800 5.237442 0.655787
92.842445 10.579823 4.546868 0.608255
92.842438 10.579828 3.862972 0.652079
92.842445 10.579826 3.184209 0.678431
92.842445 10.579826 2.509081 0.481422
92.842445 10.579824 1.836120 0.637293
92.842445 10.579824 1.163880 0.424933
92.842461 10.579800 0.490918 0.643381
91.592468 12.446281 -0.000019 0.303044
88.668335 16.812561 -0.000013 0.307317
87.039764 19.244329 -0.000009 0.286610
86.000069 20.796799 -0.000007 0.287800
85.277435 21.875824 -0.000005 0.305211
84.745041 22.670799 -0.000003 0.321492
92.834511 10.331425 6.695799 0.446204
93.053314 9.999733 6.065835 0.678431
92.834625 10.331255 5.274317 0.677958
92.834618 10.331272 4.576930 0.638392
92.834610 10.331280 3.886287 0.593347
92.834610 10.331280 3.200827 0.605585
92.834610 10.331276 2.519037 0.468498
92.834610 10.331278 1.839436 0.672496
92.834610 10.331276 1.160564 0.577478
92.834625 10.331253 0.480962 0.631952
91.486107 12.375577 -0.000020 0.269841
88.592529 16.762169 -0.000013 0.267964
86.980972 19.205250 -0.000009 0.286961
85.952133 20.764942 -0.000007 0.288533
85.237061 21.848984 -0.000005 0.324498
84.710220 22.647655 -0.000004 0.266178
92.826553 10.077875 6.747844 0.575128
93.044998 9.741631 6.111492 0.678431
92.949661 9.888380 5.353203 0.633219
92.826637 10.077745 4.607746 0.411902
92.826630 10.077749 3.910186 0.678431
92.826630 10.077747 3.217861 0.635386
92.826630 10.077749 2.529243 0.570825
92.826630 10.077747 1.842836 0.640284
92.826630 10.077747 1.157164 0.510964
92.826645 10.077728 0.470756 0.671443
91.379250 12.305628 -0.000020 0.315724
88.516373 16.712311 -0.000013 0.280034
86.921906 19.166584 -0.000009 0.268162
85.903984 20.733419 -0.000007 0.302266
85.196487 21.822428 -0.000005 0.293050
84.675240 22.624758 -0.000004 0.318303
92.818420 9.819180 6.801204 0.670039
93.036522 9.478294 6.158301 0.678431
92.941261 9.627188 5.392319 0.660044
92.818497 9.819073 4.639341 0.707469
92.818489 9.819077 3.934690 0.681468
92.818497 9.819075 3.235326 0.577035
92.818497 9.819071 2.539707 0.673472
92.818497 9.819073 1.846322 0.631815
92.818497 9.819075 1.153678 0.485679
92.818504 9.819056 0.460292 0.667308
91.271912 12.236420 -0.000020 0.299153
88.439865 16.662987 -0.000013 0.254444
86.862572 19.128326 -0.000010 0.277348
85.855614 20.702234 -0.000007 0.285435
85.155739 21.796154 -0.000005 0.240131
84.640106 22.602102 -0.000004 0.311742
92.810127 9.555164 6.855922 0.584466
93.027863 9.209545 6.206303 0.678431
93.027863 9.209549 5.464920 0.678431
92.810188 9.555071 4.671742 0.483772
92.810181 9.555077 3.959817 0.523507
92.810181 9.555079 3.253235 0.550118
92.810181 9.555075 2.550437 0.694102
92.810181 9.555073 1.849896 0.654887
92.810181 9.555073 1.150105 0.510689
92.810196 9.555061 0.449562 0.671061
91.164093 12.167964 -0.000020 0.303746
88.363014 16.614195 -0.000013 0.330419
86.802979 19.090488 -0.000010 0.263523
85.807022 20.671387 -0.000007 0.247807
85.114807 21.770166 -0.000005 0.250813
84.604813 22.579695 -0.000004 0.248997
92.801659 9.285622 6.912048 0.678431
93.019028 8.935190 6.255537 0.678431
93.019028 8.935192 5.506398 0.678431
92.801697 9.285559 4.704975 0.590997
92.801697 9.285566 3.985590 0.677256
92.801697 9.285563 3.271606 0.588785
92.801697 9.285566 2.561443 0.666743
92.801697 9.285559 1.853562 0.451789
92.801697 9.285563 1.146438 0.525628
92.801704 9.285551 0.438556 0.492531
91.055794 12.100265 -0.000020 0.312688
88.285828 16.565941 -0.000013 0.248356
86.743111 19.053070 -0.000009 0.315175
85.758224 20.640881 -0.000007 0.241413
85.073692 21.744465 -0.000005 0.314565
84.569359 22.557535 -0.000004 0.306584
92.793007 9.010365 6.969632 0.625528
92.993622 8.681847 6.299260 0.667582
92.993614 8.681854 5.543232 0.649424
92.793037 9.010315 4.739073 0.696849
92.793030 9.010326 4.012034 0.671916
92.793030 9.010326 3.290452 0.701060
92.793030 9.010330 2.572735 0.644266
92.793030 9.010323 1.857323 0.667018
92.793030 9.010326 1.142677 0.646998
92.793037 9.010323 0.427264 0.530831
90.947029 12.033326 -0.000020 0.289647
88.208305 16.518229 -0.000013 0.289219
86.682991 19.016064 -0.000010 0.278386
85.709213 20.610714 -0.000007 0.322454
85.032402 21.719051 -0.000005 0.241917
84.533760 22.535624 -0.000004 0.259739
92.784164 8.729181 7.028723 0.483024
92.872154 8.582809 6.303960 0.532082
92.872154 8.582811 5.547194 0.635615
92.784180 8.729164 4.774061 0.532326
92.784180 8.729170 4.039170 0.504479
92.784180 8.729164 3.309794 0.614267
92.784180 8.729162 2.584324 0.492607
92.784180 8.729164 1.861183 0.660822
92.784180 8.729162 1.138817 0.675929
92.784180 8.729162 0.415676 0.648539
90.837799 11.967140 -0.000021 0.299001
88.130447 16.471060 -0.000013 0.317922
86.622612 18.979481 -0.000010 0.301167
85.659988 20.580891 -0.000007 0.242359
84.990936 21.693926 -0.000005 0.244038
84.498001 22.513958 -0.000004 0.282780
92.775299 8.441563 7.089462 0.485176
92.775291 8.441568 6.319444 0.643137
92.775299 8.441563 5.560240 0.449302
92.775299 8.441563 4.810026 0.699886
92.775291 8.441566 4.067063 0.623972
92.775291 8.441566 3.329674 0.583474
92.775291 8.441563 2.596235 0.546792
92.775291 8.441565 1.865151 0.626566
92.775291 8.441565 1.134849 0.626322
92.775291 8.441563 0.403764 0.675502
90.728111 11.901723 -0.000021 0.291142
88.052269 16.424431 -0.000013 0.341695
86.561981 18.943321 -0.000010 0.312490
85.610558 20.551413 -0.000007 0.267445
84.949287 21.669090 -0.000005 0.267353
84.462097 22.492546 -0.000004 0.251164
92.766403 8.147247 7.151915 0.564157
92.766396 8.147247 6.373294 0.611276
92.766396 8.147247 5.605607 0.674022
92.766403 8.147242 4.847011 0.392432
92.766403 8.147245 4.095746 0.692805
92.766403 8.147245 3.350119 0.678431
92.766403 8.147245 2.608484 0.577676
92.766403 8.147245 1.869231 0.547005
92.766403 8.147245 1.130769 0.629221
92.766403 8.147245 0.391516 0.706081
90.617966 11.837076 -0.000021 0.304067
87.973763 16.378349 -0.000014 0.252979
86.501099 18.907585 -0.000010 0.277470
85.560928 20.522280 -0.000007 0.270207
84.907478 21.644547 -0.000006 0.269581
84.426041 22.471382 -0.000004 0.299001
92.757294 7.846277 7.216056 0.671550
92.757294 7.846277 6.428598 0.594247
92.757294 7.846281 5.652198 0.487984
92.757286 7.846283 4.884993 0.674495
92.757286 7.846285 4.125203 0.513802
92.757286 7.846281 3.371114 0.655970
92.757286 7.846283 2.621063 0.666010
92.757286 7.846283 1.873420 0.433616
92.757286 7.846283 1.126579 0.639338
92.757286 7.846283 0.378937 0.678431
90.507370 11.773196 -0.000021 0.271382
87.894936 16.332823 -0.000014 0.294423
86.439964 18.872278 -0.000010 0.272831
85.511093 20.493492 -0.000007 0.272496
84.865486 21.620296 -0.000005 0.338048
84.389839 22.450472 -0.000004 0.291615
92.747986 7.538364 7.281960 0.678431
92.747986 7.538370 6.485424 0.676661
92.747986 7.538368 5.700071 0.640970
92.747986 7.538368 4.924021 0.439841
92.747986 7.538372 4.155470 0.673472
92.747986 7.538372 3.392687 0.477409
92.747986 7.538366 2.633989 0.678431
92.747986 7.538368 1.877726 0.537514
92.747986 7.538368 1.122274 0.592569
92.747986 7.538372 0.366011 0.523827
90.396332 11.710092 -0.000021 0.280415
87.815796 16.287846 -0.000014 0.278676
86.378586 18.837393 -0.000010 0.254459
85.461052 20.465057 -0.000007 0.268803
84.823334 21.596340 -0.000006 0.289250
84.353493 22.429817 -0.000004 0.247288
92.738457 7.223272 7.349685 0.645609
92.738457 7.223272 6.543819 0.687770
92.738457 7.223270 5.749269 0.608774
92.738449 7.223274 4.964128 0.654185
92.738449 7.223274 4.186575 0.596170
92.738449 7.223276 3.414857 0.574258
92.738449 7.223276 2.647271 0.656229
92.738449 7.223278 1.882151 0.548486
92.738449 7.223274 1.117849 0.632929
92.738449 7.223276 0.352729 0.509682
90.284859 11.647761 -0.000021 0.289876
87.736343 16.243418 -0.000014 0.282872
86.316971 18.802940 -0.000010 0.253010
85.410820 20.436968 -0.000008 0.295460
84.781013 21.572676 -0.000006 0.252491
84.317001 22.409412 -0.000005 0.334264
92.728706 6.900669 7.419314 0.652903
92.728706 6.900667 6.603857 0.509377
92.728706 6.900669 5.799848 0.490059
92.728706 6.900667 5.005362 0.546014
92.728714 6.900665 4.218554 0.558114
92.728706 6.900669 3.437650 0.652491
92.728706 6.900669 2.660927 0.569879
92.728714 6.900665 1.886700 0.525612
92.728714 6.900665 1.113300 0.675456
92.728706 6.900669 0.339072 0.542641
90.172958 11.586208 -0.000021 0.285389
87.656586 16.199551 -0.000014 0.303807
86.255112 18.768919 -0.000010 0.253330
85.360390 20.409233 -0.000008 0.275257
84.738533 21.549311 -0.000006 0.308476
84.280373 22.389265 -0.000004 0.249073
92.718712 6.570299 7.490910 0.489601
92.718719 6.570293 6.665590 0.619196
92.718719 6.570297 5.851857 0.597620
92.718712 6.570299 5.047760 0.590311
92.718719 6.570297 4.251436 0.600290
92.718719 6.570293 3.461087 0.598901
92.718719 6.570293 2.674970 0.533303
92.718719 6.570297 1.891377 0.517586
92.718712 6.570297 1.108623 0.705638
92.718719 6.570295 0.325031 0.709804
90.060623 11.525438 -0.000022 0.295659
87.576515 16.156242 -0.000014 0.285969
86.193016 18.735329 -0.000010 0.309728
85.309769 20.381851 -0.000008 0.381933
84.695885 21.526241 -0.000006 0.255772
84.243599 22.369375 -0.000004 0.285191
92.708473 6.231831 7.564556 0.517510
92.708473 6.231829 6.729090 0.660304
92.708473 6.231827 5.905353 0.523659
92.708473 6.231829 5.091372 0.583032
92.708473 6.231825 4.285260 0.547768
92.708481 6.231825 3.485194 0.445045
92.708473 6.231827 2.689414 0.678431
92.708481 6.231823 1.896188 0.558480
92.708473 6.231825 1.103812 0.648157
92.708473 6.231831 0.310586 0.699519
89.947868 11.465460 -0.000022 0.284718
87.496155 16.113491 -0.000014 0.278950
86.130692 18.702175 -0.000010 0.308705
85.258957 20.354820 -0.000008 0.272770
84.653076 21.503469 -0.000006 0.288762
84.206696 22.349741 -0.000005 0.286778
92.697884 5.885088 7.640292 0.501747
92.697891 5.885086 6.794393 0.638529
92.697884 5.885090 5.960368 0.539315
92.697884 5.885094 5.136221 0.634836
92.697884 5.885094 4.320041 0.678431
92.916542 5.463446 3.548931 0.678431
92.697853 5.885157 2.704263 0.678431
92.916542 5.463444 1.908908 0.678431
92.697853 5.885157 1.098866 0.659785
92.697853 5.885155 0.295737 0.695827
89.834694 11.406269 -0.000022 0.305684
87.415489 16.071297 -0.000015 0.314397
86.068130 18.669453 -0.000010 0.281071
85.207962 20.328146 -0.000008 0.252003
84.610115 21.480999 -0.000006 0.300160
84.169647 22.330364 -0.000005 0.247471
92.686806 5.530001 7.718125 0.536797
92.686806 5.530001 6.861502 0.546685
92.686806 5.530001 6.016906 0.612345
92.686806 5.529999 5.182314 0.678431
92.686806 5.530006 4.355787 0.501732
92.905182 5.101620 3.574889 0.678431
92.686676 5.530266 2.719517 0.624338
92.905182 5.101620 1.914089 0.678431
92.686676 5.530262 1.093785 0.617914
92.686676 5.530254 0.280482 0.567773
89.721115 11.347870 -0.000022 0.285847
87.334534 16.029675 -0.000015 0.283833
86.005348 18.637173 -0.000011 0.286061
85.156776 20.301832 -0.000008 0.274800
84.566994 21.458828 -0.000006 0.316686
84.132469 22.311249 -0.000005 0.277607
92.675446 5.165779 7.798267 0.522072
92.675446 5.165779 6.930604 0.473655
92.675446 5.165777 6.075123 0.653880
92.675446 5.165777 5.229774 0.597696
92.675446 5.165783 4.392594 0.654124
92.893524 4.730490 3.601618 0.678431
92.675209 5.166246 2.735224 0.635782
92.893524 4.730486 1.919423 0.678431
92.675209 5.166250 1.088553 0.573144
92.675217 5.166241 0.264776 0.502785
89.607132 11.290266 -0.000022 0.286152
87.253296 15.988617 -0.000015 0.271763
85.942337 18.605331 -0.000010 0.261006
85.105415 20.275871 -0.000008 0.292393
84.523720 21.436958 -0.000006 0.307683
84.095154 22.292393 -0.000005 0.313985
92.663780 4.792030 7.880816 0.515053
92.663780 4.792025 7.001782 0.534325
92.663788 4.792023 6.135088 0.622629
92.663780 4.792027 5.278659 0.678431
92.663780 4.792032 4.430506 0.422812
92.881561 4.349649 3.629150 0.678431
92.663437 4.792721 2.751402 0.455421
92.881561 4.349644 1.924917 0.678431
92.663445 4.792721 1.083164 0.482734
92.663445 4.792711 0.248597 0.644556
89.492744 11.233448 -0.000022 0.285512
87.171768 15.948124 -0.000015 0.295186
85.879112 18.573929 -0.000010 0.300038
85.053871 20.250273 -0.000008 0.308019
84.480293 21.415392 -0.000006 0.292103
84.057709 22.273796 -0.000005 0.249180
92.651825 4.408306 7.965886 0.543099
92.651817 4.408319 7.075127 0.430808
92.651817 4.408316 6.196880 0.506935
92.651817 4.408318 5.329034 0.469795
92.651825 4.408304 4.469577 0.640650
92.869286 3.958679 3.657519 0.678431
92.651382 4.409210 2.768074 0.446097
92.869286 3.958673 1.930579 0.678431
92.651382 4.409214 1.077610 0.482963
92.651382 4.409218 0.231926 0.599145
89.377968 11.177441 -0.000023 0.294072
87.089958 15.908209 -0.000015 0.300435
85.815666 18.542971 -0.000011 0.275074
85.002144 20.225033 -0.000008 0.295018
84.436722 21.394127 -0.000006 0.291417
84.020142 22.255463 -0.000005 0.240131
92.639519 4.014235 8.053566 0.530587
92.639511 4.014244 7.150730 0.459220
92.639519 4.014240 6.260572 0.609644
92.639519 4.014238 5.380960 0.604852
92.639519 4.014233 4.509846 0.518303
92.769463 3.740709 3.670098 0.647059
92.638977 4.015383 2.785257 0.709560
92.769463 3.740704 1.933089 0.647059
92.638977 4.015385 1.071887 0.518471
92.638969 4.015388 0.214742 0.705516
89.262794 11.122240 -0.000022 0.275181
87.007874 15.868857 -0.000015 0.284642
85.752007 18.512451 -0.000011 0.262699
84.950249 20.200155 -0.000008 0.307912
84.392998 21.373169 -0.000006 0.329107
83.982437 22.237391 -0.000005 0.319615
92.753014 3.338936 8.218718 0.658839
92.848343 3.134609 7.341829 0.678431
92.848335 3.134611 6.421566 0.678431
92.848343 3.134609 5.512205 0.678431
92.626984 3.609076 4.551402 0.671504
92.843796 3.144342 3.716936 0.678431
92.626221 3.610723 2.802977 0.678431
92.843796 3.144339 1.942437 0.678431
92.626221 3.610718 1.065984 0.573007
92.626221 3.610720 0.197023 0.570764
89.147247 11.067835 -0.000023 0.295872
86.925514 15.830085 -0.000015 0.289097
85.688133 18.482382 -0.000011 0.298360
84.898178 20.175640 -0.000008 0.290135
84.349129 21.352516 -0.000007 0.364187
83.944618 22.219584 -0.000005 0.315999
92.653137 3.107338 8.260878 0.536217
92.838341 2.703007 7.425536 0.678431
92.838341 2.703005 6.492088 0.678431
92.838341 2.703007 5.569696 0.678431
92.614342 3.192032 4.594340 0.534936
92.830490 2.720148 3.748050 0.678431
92.613113 3.194714 2.821258 0.580423
92.830490 2.720148 1.948646 0.678431
92.613113 3.194714 1.059895 0.706676
92.613113 3.194712 0.178742 0.568856
89.031319 11.014244 -0.000023 0.294316
86.842888 15.791886 -0.000015 0.282811
85.624054 18.452759 -0.000011 0.282673
84.845940 20.151491 -0.000008 0.334462
84.305122 21.332170 -0.000007 0.271229
83.906670 22.202040 -0.000005 0.239292
92.601303 2.763128 8.334024 0.572381
92.828049 2.258842 7.511972 0.678431
92.828049 2.258841 6.564909 0.678431
92.828049 2.258844 5.629062 0.678431
92.601303 2.763123 4.638651 0.543633
92.816803 2.283855 3.780162 0.678431
92.599648 2.766815 2.840127 0.442420
92.816795 2.283859 1.955055 0.678431
92.599640 2.766817 1.053610 0.679103
92.599640 2.766817 0.159873 0.565362
88.915024 10.961462 -0.000023 0.296849
86.759995 15.754265 -0.000015 0.278828
85.559769 18.423584 -0.000011 0.344228
84.793533 20.127705 -0.000008 0.264057
84.260963 21.312132 -0.000007 0.249683
83.868599 22.184763 -0.000005 0.290639
92.587921 2.321659 8.433674 0.528893
92.817451 1.801495 7.601273 0.678431
92.817451 1.801498 6.640140 0.678431
92.817451 1.801498 5.690393 0.678431
92.587921 2.321657 4.684417 0.434241
92.802719 1.834890 3.813321 0.678431
92.585770 2.326540 2.859607 0.569604
92.802719 1.834888 1.961672 0.678431
92.585770 2.326538 1.047121 0.538048
92.585770 2.326540 0.140393 0.678431
88.798355 10.909491 -0.000023 0.290944
86.676842 15.717221 -0.000015 0.283818
85.495277 18.394855 -0.000011 0.274922
84.740959 20.104288 -0.000008 0.311925
84.216675 21.292402 -0.000007 0.254307
83.830414 22.167751 -0.000005 0.339284
92.574104 1.867186 8.536600 0.482597
92.806534 1.330336 7.693572 0.678431
92.806534 1.330338 6.717900 0.678431
92.806534 1.330341 5.753783 0.678431
92.711548 1.549736 4.771483 0.647059
92.780487 1.390491 3.845978 0.678431
92.571495 1.873217 2.879733 0.600046
92.780495 1.390491 1.968191 0.670344
92.571495 1.873211 1.040418 0.679530
92.571495 1.873215 0.120267 0.532403
88.681328 10.858337 -0.000023 0.294713
86.593430 15.680764 -0.000016 0.316121
85.430595 18.366579 -0.000011 0.280568
84.688225 20.081234 -0.000009 0.283101
84.172249 21.272984 -0.000007 0.286687
83.792107 22.151007 -0.000005 0.262562
92.559929 1.398865 8.643014 0.651514
92.795280 0.844687 7.789015 0.678431
92.795280 0.844685 6.798309 0.678431
92.795288 0.844683 5.819335 0.678431
92.700394 1.068113 4.821899 0.649638
92.773338 0.896353 3.882986 0.678431
92.556778 1.406286 2.900530 0.556756
92.773338 0.896353 1.975575 0.678431
92.556778 1.406282 1.033490 0.561349
92.556778 1.406281 0.099470 0.546777
88.563957 10.808001 -0.000023 0.294057
86.509773 15.644888 -0.000015 0.291371
85.365715 18.338755 -0.000012 0.317235
84.635330 20.058554 -0.000009 0.266407
84.127686 21.253874 -0.000007 0.253086
83.753677 22.134529 -0.000005 0.275288
92.545258 0.916275 8.753019 0.532891
92.783676 0.343800 7.887764 0.678431
92.783676 0.343801 6.881501 0.678431
92.783676 0.343803 5.887157 0.678431
92.783676 0.343809 4.902423 0.678431
92.757942 0.405592 3.919589 0.678431
92.541626 0.925005 2.922036 0.538903
92.757942 0.405598 1.982881 0.678431
92.541618 0.925007 1.026327 0.678431
92.541626 0.925001 0.077963 0.683879
88.446228 10.758490 -0.000023 0.303365
86.425865 15.609600 -0.000015 0.279850
85.300636 18.311386 -0.000011 0.255222
84.582275 20.036240 -0.000009 0.300832
84.082993 21.235075 -0.000007 0.325780
83.715141 22.118322 -0.000005 0.365484
92.530128 0.418556 8.866832 0.639124
92.771698 -0.173086 7.989984 0.678431
92.771698 -0.173086 6.967619 0.678431
92.771698 -0.173084 5.957363 0.678431
92.771698 -0.173082 4.956870 0.678431
92.742065 -0.100504 3.957457 0.678431
92.525993 0.428694 2.944284 0.674128
92.742065 -0.100504 1.990438 0.678431
92.525993 0.428688 1.018916 0.654871
92.525993 0.428690 0.055715 0.670695
88.328156 10.709793 -0.000024 0.314412
86.341713 15.574889 -0.000016 0.272038
85.235367 18.284473 -0.000012 0.285405
84.529068 20.014299 -0.000009 0.267659
84.038170 21.216591 -0.000007 0.257939
83.676498 22.102383 -0.000005 0.264546
92.514587 -0.095211 8.984686 0.588174
92.759338 -0.706808 8.095855 0.678431
92.759331 -0.706806 7.056812 0.678431
92.759331 -0.706806 6.030076 0.678431
92.759331 -0.706806 5.013262 0.678431
92.725685 -0.622719 3.996652 0.678431
92.509857 -0.083395 2.967311 0.527001
92.725685 -0.622723 1.998260 0.678431
92.509857 -0.083397 1.011245 0.584833
92.509857 -0.083397 0.032689 0.464942
88.209747 10.661928 -0.000024 0.313252
86.257317 15.540773 -0.000016 0.304021
85.169922 18.258015 -0.000012 0.259373
84.475716 19.992729 -0.000009 0.275883
83.993217 21.198420 -0.000007 0.255726
83.637733 22.086716 -0.000006 0.265232
92.498466 -0.625557 9.106705 0.617929
92.671059 -1.065716 8.160901 0.670665
92.674934 -1.075598 7.113543 0.647059
92.674934 -1.075598 6.076324 0.647059
92.674934 -1.075598 5.049129 0.648585
92.627480 -0.954573 4.018985 0.624537
92.493202 -0.612118 2.991158 0.528725
92.627480 -0.954569 2.002717 0.665476
92.493202 -0.612122 1.003302 0.658579
92.493202 -0.612118 0.008841 0.545403
88.091011 10.614889 -0.000024 0.287343
86.172684 15.507249 -0.000016 0.279454
85.104286 18.232012 -0.000012 0.284672
84.422211 19.971533 -0.000009 0.295659
83.948143 21.180561 -0.000007 0.266239
83.598869 22.071318 -0.000006 0.261097
92.481743 -1.173311 9.233103 0.643549
92.481773 -1.173395 8.167793 0.597848
92.481773 -1.173388 7.117415 0.674891
92.481773 -1.173382 6.079481 0.584772
92.481781 -1.173401 5.051579 0.670436
92.598801 -1.478081 4.058150 0.647776
92.475998 -1.158344 3.015870 0.547692
92.691360 -1.719080 2.014759 0.678431
92.475998 -1.158346 0.995071 0.509102
92.360474 -0.857573 -0.000042 0.291859
87.971947 10.568686 -0.000024 0.278935
86.087822 15.474313 -0.000016 0.299367
85.038467 18.206472 -0.000012 0.271046
84.368553 19.950712 -0.000009 0.277241
83.902939 21.163019 -0.000007 0.274723
83.559891 22.056192 -0.000006 0.259220
92.463112 -1.736044 9.363205 0.635828
92.463646 -1.737471 8.280283 0.620539
92.463676 -1.737553 7.212203 0.638102
92.463692 -1.737579 6.156758 0.678431
92.463669 -1.737526 5.111504 0.627863
92.580910 -2.049259 4.101409 0.667887
92.458206 -1.723007 3.041490 0.686671
92.673279 -2.294878 2.023461 0.678431
92.458206 -1.723003 0.986537 0.398383
92.161217 -0.933313 -0.000042 0.294530
87.852562 10.523310 -0.000024 0.297932
86.002731 15.441975 -0.000016 0.281331
84.972481 18.181387 -0.000012 0.282551
84.314758 19.930264 -0.000009 0.310628
83.857613 21.145794 -0.000007 0.350286
83.520813 22.041340 -0.000006 0.291539
92.437103 -2.299755 9.493273 0.337026
92.444504 -2.319872 8.396730 0.678431
92.444969 -2.321119 7.310534 0.655879
92.444969 -2.321121 6.236917 0.669917
92.444977 -2.321148 5.173679 0.451316
92.535316 -2.566545 4.139858 0.578195
92.439804 -2.307100 3.068067 0.514717
92.654572 -2.890501 2.032490 0.678431
92.439804 -2.307093 0.977684 0.568017
91.961433 -1.007654 -0.000042 0.287419
87.732864 10.478765 -0.000024 0.301747
85.917419 15.410227 -0.000016 0.275349
84.906319 18.156767 -0.000012 0.277195
84.260818 19.910192 -0.000009 0.303868
83.812172 21.128885 -0.000007 0.308064
83.481636 22.026758 -0.000006 0.258717
nan nan nan 0.000000
92.424759 -2.922832 8.517638 0.495964
92.425598 -2.925158 7.412601 0.567559
92.425591 -2.925138 6.320122 0.689693
92.425591 -2.925133 5.238204 0.552682
92.423996 -2.920710 4.164021 0.673213
92.420753 -2.911720 3.095657 0.664530
92.561485 -3.302389 2.038301 0.647059
92.420753 -2.911720 0.968494 0.670024
91.761131 -1.080589 -0.000042 0.298405
87.612862 10.435061 -0.000024 0.293736
85.831886 15.379075 -0.000016 0.341863
84.839981 18.132610 -0.000012 0.340337
84.206741 19.890495 -0.000010 0.259083
83.766617 21.112291 -0.000007 0.281361
83.442352 22.012451 -0.000006 0.278584
nan nan nan 0.000000
92.404305 -3.547337 8.643211 0.658473
92.405533 -3.550817 7.518615 0.678248
92.405533 -3.550823 6.406552 0.704295
92.405502 -3.550739 5.305225 0.525628
92.403366 -3.544659 4.211648 0.670542
92.401024 -3.538031 3.124316 0.641199
92.615280 -4.146088 2.051602 0.678431
92.401024 -3.538027 0.958948 0.699229
91.560326 -1.152128 -0.000042 0.286778
87.492554 10.392200 -0.000024 0.282109
85.746140 15.348519 -0.000017 0.281559
84.773483 18.108913 -0.000012 0.262882
84.152527 19.871181 -0.000009 0.286732
83.720940 21.096020 -0.000007 0.313924
83.402969 21.998421 -0.000006 0.269413
nan nan nan 0.000000
92.383041 -4.194448 8.773682 0.507256
92.384727 -4.199350 7.628805 0.672740
92.384735 -4.199356 6.496382 0.645060
92.384743 -4.199379 5.374905 0.649592
92.381981 -4.191376 4.261146 0.633356
92.380569 -4.187286 3.154105 0.525490
92.594498 -4.808199 2.061722 0.678431
92.380577 -4.187286 0.949026 0.622202
91.359032 -1.222275 -0.000042 0.296651
87.371948 10.350168 -0.000025 0.286809
85.660172 15.318572 -0.000017 0.277989
84.706818 18.085686 -0.000012 0.282704
84.098175 19.852243 -0.000010 0.254292
83.675156 21.080067 -0.000007 0.264256
83.363487 21.984665 -0.000006 0.287938
nan nan nan 0.000000
92.361046 -4.865843 8.909412 0.674495
92.363159 -4.872137 7.743418 0.630472
92.363159 -4.872137 6.589818 0.656962
92.363152 -4.872103 5.447362 0.660533
92.359795 -4.862135 4.312620 0.620813
92.359360 -4.860838 3.185091 0.571054
92.572937 -5.495092 2.072248 0.678431
92.359360 -4.860846 0.938704 0.591470
91.157249 -1.291016 -0.000042 0.296284
87.251053 10.308987 -0.000024 0.284825
85.574005 15.289217 -0.000017 0.278706
84.639984 18.062923 -0.000012 0.256031
84.043701 19.833685 -0.000010 0.299550
83.629257 21.064430 -0.000008 0.242390
83.323914 21.971186 -0.000006 0.298146
nan nan nan 0.000000
92.338219 -5.562845 9.050689 0.572412
92.468201 -5.957937 7.936913 0.678431
92.340439 -5.569593 6.686916 0.579919
92.468201 -5.957933 5.569700 0.678431
92.337227 -5.559828 4.366316 0.519799
92.400726 -5.752832 3.227312 0.583413
92.400726 -5.752829 2.075359 0.648829
92.337334 -5.560148 0.927960 0.564813
90.955002 -1.358349 -0.000042 0.286122
87.129875 10.268646 -0.000025 0.280262
85.487640 15.260468 -0.000017 0.268147
84.573006 18.040627 -0.000012 0.295567
83.989090 19.815508 -0.000010 0.250111
83.583252 21.049118 -0.000007 0.294133
83.284248 21.957981 -0.000006 0.307225
nan nan nan 0.000000
92.314461 -6.286837 9.197810 0.665980
92.447380 -6.700571 8.064247 0.678431
92.316208 -6.292280 6.787754 0.621515
92.447372 -6.700563 5.650207 0.678431
92.314056 -6.285574 4.422320 0.470939
92.314056 -6.285570 3.250885 0.550835
92.314056 -6.285574 2.083212 0.564981
92.314056 -6.285570 0.916789 0.513008
90.752274 -1.424250 -0.000042 0.297017
87.008415 10.229164 -0.000024 0.271702
85.401070 15.232322 -0.000017 0.273747
84.505867 18.018799 -0.000012 0.265660
83.934364 19.797712 -0.000010 0.260151
83.537140 21.034126 -0.000008 0.250233
83.244492 21.945053 -0.000006 0.338109
nan nan nan 0.000000
92.289818 -7.039846 9.351212 0.539208
92.366219 -7.283480 8.160874 0.642130
92.291023 -7.043684 6.892861 0.653208
92.425713 -7.473200 5.734172 0.678431
92.289696 -7.039450 4.480634 0.640558
92.289703 -7.039461 3.285824 0.626551
92.289696 -7.039450 2.094849 0.524086
92.289696 -7.039442 0.905151 0.525048
90.549095 -1.488745 -0.000042 0.291371
86.886688 10.190523 -0.000025 0.305333
85.314308 15.204782 -0.000017 0.300664
84.438576 17.997438 -0.000013 0.256413
83.879501 19.780304 -0.000010 0.287144
83.490929 21.019455 -0.000008 0.295262
83.204643 21.932405 -0.000006 0.283986
nan nan nan 0.000000
92.263916 -7.822645 9.511056 0.390982
92.282852 -7.884546 8.260857 0.629252
92.264824 -7.825632 7.002509 0.551278
92.331947 -8.045031 5.793819 0.657084
92.264351 -7.824064 4.541474 0.556069
92.264351 -7.824068 3.322275 0.591699
92.264351 -7.824072 2.106992 0.550942
92.264343 -7.824064 0.893009 0.617441
90.345474 -1.551823 -0.000042 0.291737
86.764694 10.152731 -0.000025 0.272831
85.227356 15.177849 -0.000017 0.333806
84.371147 17.976549 -0.000013 0.272892
83.824532 19.763273 -0.000010 0.254734
83.444611 21.005108 -0.000008 0.282307
83.164711 21.920036 -0.000006 0.325109
nan nan nan 0.000000
nan nan nan 0.000000
nan nan nan 0.000000
nan nan nan 0.000000
nan nan nan 0.000000
nan nan nan 0.000000
nan nan nan 0.000000
nan nan nan 0.000000
107.042450 -58.269005 0.032863 0.294118
90.141418 -1.613474 -0.000042 0.295842
86.642433 10.115791 -0.000025 0.284733
85.140213 15.151521 -0.000017 0.305776
84.303566 17.956131 -0.000013 0.308598
83.769440 19.746628 -0.000010 0.268208
83.398201 20.991087 -0.000008 0.272145
83.124687 21.907946 -0.000006 0.303822
nan nan nan 0.000000
nan nan nan 0.000000
nan nan nan 0.000000
nan nan nan 0.000000
nan nan nan 0.000000
nan nan nan 0.000000
nan nan nan 0.000000
nan nan nan 0.000000
106.389435 -58.264931 0.035947 0.294118
89.936935 -1.673698 -0.000042 0.294789
86.519920 10.079712 -0.000025 0.291768
85.052895 15.125800 -0.000017 0.302342
84.235840 17.936188 -0.000013 0.353826
83.714226 19.730368 -0.000010 0.268009
83.351692 20.977386 -0.000008 0.282368
83.084587 21.896133 -0.000007 0.334142
nan nan nan 0.000000
nan nan nan 0.000000
nan nan nan 0.000000
nan nan nan 0.000000
nan nan nan 0.000000
nan nan nan 0.000000
nan nan nan 0.000000
nan nan nan 0.000000
107.019028 -62.780785 -0.037926 0.294118
89.732040 -1.732502 -0.000043 0.293553
86.397156 10.044487 -0.000025 0.310079
84.965393 15.100694 -0.000017 0.287266
84.167984 17.916718 -0.000013 0.291966
83.658913 19.714493 -0.000010 0.238163
83.305084 20.964016 -0.000008 0.257328
83.044403 21.884602 -0.000006 0.352071
nan nan nan 0.000000
nan nan nan 0.000000
nan nan nan 0.000000
nan nan nan 0.000000
nan nan nan 0.000000
nan nan nan 0.000000
nan nan nan 0.000000
nan nan nan 0.000000
106.342545 -62.795685 -0.035182 0.294118
89.526733 -1.789869 -0.000043 0.294667
86.274155 10.010115 -0.000025 0.305760
84.877724 15.076197 -0.000017 0.309010
84.099991 17.897715 -0.000013 0.276631
83.603477 19.699007 -0.000010 0.269322
83.258385 20.950968 -0.000008 0.314855
83.004135 21.873352 -0.000006 0.301778
nan nan nan 0.000000
nan nan nan 0.000000
nan nan nan 0.000000
nan nan nan 0.000000
nan nan nan 0.000000
nan nan nan 0.000000
nan nan nan 0.000000
nan nan nan 0.000000
105.662918 -62.789894 -0.032173 0.294118
89.321037 -1.845797 -0.000043 0.294316
86.150917 9.976599 -0.000026 0.294667
84.789886 15.052317 -0.000017 0.282475
84.031868 17.879194 -0.000013 0.282551
83.547943 19.683907 -0.000010 0.296574
83.211601 20.938246 -0.000008 0.295399
82.963799 21.862383 -0.000007 0.254704
nan nan nan 0.000000
nan nan nan 0.000000
nan nan nan 0.000000
nan nan nan 0.000000
nan nan nan 0.000000
nan nan nan 0.000000
nan nan nan 0.000000
nan nan nan 0.000000
104.990791 -62.802895 -0.029566 0.294118
89.114944 -1.900278 -0.000043 0.296635
86.027435 9.943954 -0.000025 0.293950
84.701881 15.029043 -0.000017 0.299229
83.963615 17.861149 -0.000013 0.271946
83.492302 19.669195 -0.000010 0.320089
83.164726 20.925852 -0.000008 0.326863
82.923378 21.851698 -0.000007 0.337850
nan nan nan 0.000000
nan nan nan 0.000000
nan nan nan 0.000000
nan nan nan 0.000000
nan nan nan 0.000000
nan nan nan 0.000000
nan nan nan 0.000000
nan nan nan 0.000000
104.315971 -62.796265 -0.026714 0.294118
88.908493 -1.953339 -0.000043 0.291188
85.903740 9.912176 -0.000025 0.305089
84.613716 15.006392 -0.000017 0.313252
83.895241 17.843578 -0.000013 0.293034
83.436562 19.654871 -0.000010 0.263050
83.117760 20.913784 -0.000008 0.313954
82.882889 21.841291 -0.000007 0.239429
nan nan nan 0.000000
nan nan nan 0.000000
nan nan nan 0.000000
nan nan nan 0.000000
nan nan nan 0.000000
nan nan nan 0.000000
nan nan nan 0.000000
nan nan nan 0.000000
103.648033 -62.807610 -0.024248 0.294118
88.701660 -2.004938 -0.000043 0.294392
85.779823 9.881254 -0.000025 0.288518
84.525391 14.984352 -0.000017 0.266102
83.826744 17.826485 -0.000013 0.294743
83.380722 19.640938 -0.000010 0.370779
83.070717 20.902044 -0.000008 0.296986
82.842323 21.831171 -0.000007 0.379889
nan nan nan 0.000000
nan nan nan 0.000000
nan nan nan 0.000000
nan nan nan 0.000000
nan nan nan 0.000000
nan nan nan 0.000000
nan nan nan 0.000000
nan nan nan 0.000000
102.977798 -62.800430 -0.021552 0.294118
88.494476 -2.055099 -0.000043 0.283055
85.655693 9.851200 -0.000025 0.290852
84.436920 14.962928 -0.000018 0.293904
83.758133 17.809872 -0.000013 0.269963
83.324783 19.627394 -0.000010 0.296635
83.023590 20.890636 -0.000008 0.246128
82.801689 21.821333 -0.000007 0.249500
nan nan nan 0.000000
nan nan nan 0.000000
nan nan nan 0.000000
nan nan nan 0.000000
nan nan nan 0.000000
nan nan nan 0.000000
nan nan nan 0.000000
nan nan nan 0.000000
102.313858 -62.810349 -0.019226 0.294118
88.286949 -2.103821 -0.000043 0.293614
85.531357 9.822001 -0.000026 0.293126
84.348297 14.942126 -0.000018 0.268452
83.689400 17.793739 -0.000013 0.308232
83.268753 19.614241 -0.000010 0.270649
82.976395 20.879555 -0.000008 0.241672
82.760994 21.811777 -0.000007 0.238514
nan nan nan 0.000000
nan nan nan 0.000000
nan nan nan 0.000000
nan nan nan 0.000000
nan nan nan 0.000000
nan nan nan 0.000000
nan nan nan 0.000000
nan nan nan 0.000000
101.648026 -62.802856 -0.016692 0.294118
88.079086 -2.151081 -0.000043 0.289204
85.406822 9.793688 -0.000026 0.282475
84.259537 14.921940 -0.000018 0.319860
83.620560 17.778084 -0.000013 0.254871
83.212639 19.601479 -0.000010 0.293568
82.929115 20.868805 -0.000008 0.308110
82.720222 21.802509 -0.000007 0.315953
nan nan nan 0.000000
nan nan nan 0.000000
nan nan nan 0.000000
nan nan nan 0.000000
nan nan nan 0.000000
nan nan nan 0.000000
nan nan nan 0.000000
nan nan nan 0.000000
100.801994 -61.952621 -0.000128 0.294118
87.870903 -2.196896 -0.000043 0.293370
85.282089 9.766237 -0.000026 0.290120
84.170631 14.902379 -0.000018 0.297749
83.551613 17.762913 -0.000013 0.276921
83.156425 19.589111 -0.000010 0.242344
82.881760 20.858383 -0.000008 0.285130
82.679398 21.793522 -0.000007 0.327779
nan nan nan 0.000000
nan nan nan 0.000000
nan nan nan 0.000000
nan nan nan 0.000000
nan nan nan 0.000000
nan nan nan 0.000000
nan nan nan 0.000000
nan nan nan 0.000000
100.175995 -62.085747 -0.000128 0.294118
87.662399 -2.241257 -0.000043 0.296529
85.157173 9.739656 -0.000026 0.288838
84.081596 14.883433 -0.000018 0.308110
83.482567 17.748224 -0.000013 0.257755
83.100136 19.577133 -0.000010 0.240848
82.834335 20.848293 -0.000008 0.390997
82.638504 21.784822 -0.000007 0.329915
nan nan nan 0.000000
nan nan nan 0.000000
nan nan nan 0.000000
nan nan nan 0.000000
nan nan nan 0.000000
nan nan nan 0.000000
nan nan nan 0.000000
nan nan nan 0.000000
99.549118 -62.214645 -0.000129 0.294118
87.453606 -2.284191 -0.000044 0.283604
85.032066 9.713951 -0.000026 0.279118
83.992432 14.865111 -0.000018 0.261936
83.413414 17.734013 -0.000013 0.260395
83.043762 19.565552 -0.000010 0.325551
82.786842 20.838535 -0.000009 0.285893
82.597549 21.776409 -0.000007 0.297642
nan nan nan 0.000000
nan nan nan 0.000000
nan nan nan 0.000000
nan nan nan 0.000000
nan nan nan 0.000000
nan nan nan 0.000000
nan nan nan 0.000000
nan nan nan 0.000000
98.921310 -62.338989 -0.000129 0.294118
87.244499 -2.325623 -0.000044 0.292149
84.906792 9.689121 -0.000026 0.283650
83.903137 14.847415 -0.000018 0.305776
83.344162 17.720287 -0.000013 0.273518
82.987305 19.554361 -0.000011 0.262028
82.739281 20.829109 -0.000009 0.320684
82.556541 21.768280 -0.000007 0.291142
nan nan nan 0.000000
nan nan nan 0.000000
nan nan nan 0.000000
nan nan nan 0.000000
nan nan nan 0.000000
nan nan nan 0.000000
nan nan nan 0.000000
nan nan nan 0.000000
98.292686 -62.459061 -0.000129 0.294118
87.035118 -2.365601 -0.000044 0.295018
84.781342 9.665165 -0.000026 0.284215
83.813728 14.830343 -0.000018 0.274006
83.274818 17.707047 -0.000013 0.301732
82.930779 19.543568 -0.000011 0.317968
82.691650 20.820013 -0.000009 0.285206
82.515480 21.760441 -0.000007 0.298939
nan nan nan 0.000000
nan nan nan 0.000000
nan nan nan 0.000000
nan nan nan 0.000000
nan nan nan 0.000000
nan nan nan 0.000000
nan nan nan 0.000000
nan nan nan 0.000000
97.663231 -62.574745 -0.000129 0.294118
86.825455 -2.404118 -0.000044 0.297551
84.655724 9.642092 -0.000026 0.286213
83.724197 14.813892 -0.000018 0.301289
83.205383 17.694290 -0.000014 0.317876
82.874168 19.533169 -0.000011 0.271244
82.643967 20.811253 -0.000009 0.310063
82.474358 21.752888 -0.000007 0.245808
nan nan nan 0.000000
nan nan nan 0.000000
nan nan nan 0.000000
nan nan nan 0.000000
nan nan nan 0.000000
nan nan nan 0.000000
nan nan nan 0.000000
nan nan nan 0.000000
97.032990 -62.686058 -0.000129 0.294118
