# This PCD file was generated using the MATLABÂ® pcwrite function
# from Computer Vision ToolboxÂ®.
# .PCD v.7 - Point Cloud Data file format
VERSION .7
FIELDS x y z intensity
SIZE 4 4 4 4
TYPE F F F F
COUNT 1 1 1 1
WIDTH 1233
HEIGHT 1
VIEWPOINT 0 0 0 1 0 0 0
POINTS 1233
DATA ascii
nan nan nan 0.000000
nan nan nan 0.000000
nan nan nan 0.000000
nan nan nan 0.000000
nan nan nan 0.000000
nan nan nan 0.000000
nan nan nan 0.000000
nan nan nan 0.000000
214.191422 -39.871853 -0.000082 0.294118
173.619354 5.862263 -0.000012 0.292195
165.496780 15.018287 -0.000006 0.274754
162.009476 18.949284 -0.000003 0.304692
160.067245 21.138638 -0.000002 0.335454
158.827286 22.536348 -0.000001 0.265797
157.965485 23.507811 -0.000001 0.297948
157.330536 24.223539 0.000000 0.348592
nan nan nan 0.000000
nan nan nan 0.000000
nan nan nan 0.000000
nan nan nan 0.000000
nan nan nan 0.000000
nan nan nan 0.000000
nan nan nan 0.000000
nan nan nan 0.000000
213.711121 -40.294804 -0.000082 0.294118
173.459412 5.721359 -0.000012 0.297978
165.400955 14.933858 -0.000006 0.278309
161.941177 18.889112 -0.000003 0.295445
160.014267 21.091972 -0.000002 0.308522
158.784103 22.498304 -0.000001 0.306294
157.929092 23.475761 -0.000001 0.272129
157.299164 24.195904 -0.000000 0.320226
nan nan nan 0.000000
nan nan nan 0.000000
nan nan nan 0.000000
nan nan nan 0.000000
nan nan nan 0.000000
nan nan nan 0.000000
nan nan nan 0.000000
nan nan nan 0.000000
213.227966 -40.714474 -0.000082 0.294118
173.298477 5.581572 -0.000012 0.288350
165.304535 14.850114 -0.000006 0.299916
161.872452 18.829422 -0.000003 0.292805
159.960968 21.045677 -0.000002 0.278416
158.740662 22.460564 -0.000002 0.326177
157.892487 23.443966 -0.000001 0.282689
157.267609 24.168491 -0.000000 0.262211
nan nan nan 0.000000
nan nan nan 0.000000
nan nan nan 0.000000
nan nan nan 0.000000
nan nan nan 0.000000
nan nan nan 0.000000
nan nan nan 0.000000
nan nan nan 0.000000
212.002762 -40.261600 0.018589 0.294118
173.136566 5.442921 -0.000012 0.297108
165.207520 14.767041 -0.000006 0.297536
161.803314 18.770208 -0.000003 0.288518
159.907349 20.999754 -0.000002 0.264698
158.696945 22.423128 -0.000002 0.246189
157.855667 23.412426 -0.000001 0.245960
157.235855 24.141296 -0.000000 0.299718
nan nan nan 0.000000
nan nan nan 0.000000
nan nan nan 0.000000
nan nan nan 0.000000
nan nan nan 0.000000
nan nan nan 0.000000
nan nan nan 0.000000
nan nan nan 0.000000
211.325821 -40.437885 0.023530 0.294118
172.973709 5.305391 -0.000012 0.289631
165.109940 14.684643 -0.000006 0.289494
161.733765 18.711481 -0.000004 0.276707
159.853409 20.954208 -0.000002 0.259831
158.652969 22.385998 -0.000002 0.303746
157.818619 23.381145 -0.000001 0.331304
157.203903 24.114325 -0.000000 0.281621
161.548935 18.792202 4.720912 0.670161
161.548935 18.792206 4.277191 0.520836
161.548935 18.792206 3.839700 0.678431
161.548935 18.792206 3.407393 0.702571
161.548935 18.792206 2.979263 0.730114
161.548935 18.792206 2.554345 0.525765
161.548935 18.792204 2.131702 0.745495
161.548935 18.792204 1.710417 0.718410
161.548935 18.792204 1.289583 0.659464
161.548935 18.792202 0.868298 0.718135
161.548935 18.792204 0.445655 0.708431
161.548935 18.792202 0.020737 0.714244
159.799149 20.909042 -0.000002 0.244785
158.608734 22.349176 -0.000001 0.275044
157.781357 23.350122 -0.000001 0.271153
157.171783 24.087576 -0.000000 0.243107
161.433136 18.792206 4.702508 0.434272
161.433136 18.792204 4.261323 0.673747
161.433136 18.792206 3.826333 0.648524
161.433136 18.792206 3.396495 0.406561
161.433136 18.792206 2.970810 0.600244
161.433136 18.792206 2.548320 0.505638
161.433136 18.792204 2.128093 0.689723
161.433136 18.792206 1.709215 0.675853
161.433136 18.792204 1.290785 0.656489
161.433136 18.792202 0.871907 0.661646
161.433136 18.792202 0.451679 0.631067
161.433136 18.792202 0.029189 0.726223
159.744583 20.864254 -0.000002 0.279622
158.564255 22.312664 -0.000001 0.290837
157.743881 23.319363 -0.000001 0.283024
157.139465 24.061052 -0.000001 0.253376
161.318634 18.792206 4.684469 0.634714
161.318649 18.792204 4.245770 0.678431
161.318634 18.792206 3.813228 0.625864
161.318634 18.792206 3.385812 0.548989
161.318634 18.792206 2.962525 0.776471
161.318634 18.792206 2.542416 0.543191
161.318634 18.792206 2.124555 0.680949
161.318634 18.792206 1.708036 0.725856
161.318634 18.792206 1.291964 0.672496
161.318649 18.792204 0.875445 0.704540
161.318649 18.792204 0.457584 0.711894
161.318649 18.792204 0.037474 0.754147
159.689697 20.819847 -0.000003 0.292332
158.519516 22.276463 -0.000001 0.285328
157.706177 23.288864 -0.000001 0.307317
157.106964 24.034754 -0.000001 0.306767
161.205429 18.792206 4.666785 0.662669
161.205429 18.792206 4.230521 0.678431
161.205429 18.792206 3.800383 0.518502
161.205429 18.792208 3.375339 0.634363
161.205429 18.792206 2.954404 0.708797
161.205429 18.792206 2.536626 0.646571
161.205429 18.792208 2.121087 0.720882
161.205429 18.792206 1.706881 0.684443
161.205429 18.792206 1.293119 0.705882
161.205429 18.792206 0.878913 0.649882
161.205429 18.792206 0.463373 0.592645
161.205429 18.792206 0.045596 0.718959
159.634521 20.775826 -0.000002 0.284672
158.474518 22.240574 -0.000002 0.291737
157.668274 23.258631 -0.000001 0.275532
157.074280 24.008686 -0.000000 0.280262
161.093460 18.792206 4.649448 0.672877
161.093460 18.792206 4.215574 0.429816
161.093460 18.792206 3.787790 0.709804
161.093460 18.792206 3.365073 0.656413
161.093460 18.792208 2.946442 0.706950
161.093460 18.792206 2.530952 0.603250
161.093460 18.792206 2.117687 0.692348
161.093460 18.792206 1.705748 0.709804
161.093460 18.792206 1.294251 0.698039
161.093460 18.792206 0.882313 0.661158
161.093460 18.792206 0.469048 0.576898
161.093460 18.792206 0.053558 0.678431
159.579025 20.732187 -0.000003 0.299306
158.429276 22.205002 -0.000002 0.260258
157.630157 23.228661 -0.000001 0.278553
157.041412 23.982845 -0.000000 0.261814
160.982697 18.792208 4.632453 0.329519
160.982697 18.792208 4.200920 0.650690
160.982697 18.792210 3.775444 0.645930
160.982697 18.792210 3.355009 0.635294
160.982697 18.792210 2.938637 0.671977
160.982697 18.792208 2.525389 0.670420
160.982697 18.792208 2.114353 0.699519
160.982697 18.792210 1.704638 0.702525
160.982697 18.792210 1.295362 0.678431
160.982697 18.792206 0.885646 0.556130
160.982697 18.792206 0.474611 0.491569
160.982697 18.792206 0.061363 0.696895
159.523224 20.688944 -0.000003 0.280507
158.383789 22.169746 -0.000002 0.307607
157.591843 23.198959 -0.000001 0.301442
157.008377 23.957237 -0.000001 0.245823
160.873123 18.792208 4.615792 0.563424
160.873123 18.792208 4.186553 0.707530
160.873123 18.792210 3.763341 0.478935
160.873123 18.792210 3.345142 0.626612
160.873123 18.792210 2.930984 0.666529
160.873123 18.792210 2.519934 0.601068
160.873123 18.792206 2.111086 0.691188
160.873123 18.792206 1.703550 0.615366
160.873123 18.792206 1.296450 0.655253
160.873123 18.792206 0.888914 0.549020
160.873123 18.792208 0.480065 0.464683
160.873123 18.792206 0.069016 0.632502
159.467117 20.646086 -0.000003 0.285451
158.338058 22.134808 -0.000002 0.370169
157.553314 23.169525 -0.000001 0.282963
156.975143 23.931858 -0.000000 0.275456
160.764709 18.792210 4.599457 0.705531
160.764709 18.792208 4.172468 0.709804
160.764709 18.792210 3.751475 0.590753
160.764709 18.792208 3.335469 0.690929
160.764709 18.792210 2.923482 0.672724
160.764709 18.792210 2.514587 0.658061
160.764709 18.792210 2.107882 0.670359
160.764709 18.792206 1.702483 0.741176
160.764709 18.792206 1.297517 0.759625
160.764709 18.792208 0.892118 0.716670
160.764709 18.792208 0.485412 0.511604
160.764709 18.792206 0.076518 0.632990
159.410721 20.603622 -0.000003 0.314763
158.292084 22.100189 -0.000002 0.269978
157.514572 23.140360 -0.000001 0.293690
156.941757 23.906710 -0.000001 0.323995
160.657410 18.792208 4.583440 0.692424
160.657410 18.792210 4.158659 0.678431
160.657410 18.792210 3.739841 0.447425
160.657410 18.792210 3.325984 0.617838
160.657410 18.792208 2.916127 0.646006
160.657410 18.792210 2.509345 0.629252
160.657410 18.792210 2.104741 0.643046
160.657410 18.792210 1.701436 0.588983
160.657410 18.792208 1.298564 0.652949
160.657410 18.792210 0.895259 0.590692
160.657410 18.792208 0.490655 0.471199
160.657425 18.792206 0.083873 0.522057
159.354034 20.561554 -0.000002 0.265202
158.245865 22.065893 -0.000002 0.293339
157.475647 23.111467 -0.000001 0.248371
156.908173 23.881798 -0.000001 0.377203
160.551224 18.792210 4.567739 0.565347
160.551224 18.792210 4.145120 0.414282
160.551224 18.792210 3.728435 0.601740
160.551224 18.792210 3.316685 0.704250
160.551224 18.792210 2.908915 0.732601
160.551224 18.792208 2.504205 0.716548
160.551224 18.792210 2.101661 0.654597
160.551224 18.792210 1.700411 0.765530
160.551224 18.792210 1.299590 0.721569
160.551224 18.792210 0.898338 0.708385
160.551224 18.792206 0.495795 0.556161
160.551224 18.792208 0.091084 0.695567
159.297043 20.519882 -0.000002 0.297887
158.199402 22.031923 -0.000002 0.266773
157.436508 23.082846 -0.000001 0.248951
156.874435 23.857121 -0.000001 0.255421
160.446091 18.792210 4.552343 0.577325
160.446091 18.792212 4.131845 0.616541
160.446091 18.792210 3.717252 0.678431
160.446106 18.792210 3.307569 0.666667
160.446091 18.792210 2.901845 0.698039
160.446091 18.792210 2.499166 0.683101
160.446106 18.792210 2.098642 0.665690
160.446106 18.792210 1.699405 0.733333
160.446106 18.792210 1.300595 0.681651
160.446106 18.792210 0.901358 0.646845
160.446106 18.792210 0.500834 0.537194
160.446106 18.792210 0.098155 0.662806
159.239777 20.478607 -0.000003 0.297215
158.152710 21.998274 -0.000002 0.299901
157.397171 23.054501 -0.000001 0.334508
156.840515 23.832678 -0.000001 0.332387
160.342010 18.792212 4.537251 0.562371
160.342026 18.792210 4.118832 0.654215
160.342026 18.792210 3.706288 0.707973
160.342026 18.792210 3.298630 0.763470
160.342026 18.792210 2.894913 0.776471
160.342026 18.792210 2.494225 0.741176
160.342026 18.792210 2.095682 0.661646
160.342026 18.792210 1.698419 0.776471
160.342026 18.792210 1.301581 0.748196
160.342026 18.792208 0.904318 0.732219
160.342026 18.792210 0.505775 0.611765
160.342026 18.792208 0.105087 0.774731
159.182205 20.437737 -0.000003 0.263142
158.105789 21.964954 -0.000002 0.317281
157.357635 23.026428 -0.000001 0.291600
156.806427 23.808474 -0.000001 0.250538
160.238968 18.792210 4.522451 0.703349
160.238953 18.792212 4.106072 0.615396
160.238953 18.792210 3.695538 0.708232
160.238953 18.792210 3.289867 0.757580
160.238953 18.792212 2.888116 0.743450
160.238968 18.792210 2.489381 0.721569
160.238953 18.792210 2.092779 0.670100
160.238953 18.792210 1.697452 0.723568
160.238953 18.792210 1.302548 0.709804
160.238953 18.792210 0.907220 0.699382
160.238968 18.792210 0.510619 0.581964
160.238968 18.792210 0.111884 0.741176
159.124359 20.397266 -0.000003 0.313527
158.058624 21.931963 -0.000002 0.331853
157.317902 22.998632 -0.000002 0.317968
156.772171 23.784508 -0.000001 0.274861
160.136902 18.792210 4.507942 0.666316
160.136902 18.792212 4.093561 0.603815
160.136902 18.792210 3.684998 0.682963
160.136902 18.792210 3.281275 0.776959
160.136902 18.792212 2.881453 0.741726
160.136902 18.792212 2.484631 0.772335
160.136902 18.792210 2.089933 0.664515
160.136902 18.792212 1.696504 0.776959
160.136902 18.792210 1.303496 0.776471
160.136902 18.792210 0.910066 0.679011
160.136902 18.792210 0.515369 0.549691
160.136902 18.792210 0.118547 0.778149
159.066238 20.357201 -0.000003 0.315206
158.011246 21.899302 -0.000002 0.263066
157.277985 22.971117 -0.000001 0.320226
156.737747 23.760780 -0.000001 0.303380
160.035797 18.792210 4.493718 0.415595
160.035797 18.792213 4.081296 0.567864
160.035797 18.792212 3.674665 0.339010
160.035797 18.792210 3.272851 0.690394
160.035797 18.792213 2.874919 0.600977
160.035797 18.792210 2.479975 0.698650
160.035797 18.792210 2.087143 0.656901
160.035797 18.792210 1.695575 0.665690
160.035797 18.792210 1.304425 0.682994
160.035797 18.792210 0.912856 0.640467
160.035797 18.792210 0.520025 0.600443
160.035797 18.792210 0.125080 0.666941
159.007828 20.317545 -0.000003 0.272084
157.963638 21.866970 -0.000002 0.259449
157.237869 22.943880 -0.000001 0.374777
156.703171 23.737297 -0.000001 0.271702
159.935654 18.792212 4.479771 0.467933
159.935654 18.792213 4.069270 0.645960
159.935654 18.792212 3.664534 0.498344
159.935654 18.792212 3.264592 0.690196
159.935654 18.792212 2.868514 0.645502
159.935654 18.792210 2.475409 0.581949
159.935654 18.792210 2.084408 0.650004
159.935654 18.792210 1.694664 0.624002
159.935654 18.792210 1.305336 0.663508
159.935654 18.792210 0.915591 0.592157
159.935654 18.792210 0.524591 0.592996
159.935654 18.792210 0.131486 0.635203
158.949158 20.278297 -0.000003 0.292348
157.915787 21.834972 -0.000002 0.341283
157.197571 22.916924 -0.000002 0.314488
156.668411 23.714056 -0.000001 0.265949
159.836426 18.792212 4.466096 0.580652
159.836426 18.792213 4.057480 0.400046
159.836426 18.792212 3.654601 0.367987
159.836426 18.792212 3.256494 0.690837
159.836426 18.792210 2.862234 0.685130
159.836426 18.792210 2.470933 0.654673
159.836426 18.792212 2.081727 0.631144
159.836426 18.792212 1.693770 0.689708
159.836426 18.792212 1.306230 0.635294
159.836426 18.792210 0.918273 0.644694
159.836426 18.792210 0.529067 0.662699
159.836426 18.792210 0.137766 0.689967
158.890198 20.239456 -0.000003 0.283879
157.867737 21.803310 -0.000002 0.321935
157.157074 22.890249 -0.000001 0.300893
156.633499 23.691053 -0.000001 0.310307
159.738113 18.792213 4.452690 0.666270
159.738113 18.792213 4.045922 0.680354
159.738113 18.792210 3.644864 0.649073
159.738113 18.792213 3.248555 0.664988
159.738113 18.792213 2.856078 0.703212
159.738113 18.792213 2.466545 0.656092
159.738113 18.792213 2.079098 0.639673
159.738113 18.792212 1.692895 0.732754
159.738113 18.792212 1.307105 0.626093
159.738113 18.792213 0.920902 0.601831
159.738113 18.792213 0.533455 0.663859
159.738113 18.792213 0.143922 0.655482
158.830978 20.201031 -0.000003 0.337682
157.819458 21.771984 -0.000003 0.266682
157.116409 22.863857 -0.000002 0.270878
156.598434 23.668299 -0.000001 0.340658
159.640671 18.792213 4.439548 0.652140
159.640656 18.792213 4.034589 0.661433
159.640656 18.792213 3.635317 0.675792
159.640671 18.792213 3.240773 0.704890
159.640671 18.792213 2.850042 0.728313
159.640671 18.792213 2.462242 0.674754
159.640671 18.792213 2.076520 0.631617
159.640656 18.792213 1.692036 0.707713
159.640671 18.792213 1.307964 0.704616
159.640671 18.792213 0.923480 0.667277
159.640671 18.792213 0.537757 0.740566
159.640671 18.792213 0.149958 0.703822
158.771484 20.163017 -0.000003 0.256138
157.770950 21.740997 -0.000002 0.273426
157.075546 22.837749 -0.000002 0.305867
156.563202 23.645788 -0.000001 0.296712
159.544083 18.792213 4.426664 0.437949
159.544083 18.792215 4.023480 0.676829
159.544083 18.792213 3.625958 0.676646
159.544083 18.792213 3.233143 0.698283
159.544083 18.792213 2.844125 0.726162
159.544083 18.792212 2.458025 0.698039
159.544083 18.792213 2.073993 0.619486
159.544083 18.792213 1.691195 0.676310
159.544083 18.792213 1.308806 0.727825
159.544083 18.792213 0.926007 0.633921
159.544083 18.792210 0.541974 0.736599
159.544083 18.792212 0.155875 0.716197
158.711746 20.125420 -0.000004 0.288151
157.722244 21.710348 -0.000002 0.332647
157.034515 22.811930 -0.000002 0.330526
156.527817 23.623526 -0.000001 0.260716
159.448334 18.792215 4.414034 0.424536
159.448334 18.792213 4.012591 0.392920
159.448334 18.792213 3.616783 0.530953
159.448334 18.792213 3.225664 0.722042
159.448334 18.792213 2.838324 0.760922
159.448334 18.792213 2.453891 0.794308
159.448334 18.792213 2.071516 0.647944
159.448334 18.792213 1.690369 0.801465
159.448334 18.792213 1.309631 0.762310
159.448334 18.792213 0.928484 0.700008
159.448334 18.792212 0.546109 0.733944
159.448334 18.792213 0.161676 0.736294
158.651718 20.088242 -0.000003 0.250462
157.673325 21.680040 -0.000002 0.313313
156.993286 22.786396 -0.000002 0.241352
156.492279 23.601509 -0.000001 0.268711
159.353409 18.792215 4.401653 0.678431
159.353409 18.792215 4.001916 0.484031
159.353409 18.792213 3.607790 0.363119
159.353409 18.792215 3.218331 0.656107
159.353409 18.792213 2.832638 0.758694
159.353409 18.792215 2.449838 0.729168
159.353409 18.792215 2.069088 0.601801
159.353409 18.792213 1.689561 0.716823
159.353409 18.792213 1.310440 0.770031
159.353409 18.792213 0.930912 0.632044
159.353409 18.792213 0.550161 0.675822
159.353409 18.792213 0.167362 0.726574
158.591446 20.051487 -0.000003 0.346181
157.624191 21.650074 -0.000003 0.248035
156.951904 22.761150 -0.000002 0.320714
156.456589 23.579741 -0.000001 0.295537
159.259277 18.792215 4.389518 0.678431
159.259277 18.792213 3.991452 0.663127
159.259277 18.792213 3.598975 0.435660
159.259277 18.792213 3.211145 0.682704
159.259277 18.792213 2.827065 0.739055
159.259277 18.792213 2.445865 0.649531
159.259277 18.792213 2.066708 0.495415
159.259277 18.792213 1.688768 0.609644
159.259277 18.792213 1.311232 0.647059
159.259277 18.792213 0.933292 0.630823
159.259277 18.792213 0.554134 0.705638
159.259277 18.792213 0.172935 0.687907
158.530930 20.015152 -0.000003 0.256367
157.574844 21.620449 -0.000003 0.338903
156.910324 22.736195 -0.000002 0.280079
156.420746 23.558224 -0.000001 0.342016
159.165939 18.792213 4.377624 0.678431
159.165939 18.792213 3.981196 0.709804
159.165939 18.792213 3.590334 0.647852
159.165939 18.792213 3.204102 0.741176
159.165939 18.792213 2.821602 0.804166
159.165939 18.792213 2.441972 0.685710
159.165939 18.792213 2.064375 0.528359
159.165939 18.792213 1.687990 0.688792
159.165939 18.792213 1.312009 0.666667
159.165939 18.792213 0.935625 0.640864
159.165939 18.792213 0.558028 0.708797
159.165939 18.792213 0.178398 0.815122
158.470154 19.979237 -0.000004 0.258259
157.525284 21.591175 -0.000002 0.310887
156.868576 22.711531 -0.000002 0.304524
156.384750 23.536957 -0.000001 0.318639
159.073349 18.792215 4.365965 0.613748
159.073349 18.792215 3.971144 0.683253
159.073349 18.792215 3.581865 0.654261
159.073349 18.792213 3.197198 0.709804
159.073349 18.792215 2.816247 0.677699
159.073349 18.792213 2.438155 0.598779
159.073349 18.792213 2.062088 0.491417
159.073349 18.792213 1.687229 0.666667
159.073349 18.792213 1.312771 0.661082
159.073349 18.792213 0.937911 0.613733
159.073349 18.792213 0.561844 0.693538
159.073349 18.792213 0.183753 0.681620
158.409119 19.943752 -0.000003 0.307576
157.475540 21.562244 -0.000002 0.306615
156.826675 22.687157 -0.000002 0.326299
156.348618 23.515942 -0.000001 0.326207
158.981506 18.792215 4.354540 0.532021
158.981506 18.792213 3.961293 0.657481
158.981506 18.792213 3.573566 0.678431
158.981506 18.792215 3.190431 0.709804
158.981506 18.792215 2.811000 0.668147
158.981506 18.792215 2.434416 0.709804
158.981506 18.792215 2.059848 0.506920
158.981506 18.792213 1.686483 0.674144
158.981506 18.792213 1.313517 0.676219
158.981506 18.792215 0.940152 0.638361
158.981506 18.792215 0.565584 0.709804
158.981506 18.792213 0.189000 0.692485
158.347839 19.908691 -0.000004 0.265583
157.425583 21.533663 -0.000003 0.304082
156.784576 22.663078 -0.000002 0.283742
156.312317 23.495178 -0.000001 0.329488
158.890381 18.792217 4.343343 0.623835
158.890381 18.792217 3.951638 0.464836
158.890381 18.792213 3.565433 0.678431
158.890381 18.792217 3.183801 0.648966
158.890381 18.792215 2.805858 0.741176
158.890381 18.792213 2.430751 0.653071
158.890381 18.792213 2.057652 0.498497
158.890381 18.792215 1.685751 0.675517
158.890381 18.792215 1.314249 0.685924
158.890381 18.792213 0.942348 0.610712
158.890381 18.792213 0.569249 0.653834
158.890381 18.792213 0.194142 0.737408
158.286331 19.874058 -0.000004 0.289570
157.375427 21.505430 -0.000003 0.277348
156.742340 22.639292 -0.000002 0.276661
156.275894 23.474670 -0.000002 0.319020
158.799973 18.792215 4.332371 0.359823
158.799973 18.792213 3.942178 0.279225
158.799973 18.792213 3.557462 0.665217
158.799973 18.792215 3.177303 0.709804
158.799973 18.792213 2.800818 0.752941
158.799973 18.792215 2.427159 0.680644
158.799973 18.792213 2.055500 0.475242
158.799973 18.792213 1.685034 0.697429
158.799973 18.792213 1.314965 0.692897
158.799973 18.792213 0.944500 0.601923
158.799973 18.792213 0.572841 0.679164
158.799973 18.792213 0.199181 0.737560
158.224564 19.839855 -0.000004 0.316701
157.325089 21.477547 -0.000003 0.311650
156.699921 22.615803 -0.000002 0.304326
156.239319 23.454416 -0.000002 0.363958
158.710251 18.792213 4.321621 0.678431
158.710251 18.792217 3.932908 0.678431
158.710251 18.792213 3.549653 0.665797
158.710251 18.792213 3.170937 0.709804
158.710251 18.792213 2.795881 0.678431
158.710251 18.792215 2.423640 0.676509
158.710251 18.792215 2.053391 0.442847
158.710251 18.792213 1.684332 0.607233
158.710251 18.792213 1.315668 0.689845
158.710251 18.792213 0.946608 0.541039
158.710251 18.792213 0.576360 0.653040
158.710251 18.792213 0.204118 0.678431
158.162567 19.806087 -0.000004 0.261875
157.274551 21.450016 -0.000003 0.283757
156.657333 22.592609 -0.000002 0.236774
156.202606 23.434418 -0.000002 0.278370
158.621201 18.792215 4.311089 0.705638
158.621201 18.792217 3.923827 0.678111
158.621201 18.792213 3.542002 0.670771
158.621201 18.792215 3.164700 0.698711
158.621201 18.792213 2.791044 0.741176
158.621201 18.792215 2.420192 0.728801
158.621201 18.792213 2.051326 0.498756
158.621201 18.792213 1.683644 0.709804
158.621201 18.792213 1.316356 0.654902
158.621201 18.792213 0.948674 0.578058
158.621201 18.792213 0.579808 0.706813
158.621201 18.792213 0.208955 0.741176
158.100342 19.772749 -0.000004 0.309422
157.223816 21.422842 -0.000003 0.300877
156.614594 22.569714 -0.000002 0.276432
156.165756 23.414677 -0.000002 0.328038
158.532806 18.792215 4.300770 0.566476
158.532806 18.792215 3.914930 0.673426
158.532806 18.792217 3.534507 0.458183
158.532806 18.792213 3.158590 0.734432
158.532806 18.792215 2.786305 0.651347
158.532806 18.792213 2.416814 0.617899
158.532806 18.792213 2.049302 0.402258
158.532806 18.792213 1.682970 0.596933
158.532806 18.792213 1.317030 0.640070
158.532806 18.792213 0.950698 0.594369
158.532806 18.792213 0.583185 0.622919
158.532806 18.792213 0.213695 0.654017
158.037872 19.739849 -0.000004 0.250874
157.172897 21.396019 -0.000003 0.315785
156.571701 22.547117 -0.000002 0.279561
156.128769 23.395195 -0.000002 0.268452
158.445068 18.792215 4.290663 0.623377
158.445068 18.792213 3.906216 0.668299
158.445068 18.792215 3.527165 0.560510
158.445068 18.792213 3.152604 0.656245
158.445068 18.792215 2.781663 0.776471
158.445068 18.792215 2.413506 0.726467
158.445068 18.792215 2.047320 0.509377
158.445068 18.792215 1.682310 0.741176
158.445068 18.792215 1.317690 0.736202
158.445068 18.792215 0.952680 0.706081
158.445068 18.792213 0.586494 0.730419
158.445068 18.792213 0.218336 0.776471
157.975189 19.707388 -0.000004 0.302602
157.121796 21.369555 -0.000003 0.309545
156.528641 22.524822 -0.000002 0.262867
156.091644 23.375969 -0.000002 0.310826
158.357941 18.792215 4.280763 0.538354
158.357941 18.792213 3.897680 0.660594
158.357941 18.792213 3.519974 0.609598
158.357941 18.792213 3.146742 0.627909
158.357941 18.792213 2.777117 0.760204
158.357941 18.792215 2.410265 0.729000
158.357941 18.792213 2.045378 0.526772
158.357941 18.792213 1.681663 0.727230
158.357941 18.792213 1.318337 0.698039
158.357941 18.792213 0.954622 0.669978
158.357941 18.792213 0.589734 0.712871
158.357941 18.792213 0.222883 0.740444
157.912277 19.675364 -0.000004 0.263584
157.070496 21.343445 -0.000003 0.304479
156.485428 22.502827 -0.000002 0.322057
156.054382 23.357004 -0.000002 0.264988
158.271439 18.792217 4.271068 0.603464
158.271439 18.792213 3.889320 0.569604
158.271439 18.792213 3.512932 0.647059
158.271439 18.792213 3.141001 0.528496
158.271439 18.792213 2.772664 0.690089
158.271439 18.792215 2.407092 0.715877
158.271439 18.792215 2.043477 0.523751
158.271439 18.792213 1.681030 0.682597
158.271439 18.792213 1.318970 0.650568
158.271439 18.792215 0.956523 0.570214
158.271439 18.792215 0.592908 0.653513
158.271439 18.792213 0.227336 0.701946
157.849136 19.643776 -0.000004 0.329595
157.019028 21.317698 -0.000003 0.273442
156.442078 22.481133 -0.000002 0.241962
156.016998 23.338299 -0.000002 0.257557
158.185516 18.792213 4.261576 0.678431
158.185516 18.792213 3.881135 0.384970
158.185516 18.792213 3.506035 0.635737
158.185516 18.792213 3.135378 0.570275
158.185516 18.792213 2.768304 0.689708
158.185516 18.792213 2.403984 0.721340
158.185516 18.792213 2.041615 0.564858
158.185516 18.792213 1.680409 0.659358
158.185516 18.792213 1.319591 0.696208
158.185516 18.792213 0.958385 0.608362
158.185516 18.792213 0.596015 0.668223
158.185516 18.792213 0.231696 0.705943
157.785782 19.612633 -0.000004 0.257206
156.967377 21.292309 -0.000003 0.252491
156.398560 22.459743 -0.000002 0.320134
155.979477 23.319857 -0.000002 0.276036
158.100189 18.792213 4.252281 0.670604
158.100189 18.792213 3.873120 0.426917
158.100189 18.792213 3.499284 0.675898
158.100189 18.792213 3.129874 0.508614
158.100189 18.792213 2.764036 0.709148
158.100189 18.792213 2.400942 0.690181
158.100189 18.792215 2.039792 0.555154
158.100189 18.792213 1.679802 0.644083
158.100189 18.792213 1.320198 0.657633
158.100189 18.792213 0.960208 0.624292
158.100189 18.792213 0.599058 0.666697
158.100189 18.792213 0.235964 0.718379
157.722214 19.581932 -0.000004 0.275410
156.915558 21.267279 -0.000003 0.308431
156.354904 22.438658 -0.000003 0.263081
155.941833 23.301676 -0.000002 0.272877
158.015427 18.792213 4.243182 0.678431
158.015442 18.792213 3.865275 0.645151
158.015442 18.792213 3.492674 0.530282
158.015427 18.792213 3.124486 0.533944
158.015427 18.792213 2.759856 0.755505
158.015427 18.792213 2.397963 0.766781
158.015427 18.792215 2.038007 0.612711
158.015427 18.792215 1.679207 0.698039
158.015427 18.792215 1.320792 0.736904
158.015427 18.792215 0.961992 0.693660
158.015442 18.792213 0.602037 0.773571
158.015442 18.792213 0.240143 0.775967
157.658432 19.551678 -0.000004 0.249409
156.863556 21.242615 -0.000003 0.308614
156.311096 22.417879 -0.000002 0.331579
155.904053 23.283760 -0.000002 0.307225
157.931229 18.792213 4.234274 0.671016
157.931229 18.792213 3.857595 0.678431
157.931229 18.792213 3.486204 0.655818
157.931229 18.792213 3.119212 0.518624
157.931229 18.792213 2.755766 0.700023
157.931229 18.792213 2.395048 0.681880
157.931229 18.792213 2.036261 0.560861
157.931229 18.792213 1.678626 0.673106
157.931229 18.792213 1.321374 0.651804
157.931229 18.792213 0.963739 0.635294
157.931229 18.792213 0.604952 0.684337
157.931229 18.792212 0.244234 0.725246
157.594437 19.521866 -0.000004 0.314626
156.811386 21.218311 -0.000003 0.253315
156.267136 22.397404 -0.000003 0.270649
155.866165 23.266106 -0.000002 0.248386
157.847565 18.792213 4.225559 0.678431
157.847565 18.792213 3.850079 0.679347
157.847565 18.792213 3.479872 0.618692
157.847565 18.792213 3.114050 0.543069
157.847565 18.792213 2.751763 0.720592
157.847565 18.792213 2.392195 0.678431
157.847565 18.792213 2.034551 0.591043
157.847565 18.792213 1.678057 0.678431
157.847565 18.792213 1.321943 0.708202
157.847565 18.792213 0.965449 0.637018
157.847565 18.792213 0.607806 0.696437
157.847565 18.792213 0.248237 0.740536
157.530228 19.492504 -0.000004 0.259586
156.759048 21.194376 -0.000003 0.303807
156.223053 22.377239 -0.000002 0.251041
155.828140 23.248718 -0.000002 0.318624
157.764420 18.792213 4.217029 0.527642
157.764420 18.792213 3.842726 0.671489
157.764420 18.792213 3.473677 0.398062
157.764420 18.792213 3.108999 0.519585
157.764420 18.792213 2.747846 0.713726
157.764420 18.792213 2.389402 0.668498
157.764420 18.792213 2.032878 0.559838
157.764420 18.792213 1.677499 0.650980
157.764420 18.792213 1.322501 0.668788
157.764420 18.792213 0.967121 0.652171
157.764420 18.792213 0.610597 0.648768
157.764420 18.792213 0.252154 0.714809
157.465836 19.463589 -0.000004 0.288396
156.706543 21.170803 -0.000003 0.350179
156.178818 22.357382 -0.000002 0.335607
155.790009 23.231594 -0.000002 0.246433
157.681808 18.792215 4.208685 0.656031
157.681808 18.792213 3.835531 0.666575
157.681808 18.792213 3.467615 0.493706
157.681808 18.792213 3.104058 0.559564
157.681808 18.792213 2.744013 0.752880
157.681808 18.792213 2.386671 0.704128
157.681808 18.792213 2.031242 0.544671
157.681808 18.792213 1.676954 0.702907
157.681808 18.792213 1.323046 0.754452
157.681808 18.792213 0.968758 0.674998
157.681808 18.792213 0.613329 0.718669
157.681808 18.792213 0.255987 0.746273
157.401230 19.435125 -0.000004 0.305318
156.653885 21.147600 -0.000003 0.320562
156.134445 22.337830 -0.000003 0.277516
155.751740 23.214739 -0.000002 0.340505
157.599686 18.792213 4.200523 0.619593
157.599686 18.792213 3.828494 0.675746
157.599686 18.792212 3.461687 0.448188
157.599686 18.792213 3.099224 0.573648
157.599686 18.792213 2.740265 0.764981
157.599686 18.792213 2.383999 0.721569
157.599686 18.792213 2.029641 0.655894
157.599686 18.792213 1.676421 0.752880
157.599686 18.792213 1.323579 0.767010
157.599686 18.792213 0.970359 0.674174
157.599686 18.792213 0.616000 0.723049
157.599686 18.792213 0.259735 0.752941
157.336426 19.407116 -0.000004 0.301640
156.601044 21.124763 -0.000003 0.308888
156.089935 22.318594 -0.000003 0.306447
155.713379 23.198151 -0.000002 0.342763
157.518051 18.792213 4.192541 0.332021
157.518051 18.792213 3.821611 0.621897
157.518051 18.792212 3.455888 0.602029
157.518051 18.792213 3.094497 0.572641
157.518051 18.792213 2.736599 0.754559
157.518051 18.792213 2.381386 0.716152
157.518051 18.792213 2.028075 0.616556
157.518051 18.792213 1.675900 0.751171
157.518051 18.792213 1.324100 0.742519
157.518051 18.792213 0.971924 0.674113
157.518051 18.792213 0.618613 0.678157
157.518051 18.792213 0.263401 0.743908
157.271423 19.379555 -0.000004 0.300710
156.548065 21.102299 -0.000003 0.309941
156.045303 22.299665 -0.000003 0.274632
155.674881 23.181831 -0.000002 0.346700
157.436890 18.792213 4.184737 0.671290
157.436890 18.792212 3.814882 0.565377
157.436890 18.792213 3.450219 0.664271
157.436890 18.792213 3.089875 0.657877
157.436890 18.792213 2.733014 0.803067
157.436890 18.792213 2.378831 0.771923
157.436890 18.792213 2.026545 0.630655
157.436890 18.792213 1.675390 0.793683
157.436890 18.792213 1.324610 0.753948
157.436890 18.792213 0.973455 0.706035
157.436890 18.792213 0.621168 0.769757
157.436890 18.792213 0.266986 0.769757
157.206238 19.352451 -0.000005 0.286168
156.494919 21.080200 -0.000003 0.310170
156.000534 22.281050 -0.000003 0.241001
155.636276 23.165781 -0.000002 0.363836
157.356201 18.792213 4.177108 0.664454
157.356201 18.792213 3.808303 0.411490
157.356201 18.792210 3.444678 0.636133
157.356201 18.792213 3.085358 0.658244
157.356201 18.792213 2.729511 0.697505
157.356201 18.792213 2.376334 0.719234
157.356201 18.792213 2.025048 0.578180
157.356201 18.792213 1.674891 0.694072
157.356201 18.792213 1.325109 0.677577
157.356201 18.792213 0.974951 0.646357
157.356201 18.792213 0.623666 0.720531
157.356201 18.792213 0.270489 0.710079
157.140869 19.325804 -0.000005 0.286427
156.441620 21.058477 -0.000004 0.278630
155.955627 22.262749 -0.000003 0.277913
155.597565 23.150000 -0.000002 0.340169
157.275970 18.792213 4.169651 0.683757
157.275970 18.792212 3.801874 0.467704
157.275970 18.792212 3.439260 0.669841
157.275970 18.792212 3.080942 0.658671
157.275970 18.792213 2.726086 0.730556
157.275970 18.792212 2.373893 0.727825
157.275970 18.792213 2.023586 0.653864
157.275970 18.792212 1.674404 0.765850
157.275970 18.792213 1.325596 0.694362
157.275970 18.792213 0.976414 0.643732
157.275970 18.792213 0.626106 0.722713
157.275970 18.792213 0.273914 0.749569
157.075317 19.299610 -0.000005 0.280552
156.388184 21.037123 -0.000004 0.331044
155.910599 22.244759 -0.000003 0.246265
155.558746 23.134489 -0.000002 0.311177
157.196182 18.792210 4.162366 0.682475
157.196182 18.792213 3.795592 0.647059
157.196182 18.792212 3.433969 0.664820
157.196182 18.792213 3.076628 0.688853
157.196182 18.792212 2.722740 0.759793
157.196182 18.792212 2.371509 0.748241
157.196182 18.792213 2.022157 0.666606
157.196182 18.792213 1.673928 0.787457
157.196182 18.792213 1.326072 0.776333
157.196182 18.792213 0.977842 0.615976
157.196182 18.792213 0.628491 0.773526
157.196182 18.792213 0.277260 0.740246
157.009567 19.273880 -0.000005 0.274296
156.334595 21.016146 -0.000004 0.274556
155.865448 22.227085 -0.000003 0.309865
155.519821 23.119251 -0.000002 0.268894
157.116821 18.792213 4.155249 0.612604
157.116821 18.792210 3.789456 0.647059
157.116821 18.792210 3.428799 0.575372
157.116821 18.792213 3.072413 0.564706
157.116821 18.792212 2.719472 0.672801
157.116821 18.792213 2.369179 0.692653
157.116821 18.792213 2.020761 0.588388
157.116821 18.792213 1.673463 0.666667
157.116821 18.792213 1.326537 0.702052
157.116821 18.792213 0.979238 0.595865
157.116821 18.792213 0.630821 0.693874
157.116821 18.792213 0.280528 0.635843
156.943649 19.248604 -0.000005 0.276463
156.280853 20.995541 -0.000004 0.289738
155.820175 22.209728 -0.000003 0.376730
155.480774 23.104284 -0.000002 0.280049
157.037872 18.792213 4.148298 0.439368
157.037872 18.792212 3.783463 0.678431
157.037872 18.792210 3.423751 0.634516
157.037872 18.792212 3.068297 0.625391
157.037872 18.792212 2.716280 0.583581
157.037872 18.792210 2.366904 0.699184
157.037872 18.792213 2.019398 0.520546
157.037872 18.792213 1.673009 0.689281
157.037872 18.792213 1.326991 0.647456
157.037872 18.792213 0.980601 0.603616
157.037872 18.792210 0.633096 0.684413
157.037872 18.792212 0.283720 0.580392
156.877563 19.223793 -0.000005 0.267872
156.226974 20.975313 -0.000004 0.366659
155.774780 22.192684 -0.000003 0.333242
155.441635 23.089592 -0.000002 0.242298
156.959335 18.792212 4.141513 0.522606
156.959335 18.792212 3.777613 0.678431
156.959335 18.792212 3.418821 0.636576
156.959335 18.792213 3.064279 0.619394
156.959335 18.792213 2.713164 0.641505
156.959335 18.792212 2.364683 0.663081
156.959335 18.792213 2.018068 0.566049
156.959335 18.792213 1.672566 0.624201
156.959335 18.792213 1.327434 0.647059
156.959335 18.792213 0.981932 0.508888
156.959335 18.792212 0.635317 0.709804
156.959335 18.792213 0.286837 0.666667
156.811295 19.199440 -0.000005 0.295491
156.172958 20.955462 -0.000004 0.260166
155.729279 22.175962 -0.000003 0.336767
155.402405 23.075171 -0.000002 0.305470
156.881195 18.792213 4.134891 0.575067
156.881195 18.792210 3.771903 0.678431
156.881195 18.792210 3.414011 0.439063
156.881195 18.792213 3.060357 0.650248
156.881195 18.792212 2.710122 0.659617
156.881195 18.792213 2.362514 0.672831
156.881195 18.792213 2.016769 0.690242
156.881195 18.792213 1.672133 0.710414
156.881195 18.792213 1.327867 0.650462
156.881195 18.792213 0.983231 0.460548
156.881195 18.792213 0.637485 0.682017
156.881195 18.792213 0.289878 0.709804
156.744873 19.175556 -0.000005 0.263722
156.118790 20.935989 -0.000004 0.287800
155.683655 22.159555 -0.000003 0.255360
155.363052 23.061024 -0.000003 0.279271
156.803452 18.792213 4.128429 0.643015
156.803452 18.792212 3.766331 0.709804
156.803452 18.792213 3.409317 0.676600
156.803452 18.792212 3.056530 0.647059
156.803452 18.792210 2.707155 0.666163
156.803452 18.792213 2.360399 0.675029
156.803452 18.792213 2.015502 0.692866
156.803452 18.792213 1.671711 0.709804
156.803452 18.792213 1.328289 0.634089
156.803452 18.792213 0.984498 0.410773
156.803452 18.792213 0.639600 0.677424
156.803452 18.792212 0.292846 0.679973
156.678268 19.152130 -0.000005 0.330983
156.064499 20.916893 -0.000004 0.326223
155.637909 22.143471 -0.000003 0.282780
155.323624 23.047153 -0.000003 0.266621
156.726074 18.792213 4.122127 0.635294
156.726074 18.792213 3.760896 0.720470
156.726074 18.792212 3.404738 0.536278
156.726074 18.792212 3.052798 0.647059
156.726074 18.792213 2.704260 0.668391
156.726074 18.792213 2.358336 0.662684
156.726074 18.792213 2.014265 0.590448
156.726074 18.792212 1.671299 0.666667
156.726074 18.792212 1.328701 0.682719
156.726074 18.792213 0.985735 0.473548
156.726074 18.792213 0.641663 0.695827
156.726074 18.792213 0.295740 0.698497
156.611511 19.129173 -0.000005 0.283330
156.010071 20.898178 -0.000004 0.257176
155.592056 22.127703 -0.000003 0.312078
155.284088 23.033556 -0.000003 0.258244
156.649063 18.792210 4.115981 0.635615
156.649063 18.792210 3.755598 0.678431
156.649063 18.792210 3.400274 0.357870
156.649063 18.792212 3.049159 0.687251
156.649063 18.792210 2.701438 0.682414
156.649063 18.792212 2.356325 0.712200
156.649063 18.792213 2.013060 0.558267
156.649063 18.792210 1.670898 0.689342
156.649063 18.792212 1.329102 0.715099
156.649063 18.792213 0.986940 0.542275
156.649063 18.792212 0.643675 0.741176
156.649063 18.792210 0.298563 0.733333
156.544586 19.106684 -0.000005 0.291630
155.955521 20.879845 -0.000004 0.281209
155.546097 22.112255 -0.000003 0.238437
155.244461 23.020239 -0.000003 0.269444
156.572418 18.792212 4.109992 0.626291
156.572418 18.792212 3.750433 0.662898
156.572418 18.792210 3.395923 0.338979
156.572418 18.792212 3.045612 0.686519
156.572418 18.792212 2.698686 0.698039
156.572418 18.792213 2.354364 0.736187
156.572418 18.792213 2.011885 0.632151
156.572418 18.792210 1.670507 0.731624
156.572418 18.792212 1.329493 0.696361
156.572418 18.792213 0.988114 0.468818
156.572418 18.792213 0.645636 0.648493
156.572418 18.792213 0.301314 0.733333
156.477524 19.084661 -0.000005 0.302739
155.900848 20.861889 -0.000004 0.367315
155.500031 22.097130 -0.000003 0.259037
155.204742 23.007198 -0.000003 0.258686
156.496109 18.792210 4.104156 0.666423
156.496109 18.792212 3.745401 0.522362
156.496109 18.792210 3.391685 0.376593
156.496109 18.792212 3.042156 0.733318
156.496109 18.792210 2.696006 0.751904
156.496109 18.792210 2.352454 0.761852
156.496109 18.792212 2.010741 0.731991
156.496109 18.792213 1.670125 0.776471
156.496109 18.792213 1.329875 0.765301
156.496109 18.792213 0.989259 0.544228
156.496109 18.792212 0.647546 0.762264
156.496109 18.792212 0.303994 0.779171
156.410294 19.063107 -0.000005 0.341390
155.846039 20.844316 -0.000004 0.366064
155.453857 22.082327 -0.000003 0.287098
155.164932 22.994431 -0.000003 0.280446
156.420135 18.792212 4.098473 0.647059
156.420135 18.792213 3.740501 0.449393
156.420135 18.792212 3.387556 0.550378
156.420135 18.792213 3.038790 0.770336
156.420135 18.792213 2.693396 0.744595
156.420135 18.792213 2.350593 0.682795
156.420135 18.792210 2.009626 0.636973
156.420135 18.792213 1.669754 0.667506
156.420135 18.792213 1.330246 0.768887
156.420135 18.792210 0.990374 0.485069
156.420135 18.792213 0.649406 0.673487
156.420135 18.792213 0.306604 0.753841
156.342926 19.042019 -0.000005 0.305867
155.791107 20.827129 -0.000004 0.265705
155.407593 22.067844 -0.000003 0.293187
155.125031 22.981945 -0.000003 0.299382
156.344498 18.792210 4.092941 0.450980
156.344498 18.792210 3.735732 0.374258
156.344498 18.792210 3.383537 0.572763
156.344498 18.792212 3.035514 0.698039
156.344498 18.792212 2.690856 0.690318
156.344498 18.792210 2.348783 0.672770
156.344498 18.792210 2.008541 0.612039
156.344498 18.792210 1.669392 0.587472
156.344498 18.792210 1.330607 0.660883
156.344498 18.792212 0.991459 0.416510
156.344498 18.792212 0.651217 0.689708
156.344498 18.792213 0.309145 0.726101
156.275406 19.021408 -0.000005 0.277409
155.736069 20.810322 -0.000004 0.298634
155.361221 22.053688 -0.000003 0.287175
155.085037 22.969738 -0.000003 0.282338
156.269180 18.792212 4.087557 0.516304
156.269180 18.792210 3.731090 0.353704
156.269180 18.792210 3.379627 0.590921
156.269180 18.792210 3.032327 0.741176
156.269180 18.792210 2.688383 0.764904
156.269180 18.792212 2.347020 0.741176
156.269180 18.792212 2.007486 0.647227
156.269180 18.792210 1.669041 0.677821
156.269180 18.792212 1.330959 0.666667
156.269180 18.792213 0.992514 0.478721
156.269180 18.792213 0.652979 0.741176
156.269180 18.792210 0.311617 0.765133
156.207733 19.001266 -0.000005 0.306722
155.680908 20.793903 -0.000004 0.322423
155.314743 22.039852 -0.000003 0.270665
155.044968 22.957811 -0.000003 0.262226
156.194153 18.792210 4.082322 0.367544
156.194153 18.792210 3.726576 0.476814
156.194153 18.792210 3.375824 0.583459
156.194153 18.792212 3.029226 0.668284
156.194153 18.792210 2.685979 0.748394
156.194153 18.792212 2.345307 0.591791
156.194153 18.792213 2.006459 0.603281
156.194153 18.792213 1.668699 0.667948
156.194153 18.792213 1.331301 0.666667
156.194153 18.792213 0.993541 0.447791
156.194153 18.792213 0.654693 0.695247
156.194153 18.792212 0.314021 0.657877
156.139938 18.981596 -0.000005 0.289464
155.625641 20.777868 -0.000004 0.261646
155.268188 22.026344 -0.000003 0.292882
155.004822 22.946163 -0.000003 0.268147
156.119446 18.792210 4.077234 0.442847
156.119446 18.792212 3.722188 0.597498
156.119446 18.792210 3.372128 0.609064
156.119446 18.792210 3.026213 0.747158
156.119446 18.792212 2.683641 0.726101
156.119446 18.792212 2.343641 0.647334
156.119446 18.792212 2.005461 0.647791
156.119446 18.792213 1.668367 0.705760
156.119446 18.792213 1.331633 0.666667
156.119446 18.792213 0.994539 0.530816
156.119446 18.792213 0.656359 0.703136
156.119446 18.792213 0.316358 0.740093
156.071991 18.962402 -0.000005 0.311192
155.570251 20.762218 -0.000004 0.271992
155.221527 22.013161 -0.000003 0.318883
154.964600 22.934795 -0.000003 0.274495
156.045013 18.792210 4.072290 0.657526
156.045013 18.792213 3.717925 0.663767
156.045013 18.792212 3.368536 0.657145
156.045013 18.792212 3.023286 0.767468
156.045013 18.792213 2.681371 0.759518
156.045013 18.792212 2.342023 0.704768
156.045013 18.792213 2.004491 0.686519
156.045013 18.792213 1.668044 0.719860
156.045013 18.792213 1.331956 0.690196
156.045013 18.792213 0.995509 0.489219
156.045013 18.792213 0.657977 0.706462
156.045013 18.792213 0.318629 0.759167
156.003937 18.943680 -0.000005 0.267201
155.514755 20.746960 -0.000004 0.276387
155.174774 22.000305 -0.000003 0.313375
154.924286 22.923710 -0.000003 0.279805
155.970871 18.792210 4.067490 0.445670
155.970871 18.792210 3.713787 0.637934
155.970871 18.792210 3.365050 0.353155
155.970871 18.792212 3.020443 0.711315
155.970871 18.792212 2.679167 0.712581
155.970871 18.792213 2.340452 0.741176
155.970871 18.792213 2.003550 0.584848
155.970871 18.792213 1.667730 0.661982
155.970871 18.792212 1.332270 0.698039
155.970871 18.792213 0.996450 0.460868
155.970871 18.792213 0.659548 0.580392
155.970871 18.792213 0.320833 0.703410
155.935730 18.925436 -0.000005 0.293767
155.459167 20.732084 -0.000004 0.274632
155.127930 21.987774 -0.000003 0.356664
154.883896 22.912907 -0.000003 0.258610
155.897003 18.792213 4.062833 0.647562
155.897003 18.792210 3.709772 0.668757
155.897003 18.792210 3.361667 0.668879
155.897003 18.792212 3.017685 0.709804
155.897003 18.792210 2.677029 0.702937
155.897003 18.792213 2.338927 0.697276
155.897003 18.792213 2.002636 0.630655
155.897003 18.792213 1.667426 0.675395
155.897003 18.792213 1.332574 0.685100
155.897003 18.792213 0.997364 0.522057
155.897003 18.792213 0.661073 0.676875
155.897003 18.792213 0.322972 0.739467
155.867401 18.907665 -0.000005 0.277333
155.403458 20.717600 -0.000004 0.305623
155.081009 21.975571 -0.000003 0.293782
154.843430 22.902384 -0.000003 0.314458
155.823395 18.792210 4.058317 0.676081
155.823395 18.792210 3.705878 0.672175
155.823395 18.792210 3.358387 0.677012
155.823395 18.792210 3.015011 0.652750
155.823395 18.792213 2.674954 0.698940
155.823395 18.792212 2.337449 0.691112
155.823395 18.792213 2.001751 0.598291
155.823395 18.792212 1.667131 0.702510
155.823395 18.792212 1.332869 0.698039
155.823395 18.792213 0.998249 0.452354
155.823395 18.792210 0.662551 0.676310
155.823395 18.792213 0.325046 0.679896
155.798965 18.890377 -0.000005 0.302739
155.347672 20.703506 -0.000004 0.282246
155.033997 21.963694 -0.000004 0.297032
154.802902 22.892143 -0.000003 0.328939
155.750046 18.792212 4.053942 0.677150
155.750046 18.792210 3.702106 0.686397
155.750046 18.792210 3.355208 0.685374
155.750046 18.792213 3.012420 0.640894
155.750046 18.792213 2.672945 0.711192
155.750046 18.792213 2.336017 0.676036
155.750046 18.792213 2.000892 0.590936
155.750046 18.792213 1.666845 0.635142
155.750046 18.792213 1.333155 0.678431
155.750046 18.792213 0.999107 0.365911
155.750046 18.792213 0.663983 0.649424
155.750046 18.792213 0.327056 0.658656
155.730392 18.873564 -0.000005 0.290425
155.291763 20.689796 -0.000004 0.308278
154.986908 21.952148 -0.000003 0.280888
154.762299 22.882187 -0.000003 0.341573
155.676941 18.792210 4.049706 0.709804
155.676941 18.792212 3.698452 0.708217
155.676941 18.792210 3.352131 0.677241
155.676941 18.792212 3.009911 0.709804
155.676941 18.792212 2.670999 0.712642
155.676941 18.792213 2.334630 0.684688
155.676941 18.792213 2.000062 0.580911
155.676941 18.792210 1.666568 0.678431
155.676941 18.792212 1.333432 0.678431
155.676941 18.792213 0.999938 0.425238
155.676941 18.792213 0.665370 0.709728
155.676941 18.792213 0.329001 0.719615
155.661713 18.857231 -0.000005 0.263142
155.235779 20.676483 -0.000004 0.339025
154.939743 21.940931 -0.000003 0.290867
154.721634 22.872517 -0.000003 0.266880
155.604065 18.792210 4.045607 0.704005
155.604065 18.792212 3.694917 0.709178
155.604065 18.792210 3.349153 0.631037
155.604065 18.792212 3.007483 0.594064
155.604065 18.792213 2.669116 0.617700
155.604065 18.792210 2.333288 0.580392
155.604065 18.792210 1.999258 0.543969
155.604065 18.792213 1.666300 0.549020
155.604065 18.792213 1.333700 0.647059
155.604065 18.792212 1.000742 0.358679
155.604065 18.792213 0.666712 0.520790
155.604065 18.792213 0.330884 0.594659
155.592926 18.841377 -0.000005 0.313283
155.179703 20.663557 -0.000004 0.320577
154.892487 21.930042 -0.000003 0.288304
154.680893 22.863127 -0.000003 0.307729
155.531433 18.792210 4.041645 0.690105
155.531433 18.792210 3.691502 0.678431
155.531433 18.792210 3.346275 0.655772
155.531433 18.792213 3.005137 0.646845
155.531433 18.792213 2.667296 0.610880
155.531433 18.792213 2.331991 0.611765
155.531433 18.792212 1.998481 0.592493
155.531433 18.792212 1.666042 0.729412
155.531433 18.792212 1.333958 0.741054
155.531433 18.792213 1.001519 0.452888
155.531433 18.792213 0.668009 0.625559
155.531433 18.792213 0.332703 0.633265
155.524017 18.826004 -0.000005 0.299779
155.123520 20.651028 -0.000004 0.251713
154.845169 21.919483 -0.000004 0.236866
154.640091 22.854025 -0.000003 0.289006
155.459015 18.792212 4.037817 0.434318
155.459015 18.792210 3.688204 0.692958
155.459015 18.792210 3.343496 0.379782
155.459015 18.792213 3.002872 0.667933
155.459015 18.792210 2.665540 0.607813
155.459015 18.792213 2.330738 0.647166
155.459015 18.792213 1.997730 0.629221
155.459015 18.792212 1.665792 0.684718
155.459015 18.792213 1.334208 0.733333
155.459015 18.792213 1.002270 0.291691
155.459015 18.792213 0.669261 0.686610
155.459015 18.792212 0.334460 0.628519
155.459015 18.792213 -0.002872 0.678431
155.067261 20.638889 -0.000004 0.319814
154.797775 21.909256 -0.000004 0.256626
154.599213 22.845205 -0.000003 0.270069
155.386826 18.792212 4.034126 0.662440
155.386826 18.792210 3.685020 0.629084
155.386826 18.792210 3.340814 0.610788
155.386826 18.792212 3.000686 0.697398
155.386826 18.792212 2.663844 0.629053
155.386826 18.792213 2.329530 0.678065
155.386826 18.792212 1.997006 0.634241
155.386826 18.792213 1.665550 0.580392
155.386826 18.792213 1.334449 0.647059
155.386826 18.792213 1.002994 0.328130
155.386826 18.792213 0.670470 0.611765
155.386826 18.792213 0.336156 0.675471
155.386826 18.792213 -0.000685 0.678431
155.010925 20.627138 -0.000004 0.319844
154.750305 21.899359 -0.000004 0.288396
154.558289 22.836672 -0.000003 0.263050
155.314835 18.792212 4.030570 0.664454
155.314835 18.792210 3.681953 0.481285
155.314835 18.792212 3.338230 0.698711
155.314835 18.792212 2.998579 0.709804
155.314835 18.792212 2.662210 0.635508
155.314835 18.792213 2.328366 0.768887
155.314835 18.792212 1.996309 0.741176
155.314835 18.792213 1.665318 0.738705
155.314835 18.792213 1.334682 0.718502
155.314835 18.792213 1.003691 0.455665
155.314835 18.792213 0.671634 0.713634
155.314835 18.792213 0.337790 0.704341
155.316696 18.782776 -0.000006 0.265324
154.954514 20.615784 -0.000004 0.273716
154.702774 21.889795 -0.000004 0.267994
154.517303 22.828424 -0.000003 0.293172
155.243027 18.792210 4.027145 0.716793
