# This PCD file was generated using the MATLABÂ® pcwrite function
# from Computer Vision ToolboxÂ®.
# .PCD v.7 - Point Cloud Data file format
VERSION .7
FIELDS x y z intensity
SIZE 4 4 4 4
TYPE F F F F
COUNT 1 1 1 1
WIDTH 1289
HEIGHT 1
VIEWPOINT 0 0 0 1 0 0 0
POINTS 1289
DATA ascii
185.279358 143.799210 -0.000008 0.292790
184.636856 142.670654 -0.000007 0.335821
184.163483 141.839172 -0.000007 0.249699
189.967743 151.787415 5.884980 0.647562
189.967743 151.787415 5.280895 0.644541
189.967743 151.787415 4.685292 0.634958
189.967743 151.787415 4.096743 0.700404
189.967743 151.787415 3.513882 0.666850
189.967743 151.787415 2.935396 0.638010
189.967743 151.787415 2.360006 0.670848
189.967743 151.787415 1.786464 0.662989
189.967743 151.787415 1.213536 0.679576
189.967743 151.787415 0.639994 0.667308
189.967743 151.787415 0.064604 0.647639
187.730713 147.921066 -0.000010 0.333822
186.264999 145.387817 -0.000009 0.323552
185.329269 143.770569 -0.000008 0.265110
184.678909 142.646515 -0.000007 0.258305
184.199738 141.818359 -0.000006 0.265995
189.967743 151.546295 5.832809 0.664958
189.967743 151.546295 5.235910 0.656580
189.967743 151.546295 4.647394 0.648127
189.967743 151.546295 4.065847 0.646693
189.967743 151.546295 3.489922 0.687755
189.967743 151.546295 2.918317 0.656016
189.967743 151.546295 2.349773 0.663828
189.967743 151.546295 1.783055 0.687312
189.967743 151.546295 1.216944 0.652491
189.967743 151.546295 0.650227 0.664469
189.967743 151.546280 0.081683 0.688655
187.809341 147.875198 -0.000010 0.320912
186.325989 145.352249 -0.000009 0.349004
185.378983 143.741562 -0.000007 0.240177
184.720795 142.622086 -0.000007 0.368048
184.235855 141.797302 -0.000007 0.319875
189.967743 151.310822 5.782066 0.679683
189.967743 151.310822 5.192160 0.649424
189.967743 151.310822 4.610535 0.688991
189.967743 151.310822 4.035798 0.688457
189.967743 151.310822 3.466617 0.642618
189.967743 151.310822 2.901707 0.685145
189.967743 151.310822 2.339822 0.687648
189.967743 151.310822 1.779741 0.658808
189.967743 151.310822 1.220259 0.692775
189.967743 151.310822 0.660178 0.645991
189.967743 151.310822 0.098292 0.653117
187.887650 147.828781 -0.000009 0.341222
186.386719 145.316254 -0.000008 0.310002
185.428497 143.712219 -0.000008 0.244892
184.762497 142.597366 -0.000007 0.240146
184.271820 141.775986 -0.000006 0.262852
189.967743 151.080795 5.732704 0.649958
189.967743 151.080795 5.149597 0.649439
189.967743 151.080795 4.574677 0.683680
189.967743 151.080780 4.006567 0.622003
189.967743 151.080795 3.443947 0.648310
189.967743 151.080795 2.885549 0.682994
189.967743 151.080795 2.330141 0.653269
189.967743 151.080780 1.776516 0.658961
189.967743 151.080780 1.223484 0.636667
189.967743 151.080795 0.669859 0.653895
189.967743 151.080780 0.114451 0.690990
187.965637 147.781830 -0.000009 0.309789
186.447189 145.279846 -0.000008 0.300786
185.477798 143.682541 -0.000008 0.286641
184.804031 142.572357 -0.000007 0.294240
184.307632 141.754410 -0.000006 0.231754
189.967743 150.855988 5.684668 0.675868
189.967743 150.855988 5.108179 0.628946
189.967743 150.855988 4.539783 0.656657
189.967743 150.855988 3.978121 0.661494
189.967743 150.855988 3.421886 0.647272
189.967743 150.855988 2.869825 0.675364
189.967743 150.855988 2.320720 0.671016
189.967743 150.855988 1.773378 0.650172
189.967743 150.855988 1.226622 0.680629
189.967743 150.855988 0.679280 0.678538
189.967743 150.855988 0.130175 0.682994
188.043289 147.734329 -0.000009 0.242145
186.507416 145.242996 -0.000008 0.289021
185.526901 143.652512 -0.000008 0.339284
184.845398 142.547043 -0.000007 0.313069
184.343307 141.732605 -0.000006 0.293706
189.967743 150.636230 5.637910 0.647120
189.967743 150.636230 5.067862 0.694774
189.967743 150.636230 4.505818 0.666438
189.967743 150.636230 3.950431 0.668788
189.967743 150.636230 3.400411 0.631037
189.967743 150.636230 2.854518 0.642191
189.967743 150.636230 2.311549 0.681102
189.967743 150.636230 1.770323 0.640650
189.967743 150.636230 1.229677 0.654932
189.967743 150.636230 0.688451 0.658900
189.967743 150.636230 0.145481 0.663096
188.120605 147.686295 -0.000010 0.274327
186.567383 145.205750 -0.000008 0.323140
185.575775 143.622131 -0.000008 0.331441
184.886581 142.521454 -0.000007 0.252216
184.378815 141.710541 -0.000006 0.249287
189.967743 150.421310 5.592383 0.693797
189.967743 150.421310 5.028606 0.644022
189.967743 150.421310 4.472747 0.674846
189.967743 150.421310 3.923470 0.674769
189.967743 150.421310 3.379502 0.644587
189.967743 150.421310 2.839615 0.649714
189.967743 150.421310 2.302620 0.660014
189.967743 150.421310 1.767349 0.660960
189.967743 150.421310 1.232651 0.646311
189.967743 150.421310 0.697380 0.697093
189.967743 150.421310 0.160384 0.616251
188.197586 147.637711 -0.000009 0.315358
186.627090 145.168076 -0.000008 0.333913
185.624451 143.591415 -0.000007 0.284993
184.927582 142.495590 -0.000007 0.295201
184.414169 141.688232 -0.000006 0.224094
190.096634 150.410645 5.607553 0.654856
190.096634 150.410645 5.041686 0.635279
190.096634 150.410645 4.483767 0.676295
190.064392 150.360718 3.923636 0.718715
190.096619 150.410645 3.386468 0.682872
190.096619 150.410645 2.844580 0.695613
190.096619 150.410645 2.305595 0.685283
190.096619 150.410645 1.768340 0.712108
190.096619 150.410645 1.231660 0.715877
190.096619 150.410645 0.694405 0.637491
190.096619 150.410645 0.155419 0.602884
188.274231 147.588593 -0.000009 0.261311
186.686523 145.129974 -0.000008 0.309178
185.672913 143.560364 -0.000007 0.303807
184.968414 142.469421 -0.000007 0.275608
184.449371 141.665665 -0.000006 0.230945
190.233521 150.410645 5.626256 0.673640
190.233521 150.410645 5.057814 0.675181
190.233521 150.410645 4.497352 0.672023
190.200790 150.360718 3.934672 0.695918
190.210999 150.376297 3.390333 0.702251
190.210999 150.376297 2.847335 0.695705
190.210999 150.376297 2.307245 0.686687
190.210999 150.376297 1.768889 0.707485
190.210999 150.376297 1.231110 0.728115
190.233521 150.410645 0.690737 0.607614
190.233521 150.410645 0.149296 0.637598
188.350525 147.538940 -0.000009 0.263111
186.745697 145.091476 -0.000008 0.260212
185.721146 143.528976 -0.000007 0.331930
185.009048 142.442978 -0.000006 0.271015
184.484406 141.642868 -0.000006 0.324483
190.371689 150.410645 5.645333 0.656931
190.371689 150.410645 5.074262 0.695323
190.371689 150.410645 4.511210 0.668482
190.371689 150.410645 3.954827 0.658808
190.341858 150.365845 3.397628 0.694499
190.338440 150.360718 2.852029 0.690196
190.338440 150.360718 2.310058 0.725078
190.338440 150.360718 1.769826 0.698039
190.338440 150.360718 1.230174 0.699825
190.371674 150.410645 0.686995 0.618296
190.371674 150.410645 0.143052 0.606409
188.426483 147.488770 -0.000009 0.315572
186.804596 145.052551 -0.000008 0.257557
185.769165 143.497253 -0.000007 0.240574
185.049500 142.416245 -0.000006 0.369284
184.519287 141.619827 -0.000006 0.289555
190.482101 150.367706 5.651809 0.744625
190.482117 150.367706 5.079847 0.778805
190.424561 150.282562 4.497217 0.621881
190.511139 150.410645 3.966350 0.668757
190.441879 150.308197 3.398531 0.687587
190.578705 150.510635 2.873213 0.741176
190.578705 150.510635 2.322750 0.741176
190.578705 150.510635 1.774054 0.737255
190.578705 150.510635 1.225946 0.741176
190.511124 150.410645 0.683179 0.642023
190.511124 150.410645 0.136682 0.596658
188.502075 147.438049 -0.000009 0.259800
186.863220 145.013229 -0.000008 0.265904
185.816956 143.465179 -0.000007 0.299321
185.089767 142.389236 -0.000006 0.319249
184.554001 141.596527 -0.000006 0.256046
nan nan nan 0.000000
nan nan nan 0.000000
141.836121 79.258972 14.160788 0.736736
141.778900 79.175568 11.836449 0.739422
157.977524 102.785950 6.222392 0.766155
157.977524 102.785950 4.865887 0.789853
157.977524 102.785950 3.516644 0.794491
157.977524 102.785950 2.171735 0.768734
157.977524 102.785950 0.828265 0.802014
163.926971 111.457588 -0.000010 0.337667
170.851334 121.550224 -0.000006 0.336110
173.824249 125.883430 0.000007 0.330419
175.479965 128.296722 0.000006 0.339696
176.536957 129.837341 -0.000007 0.341619
177.271667 130.908234 0.000003 0.342687
177.812927 131.697144 -0.000006 0.350820
nan nan nan 0.000000
nan nan nan 0.000000
141.836136 80.109001 14.033557 0.723842
141.778900 80.026825 11.732577 0.752453
157.977524 103.287422 6.174936 0.773617
157.977524 103.287422 4.832062 0.769802
157.977524 103.287415 3.496379 0.802747
157.977524 103.287415 2.164984 0.797650
157.977524 103.287415 0.835016 0.773541
163.751617 111.578804 -0.000010 0.338537
170.746262 121.622849 -0.000006 0.337423
173.749374 125.935196 0.000007 0.332021
175.421906 128.336868 0.000007 0.339315
176.489624 129.870071 -0.000007 0.346914
177.231781 130.935791 0.000003 0.344259
177.778534 131.720917 -0.000006 0.349081
nan nan nan 0.000000
nan nan nan 0.000000
141.438690 80.379837 14.034751 0.793454
141.438675 80.379822 11.718696 0.782910
157.977524 103.778938 6.128648 0.771939
157.977524 103.778931 4.799071 0.782391
157.977524 103.778931 3.476612 0.789090
157.977524 103.778931 2.158400 0.775692
157.977524 103.778931 0.841600 0.794797
163.577118 111.701225 -0.000010 0.338582
170.641708 121.696190 -0.000007 0.340902
173.674866 125.987480 0.000008 0.340108
175.364090 128.377396 0.000003 0.327443
176.442505 129.903137 -0.000006 0.342519
177.192093 130.963654 0.000005 0.331518
177.744308 131.744919 -0.000006 0.348943
nan nan nan 0.000000
nan nan nan 0.000000
140.846802 80.379822 14.097217 0.635615
140.846802 80.379829 11.769619 0.668254
157.977524 104.260834 6.083488 0.765728
157.977524 104.260841 4.766881 0.784863
157.977524 104.260834 3.457326 0.784802
157.977524 104.260834 2.151976 0.766323
157.977524 104.260834 0.848024 0.771710
163.403488 111.824875 -0.000009 0.338979
170.537704 121.770309 -0.000003 0.334661
173.600708 126.040260 0.000005 0.336446
175.306580 128.418320 0.000000 0.338476
176.395630 129.936523 -0.000004 0.333043
177.152603 130.991776 0.000005 0.340475
177.710266 131.769180 -0.000006 0.350698
nan nan nan 0.000000
nan nan nan 0.000000
140.248978 80.379829 14.160933 0.816663
140.248993 80.379852 11.821558 0.816663
157.977524 104.733444 6.039420 0.765881
157.977524 104.733444 4.735473 0.774670
157.977524 104.733437 3.438508 0.764187
157.977524 104.733444 2.145709 0.766186
157.977524 104.733444 0.854292 0.765515
163.230713 111.949730 -0.000010 0.338369
170.434235 121.845161 0.000002 0.337499
173.526901 126.093544 0.000001 0.339269
175.249344 128.459656 -0.000004 0.338430
176.348999 129.970245 -0.000002 0.336996
177.113312 131.020172 0.000006 0.325322
177.676376 131.793655 -0.000006 0.341650
nan nan nan 0.000000
nan nan nan 0.000000
139.645050 80.379837 14.225915 0.807843
141.778915 83.268509 11.341811 0.709804
157.977524 105.197075 5.996408 0.810483
157.977524 105.197083 4.704816 0.802640
157.977524 105.197075 3.420140 0.791669
157.977524 105.197083 2.139590 0.787686
157.977524 105.197083 0.860410 0.807965
163.058823 112.075790 -0.000009 0.338277
170.331284 121.920738 0.000008 0.337133
173.453476 126.147346 -0.000003 0.338186
175.192398 128.501389 -0.000006 0.344991
176.302582 130.004288 -0.000000 0.336751
177.074203 131.048859 0.000007 0.325078
177.642654 131.818390 -0.000006 0.322408
nan nan nan 0.000000
nan nan nan 0.000000
139.034851 80.379837 14.292196 0.615641
141.778915 84.040817 11.249902 0.679652
157.977524 105.652023 5.954420 0.865736
157.977524 105.652031 4.674888 0.857633
157.977524 105.652031 3.402209 0.856504
157.977524 105.652023 2.133616 0.865934
157.977524 105.652023 0.866383 0.861143
162.887802 112.203033 -0.000010 0.338827
170.228851 121.997025 0.000013 0.339513
173.380417 126.201660 -0.000007 0.336629
175.135757 128.543533 -0.000007 0.335882
176.256424 130.038651 0.000001 0.338796
177.035309 131.077805 0.000007 0.343847
177.609116 131.843338 -0.000005 0.332647
nan nan nan 0.000000
nan nan nan 0.000000
138.418213 80.379822 14.359804 0.806622
157.137527 104.994072 7.396595 0.808759
157.977524 106.098587 5.913421 0.865797
157.977524 106.098587 4.645667 0.862745
157.977524 106.098587 3.384701 0.861845
157.977524 106.098587 2.127785 0.862898
157.977524 106.098587 0.872215 0.849378
162.717682 112.331482 -0.000010 0.337881
170.126938 122.073990 0.000014 0.336767
173.307785 126.256516 -0.000006 0.331090
175.079422 128.586075 -0.000005 0.339574
176.210495 130.073334 0.000003 0.338155
176.996613 131.107010 0.000007 0.331136
177.575760 131.868530 -0.000004 0.337865
nan nan nan 0.000000
nan nan nan 0.000000
137.795013 80.379837 14.428761 0.832547
157.137543 105.448380 7.343095 0.787396
157.977524 106.537018 5.873381 0.853758
157.977524 106.537010 4.617127 0.852964
157.977524 106.537018 3.367603 0.875074
157.977524 106.537018 2.122090 0.854704
157.977524 106.537018 0.877911 0.854276
162.548462 112.461098 -0.000010 0.338949
170.025558 122.151672 0.000015 0.338369
173.235550 126.311913 -0.000001 0.341253
175.023392 128.629013 -0.000003 0.336522
176.164810 130.108337 0.000005 0.325063
176.958130 131.136505 0.000007 0.342977
177.542572 131.893967 -0.000004 0.336019
nan nan nan 0.000000
nan nan nan 0.000000
137.165070 80.379829 14.499100 0.680140
157.137543 105.894524 7.290841 0.795758
157.977524 106.967583 5.834270 0.831250
157.977524 106.967583 4.589252 0.822965
157.977524 106.967583 3.350900 0.820813
157.977524 106.967583 2.116526 0.831357
157.977524 106.967583 0.883473 0.830396
162.380157 112.591919 -0.000009 0.337087
169.924728 122.230042 0.000015 0.337835
173.163681 126.367790 0.000002 0.335027
174.967651 128.672333 -0.000004 0.341894
176.119370 130.143661 0.000006 0.346090
176.919846 131.166245 0.000006 0.343435
177.509567 131.919617 -0.000003 0.352483
nan nan nan 0.000000
nan nan nan 0.000000
136.528198 80.379837 14.570847 0.839216
157.977539 107.390549 7.039429 0.731304
157.977524 107.390533 5.796061 0.804532
157.977524 107.390533 4.562018 0.805508
157.977524 107.390533 3.334584 0.790204
157.977524 107.390533 2.111091 0.805951
157.977524 107.390533 0.888909 0.805570
162.212769 112.723892 -0.000010 0.337972
169.824432 122.309120 0.000016 0.339635
173.092224 126.424171 0.000005 0.343145
174.912201 128.716034 -0.000006 0.334356
176.074173 130.179291 0.000005 0.345098
176.881760 131.196259 0.000005 0.347051
177.476730 131.945496 -0.000002 0.346014
nan nan nan 0.000000
nan nan nan 0.000000
135.884216 80.379845 14.644035 0.784909
157.977524 107.806122 6.991289 0.730632
157.977524 107.806122 5.758725 0.866712
157.977524 107.806122 4.535407 0.867048
157.977524 107.806122 3.318640 0.858747
157.977524 107.806122 2.105780 0.868345
157.977524 107.806122 0.894220 0.865980
162.046295 112.857040 -0.000009 0.339300
169.724701 122.388893 0.000016 0.337453
173.021133 126.481033 0.000006 0.340642
174.857056 128.760101 -0.000010 0.335515
176.029236 130.215240 0.000005 0.337728
176.843887 131.226547 0.000004 0.331579
177.444092 131.971619 -0.000002 0.347601
nan nan nan 0.000000
nan nan nan 0.000000
135.315094 80.480347 14.695081 0.778241
157.977524 108.214554 6.944242 0.862348
157.977524 108.214561 5.722235 0.869398
157.977524 108.214561 4.509399 0.856703
157.977524 108.214561 3.303058 0.861006
157.977524 108.214569 2.100590 0.866148
157.977524 108.214569 0.899410 0.865934
161.880768 112.991348 -0.000008 0.338674
169.625519 122.469337 0.000014 0.336217
172.950439 126.538368 0.000004 0.334722
174.802216 128.804565 -0.000012 0.331792
175.984528 130.251495 0.000004 0.339559
176.806244 131.257080 0.000002 0.337667
177.411621 131.997955 -0.000001 0.342458
nan nan nan 0.000000
nan nan nan 0.000000
135.315094 81.273689 14.583619 0.807843
157.977524 108.616081 6.898251 0.771801
157.977524 108.616081 5.686569 0.786191
157.977524 108.616089 4.483978 0.795834
157.977509 108.616074 3.287827 0.795956
157.977524 108.616081 2.095517 0.796078
157.977524 108.616081 0.904483 0.796078
161.716171 113.126785 -0.000010 0.339422
169.526886 122.550476 0.000012 0.337575
172.880142 126.596199 0.000001 0.339162
174.747711 128.849426 -0.000012 0.337545
175.940094 130.288055 0.000003 0.326101
176.768799 131.287888 -0.000000 0.324468
177.379349 132.024521 -0.000000 0.342535
nan nan nan 0.000000
nan nan nan 0.000000
135.315094 82.053787 14.474648 0.791730
157.977524 109.010895 6.853293 0.859937
157.977524 109.010895 5.651701 0.861372
157.977524 109.010895 4.459126 0.867338
157.977524 109.010895 3.272937 0.868376
157.977524 109.010895 2.090556 0.870588
157.977524 109.010895 0.909443 0.869825
161.552521 113.263390 -0.000009 0.338689
169.428833 122.632301 0.000011 0.337499
172.866257 126.721138 0.010012 1.000000
174.693542 128.894714 -0.000006 0.337011
175.895905 130.324936 0.000002 0.320012
176.731567 131.318954 -0.000001 0.338720
177.347260 132.051315 0.000000 0.338476
nan nan nan 0.000000
nan nan nan 0.000000
135.315094 82.821030 14.368099 0.796078
157.756317 109.139771 6.859906 0.788815
157.756302 109.139763 5.656830 0.777935
157.756317 109.139771 4.462781 0.783642
157.756302 109.139763 3.275127 0.760830
157.756302 109.139763 2.091286 0.761456
157.756302 109.139763 0.908714 0.761593
161.389832 113.401108 -0.000011 0.337942
169.331360 122.714821 0.000010 0.337057
172.797211 126.779533 0.010008 1.000000
174.639679 128.940353 -0.000001 0.337881
175.851990 130.362137 0.000005 0.335042
176.694565 131.350281 -0.000003 0.344320
177.315353 132.078339 0.000001 0.331991
nan nan nan 0.000000
nan nan nan 0.000000
135.315094 83.575821 14.263906 0.826719
157.422806 109.139763 6.892135 0.877546
157.422806 109.139771 5.681825 0.863447
157.422806 109.139763 4.480597 0.861891
157.422806 109.139763 3.285801 0.860212
157.422806 109.139771 2.094842 0.860151
157.422806 109.139771 0.905158 0.853986
161.228165 113.540054 -0.000006 0.339910
169.234451 122.798004 0.000008 0.341802
172.671692 126.772606 -0.000005 0.341466
174.630249 129.037354 0.010005 1.000000
175.808334 130.399643 0.000007 0.337041
176.657776 131.381866 -0.000004 0.342336
177.283630 132.105576 0.000002 0.336431
nan nan nan 0.000000
nan nan nan 0.000000
135.315094 84.318497 14.161999 0.800168
157.085251 109.139763 6.925021 0.869215
157.085251 109.139763 5.707329 0.844327
157.085251 109.139771 4.498775 0.864775
157.085236 109.139763 3.296693 0.868605
157.085251 109.139763 2.098469 0.867277
157.085251 109.139763 0.901530 0.869383
161.067215 113.679810 -0.000022 0.338048
169.138123 122.881851 0.000005 0.338598
172.603058 126.832405 -0.000003 0.335683
174.577362 129.083420 0.010006 1.000000
175.764938 130.437439 0.000007 0.329412
176.621201 131.413696 -0.000006 0.336599
177.252106 132.133026 0.000003 0.329992
nan nan nan 0.000000
nan nan nan 0.000000
135.371399 85.112762 14.046901 0.043656
156.743530 109.139763 6.958577 0.822797
156.743530 109.139755 5.733356 0.836133
156.743530 109.139763 4.517324 0.823102
156.743530 109.139755 3.307806 0.813291
156.743530 109.139755 2.102172 0.814099
156.743530 109.139755 0.897828 0.823377
160.907516 113.820999 -0.000017 0.337423
169.042389 122.966393 0.000004 0.338003
172.534866 126.892708 0.000003 0.260945
174.524811 129.129837 0.010005 1.000000
175.721802 130.475540 0.000007 0.339742
176.584854 131.445801 -0.000006 0.328710
177.220779 132.160706 0.000003 0.341207
nan nan nan 0.000000
nan nan nan 0.000000
135.315094 85.769043 13.964788 0.829328
156.397552 109.139763 6.992821 0.860792
156.397537 109.139755 5.759912 0.854475
156.397537 109.139755 4.536254 0.866209
156.397537 109.139755 3.319148 0.876753
156.397537 109.139755 2.105950 0.866087
156.397537 109.139755 0.894051 0.865736
160.748825 113.963318 -0.000011 0.338613
168.947235 123.051575 0.000001 0.338521
172.467056 126.953445 0.000003 0.296605
174.427429 129.126587 0.000007 0.336049
175.678940 130.513931 0.000007 0.336980
176.548752 131.478149 -0.000006 0.312596
177.189636 132.188614 0.000004 0.334218
nan nan nan 0.000000
nan nan nan 0.000000
135.315094 86.477570 13.869362 0.778302
156.047165 109.139755 7.027770 0.796033
156.047180 109.139755 5.787014 0.781888
156.047165 109.139755 4.555572 0.780743
156.047165 109.139755 3.330722 0.781857
156.047165 109.139755 2.109804 0.793606
156.047165 109.139755 0.890195 0.793606
160.728714 114.257149 0.010009 1.000000
168.852661 123.137421 -0.000003 0.336919
172.399689 127.014648 0.000003 0.340978
174.375153 129.174026 0.000002 0.338491
175.636322 130.552612 0.000004 0.339513
176.512863 131.510757 -0.000006 0.324834
177.158691 132.216721 0.000004 0.347921
nan nan nan 0.000000
nan nan nan 0.000000
135.315079 87.175362 13.775984 0.807843
155.692291 109.139755 7.063437 0.741024
155.692291 109.139748 5.814679 0.864668
155.692291 109.139755 4.575288 0.866743
155.692291 109.139755 3.342534 0.863615
155.692291 109.139755 2.113740 0.869642
155.692291 109.139755 0.886260 0.863447
160.434113 114.250923 -0.000021 0.338186
168.758728 123.223946 -0.000004 0.337942
172.332733 127.076324 0.000003 0.287984
174.323227 129.221863 0.000002 0.358114
175.593994 130.591599 0.000000 0.347921
176.477203 131.543610 -0.000006 0.329702
177.127960 132.245056 0.000005 0.333043
nan nan nan 0.000000
nan nan nan 0.000000
135.032791 87.562668 13.759551 0.718349
155.332794 109.139755 7.099843 0.711009
155.332794 109.139755 5.842912 0.780575
155.332794 109.139755 4.595412 0.770657
155.332779 109.139748 3.354591 0.777249
155.332794 109.139755 2.117755 0.782010
155.332794 109.139755 0.882245 0.781765
160.278336 114.396423 -0.000023 0.337865
168.665375 123.311089 -0.000008 0.338399
172.266220 127.138474 0.000003 0.251087
174.271637 129.270050 0.000002 0.244556
175.551941 130.630890 0.000002 0.333028
176.441772 131.576706 -0.000006 0.331624
177.097412 132.273590 0.000006 0.345800
nan nan nan 0.000000
nan nan nan 0.000000
134.382675 87.562668 13.840912 0.720378
154.968521 109.139748 7.137006 0.684794
154.968536 109.139755 5.871732 0.859342
154.968536 109.139748 4.615953 0.862348
154.968536 109.139748 3.366899 0.854658
154.968536 109.139748 2.121855 0.852674
154.968536 109.139748 0.878145 0.857114
160.124039 114.543495 0.000009 0.290120
168.572647 123.398926 -0.000009 0.337484
172.200134 127.201080 0.000003 0.325078
174.220398 129.318604 0.000002 0.282445
175.510162 130.670486 0.000003 0.336049
176.406570 131.610046 -0.000005 0.345098
177.067062 132.302338 0.000007 0.338567
nan nan nan 0.000000
nan nan nan 0.000000
133.775803 87.616364 13.910371 0.727977
154.599396 109.139748 7.174942 0.721492
154.599380 109.139740 5.901155 0.781430
154.599380 109.139748 4.636923 0.784070
154.599380 109.139740 3.379463 0.776593
154.599380 109.139748 2.126040 0.776471
154.599380 109.139748 0.873960 0.776913
160.111374 114.836975 0.009975 1.000000
168.480515 123.487358 -0.000014 0.336873
172.134491 127.264145 0.000003 0.311788
174.169495 129.367523 0.000002 0.298695
175.468674 130.710373 0.000006 0.337072
176.371613 131.643646 -0.000004 0.335958
177.036911 132.331314 0.000006 0.341085
nan nan nan 0.000000
nan nan nan 0.000000
133.108734 87.616348 13.995072 0.724254
154.225220 109.139740 7.213674 0.713436
154.225220 109.139740 5.931192 0.870726
154.225220 109.139748 4.658332 0.862989
154.225220 109.139748 3.392290 0.863767
154.225220 109.139748 2.130312 0.868803
154.225220 109.139748 0.869687 0.851865
159.959885 114.984909 0.009987 1.000000
168.388992 123.576439 -0.000019 0.337514
172.069290 127.327660 0.000003 0.273991
174.118927 129.416779 0.000002 0.321157
175.465881 130.789703 0.009992 1.000000
176.336884 131.677490 -0.000003 0.316304
177.006973 132.360474 0.000006 0.339788
nan nan nan 0.000000
nan nan nan 0.000000
132.432480 87.616356 14.081553 0.737987
153.818802 109.112503 7.258920 0.711986
153.845886 109.139740 5.961862 0.864378
153.845901 109.139740 4.680193 0.867689
153.845901 109.139740 3.405388 0.862745
153.845901 109.139740 2.134676 0.861555
153.845901 109.139740 0.865324 0.865125
159.666016 114.989746 0.000009 0.291890
168.298126 123.666199 -0.000020 0.339269
172.004547 127.391640 0.000003 0.301411
174.068695 129.466400 0.000002 0.278325
175.425232 130.829910 0.009997 1.000000
176.302399 131.711578 -0.000001 0.328267
176.977234 132.389862 0.000006 0.347051
nan nan nan 0.000000
nan nan nan 0.000000
131.746765 87.616348 14.169862 0.716258
131.692596 87.562668 11.840154 0.722164
153.461258 109.139732 5.993180 0.788693
153.461273 109.139748 4.702513 0.783459
153.461273 109.139740 3.418761 0.781506
153.461273 109.139740 2.139131 0.788174
153.461273 109.139740 0.860869 0.809659
159.515427 115.140610 0.000009 0.291814
168.207947 123.756622 -0.000016 0.337865
171.940231 127.456070 0.000003 0.294514
174.018829 129.516373 0.000002 0.272160
175.384872 130.870377 0.010002 1.000000
176.268158 131.745895 0.000000 0.331456
176.947693 132.419449 0.000006 0.330465
nan nan nan 0.000000
nan nan nan 0.000000
131.032272 87.597740 14.264890 0.719432
130.996399 87.562668 11.913757 0.745953
153.071182 109.139740 6.025161 0.857389
153.071182 109.139740 4.725309 0.863981
153.071182 109.139740 3.432419 0.863447
153.071182 109.139740 2.143679 0.853925
153.071182 109.139740 0.856320 0.853803
159.511108 115.434471 0.009986 1.000000
168.205826 123.933151 0.010015 1.000000
171.876373 127.520943 0.000003 0.263920
173.969299 129.566681 0.000002 0.312505
175.344788 130.911148 0.010008 1.000000
176.234146 131.780457 0.000002 0.327276
176.918365 132.449249 0.000006 0.342794
nan nan nan 0.000000
nan nan nan 0.000000
130.345901 87.616379 14.352142 0.724712
130.290176 87.562668 11.988922 0.729107
152.675476 109.139740 6.057827 0.845396
152.675491 109.139740 4.748592 0.845212
152.675476 109.139740 3.446368 0.844541
152.675491 109.139740 2.148326 0.844968
152.675491 109.139740 0.851674 0.845121
159.217438 115.445480 0.000009 0.289494
168.117477 124.024193 0.010016 1.000000
171.812973 127.586258 0.000003 0.308324
173.920135 129.617340 0.000002 0.314946
175.265381 130.914001 0.000002 0.342580
176.200378 131.815247 0.000003 0.320089
176.889252 132.479248 0.000005 0.349050
nan nan nan 0.000000
nan nan nan 0.000000
129.630142 87.616379 14.446228 0.733333
129.573654 87.562668 12.065705 0.734722
152.274002 109.139732 6.091191 0.853254
152.274002 109.139732 4.772372 0.850736
152.274002 109.139732 3.460616 0.850645
152.274017 109.139740 2.153072 0.849973
152.274017 109.139740 0.846928 0.853422
159.070038 115.599472 0.000009 0.293339
167.941147 124.031609 -0.000008 0.336736
171.750031 127.652016 0.000003 0.283742
173.871323 129.668335 0.000002 0.340444
175.225571 130.955582 -0.000000 0.338338
176.166855 131.850281 0.000004 0.330724
176.860336 132.509445 0.000005 0.336492
nan nan nan 0.000000
nan nan nan 0.000000
128.903793 87.616348 14.542345 0.709804
128.903778 87.616333 12.132504 0.730846
151.866592 109.139740 6.125276 0.862257
151.866592 109.139740 4.796665 0.855467
151.866592 109.139740 3.475171 0.855512
151.866608 109.139740 2.157920 0.852415
151.866608 109.139740 0.842080 0.851514
158.923721 115.754478 0.000009 0.292287
167.853546 124.124535 -0.000002 0.338491
171.687561 127.718216 0.000003 0.321691
173.822861 129.719666 0.000002 0.357259
175.186081 130.997437 0.000002 0.247807
176.133575 131.885544 0.000005 0.340932
176.831635 132.539841 0.000003 0.337819
nan nan nan 0.000000
nan nan nan 0.000000
128.166534 87.616341 14.640539 0.709804
128.166519 87.616318 12.212556 0.723522
151.453064 109.139732 6.160098 0.839796
151.453064 109.139732 4.821485 0.825757
151.453064 109.139732 3.490042 0.835813
151.453064 109.139740 2.162874 0.833341
151.453064 109.139740 0.837127 0.839506
158.778488 115.910515 0.000009 0.291402
167.766586 124.218079 0.000005 0.282292
171.625534 127.784843 0.000003 0.274510
173.774765 129.771347 0.000002 0.319310
175.146866 131.039566 0.000002 0.250156
176.100540 131.921036 0.000005 0.345342
176.803146 132.570435 0.000002 0.329000
nan nan nan 0.000000
nan nan nan 0.000000
nan nan nan 0.000000
127.418045 87.616302 12.294353 0.725093
151.033249 109.139732 6.195679 0.790814
151.033249 109.139732 4.846848 0.813535
151.033249 109.139740 3.505236 0.809018
151.033249 109.139740 2.167935 0.803037
151.033249 109.139740 0.832065 0.814893
158.634354 116.067558 0.000009 0.292409
167.680237 124.312172 0.000005 0.299825
171.563980 127.851906 0.000003 0.298939
173.727036 129.823364 0.000002 0.300572
175.107956 131.081955 0.000001 0.239826
176.067749 131.956757 0.000004 0.341650
176.774872 132.601242 0.000001 0.337758
nan nan nan 0.000000
nan nan nan 0.000000
nan nan nan 0.000000
126.657990 87.616280 12.377950 0.740353
150.606934 109.139732 6.232043 0.865324
150.606949 109.139740 4.872763 0.859388
150.606949 109.139740 3.520764 0.860670
150.606949 109.139740 2.173107 0.861906
150.606949 109.139740 0.826893 0.855375
158.491318 116.225601 0.000009 0.288212
167.594528 124.406860 0.000005 0.287770
171.502899 127.919403 0.000003 0.259052
173.679657 129.875702 0.000002 0.304250
175.069336 131.124634 0.000002 0.325261
176.035217 131.992691 0.000004 0.332128
176.746826 132.632233 0.000000 0.346380
nan nan nan 0.000000
nan nan nan 0.000000
nan nan nan 0.000000
125.886078 87.616272 12.463380 0.717708
150.173965 109.139732 6.269205 0.855833
150.173965 109.139732 4.899251 0.861219
150.173965 109.139732 3.536635 0.855100
150.173965 109.139740 2.178393 0.852491
150.173965 109.139740 0.821606 0.858137
158.349380 116.384628 0.000009 0.296437
167.509491 124.502151 0.000005 0.277226
171.442291 127.987320 0.000003 0.264561
173.632645 129.928375 0.000002 0.302876
175.031006 131.167572 0.000002 0.346761
176.002930 132.028870 0.000003 0.325994
176.718979 132.663422 -0.000002 0.334905
nan nan nan 0.000000
nan nan nan 0.000000
nan nan nan 0.000000
125.101906 87.616272 12.550704 0.733364
149.734116 109.139740 6.307193 0.869932
149.734100 109.139732 4.926328 0.864103
149.734100 109.139732 3.552856 0.841672
149.734116 109.139732 2.183797 0.870588
149.734116 109.139732 0.816203 0.869245
158.208572 116.544662 0.000009 0.290684
167.425125 124.598030 0.000005 0.289296
171.382156 128.055649 0.000003 0.296254
173.586014 129.981369 0.000002 0.281819
174.992996 131.210785 0.000002 0.303471
175.970901 132.065277 0.000003 0.336141
176.691360 132.694794 -0.000003 0.335592
nan nan nan 0.000000
nan nan nan 0.000000
nan nan nan 0.000000
124.305092 87.616272 12.639980 0.742519
149.287155 109.139725 6.346029 0.868940
149.287170 109.139732 4.954009 0.868330
149.287170 109.139732 3.569442 0.869184
149.287170 109.139732 2.189322 0.869917
149.287170 109.139732 0.810679 0.869917
158.068878 116.705673 0.000010 0.293217
167.341431 124.694489 0.000005 0.287694
171.322495 128.124405 0.000003 0.290257
173.539749 130.034698 0.000002 0.246784
174.955276 131.254242 0.000001 0.294453
175.939117 132.101883 0.000003 0.339986
176.663956 132.726379 -0.000004 0.330388
nan nan nan 0.000000
nan nan nan 0.000000
nan nan nan 0.000000
123.495277 87.616287 12.731259 0.733333
148.832932 109.139740 6.385737 0.807904
148.832916 109.139732 4.982310 0.797116
148.832916 109.139732 3.586399 0.797055
148.832932 109.139740 2.194969 0.797055
148.832932 109.139740 0.805031 0.806195
157.930298 116.867645 0.000010 0.291539
167.258408 124.791542 0.000005 0.298772
171.263321 128.193573 0.000003 0.321431
173.493851 130.088333 0.000002 0.254246
174.917862 131.297974 0.000001 0.266621
175.907608 132.138733 0.000003 0.334340
176.636780 132.758133 -0.000005 0.342153
nan nan nan 0.000000
nan nan nan 0.000000
nan nan nan 0.000000
122.641747 87.590912 12.830466 0.734737
148.371155 109.139725 6.426344 0.818998
148.371155 109.139732 5.011252 0.810300
148.371155 109.139725 3.603739 0.810300
148.371155 109.139732 2.200746 0.810361
148.371155 109.139732 0.799254 0.818814
157.792877 117.030579 0.000010 0.288136
167.176071 124.889160 0.000005 0.314672
171.204636 128.263153 0.000003 0.292256
173.448334 130.142303 0.000002 0.243595
174.880753 131.341980 0.000002 0.257862
175.876343 132.175797 0.000002 0.336233
176.609818 132.790100 -0.000006 0.328374
nan nan nan 0.000000
nan nan nan 0.000000
nan nan nan 0.000000
121.770050 87.562698 12.932563 0.683650
147.901611 109.139725 6.467877 0.761059
147.901611 109.139732 5.040855 0.790936
147.901611 109.139732 3.621475 0.761059
147.901627 109.139732 2.206653 0.766369
147.901611 109.139725 0.793347 0.790936
157.656586 117.194481 0.000010 0.295079
167.094406 124.987358 0.000005 0.305837
171.146423 128.333145 0.000003 0.266712
173.403198 130.196579 0.000002 0.267491
174.843948 131.386215 0.000001 0.343221
175.881027 132.242538 0.009997 1.000000
176.583084 132.822235 -0.000006 0.336706
nan nan nan 0.000000
nan nan nan 0.000000
nan nan nan 0.000000
120.917755 87.562698 13.030333 0.730648
147.424072 109.139725 6.510362 0.795041
147.424072 109.139725 5.071136 0.798718
147.424072 109.139725 3.639617 0.815015
147.424072 109.139725 2.212698 0.792462
147.424072 109.139725 0.787303 0.792828
157.521439 117.359329 0.000010 0.294682
167.013428 125.086121 0.000005 0.291020
171.088715 128.403549 0.000003 0.300847
173.358444 130.251175 0.000003 0.306264
174.807465 131.430725 0.000002 0.343023
175.850494 132.279785 0.009997 1.000000
176.556580 132.854568 -0.000005 0.327260
nan nan nan 0.000000
nan nan nan 0.000000
nan nan nan 0.000000
119.984467 87.509537 13.142959 0.599939
146.938263 109.139725 6.553826 0.797909
146.938263 109.139725 5.102117 0.780011
146.938263 109.139725 3.658179 0.757443
146.938263 109.139725 2.218880 0.774548
146.938263 109.139725 0.781120 0.770489
157.387436 117.525101 0.000010 0.293858
166.933151 125.185448 0.000005 0.301305
171.031494 128.474335 0.000004 0.279713
173.314072 130.306076 0.000002 0.291920
174.771286 131.475494 0.000002 0.328344
175.820206 132.317245 0.009997 1.000000
176.530304 132.887085 -0.000006 0.329061
nan nan nan 0.000000
nan nan nan 0.000000
nan nan nan 0.000000
119.168488 87.562714 13.232707 0.736416
146.443939 109.139732 6.598303 0.819638
146.443939 109.139725 5.133816 0.795346
146.443939 109.139732 3.677173 0.807843
146.443939 109.139725 2.225205 0.795346
146.443939 109.139725 0.774794 0.802274
157.413803 117.817749 0.009982 1.000000
166.853561 125.285339 0.000005 0.291386
170.974777 128.545532 0.000003 0.278111
173.270081 130.361298 0.000003 0.288533
174.735428 131.520508 0.000001 0.282612
175.790207 132.354904 0.009997 1.000000
176.504257 132.919785 -0.000006 0.339757
nan nan nan 0.000000
nan nan nan 0.000000
nan nan nan 0.000000
118.270508 87.562714 13.337461 0.727550
145.940796 109.139725 6.643823 0.858335
145.940796 109.139725 5.166262 0.860822
145.940811 109.139732 3.696611 0.851759
145.940796 109.139725 2.231681 0.867231
145.940796 109.139725 0.768319 0.859541
157.122940 117.859444 0.000010 0.289128
166.774689 125.385773 0.000005 0.299550
170.918549 128.617126 0.000003 0.278538
173.226471 130.416809 0.000002 0.325292
174.699875 131.565765 0.000001 0.261082
175.760452 132.392792 0.009997 1.000000
176.478424 132.952652 -0.000006 0.347799
nan nan nan 0.000000
nan nan nan 0.000000
nan nan nan 0.000000
117.356300 87.562698 13.444693 0.732021
145.428589 109.139725 6.690418 0.856550
145.428589 109.139725 5.199471 0.857237
145.428574 109.139725 3.716510 0.859983
145.428574 109.139725 2.238309 0.865248
145.428574 109.139725 0.761692 0.864790
156.992462 118.028000 0.000010 0.293797
166.696503 125.486763 0.000005 0.278996
170.862823 128.689102 0.000003 0.289036
173.183243 130.472626 0.000002 0.275227
174.664642 131.611267 0.000002 0.315312
175.694290 132.402679 0.000007 0.334066
176.452835 132.985718 -0.000006 0.348699
nan nan nan 0.000000
nan nan nan 0.000000
nan nan nan 0.000000
116.425354 87.562698 13.554478 0.714244
144.906967 109.139725 6.738122 0.867155
144.906967 109.139725 5.233473 0.867155
144.906967 109.139725 3.736881 0.867887
144.906967 109.139732 2.245094 0.868376
144.906967 109.139732 0.754906 0.868376
157.025055 118.320114 0.009989 1.000000
166.619034 125.588295 0.000005 0.293812
170.807602 128.761459 0.000003 0.256809
173.140427 130.528763 0.000002 0.254719
174.629730 131.657028 0.000002 0.298177
175.664871 132.441223 0.000005 0.340856
176.427475 133.018951 -0.000006 0.342550
nan nan nan 0.000000
nan nan nan 0.000000
nan nan nan 0.000000
115.477097 87.562714 13.666891 0.724926
144.375641 109.139725 6.786971 0.788357
144.375656 109.139732 5.268291 0.788022
144.375656 109.139732 3.757740 0.801099
144.375656 109.139732 2.252042 0.753307
144.375656 109.139725 0.747957 0.787350
156.734863 118.367699 0.000000 0.338354
166.542252 125.690353 0.000005 0.294987
170.752884 128.834213 0.000003 0.305608
173.097992 130.585175 0.000003 0.311330
174.595139 131.703018 0.000002 0.318578
175.635727 132.479965 0.000004 0.326940
176.402344 133.052368 -0.000006 0.310658
nan nan nan 0.000000
nan nan nan 0.000000
nan nan nan 0.000000
114.510933 87.562714 13.782029 0.733928
143.834320 109.139740 6.837003 0.782162
143.834305 109.139732 5.303950 0.770459
143.834320 109.139740 3.779105 0.801038
143.834320 109.139740 2.259159 0.779965
143.834320 109.139740 0.740840 0.786831
156.608093 118.539063 0.000010 0.293278
166.466217 125.792961 0.000005 0.282887
170.698685 128.907349 0.000004 0.312245
173.055954 130.641891 0.000002 0.305577
174.560867 131.749252 0.000002 0.295506
175.606842 132.518921 0.000002 0.323644
176.377457 133.085953 -0.000004 0.340368
nan nan nan 0.000000
nan nan nan 0.000000
nan nan nan 0.000000
113.600082 87.616249 13.886452 0.732143
143.282593 109.139740 6.888254 0.866361
143.282608 109.139740 5.340479 0.867765
143.282593 109.139740 3.800992 0.868055
143.282593 109.139740 2.266450 0.868940
143.282593 109.139740 0.733550 0.868391
156.646561 118.830261 0.009974 1.000000
166.390884 125.896095 0.000006 0.298100
170.644989 128.980850 0.000004 0.288884
173.014313 130.698898 0.000002 0.234577
174.526917 131.795731 0.000002 0.244846
175.578247 132.558060 0.000001 0.317525
176.352798 133.119705 -0.000003 0.347539
nan nan nan 0.000000
nan nan nan 0.000000
nan nan nan 0.000000
112.597359 87.616257 14.007167 0.713481
142.720169 109.139748 6.940768 0.864515
142.720169 109.139740 5.377908 0.853803
142.720169 109.139748 3.823418 0.865507
142.720154 109.139740 2.273920 0.866361
142.720154 109.139740 0.726080 0.856733
156.357452 118.883926 -0.000013 0.338903
166.316269 125.999741 0.000005 0.293477
170.591812 129.054733 0.000004 0.270146
172.973068 130.756195 0.000002 0.266072
174.493301 131.842438 0.000002 0.248646
175.549927 132.597412 0.000001 0.262531
176.328384 133.153641 -0.000002 0.311482
nan nan nan 0.000000
nan nan nan 0.000000
nan nan nan 0.000000
111.574821 87.616241 14.130891 0.719631
142.146622 109.139740 6.994587 0.838697
142.146622 109.139748 5.416267 0.835706
142.146622 109.139740 3.846401 0.835874
142.146622 109.139748 2.281574 0.836652
142.146622 109.139748 0.718425 0.841398
156.234177 119.057831 -0.000010 0.336797
166.242386 126.103912 0.000005 0.277089
170.539154 129.128983 0.000004 0.289815
172.932220 130.813782 0.000002 0.261860
174.460007 131.889374 0.000002 0.295964
175.521866 132.636963 0.000001 0.357748
176.304199 133.187744 -0.000002 0.315908
nan nan nan 0.000000
nan nan nan 0.000000
nan nan nan 0.000000
110.531807 87.616226 14.257710 0.733394
141.561600 109.139755 7.049750 0.870588
141.561600 109.139755 5.455586 0.864637
141.561584 109.139748 3.869959 0.870588
141.561615 109.139755 2.289421 0.870588
141.561600 109.139755 0.710579 0.840864
156.112122 119.232590 -0.000007 0.338933
166.169220 126.208595 0.000005 0.301534
170.487015 129.203583 0.000003 0.284520
172.891785 130.871643 0.000003 0.327092
174.427032 131.936554 0.000002 0.270008
175.494095 132.676712 0.000001 0.253849
176.280243 133.222015 -0.000001 0.336934
nan nan nan 0.000000
nan nan nan 0.000000
nan nan nan 0.000000
109.467651 87.616272 14.387726 0.733471
140.964661 109.139755 7.106314 0.726513
140.964676 109.139755 5.495902 0.789624
140.964676 109.139755 3.894113 0.792142
140.964676 109.139755 2.297467 0.803128
140.964676 109.139755 0.702533 0.790875
155.991425 119.408287 0.000004 0.337041
166.096802 126.313789 0.000005 0.298451
170.435394 129.278564 0.000003 0.272709
172.851761 130.929794 0.000003 0.246265
174.394409 131.983963 0.000002 0.280919
175.466599 132.716644 0.000001 0.347433
176.256546 133.256454 0.000000 0.322698
nan nan nan 0.000000
nan nan nan 0.000000
nan nan nan 0.000000
108.381462 87.616264 14.521070 0.711940
140.355423 109.139755 7.164320 0.731090
140.355423 109.139755 5.537244 0.870588
140.355423 109.139755 3.918883 0.867582
140.355438 109.139763 2.305719 0.870588
140.355423 109.139755 0.694282 0.839216
155.871780 119.584702 0.000004 0.338674
166.025116 126.419495 0.000006 0.293660
170.384293 129.353897 0.000003 0.328923
172.812134 130.988220 0.000003 0.307088
174.362091 132.031586 0.000002 0.260548
175.439392 132.756775 0.000001 0.343038
176.233078 133.291061 0.000001 0.336217
nan nan nan 0.000000
nan nan nan 0.000000
nan nan nan 0.000000
nan nan nan 0.000000
139.733414 109.139763 7.223819 0.679271
139.733414 109.139763 5.579654 0.856733
139.733414 109.139763 3.944292 0.852552
139.733414 109.139763 2.314181 0.853971
139.733414 109.139763 0.685818 0.856352
155.753372 119.761948 0.000004 0.338003
165.954163 126.525681 0.000005 0.297414
170.333725 129.429596 0.000003 0.302785
172.772903 131.046921 0.000002 0.277623
174.330124 132.079437 0.000002 0.306218
175.412445 132.797089 0.000001 0.265202
176.209854 133.325821 0.000002 0.351049
nan nan nan 0.000000
nan nan nan 0.000000
nan nan nan 0.000000
nan nan nan 0.000000
nan nan nan 0.000000
139.098160 109.139771 5.623165 0.838788
139.098160 109.139771 3.970361 0.837263
139.098175 109.139771 2.322865 0.834867
139.098160 109.139771 0.677135 0.836149
155.636200 119.940018 0.000004 0.339086
165.883972 126.632370 0.000005 0.290333
170.283691 129.505630 0.000004 0.271870
172.734100 131.105896 0.000003 0.281941
174.298492 132.127518 0.000002 0.306203
175.385803 132.837585 0.000001 0.289525
176.186890 133.360748 0.000003 0.332387
nan nan nan 0.000000
nan nan nan 0.000000
nan nan nan 0.000000
nan nan nan 0.000000
nan nan nan 0.000000
138.449188 109.139771 5.667821 0.870588
138.449173 109.139771 3.997117 0.870588
138.449173 109.139771 2.331777 0.870588
138.449173 109.139771 0.668222 0.870588
155.520264 120.118889 0.000004 0.337606
165.814514 126.739548 0.000006 0.310063
170.234177 129.582016 0.000003 0.267170
172.695709 131.165131 0.000003 0.268223
174.267197 132.175812 0.000002 0.306600
175.359436 132.878281 0.000001 0.284703
176.164154 133.395828 0.000003 0.349691
nan nan nan 0.000000
nan nan nan 0.000000
nan nan nan 0.000000
nan nan nan 0.000000
nan nan nan 0.000000
137.785950 109.139778 5.713662 0.870588
137.785950 109.139778 4.024581 0.870588
137.785950 109.139771 2.340927 0.844541
137.785950 109.139771 0.659073 0.870588
155.405579 120.298576 0.000004 0.339483
165.745804 126.847198 0.000005 0.301167
170.185211 129.658752 0.000004 0.328237
172.657730 131.224640 0.000003 0.258167
174.236221 132.224335 0.000002 0.285649
175.333344 132.919144 0.000001 0.313115
176.141663 133.431076 0.000005 0.323934
nan nan nan 0.000000
nan nan nan 0.000000
nan nan nan 0.000000
nan nan nan 0.000000
nan nan nan 0.000000
137.107941 109.139786 5.760732 0.836545
137.107941 109.139786 4.052783 0.829496
137.107941 109.139778 2.350319 0.826627
137.107941 109.139778 0.649680 0.816571
155.292221 120.479088 0.000007 0.338506
165.677841 126.955338 0.000005 0.290364
170.136780 129.735825 0.000004 0.304112
172.620163 131.284409 0.000003 0.286931
174.205597 132.273056 0.000002 0.316197
175.307541 132.960205 0.000001 0.285298
176.119415 133.466461 0.000004 0.351400
nan nan nan 0.000000
nan nan nan 0.000000
nan nan nan 0.000000
nan nan nan 0.000000
nan nan nan 0.000000
136.414551 109.139771 5.809080 0.798169
136.414566 109.139778 4.081752 0.803128
136.414551 109.139771 2.359970 0.796689
136.414551 109.139771 0.640031 0.810483
155.180054 120.660355 0.000007 0.337987
165.610641 127.063942 0.000006 0.288624
170.088882 129.813232 0.000004 0.295552
172.583023 131.344452 0.000003 0.259678
174.175323 132.322006 0.000002 0.277699
175.282028 133.001434 0.000001 0.272145
176.097412 133.502014 0.000004 0.343297
nan nan nan 0.000000
nan nan nan 0.000000
nan nan nan 0.000000
nan nan nan 0.000000
nan nan nan 0.000000
135.705200 109.139755 5.858756 0.804166
135.705200 109.139755 4.111514 0.803067
135.705200 109.139755 2.369883 0.802701
135.705200 109.139755 0.630117 0.802701
155.069153 120.842400 0.000007 0.338827
165.544205 127.173019 0.000006 0.300877
170.041519 129.890976 0.000004 0.314656
172.546295 131.404739 0.000002 0.296407
174.145386 132.371155 0.000002 0.295598
175.256805 133.042847 0.000001 0.286961
176.109848 133.558380 0.010007 1.000000
nan nan nan 0.000000
nan nan nan 0.000000
nan nan nan 0.000000
nan nan nan 0.000000
nan nan nan 0.000000
134.979263 109.139740 5.909808 0.805768
134.979263 109.139740 4.142100 0.803479
134.979279 109.139740 2.380072 0.806561
134.979279 109.139740 0.619929 0.803250
154.959534 121.025215 0.000006 0.337224
165.478531 127.282547 0.000006 0.284840
169.994720 129.969040 0.000004 0.268803
172.509995 131.465286 0.000003 0.274281
174.115784 132.420517 0.000002 0.317205
175.231873 133.084427 0.000001 0.260197
176.088486 133.593994 0.010007 1.000000
nan nan nan 0.000000
nan nan nan 0.000000
nan nan nan 0.000000
nan nan nan 0.000000
nan nan nan 0.000000
nan nan nan 0.000000
134.236191 109.139778 4.173539 0.792248
134.236176 109.139778 2.390543 0.781949
134.236191 109.139778 0.609457 0.771496
154.851181 121.208778 0.000005 0.338643
165.413620 127.392532 0.000006 0.305257
169.948441 130.047440 0.000004 0.318791
172.474121 131.526093 0.000003 0.248859
174.086533 132.470078 0.000002 0.306294
175.207230 133.126190 0.000001 0.334386
176.067368 133.629745 0.010004 1.000000
nan nan nan 0.000000
nan nan nan 0.000000
nan nan nan 0.000000
nan nan nan 0.000000
nan nan nan 0.000000
nan nan nan 0.000000
133.475113 109.139778 4.205870 0.830732
133.475113 109.139786 2.401314 0.830793
133.475128 109.139786 0.598688 0.825238
154.744247 121.393173 0.000012 0.337530
165.349487 127.502975 0.000006 0.303258
169.902725 130.126160 0.000003 0.269123
172.438660 131.587128 0.000003 0.291981
174.057632 132.519836 0.000002 0.313878
175.182892 133.168106 0.000002 0.333944
176.046509 133.665649 0.010001 1.000000
nan nan nan 0.000000
nan nan nan 0.000000
nan nan nan 0.000000
nan nan nan 0.000000
nan nan nan 0.000000
nan nan nan 0.000000
132.695374 109.139786 4.239129 0.861677
132.695374 109.139786 2.412392 0.865278
132.695374 109.139786 0.587609 0.858885
154.638565 121.578293 0.000016 0.337743
165.286118 127.613861 0.000005 0.275105
169.857574 130.205185 0.000004 0.283009
172.403625 131.648422 0.000003 0.266560
174.029083 132.569809 0.000002 0.317464
175.158829 133.210205 0.000001 0.295781
176.025894 133.701706 0.010000 1.000000
nan nan nan 0.000000
nan nan nan 0.000000
nan nan nan 0.000000
nan nan nan 0.000000
nan nan nan 0.000000
nan nan nan 0.000000
131.896179 109.139786 4.273352 0.821347
131.896164 109.139786 2.423792 0.824445
131.896164 109.139786 0.576210 0.816617
154.534348 121.764236 0.000030 0.339513
165.223526 127.725182 0.000006 0.297139
169.812958 130.284531 0.000004 0.275227
172.369034 131.709961 0.000003 0.286290
174.000870 132.619980 0.000002 0.281025
175.135071 133.252472 0.000001 0.260258
176.005554 133.737915 0.010000 1.000000
nan nan nan 0.000000
nan nan nan 0.000000
nan nan nan 0.000000
nan nan nan 0.000000
nan nan nan 0.000000
nan nan nan 0.000000
131.076721 109.139793 4.308581 0.866316
131.076721 109.139793 2.435524 0.865766
131.076721 109.139793 0.564475 0.855573
154.431091 121.950714 0.000026 0.338735
165.161713 127.836937 0.000006 0.276844
169.768906 130.364197 0.000004 0.317372
172.334869 131.771744 0.000003 0.291661
173.973022 132.670334 0.000002 0.248768
175.111603 133.294907 0.000002 0.257511
175.985443 133.774246 0.009999 1.000000
nan nan nan 0.000000
nan nan nan 0.000000
nan nan nan 0.000000
nan nan nan 0.000000
nan nan nan 0.000000
nan nan nan 0.000000
130.236130 109.139793 4.344857 0.807279
130.236130 109.139793 2.447609 0.810132
130.236130 109.139793 0.552392 0.810422
154.329163 122.137924 0.000022 0.336263
165.100677 127.949127 0.000006 0.291096
169.725403 130.444153 0.000004 0.319432
172.301132 131.833755 0.000003 0.270695
173.945511 132.720886 0.000002 0.257115
175.088425 133.337494 0.000002 0.304311
175.965591 133.810715 0.009998 1.000000
nan nan nan 0.000000
nan nan nan 0.000000
nan nan nan 0.000000
nan nan nan 0.000000
nan nan nan 0.000000
nan nan nan 0.000000
