# This PCD file was generated using the MATLABÂ® pcwrite function
# from Computer Vision ToolboxÂ®.
# .PCD v.7 - Point Cloud Data file format
VERSION .7
FIELDS x y z intensity
SIZE 4 4 4 4
TYPE F F F F
COUNT 1 1 1 1
WIDTH 1212
HEIGHT 1
VIEWPOINT 0 0 0 1 0 0 0
POINTS 1212
DATA ascii
128.389191 32.269226 0.000000 0.331701
111.026016 51.744438 9.535522 0.737774
111.098022 51.663933 8.405203 0.727550
111.152840 51.602646 7.302468 0.119646
111.026016 51.744431 6.258558 0.705394
111.098022 51.663933 5.178036 0.736706
111.026016 51.744431 4.130376 0.721569
111.098022 51.663925 3.070663 0.733104
111.152855 51.602623 2.021835 0.186954
111.026031 51.744423 0.975053 0.729427
112.056656 50.592159 -0.000022 0.294255
120.216530 41.469193 -0.000013 0.323949
123.719833 37.552406 -0.000010 0.256229
125.670975 35.370968 -0.000008 0.308385
126.916618 33.978310 -0.000007 0.288075
127.813255 32.975845 0.009995 1.000000
128.420258 32.297203 0.000000 0.345434
111.324631 51.744434 9.485851 0.734066
111.324631 51.744434 8.385701 0.728603
111.449677 51.602646 7.266600 0.116777
111.324631 51.744434 6.229145 0.704570
111.395630 51.663933 5.155301 0.716518
111.324631 51.744431 4.114117 0.724559
111.395630 51.663933 3.060954 0.720150
111.449699 51.602623 2.018609 0.163546
111.324638 51.744423 0.978297 0.730755
112.216034 50.733707 -0.000022 0.289784
120.312012 41.554008 -0.000013 0.267521
123.787888 37.612854 -0.000010 0.250523
125.723763 35.417850 -0.000008 0.257664
126.959648 34.016525 -0.000007 0.310506
127.849266 33.007828 0.009995 1.000000
128.451508 32.324966 -0.000000 0.323751
111.742889 51.602642 9.390106 0.131991
111.619583 51.744438 8.343731 0.724514
111.706818 51.644127 7.241453 0.709926
111.619583 51.744438 6.200320 0.721569
111.689590 51.663933 5.133020 0.715694
111.619591 51.744431 4.098183 0.721569
111.689590 51.663937 3.051440 0.730648
111.742905 51.602623 2.015447 0.187381
111.619598 51.744423 0.981477 0.736095
112.376396 50.874146 -0.000022 0.300938
120.408089 41.638153 -0.000014 0.299199
123.856369 37.672829 -0.000010 0.337606
125.776871 35.464359 -0.000008 0.302632
127.002945 34.054443 -0.000007 0.248142
127.885498 33.039558 0.009996 1.000000
128.482956 32.352509 -0.000000 0.342855
112.032570 51.602638 9.342682 0.146441
111.910980 51.744438 8.302601 0.743755
111.980003 51.663937 7.211694 0.736934
111.910988 51.744431 6.172068 0.732418
111.980011 51.663933 5.111185 0.727550
111.910988 51.744427 4.082567 0.733242
111.980011 51.663933 3.042115 0.726894
112.032570 51.602631 2.012350 0.166613
111.910995 51.744423 0.984594 0.732601
112.537735 51.013466 -0.000022 0.291447
120.504761 41.721622 -0.000014 0.279011
123.925270 37.732319 -0.000010 0.278950
125.830307 35.510498 -0.000008 0.232776
127.046509 34.092056 -0.000007 0.286107
127.921951 33.071033 0.009996 1.000000
128.514603 32.379833 -0.000000 0.333928
112.318787 51.602638 9.296206 0.117647
112.198914 51.744438 8.262285 0.717067
112.266960 51.663940 7.177846 0.732555
112.198914 51.744434 6.144381 0.721065
112.266968 51.663933 5.089785 0.732677
112.198921 51.744431 4.067262 0.727123
112.266968 51.663933 3.032977 0.734371
112.284988 51.642624 2.010170 0.736400
112.198921 51.744423 0.987648 0.737377
112.700043 51.151649 -0.000022 0.288579
120.601997 41.804417 -0.000014 0.258274
123.994583 37.791328 -0.000010 0.255863
125.884056 35.556263 -0.000008 0.314244
127.090324 34.129368 -0.000007 0.306874
127.958626 33.102257 0.009996 1.000000
128.546432 32.406937 -0.000000 0.326467
112.601646 51.602638 9.250653 0.111101
112.483459 51.744434 8.222773 0.735195
112.550552 51.663940 7.144670 0.751720
112.483459 51.744434 6.117243 0.727825
112.550560 51.663933 5.068810 0.725109
112.483467 51.744431 4.052262 0.735393
112.550560 51.663940 3.024020 0.736339
112.601646 51.602638 2.006338 0.205035
112.483467 51.744427 0.990642 0.732692
112.863297 51.288712 -0.000023 0.292424
120.699821 41.886528 -0.000014 0.299306
124.064301 37.849854 -0.000010 0.283192
125.938126 35.601654 -0.000008 0.251850
127.134407 34.166370 -0.000007 0.360372
127.995514 33.133221 0.009996 1.000000
128.578461 32.433815 -0.000000 0.339788
112.881241 51.602638 9.205999 0.117647
112.764725 51.744434 8.184043 0.713344
112.830864 51.663940 7.112151 0.752941
112.764725 51.744431 6.090643 0.732052
112.830864 51.663940 5.048250 0.730892
112.764725 51.744431 4.037558 0.718898
112.830872 51.663937 3.015240 0.740871
112.881241 51.602638 2.003420 0.196384
112.764725 51.744427 0.993576 0.733333
113.027519 51.424622 -0.000023 0.289876
120.798210 41.967957 -0.000014 0.298589
124.134430 37.907894 -0.000010 0.316793
125.992516 35.646660 -0.000008 0.264683
127.178741 34.203064 -0.000007 0.284901
128.032623 33.163933 0.009995 1.000000
128.610672 32.460464 0.000000 0.333562
113.157639 51.602638 9.162232 0.169238
113.042770 51.744431 8.146078 0.740627
113.107986 51.663933 7.080273 0.739651
113.042770 51.744431 6.064570 0.716564
113.107986 51.663933 5.028096 0.709804
113.042770 51.744431 4.023146 0.721569
113.107986 51.663933 3.006634 0.727352
113.157631 51.602646 2.000562 0.172885
113.042778 51.744423 0.996453 0.733852
113.042778 51.744423 -0.011722 0.727031
120.897171 42.048691 -0.000014 0.306706
124.204956 37.965439 -0.000010 0.296529
126.047218 35.691292 -0.000008 0.271504
127.223335 34.239445 -0.000007 0.251698
128.040802 33.230343 -0.000001 0.334340
128.643051 32.486897 -0.000000 0.338674
113.430931 51.602634 9.119328 0.156054
113.317696 51.744431 8.108862 0.736278
113.381981 51.663933 7.049026 0.721843
113.317696 51.744434 6.039010 0.738872
113.381981 51.663933 5.008341 0.721569
113.317696 51.744431 4.009017 0.726528
113.381981 51.663933 2.998196 0.711131
113.430931 51.602638 1.997759 0.196109
113.317703 51.744423 0.999272 0.720012
113.317703 51.744423 -0.003258 0.726482
120.996689 42.128738 -0.000014 0.292058
124.275894 38.022491 -0.000010 0.318273
126.102226 35.735538 -0.000008 0.291402
127.268181 34.275517 -0.000007 0.312627
128.078583 33.260731 -0.000001 0.342443
128.675629 32.513096 0.000000 0.329503
113.669693 51.642647 9.090023 0.678431
113.589569 51.744431 8.072382 0.745357
113.652939 51.663940 7.018396 0.721569
113.589569 51.744431 6.013954 0.719921
113.652939 51.663937 4.988974 0.709804
113.589569 51.744427 3.995167 0.736004
113.652939 51.663940 2.989927 0.739651
113.701187 51.602646 1.995011 0.179873
113.589569 51.744427 1.002036 0.726894
113.589577 51.744423 0.005040 0.732815
121.096756 42.208092 -0.000015 0.296284
124.347214 38.079048 -0.000011 0.274250
126.157547 35.779396 -0.000008 0.283497
127.313278 34.311275 -0.000007 0.242786
128.116577 33.290855 -0.000001 0.342306
128.708389 32.539074 -0.000000 0.339696
113.968506 51.602638 9.036034 0.139239
113.858475 51.744431 8.036617 0.744381
113.920937 51.663933 6.988367 0.729732
113.858475 51.744431 5.989390 0.725429
113.920937 51.663933 4.969989 0.709804
113.858475 51.744423 3.981589 0.716289
113.920937 51.663937 2.981819 0.721935
113.968498 51.602646 1.992318 0.172549
113.858475 51.744423 1.004746 0.695613
113.858482 51.744423 0.013176 0.713390
121.197388 42.286736 -0.000015 0.315190
124.418945 38.135101 -0.000010 0.301091
126.213165 35.822872 -0.000008 0.314153
127.358627 34.346714 -0.000007 0.333761
128.154770 33.320713 -0.000001 0.325353
128.741333 32.564816 -0.000000 0.343145
114.232933 51.602631 8.995609 0.155184
114.124481 51.744431 8.001553 0.733883
114.186043 51.663937 6.958927 0.712932
114.124474 51.744431 5.965310 0.725338
114.186035 51.663940 4.951375 0.709804
114.124481 51.744431 3.968278 0.735256
114.186043 51.663940 2.973871 0.733333
114.229042 51.607716 1.989781 0.133639
114.124481 51.744423 1.007403 0.702266
114.124481 51.744423 0.021151 0.733333
121.298561 42.364677 -0.000014 0.304143
124.491051 38.190659 -0.000010 0.302296
126.269096 35.865959 -0.000008 0.266392
127.404221 34.381836 -0.000007 0.374716
128.193176 33.350323 -0.000006 0.245182
128.774445 32.590332 -0.000000 0.339315
114.494553 51.602631 8.955980 0.145617
114.387650 51.744431 7.967180 0.733333
114.387650 51.744431 6.948407 0.721340
114.387657 51.744431 5.941701 0.733013
114.387657 51.744427 4.944723 0.726802
114.387657 51.744431 3.955228 0.710079
114.387657 51.744431 2.971030 0.741176
114.494553 51.602631 1.987087 0.132433
114.387665 51.744423 1.010007 0.720882
114.387657 51.744423 0.028969 0.727962
121.400269 42.441917 -0.000014 0.289982
124.563545 38.245708 -0.000011 0.302007
126.325317 35.908649 -0.000008 0.337972
127.450050 34.416645 -0.000007 0.300603
128.231781 33.379642 -0.000006 0.253483
128.807739 32.615616 -0.000001 0.339117
114.753433 51.602631 8.917124 0.137255
114.648079 51.744431 7.933479 0.733333
114.707893 51.663918 6.901765 0.714672
114.648087 51.744427 5.918553 0.731685
114.707893 51.663925 4.915236 0.721569
114.648079 51.744431 3.942434 0.750240
114.707886 51.663929 2.958437 0.747097
114.753433 51.602631 1.984549 0.190372
114.707893 51.663925 1.014201 0.733333
114.648087 51.744423 0.036636 0.714168
121.502525 42.518444 -0.000015 0.270726
124.636429 38.300251 -0.000010 0.281422
126.381836 35.950951 -0.000008 0.288548
127.496132 34.451130 -0.000007 0.282445
128.270599 33.408695 -0.000006 0.282109
128.841217 32.640663 -0.000000 0.339727
115.009628 51.602631 8.879032 0.149569
114.905815 51.744431 7.900437 0.716930
114.964752 51.663925 6.874022 0.749111
114.905815 51.744431 5.895862 0.732372
115.009636 51.602631 4.888956 0.247547
115.009636 51.602631 3.915480 0.160784
114.964752 51.663925 2.950947 0.738231
115.009636 51.602631 1.982060 0.149157
114.964760 51.663921 1.016696 0.714488
114.905823 51.744423 0.044151 0.733333
121.605301 42.594254 -0.000015 0.285023
124.709686 38.354282 -0.000011 0.301518
126.438652 35.992855 -0.000009 0.293843
127.542450 34.485291 -0.000007 0.283711
128.309631 33.437473 -0.000006 0.309819
128.874863 32.665478 -0.000000 0.336172
115.263237 51.602631 8.841684 0.129412
115.160927 51.744431 7.868042 0.730159
115.219017 51.663921 6.846823 0.737377
115.160934 51.744431 5.873612 0.720424
115.263237 51.602631 4.871804 0.240986
115.263229 51.602634 3.903254 0.195102
115.219009 51.663925 2.943604 0.733333
115.263229 51.602634 1.979621 0.141054
115.219009 51.663925 1.019143 0.721569
115.160934 51.744423 0.051520 0.709072
121.708618 42.669334 -0.000015 0.291569
124.783318 38.407799 -0.000011 0.280598
126.495758 36.034363 -0.000009 0.252430
127.589005 34.519127 -0.000007 0.263462
128.348846 33.465981 -0.000006 0.265461
128.908676 32.690056 -0.000000 0.317815
115.514297 51.602631 8.805065 0.094118
115.413483 51.744431 7.836281 0.721569
115.470718 51.663921 6.820155 0.733104
115.413483 51.744431 5.851799 0.728145
115.514290 51.602634 4.854987 0.232898
115.514297 51.602634 3.891267 0.180621
115.470718 51.663925 2.936403 0.735012
115.514290 51.602638 1.977228 0.140429
115.470718 51.663925 1.021541 0.709804
115.413490 51.744423 0.058744 0.703944
121.812447 42.743706 -0.000015 0.301671
124.857323 38.460808 -0.000011 0.253407
126.553154 36.075466 -0.000009 0.319738
127.635796 34.552635 -0.000007 0.261067
128.388260 33.494213 -0.000006 0.321904
128.942673 32.714401 -0.000001 0.348638
115.762856 51.602661 8.769173 0.129412
115.663544 51.744431 7.805140 0.727550
115.719940 51.663925 6.794009 0.735164
115.663544 51.744431 5.830411 0.714397
115.762871 51.602638 4.838499 0.258824
115.762871 51.602638 3.879515 0.200046
115.719933 51.663929 2.929344 0.722774
115.762863 51.602638 1.974883 0.140246
115.719940 51.663925 1.023892 0.709804
115.663551 51.744423 0.065827 0.690196
121.916794 42.817345 -0.000015 0.293309
124.931702 38.513290 -0.000011 0.268223
126.610832 36.116173 -0.000009 0.300679
127.682816 34.585823 -0.000007 0.281315
128.427887 33.522171 -0.000006 0.272084
128.976822 32.738506 -0.000001 0.344381
116.009018 51.602654 8.733971 0.204822
115.911179 51.744431 7.774609 0.732143
115.966728 51.663933 6.768375 0.721569
115.911179 51.744431 5.809442 0.731350
116.009033 51.602638 4.822332 0.247623
116.009033 51.602638 3.867993 0.176776
115.966728 51.663937 2.922423 0.719265
116.009026 51.602646 1.972584 0.143038
115.966728 51.663933 1.026198 0.733333
115.911179 51.744423 0.072772 0.732189
122.021652 42.890251 -0.000015 0.283253
125.006439 38.565258 -0.000011 0.292287
126.668800 36.156471 -0.000008 0.329091
127.730072 34.618675 -0.000007 0.335439
128.467697 33.549850 -0.000006 0.284855
129.011154 32.762371 -0.000000 0.345525
116.211151 51.663937 8.718023 0.693324
116.252838 51.602623 7.707639 0.094118
116.211151 51.663933 6.743242 0.721065
116.156425 51.744431 5.788883 0.728878
116.252831 51.602634 4.806482 0.257176
116.252823 51.602638 3.856696 0.165652
116.211151 51.663933 2.915637 0.725155
116.244591 51.614754 1.970569 0.354498
116.211151 51.663933 1.028458 0.733333
116.156433 51.744423 0.079581 0.719829
122.127022 42.962425 -0.000015 0.305150
125.081535 38.616699 -0.000011 0.288502
126.727043 36.196369 -0.000008 0.319905
127.777550 34.651199 -0.000007 0.259510
128.507690 33.577251 -0.000006 0.311284
129.045639 32.785995 -0.000001 0.335943
116.453270 51.663937 8.684100 0.711269
116.494331 51.602631 7.678466 0.131426
116.453278 51.663933 6.718600 0.707790
116.399361 51.744431 5.768727 0.722530
116.494324 51.602638 4.790943 0.210239
116.494324 51.602642 3.845620 0.174014
116.453270 51.663933 2.908984 0.709804
116.494331 51.602623 1.968118 0.216999
116.453278 51.663933 1.030674 0.724880
116.399368 51.744423 0.086257 0.733150
122.232887 43.033863 -0.000015 0.287449
125.156998 38.667618 -0.000011 0.317739
126.785561 36.235859 -0.000009 0.259602
127.825256 34.683392 -0.000008 0.357397
128.547882 33.604370 -0.000006 0.241199
129.080292 32.809380 -0.000001 0.343801
116.693130 51.663940 8.650843 0.679606
116.733574 51.602631 7.649863 0.121630
116.693138 51.663933 6.694441 0.699779
116.640038 51.744434 5.748964 0.721340
116.733566 51.602638 4.775708 0.219486
116.733566 51.602638 3.834762 0.137392
116.693130 51.663940 2.902461 0.732799
116.733582 51.602623 1.965951 0.219562
116.693138 51.663933 1.032847 0.741146
116.640045 51.744427 0.092801 0.730068
122.339249 43.104565 -0.000015 0.295277
125.232803 38.718006 -0.000011 0.281239
126.844353 36.274937 -0.000009 0.275700
127.873184 34.715252 -0.000008 0.291279
128.588257 33.631210 -0.000007 0.314672
129.115112 32.832523 -0.000001 0.339498
116.930801 51.663940 8.618237 0.714031
116.970627 51.602631 7.621821 0.114336
116.930801 51.663933 6.670754 0.713664
116.878510 51.744431 5.729589 0.740932
116.970619 51.602638 4.760771 0.210224
116.970619 51.602638 3.824115 0.192157
116.930801 51.663933 2.896066 0.721614
116.970627 51.602623 1.963827 0.244938
116.930801 51.663933 1.034977 0.734035
116.878510 51.744423 0.099218 0.717235
122.446106 43.174511 -0.000015 0.271336
125.308960 38.767864 -0.000011 0.293904
126.903419 36.313602 -0.000009 0.254292
127.921341 34.746773 -0.000007 0.309819
128.628830 33.657768 -0.000006 0.308034
129.150085 32.855423 -0.000001 0.333822
117.166321 51.663940 8.586269 0.703090
117.205536 51.602634 7.594329 0.145434
117.166321 51.663933 6.647534 0.729244
117.114822 51.744431 5.710595 0.733333
117.205536 51.602638 4.746128 0.211093
117.205536 51.602638 3.813678 0.154849
117.166321 51.663940 2.889797 0.717800
117.205544 51.602623 1.961744 0.242329
117.166321 51.663933 1.037065 0.730159
117.114822 51.744423 0.105509 0.726162
122.553444 43.243721 -0.000015 0.272725
125.385475 38.817188 -0.000011 0.292653
126.962753 36.351856 -0.000009 0.269810
127.969711 34.777958 -0.000007 0.263111
128.669586 33.684040 -0.000007 0.352590
129.185226 32.878075 -0.000001 0.326818
117.399742 51.663940 8.554930 0.698039
117.438362 51.602638 7.567379 0.154025
117.399742 51.663933 6.624769 0.730571
117.349037 51.744423 5.691973 0.731640
117.438362 51.602638 4.731771 0.223529
117.438362 51.602642 3.803445 0.144701
117.399742 51.663937 2.883650 0.726436
117.438370 51.602623 1.959702 0.201434
117.399750 51.663933 1.039113 0.733333
117.349045 51.744423 0.111676 0.733333
122.661263 43.312172 -0.000015 0.289738
125.462318 38.865978 -0.000011 0.250507
127.022354 36.389694 -0.000009 0.272877
128.018295 34.808804 -0.000007 0.267475
128.710510 33.710026 -0.000007 0.324407
129.220520 32.900482 -0.000001 0.318074
117.631126 51.663937 8.524206 0.698833
117.669144 51.602638 7.540957 0.147372
117.631126 51.663937 6.602452 0.736065
117.581192 51.744431 5.673719 0.733639
117.669144 51.602638 4.717698 0.215320
117.669144 51.602638 3.793416 0.148562
117.631126 51.663940 2.877625 0.733333
117.669151 51.602627 1.957700 0.194186
117.631126 51.663937 1.041120 0.733333
117.581200 51.744423 0.117722 0.722576
122.769562 43.379875 -0.000015 0.308980
125.539505 38.914230 -0.000011 0.312154
127.082214 36.427116 -0.000009 0.304524
128.067093 34.839310 -0.000007 0.275074
128.751633 33.735729 -0.000006 0.264988
129.255966 32.922642 -0.000001 0.339071
117.860512 51.663940 8.494091 0.717205
117.873520 51.642632 7.525178 0.686397
117.860504 51.663940 6.580577 0.733333
117.811356 51.744431 5.655824 0.726436
117.880447 51.631287 4.707764 0.619181
117.880447 51.631287 3.786334 0.581430
117.860504 51.663940 2.871718 0.738476
117.897949 51.602631 1.955737 0.179919
117.860512 51.663940 1.043087 0.718761
117.811363 51.744423 0.123648 0.736584
122.878326 43.446808 -0.000015 0.295003
125.617035 38.961945 -0.000011 0.291249
127.142334 36.464119 -0.000009 0.265309
128.116119 34.869476 -0.000007 0.281682
128.792923 33.761143 -0.000007 0.289723
129.291580 32.944553 -0.000001 0.332891
118.087944 51.663940 8.464571 0.729839
118.124786 51.602654 7.489672 0.112917
118.037277 51.748222 6.577025 0.729427
118.039558 51.744431 5.638284 0.728511
118.124802 51.602627 4.690377 0.192157
118.124802 51.602631 3.773942 0.129412
118.087944 51.663944 2.865929 0.733333
118.124802 51.602631 1.953814 0.172885
118.087952 51.663933 1.045015 0.709804
118.039566 51.744423 0.129458 0.726894
122.987556 43.512997 -0.000016 0.278813
125.694885 39.009109 -0.000011 0.315145
127.202713 36.500702 -0.000009 0.283101
128.165329 34.899300 -0.000008 0.320287
128.834396 33.786266 -0.000007 0.249989
129.327332 32.966217 -0.000001 0.338384
118.313484 51.663944 8.435635 0.737423
118.349747 51.602650 7.464785 0.127153
118.265854 51.744438 6.555130 0.733333
118.265862 51.744431 5.621089 0.737713
118.349762 51.602627 4.677122 0.192157
118.349762 51.602627 3.764494 0.137682
118.313477 51.663948 2.860253 0.733333
118.326088 51.642635 1.952689 0.631312
118.313484 51.663940 1.046906 0.714809
118.265862 51.744423 0.135152 0.724651
123.097252 43.578411 -0.000016 0.291844
125.773071 39.055740 -0.000011 0.275151
127.263351 36.536861 -0.000009 0.317968
128.214767 34.928780 -0.000008 0.269795
128.876038 33.811100 -0.000006 0.314672
129.363235 32.987633 -0.000001 0.342550
118.537163 51.663940 8.407274 0.718074
118.572845 51.602654 7.440394 0.093477
118.490295 51.744431 6.534459 0.742290
118.490295 51.744427 5.604237 0.752941
118.572861 51.602634 4.664130 0.187839
118.572861 51.602631 3.755235 0.165331
118.537163 51.663944 2.854692 0.730755
118.572853 51.602642 1.950081 0.179339
118.537163 51.663940 1.048759 0.730617
118.490303 51.744419 0.140733 0.722896
123.207397 43.643059 -0.000016 0.302358
125.851570 39.101822 -0.000012 0.301640
127.324234 36.572598 -0.000009 0.295979
128.264404 34.957909 -0.000008 0.303471
128.917847 33.835648 -0.000007 0.333028
129.399292 33.008797 -0.000001 0.337957
118.712914 51.744438 8.402716 0.739956
118.794144 51.602654 7.416488 0.093294
118.712914 51.744438 6.514199 0.746654
118.712921 51.744431 5.587720 0.744518
118.794159 51.602634 4.651398 0.192157
118.794159 51.602631 3.746158 0.191012
118.759041 51.663933 2.849239 0.752941
118.794151 51.602642 1.948269 0.177920
118.759041 51.663929 1.050575 0.740536
118.712921 51.744423 0.146203 0.733333
123.317986 43.706940 -0.000016 0.303273
125.930397 39.147346 -0.000012 0.274281
127.385368 36.607906 -0.000009 0.266773
128.314240 34.986698 -0.000008 0.306615
128.959839 33.859894 -0.000006 0.253986
129.455322 32.995079 0.009995 1.000000
118.933754 51.744438 8.375381 0.719539
119.013680 51.602654 7.393061 0.105974
118.933762 51.744438 6.494343 0.748211
118.933762 51.744431 5.571534 0.733333
119.013687 51.602638 4.638919 0.209323
119.013695 51.602631 3.737264 0.173571
118.979141 51.663933 2.843896 0.745052
119.013687 51.602646 1.946494 0.203922
118.979141 51.663933 1.052354 0.731121
118.933762 51.744427 0.151564 0.733333
123.429024 43.770042 -0.000016 0.287999
126.009537 39.192322 -0.000011 0.292592
127.446739 36.642792 -0.000009 0.254459
128.364273 35.015133 -0.000008 0.248417
129.001984 33.883854 -0.000007 0.294423
129.491440 33.015598 0.009995 1.000000
119.152870 51.744438 8.348597 0.738170
119.231499 51.602654 7.370102 0.090715
119.152878 51.744438 6.474887 0.741909
119.152878 51.744431 5.555672 0.733333
119.231506 51.602634 4.626690 0.199145
119.231506 51.602638 3.728549 0.189166
119.197517 51.663933 2.838660 0.734920
119.231506 51.602646 1.944755 0.194080
119.197517 51.663929 1.054098 0.737682
119.152878 51.744423 0.156817 0.733333
123.540497 43.832371 -0.000016 0.291859
126.088989 39.236748 -0.000012 0.296864
127.508362 36.677242 -0.000009 0.268589
128.414505 35.043221 -0.000008 0.353384
129.044312 33.907516 -0.000007 0.325567
129.527679 33.035862 0.009995 1.000000
119.370300 51.744431 8.322348 0.712566
119.447632 51.602650 7.347605 0.137148
119.370300 51.744438 6.455821 0.739864
119.370300 51.744427 5.540129 0.729015
119.447639 51.602638 4.614708 0.192157
119.447647 51.602631 3.720008 0.192157
119.414207 51.663933 2.833530 0.723918
119.447632 51.602646 1.943051 0.173098
119.414207 51.663933 1.055807 0.731716
119.370300 51.744423 0.161965 0.733333
123.652397 43.893921 -0.000016 0.290288
126.168755 39.280617 -0.000012 0.278630
127.570221 36.711262 -0.000009 0.316258
128.464935 35.070953 -0.000008 0.323171
129.086792 33.930882 -0.000007 0.306065
129.564072 33.055878 0.009995 1.000000
119.586075 51.744434 8.296633 0.733333
119.640678 51.642639 7.335365 0.543389
119.586075 51.744431 6.437141 0.721523
119.586075 51.744423 5.524899 0.698039
119.662140 51.602638 4.602967 0.198367
119.662140 51.602631 3.711641 0.163622
119.629257 51.663933 2.828504 0.752941
119.662132 51.602646 1.941381 0.173007
119.629257 51.663933 1.057481 0.738231
119.586075 51.744427 0.167009 0.721569
123.764732 43.954693 -0.000016 0.286839
126.248817 39.323929 -0.000012 0.291203
127.632309 36.744854 -0.000009 0.259022
128.515549 35.098339 -0.000008 0.256977
129.129440 33.953949 -0.000007 0.290150
129.600601 33.075634 0.009996 1.000000
119.800240 51.744431 8.271439 0.735454
119.875038 51.602631 7.303964 0.117647
119.800232 51.744434 6.418839 0.729625
119.800240 51.744431 5.509981 0.698039
119.875031 51.602638 4.591466 0.228275
119.875031 51.602638 3.703442 0.189166
119.842697 51.663933 2.823580 0.732921
119.875031 51.602646 1.939744 0.164508
119.842697 51.663925 1.059122 0.721569
119.800240 51.744423 0.171949 0.698405
123.877487 44.014668 -0.000016 0.291722
126.329185 39.366676 -0.000012 0.359487
127.694641 36.778008 -0.000009 0.316915
128.566360 35.125366 -0.000008 0.315206
129.172241 33.976723 -0.000007 0.271229
129.637253 33.095135 0.009996 1.000000
120.012825 51.744438 8.246760 0.710948
120.086365 51.602631 7.282812 0.115023
120.012833 51.744438 6.400912 0.736522
120.054581 51.663929 5.481914 0.713939
120.086365 51.602638 4.580197 0.253895
120.086365 51.602634 3.695412 0.190097
120.012833 51.744423 2.823210 0.721569
120.086357 51.602646 1.938142 0.215549
120.054581 51.663929 1.060729 0.722622
120.012833 51.744423 0.176790 0.710491
123.990662 44.073860 -0.000016 0.285359
126.409843 39.408867 -0.000012 0.302266
127.757195 36.810726 -0.000009 0.267750
128.617355 35.152042 -0.000008 0.256992
129.215210 33.999191 -0.000007 0.262592
129.674057 33.114380 0.009996 1.000000
120.296165 51.602638 8.182718 0.129412
120.296165 51.602638 7.262093 0.101061
120.223885 51.744438 6.383352 0.732418
120.264923 51.663933 5.467647 0.717845
120.296173 51.602638 4.569161 0.257450
120.296173 51.602638 3.687545 0.254078
120.223892 51.744431 2.818469 0.718624
120.275772 51.642643 1.937307 0.646387
120.264923 51.663929 1.062303 0.721569
120.223892 51.744431 0.181530 0.718624
124.104240 44.132256 -0.000016 0.304891
126.490799 39.450493 -0.000012 0.269062
127.819977 36.843010 -0.000009 0.289937
128.668549 35.178356 -0.000008 0.324849
129.258331 34.021362 -0.000007 0.301564
129.710999 33.133369 0.009996 1.000000
120.504486 51.602638 8.159183 0.118837
120.504486 51.602642 7.241800 0.098573
120.433449 51.744438 6.366153 0.731456
120.473778 51.663940 5.453675 0.734981
120.504486 51.602638 4.558352 0.252201
120.504486 51.602638 3.679841 0.192157
120.433449 51.744431 2.813826 0.698039
120.504494 51.602623 1.935033 0.209659
120.473785 51.663933 1.063845 0.709804
120.433456 51.744427 0.186175 0.716884
124.218231 44.189857 -0.000016 0.301625
126.572044 39.491547 -0.000012 0.287953
127.882988 36.874847 -0.000009 0.338094
128.719910 35.204315 -0.000008 0.338140
129.301605 34.043232 -0.000007 0.252399
129.748062 33.152100 0.009997 1.000000
120.711349 51.602638 8.136134 0.120134
120.711349 51.602646 7.221927 0.104921
120.641556 51.744434 6.349309 0.709804
120.681183 51.663933 5.439989 0.723873
120.711357 51.602638 4.547766 0.227787
120.711357 51.602638 3.672297 0.192157
120.641556 51.744431 2.809278 0.704936
120.711365 51.602623 1.933528 0.180087
120.681183 51.663925 1.065354 0.721569
120.641556 51.744427 0.190722 0.727596
124.332611 44.246677 -0.000017 0.306111
126.653572 39.532043 -0.000012 0.273869
127.946213 36.906250 -0.000009 0.283131
128.771454 35.229916 -0.000008 0.262348
129.345032 34.064800 -0.000007 0.315404
129.785248 33.170574 0.009995 1.000000
120.916801 51.602646 8.113569 0.115862
120.916801 51.602646 7.202467 0.111482
120.848228 51.744438 6.332819 0.716472
120.887161 51.663933 5.426590 0.723491
120.916809 51.602638 4.537402 0.223804
120.916809 51.602638 3.664909 0.192157
120.848228 51.744423 2.804825 0.698039
120.916809 51.602631 1.932053 0.165789
120.887161 51.663933 1.066832 0.733242
120.848236 51.744423 0.195175 0.729610
124.447395 44.302681 -0.000016 0.299123
126.735382 39.571953 -0.000012 0.303944
128.009659 36.937210 -0.000009 0.265980
128.823181 35.255154 -0.000008 0.245518
129.388611 34.086060 -0.000007 0.293812
129.805191 33.224712 -0.000001 0.317342
121.120865 51.602646 8.091473 0.129412
121.120865 51.602654 7.183418 0.130236
121.053513 51.744438 6.316673 0.721569
121.091751 51.663933 5.413473 0.728695
121.115898 51.613113 4.528588 0.578759
121.115891 51.613121 3.658627 0.564477
121.053513 51.744431 2.800466 0.700664
121.120872 51.602631 1.930610 0.160784
121.091759 51.663929 1.068279 0.721569
121.053513 51.744431 0.199533 0.678431
124.562561 44.357880 -0.000016 0.299519
126.817467 39.611305 -0.000012 0.308202
128.073318 36.967728 -0.000010 0.321782
128.875076 35.280029 -0.000008 0.301381
129.432327 34.107021 -0.000007 0.231144
129.842896 33.242783 -0.000001 0.333577
121.304924 51.642643 8.080900 0.630640
121.304932 51.642639 7.174300 0.607355
121.257439 51.744431 6.300867 0.700435
121.294998 51.663933 5.400630 0.720836
121.323593 51.602623 4.517319 0.235294
121.323593 51.602631 3.650595 0.192157
121.257446 51.744423 2.796199 0.699733
121.323593 51.602631 1.929198 0.132082
121.294998 51.663925 1.069696 0.733059
121.257446 51.744423 0.203801 0.721340
124.678108 44.412289 -0.000017 0.296361
126.899826 39.650078 -0.000012 0.295140
128.137192 36.997795 -0.000009 0.284199
128.927155 35.304543 -0.000008 0.260426
129.476196 34.127674 -0.000007 0.288762
129.880722 33.260590 -0.000001 0.342061
121.524994 51.602631 8.048670 0.171206
121.524994 51.602627 7.146510 0.142794
121.460045 51.744434 6.285398 0.733333
121.496918 51.663933 5.388062 0.717617
121.524994 51.602627 4.507597 0.231250
121.496735 51.664330 3.649230 0.675990
121.460045 51.744423 2.792022 0.731411
121.524994 51.602631 1.927814 0.147875
121.496918 51.663929 1.071082 0.732876
121.460045 51.744423 0.207978 0.714488
124.794037 44.465881 -0.000017 0.296956
126.982452 39.688274 -0.000012 0.301381
128.201279 37.027420 -0.000009 0.273487
128.979385 35.328693 -0.000008 0.249592
129.520203 34.148018 -0.000007 0.368963
129.918655 33.278133 -0.000002 0.344503
121.725113 51.602631 8.027954 0.160784
121.725113 51.602631 7.128648 0.139788
121.661354 51.744434 6.270259 0.718212
121.697548 51.663937 5.375763 0.733608
121.725113 51.602631 4.498082 0.243839
121.663368 51.739944 3.649229 0.656321
121.661354 51.744431 2.787935 0.726024
121.725113 51.602634 1.926461 0.160784
121.697548 51.663933 1.072439 0.721569
121.661354 51.744423 0.212065 0.729580
124.910332 44.518658 -0.000017 0.295354
127.065338 39.725899 -0.000012 0.287694
128.265564 37.056595 -0.000009 0.292073
129.031799 35.352482 -0.000008 0.307637
129.564362 34.168056 -0.000007 0.281895
129.956726 33.295414 -0.000001 0.336996
121.923973 51.602638 8.007687 0.169512
121.923981 51.602631 7.111173 0.160784
121.861404 51.744434 6.255447 0.728740
121.896927 51.663933 5.363728 0.732692
121.923981 51.602627 4.488773 0.244480
121.830536 51.814392 3.649229 0.678645
121.861404 51.744431 2.783936 0.714122
121.923981 51.602631 1.925137 0.157382
121.896927 51.663929 1.073767 0.720653
121.861404 51.744431 0.216064 0.728878
125.027000 44.570633 -0.000017 0.302205
127.148491 39.762939 -0.000012 0.270054
128.330048 37.085320 -0.000009 0.317891
129.084366 35.375896 -0.000008 0.290364
129.608643 34.187786 -0.000007 0.268101
129.994919 33.312424 -0.000002 0.342245
122.121620 51.602634 7.987857 0.189029
122.121620 51.602634 7.094076 0.149020
122.060226 51.744438 6.240960 0.739773
122.095085 51.663933 5.351955 0.718212
122.121628 51.602623 4.479667 0.245823
122.060226 51.744431 3.636428 0.721569
122.060226 51.744431 2.780024 0.701167
122.121620 51.602638 1.923842 0.129412
122.095085 51.663929 1.075066 0.712566
122.060226 51.744427 0.219976 0.734890
125.144028 44.621780 -0.000017 0.292149
127.231903 39.799397 -0.000012 0.286107
128.394730 37.113598 -0.000010 0.333455
129.137100 35.398949 -0.000008 0.304906
129.653076 34.207207 -0.000007 0.250584
130.033218 33.329185 -0.000006 0.330007
122.318077 51.602634 7.968463 0.191699
122.318069 51.602638 7.077353 0.149020
122.257851 51.744434 6.226787 0.725521
122.292038 51.663937 5.340441 0.726711
122.318077 51.602623 4.470759 0.215686
122.257858 51.744431 3.630042 0.740780
122.257858 51.744423 2.776198 0.713436
122.311340 51.618496 1.922856 0.702815
122.292046 51.663929 1.076336 0.728832
122.257858 51.744423 0.223803 0.741176
125.261398 44.672112 -0.000017 0.280842
127.315567 39.835274 -0.000012 0.287938
128.459625 37.141422 -0.000010 0.248783
129.190002 35.421631 -0.000008 0.263310
129.697632 34.226315 -0.000007 0.308949
130.071640 33.345661 -0.000006 0.289723
122.513359 51.602638 7.949500 0.174609
122.513359 51.602638 7.061003 0.215259
122.454308 51.744438 6.212928 0.730114
122.487831 51.663933 5.329182 0.709804
122.513367 51.602631 4.462050 0.200107
122.454308 51.744431 3.623797 0.733333
122.454308 51.744427 2.772455 0.728740
122.454315 51.744427 1.923849 0.725475
122.487839 51.663925 1.077578 0.693233
122.454315 51.744427 0.227544 0.729107
125.379128 44.721626 -0.000017 0.284443
127.399475 39.870560 -0.000012 0.318914
128.524689 37.168789 -0.000009 0.308995
129.243042 35.443943 -0.000008 0.340826
129.742325 34.245113 -0.000007 0.262303
130.110184 33.361870 -0.000006 0.258991
122.707520 51.602638 7.930959 0.162783
122.707520 51.602642 7.045016 0.195377
122.649628 51.744438 6.199380 0.732052
122.682495 51.663929 5.318172 0.705486
122.707527 51.602631 4.453534 0.198367
122.682495 51.663929 3.610562 0.723690
122.649628 51.744431 2.768798 0.740291
122.649628 51.744427 1.922630 0.748501
122.682495 51.663925 1.078792 0.706767
122.649628 51.744423 0.231202 0.737850
125.497200 44.770321 -0.000017 0.275273
127.483627 39.905270 -0.000012 0.273915
128.589966 37.195702 -0.000010 0.327184
129.296249 35.465885 -0.000008 0.305180
129.787155 34.263596 -0.000007 0.292958
130.148834 33.377808 -0.000006 0.262242
122.900574 51.602642 7.912836 0.197665
122.900574 51.602642 7.029389 0.192157
122.843834 51.744431 6.186135 0.716106
122.843834 51.744431 5.320274 0.719692
122.900581 51.602631 4.445210 0.204379
122.843834 51.744438 3.611724 0.720287
122.843834 51.744431 2.765222 0.721157
122.843834 51.744431 1.921440 0.733333
122.843834 51.744427 1.078560 0.733333
122.843834 51.744431 0.234778 0.738994
125.615601 44.818188 -0.000017 0.288792
127.568024 39.939384 -0.000012 0.310063
128.655411 37.222160 -0.000010 0.274327
129.349609 35.487453 -0.000008 0.327993
129.832108 34.281769 -0.000007 0.258625
130.187592 33.393475 -0.000006 0.314000
123.083755 51.625076 7.901160 0.421088
123.083755 51.625076 7.019323 0.395743
123.036957 51.744438 6.173194 0.726390
123.068527 51.663925 5.296896 0.709804
123.092560 51.602631 4.437077 0.207324
123.068520 51.663933 3.598802 0.709804
123.036957 51.744431 2.761727 0.721798
123.036957 51.744427 1.920275 0.727504
123.068520 51.663929 1.081139 0.711727
123.036957 51.744427 0.238272 0.751797
125.734344 44.865227 -0.000017 0.283726
127.652649 39.972908 -0.000012 0.284947
128.721039 37.248161 -0.000009 0.334386
129.403122 35.508652 -0.000008 0.269108
129.877182 34.299625 -0.000007 0.316838
130.226456 33.408871 -0.000006 0.241840
123.283493 51.602623 7.877818 0.183886
123.283493 51.602627 6.999196 0.192157
123.229027 51.744431 6.160548 0.733333
123.259949 51.663925 5.286623 0.709804
123.283493 51.602631 4.429130 0.248203
123.259949 51.663929 3.593122 0.709804
123.229027 51.744431 2.758314 0.721569
123.229034 51.744423 1.919139 0.739849
123.259949 51.663925 1.082273 0.737713
123.229027 51.744427 0.241686 0.753948
125.853409 44.911430 -0.000017 0.290074
127.737511 40.005844 -0.000012 0.282094
128.786865 37.273701 -0.000009 0.298528
129.456772 35.529472 -0.000008 0.300404
129.922394 34.317169 -0.000007 0.251087
130.265427 33.423996 -0.000006 0.301534
123.473404 51.602623 7.860916 0.220874
123.458778 51.641518 6.993597 0.621973
123.420067 51.744434 6.148199 0.734096
123.450348 51.663933 5.276589 0.709804
123.473404 51.602631 4.421369 0.222477
123.450348 51.663933 3.587577 0.709804
123.420074 51.744431 2.754980 0.738720
123.420074 51.744431 1.918028 0.736217
123.450348 51.663940 1.083380 0.715541
123.420074 51.744431 0.245020 0.751873
125.972794 44.956802 -0.000017 0.291752
127.822609 40.038185 -0.000012 0.260014
128.852844 37.298790 -0.000010 0.317556
129.510574 35.549919 -0.000008 0.252232
129.967712 34.334393 -0.000007 0.271580
130.304504 33.438850 -0.000006 0.268574
123.662315 51.602623 7.844414 0.218936
123.625198 51.703445 6.993597 0.682261
123.610115 51.744431 6.136140 0.743145
123.639748 51.663933 5.266792 0.709804
123.662315 51.602631 4.413789 0.232715
123.639748 51.663937 3.582161 0.709804
123.610115 51.744431 2.751723 0.733333
123.610115 51.744427 1.916944 0.732692
123.639748 51.663933 1.084460 0.745968
123.610115 51.744431 0.248276 0.733333
126.092484 45.001347 -0.000017 0.298543
127.907921 40.069931 -0.000012 0.319371
128.919022 37.323406 -0.000010 0.289570
129.564514 35.569992 -0.000008 0.329824
130.013153 34.351303 -0.000007 0.274815
130.343689 33.453430 -0.000006 0.300969
123.850258 51.602634 7.828306 0.209934
123.828178 51.663937 6.970578 0.716838
123.799179 51.744438 6.124368 0.738964
123.828178 51.663933 5.257228 0.709804
123.850266 51.602634 4.406390 0.205203
123.828178 51.663940 3.576874 0.709804
123.799179 51.744438 2.748546 0.733333
123.799179 51.744431 1.915885 0.739849
123.828178 51.663933 1.085515 0.728344
123.799179 51.744431 0.251454 0.734249
126.212494 45.045052 -0.000017 0.300298
127.993454 40.101082 -0.000012 0.289830
128.985352 37.347565 -0.000010 0.249882
129.618591 35.589684 -0.000008 0.264500
130.058716 34.367893 -0.000007 0.285908
130.382980 33.467735 -0.000006 0.313176
124.037262 51.602631 7.812583 0.192157
124.015663 51.663933 6.956987 0.733333
123.987297 51.744438 6.112880 0.737041
124.015663 51.663933 5.247894 0.709804
124.037262 51.602631 4.399170 0.192157
124.015663 51.663933 3.571714 0.721569
123.987297 51.744438 2.745444 0.719585
123.987305 51.744431 1.914852 0.732784
124.015663 51.663933 1.086545 0.718761
123.987305 51.744431 0.254556 0.752941
126.332802 45.087914 -0.000017 0.288151
128.079193 40.131638 -0.000013 0.303105
129.051849 37.371258 -0.000010 0.316762
129.672806 35.609001 -0.000008 0.292576
130.104385 34.384167 -0.000007 0.311696
130.422363 33.481770 -0.000006 0.282948
124.223351 51.602631 7.797247 0.183291
124.202232 51.663933 6.943728 0.720562
124.174492 51.744438 6.101672 0.730388
124.202225 51.663940 5.238788 0.709804
124.174500 51.744431 4.409380 0.727123
124.202225 51.663937 3.566681 0.698405
124.174492 51.744438 2.742417 0.733333
124.174500 51.744427 1.913844 0.712566
124.202232 51.663933 1.087550 0.720653
124.174500 51.744427 0.257582 0.752941
126.453400 45.129940 -0.000018 0.275761
128.165161 40.161583 -0.000013 0.304417
129.118515 37.394485 -0.000010 0.274189
129.727142 35.627937 -0.000008 0.309316
130.150177 34.400120 -0.000007 0.302022
130.461838 33.495522 -0.000006 0.255940
124.408546 51.602631 7.782290 0.180392
124.387901 51.663940 6.930799 0.698726
124.360794 51.744438 6.090742 0.737682
124.387901 51.663940 5.229908 0.709804
124.360794 51.744438 4.402471 0.716243
124.387901 51.663937 3.561771 0.722118
124.360794 51.744438 2.739466 0.731548
124.360794 51.744427 1.912861 0.742977
124.387901 51.663937 1.088530 0.717983
124.360794 51.744423 0.260533 0.768292
126.574295 45.171120 -0.000017 0.289281
128.251328 40.190937 -0.000013 0.276173
129.185349 37.417248 -0.000010 0.293568
129.781631 35.646496 -0.000008 0.259678
130.196075 34.415756 -0.000007 0.323064
130.501404 33.509003 -0.000006 0.295674
124.592865 51.602631 7.767705 0.219608
124.572701 51.663940 6.918192 0.698039
124.546211 51.744438 6.080087 0.724926
124.572693 51.663940 5.221250 0.709804
124.546211 51.744438 4.395733 0.729976
124.572693 51.663940 3.556986 0.720745
124.546219 51.744438 2.736590 0.710170
124.546219 51.744431 1.911902 0.727352
124.572693 51.663940 1.089484 0.741176
124.546219 51.744427 0.263410 0.741176
126.695473 45.211460 -0.000018 0.312917
128.337692 40.219685 -0.000013 0.315511
129.252319 37.439545 -0.000009 0.330007
129.836227 35.664673 -0.000008 0.330892
130.242065 34.431068 -0.000007 0.367407
130.541077 33.522205 -0.000006 0.263386
124.763496 51.642632 7.764019 0.647059
124.756653 51.663940 6.905910 0.697948
124.730789 51.744438 6.069703 0.736614
124.756653 51.663940 5.212814 0.709804
124.730789 51.744434 4.389168 0.721523
124.756653 51.663940 3.552323 0.700435
124.730789 51.744431 2.733787 0.719829
124.730789 51.744423 1.910969 0.727398
124.756653 51.663937 1.090415 0.735729
124.730789 51.744423 0.266214 0.733333
126.816933 45.250942 -0.000017 0.306935
128.424271 40.247833 -0.000013 0.290730
129.319458 37.461372 -0.000010 0.307851
129.890961 35.682468 -0.000008 0.302022
130.288177 34.446060 -0.000007 0.316854
130.580826 33.535133 -0.000006 0.263050
124.959000 51.602638 7.739657 0.180392
124.939781 51.663940 6.893942 0.715496
124.914536 51.744438 6.059587 0.733333
124.939781 51.663940 5.204596 0.709804
124.914536 51.744434 4.382772 0.733364
124.939781 51.663940 3.547780 0.715068
124.914536 51.744442 2.731055 0.714488
124.914543 51.744431 1.910058 0.733333
124.939781 51.663933 1.091322 0.721569
124.914536 51.744431 0.268945 0.738842
126.938667 45.289581 -0.000017 0.298955
128.511032 40.275372 -0.000013 0.264073
129.386749 37.482731 -0.000010 0.309743
129.945816 35.699879 -0.000008 0.304738
130.334396 34.460728 -0.000007 0.249241
130.620682 33.547783 -0.000006 0.243183
125.140862 51.602638 7.726179 0.180392
125.122108 51.663940 6.882291 0.721798
125.097481 51.744438 6.049738 0.734310
125.122108 51.663944 5.196593 0.729381
125.097481 51.744438 4.376546 0.698039
125.122108 51.663944 3.543356 0.748440
125.097481 51.744434 2.728396 0.691356
125.097481 51.744438 1.909173 0.715221
125.122108 51.663944 1.092205 0.737011
125.097488 51.744423 0.271604 0.746731
127.060661 45.327374 -0.000018 0.298528
128.597977 40.302303 -0.000013 0.283452
129.454193 37.503620 -0.000010 0.264210
130.000793 35.716908 -0.000008 0.298665
130.380707 34.475075 -0.000007 0.318898
130.660614 33.560150 -0.000006 0.244968
125.321945 51.602638 7.713059 0.180392
125.303658 51.663940 6.870951 0.731960
125.279648 51.744431 6.040151 0.731258
125.303658 51.663948 5.188805 0.732464
125.279648 51.744434 4.370484 0.721202
125.303658 51.663944 3.539051 0.732113
125.279648 51.744434 2.725808 0.734707
125.279648 51.744438 1.908311 0.727352
125.303665 51.663933 1.093064 0.726162
125.279648 51.744427 0.274193 0.738476
127.182922 45.364311 -0.000017 0.297078
128.685120 40.328632 -0.000013 0.306294
129.521759 37.524040 -0.000010 0.261082
130.055893 35.733551 -0.000008 0.306462
130.427124 34.489098 -0.000007 0.262089
130.700638 33.572243 -0.000006 0.262669
125.502281 51.602642 7.700298 0.203922
125.484459 51.663940 6.859921 0.729427
125.461060 51.744434 6.030826 0.736828
125.484459 51.663944 5.181227 0.720745
125.461060 51.744434 4.364588 0.732464
125.484459 51.663940 3.534863 0.703243
125.461060 51.744438 2.723290 0.733104
125.461060 51.744434 1.907472 0.726665
125.484459 51.663940 1.093900 0.721569
125.461060 51.744431 0.276710 0.719173
127.305435 45.400391 -0.000018 0.306554
128.772446 40.354347 -0.000013 0.295979
129.589493 37.543983 -0.000010 0.306447
130.111099 35.749809 -0.000008 0.329091
130.473633 34.502796 -0.000007 0.306142
130.740738 33.584053 -0.000006 0.258885
125.681885 51.602638 7.687890 0.185992
125.664520 51.663940 6.849193 0.711727
125.641731 51.744438 6.021760 0.693797
125.664520 51.663948 5.173861 0.723735
125.641731 51.744434 4.358856 0.733333
125.664520 51.663948 3.530791 0.721569
125.641731 51.744438 2.720842 0.733593
125.641731 51.744438 1.906657 0.721157
125.664520 51.663940 1.094712 0.729702
125.641731 51.744431 0.279158 0.690196
127.428192 45.435616 -0.000017 0.276921
128.859940 40.379456 -0.000013 0.269200
129.657349 37.563454 -0.000010 0.292790
130.166412 35.765686 -0.000008 0.276371
130.520248 34.516167 -0.000007 0.265827
130.780930 33.595585 -0.000006 0.260197
125.860771 51.602642 7.675833 0.196429
125.843880 51.663940 6.838768 0.707774
125.821686 51.744434 6.012948 0.704067
125.843872 51.663948 5.166702 0.724422
125.821686 51.744438 4.353285 0.728054
125.843872 51.663948 3.526834 0.709804
125.821686 51.744438 2.718463 0.715084
125.821686 51.744438 1.905864 0.721935
125.843880 51.663940 1.095502 0.732647
125.821693 51.744431 0.281537 0.698039
127.551193 45.469986 -0.000018 0.294392
128.947617 40.403954 -0.000013 0.285328
129.725342 37.582455 -0.000010 0.314580
130.221848 35.781170 -0.000008 0.275166
130.566940 34.529217 -0.000007 0.324712
130.821182 33.606834 -0.000006 0.293645
126.038979 51.602638 7.664119 0.191882
126.022537 51.663940 6.828644 0.707546
126.000954 51.744434 6.004389 0.707042
126.022537 51.663948 5.159749 0.727306
126.000954 51.744438 4.347874 0.732372
126.022537 51.663944 3.522989 0.721569
126.000954 51.744438 2.716152 0.732372
126.000954 51.744438 1.905095 0.722026
126.022537 51.663940 1.096269 0.737804
126.000961 51.744431 0.283848 0.694743
127.674438 45.503502 -0.000018 0.281147
129.035446 40.427834 -0.000013 0.294591
129.793457 37.600975 -0.000010 0.264897
130.277390 35.796272 -0.000008 0.304570
130.613724 34.541939 -0.000007 0.275731
130.861526 33.617802 -0.000006 0.347219
126.216522 51.602638 7.652752 0.191836
126.200539 51.663944 6.818818 0.733822
126.179558 51.744438 5.996082 0.721569
126.200539 51.663944 5.152999 0.722301
126.179558 51.744438 4.342622 0.733455
126.200539 51.663944 3.519259 0.729015
126.179558 51.744438 2.713909 0.722759
126.179558 51.744438 1.904347 0.721935
126.200539 51.663948 1.097014 0.739437
126.179558 51.744431 0.286090 0.717983
127.797913 45.536140 -0.000017 0.273411
129.123459 40.451103 -0.000013 0.294652
129.861710 37.619019 -0.000010 0.279530
130.333023 35.810982 -0.000008 0.272557
130.660599 34.554333 -0.000007 0.258061
130.901947 33.628490 -0.000006 0.252674
126.393417 51.602638 7.641724 0.228595
126.377892 51.663948 6.809286 0.746563
126.357506 51.744438 5.988024 0.733333
126.377892 51.663948 5.146452 0.722164
126.357506 51.744438 4.337527 0.722118
126.377892 51.663944 3.515640 0.746578
126.357506 51.744438 2.711733 0.732967
126.357506 51.744434 1.903623 0.720470
126.377892 51.663944 1.097736 0.726848
126.357506 51.744431 0.288266 0.721431
127.921608 45.567924 -0.000018 0.291218
129.211624 40.473755 -0.000013 0.314015
129.930084 37.636589 -0.000010 0.281865
130.388763 35.825306 -0.000008 0.273396
130.707565 34.566399 -0.000007 0.243320
130.942444 33.638893 -0.000006 0.254994
126.569687 51.602631 7.631032 0.132998
126.554611 51.663948 6.800044 0.733822
126.534828 51.744438 5.980212 0.726253
126.554611 51.663948 5.140104 0.719829
126.534828 51.744434 4.332587 0.735424
126.554611 51.663948 3.512132 0.722622
126.534828 51.744438 2.709625 0.733333
126.534828 51.744438 1.902920 0.741024
126.554611 51.663948 1.098436 0.731685
126.534828 51.744431 0.290375 0.741176
128.045517 45.598846 -0.000018 0.301518
129.299942 40.495796 -0.000013 0.313161
129.998581 37.653683 -0.000010 0.314382
130.444611 35.839241 -0.000008 0.264378
130.754608 34.578136 -0.000007 0.314061
130.983002 33.649014 -0.000006 0.334371
126.745354 51.602631 7.620679 0.174075
126.730736 51.663944 6.791093 0.733333
126.711540 51.744438 5.972647 0.734920
126.730736 51.663952 5.133958 0.722164
126.711540 51.744438 4.327804 0.733333
126.730736 51.663948 3.508733 0.731548
126.711548 51.744438 2.707582 0.733333
126.711540 51.744438 1.902240 0.722026
126.730736 51.663948 1.099114 0.738964
126.711548 51.744431 0.292418 0.733333
128.169647 45.628899 -0.000018 0.293095
129.388412 40.517220 -0.000013 0.289296
130.067200 37.670296 -0.000010 0.274998
130.500549 35.852783 -0.000008 0.265522
130.801727 34.589546 -0.000007 0.258854
131.023636 33.658852 -0.000006 0.339925
126.920433 51.602631 7.610655 0.176226
126.906265 51.663944 6.782429 0.698222
126.887672 51.744431 5.965322 0.714168
126.906265 51.663948 5.128007 0.709804
126.887672 51.744434 4.323174 0.731823
126.906265 51.663944 3.505445 0.734798
126.887672 51.744438 2.705605 0.733333
126.887672 51.744438 1.901581 0.733944
126.906265 51.663948 1.099771 0.730800
126.887672 51.744431 0.294395 0.731029
128.293991 45.658096 -0.000018 0.284993
129.477036 40.538021 -0.000013 0.294362
130.135925 37.686428 -0.000010 0.280735
130.556580 35.865936 -0.000008 0.275731
130.848938 34.600628 -0.000007 0.249058
131.064331 33.668407 -0.000006 0.253056
127.094955 51.602638 7.600965 0.180514
127.063232 51.744438 6.791865 0.698039
127.063232 51.744438 5.958239 0.733333
127.063232 51.744438 5.134487 0.733333
127.063232 51.744438 4.318696 0.714122
127.063232 51.744434 3.509026 0.721569
127.063232 51.744438 2.703692 0.733333
127.063232 51.744434 1.900944 0.721843
127.063232 51.744438 1.099056 0.709804
127.063232 51.744431 0.296308 0.721569
128.418518 45.686409 -0.000018 0.280415
129.565796 40.558205 -0.000013 0.299092
130.204773 37.702080 -0.000010 0.322591
130.612686 35.878696 -0.000008 0.284276
130.896210 34.611378 -0.000007 0.314534
131.105103 33.677673 -0.000006 0.266056
127.268929 51.602638 7.591598 0.190066
127.255661 51.663940 6.765954 0.713710
127.238243 51.744438 5.951395 0.709804
127.255661 51.663940 5.116691 0.733150
127.238243 51.744434 4.314369 0.718990
127.255661 51.663940 3.499189 0.732738
127.238243 51.744431 2.701844 0.739467
127.238243 51.744434 1.900329 0.730755
127.255661 51.663940 1.101019 0.733333
127.238243 51.744431 0.298156 0.720562
128.543259 45.713856 -0.000018 0.282277
129.654709 40.577766 -0.000013 0.281758
130.273712 37.717255 -0.000010 0.297978
130.668900 35.891068 -0.000008 0.301610
130.943573 34.621796 -0.000007 0.270344
131.145935 33.686661 -0.000006 0.328786
127.442375 51.602634 7.582557 0.132784
127.429558 51.663940 6.758138 0.724239
127.412727 51.744438 5.944788 0.709804
127.429558 51.663940 5.111323 0.731716
127.412727 51.744434 4.310191 0.721569
127.429558 51.663933 3.496221 0.714122
127.412727 51.744438 2.700061 0.727306
127.412727 51.744438 1.899734 0.733333
127.429558 51.663940 1.101611 0.719173
127.412727 51.744438 0.299939 0.725933
128.668167 45.740437 -0.000018 0.289631
