# This PCD file was generated using the MATLABÂ® pcwrite function
# from Computer Vision ToolboxÂ®.
# .PCD v.7 - Point Cloud Data file format
VERSION .7
FIELDS x y z intensity
SIZE 4 4 4 4
TYPE F F F F
COUNT 1 1 1 1
WIDTH 1243
HEIGHT 1
VIEWPOINT 0 0 0 1 0 0 0
POINTS 1243
DATA ascii
157.977554 104.577721 6.474891 0.864591
157.977554 104.577721 5.691198 0.845121
157.977554 104.577713 4.916788 0.854154
157.977554 104.577721 4.149861 0.865873
157.977554 104.577721 3.388689 0.861311
157.977554 104.577721 2.631593 0.864683
157.977554 104.577721 1.876928 0.857389
157.977554 104.577721 1.123072 0.862577
157.977554 104.577721 0.368407 0.850980
161.296387 107.962090 -0.000023 0.338415
165.036774 111.776337 0.010013 1.000000
167.025040 113.803864 0.000014 0.335195
168.333221 115.137871 0.000010 0.336996
169.242447 116.065048 0.000004 0.333104
169.912308 116.748146 -0.000006 0.335485
nan nan nan 0.000000
157.977554 104.805779 6.439844 0.854444
157.977554 104.805779 5.661672 0.864454
157.977554 104.805771 4.892717 0.880674
157.977554 104.805779 4.131193 0.859098
157.977554 104.805779 3.375384 0.862974
157.977554 104.805779 2.623621 0.858106
157.977554 104.805779 1.874273 0.878218
157.977554 104.805779 1.125727 0.855451
157.977554 104.805786 0.376379 0.868742
161.205521 108.051842 -0.000022 0.276081
164.972366 111.839806 0.010002 1.000000
166.974808 113.853470 0.000014 0.336858
168.292267 115.178314 0.000010 0.338766
169.207947 116.099121 0.000003 0.333959
169.882553 116.777519 -0.000006 0.327138
nan nan nan 0.000000
157.977554 105.030647 6.405526 0.870588
157.977554 105.030655 5.632759 0.866621
157.977554 105.030647 4.869146 0.870588
157.977554 105.030655 4.112912 0.868437
157.977554 105.030647 3.362354 0.868986
157.977554 105.030647 2.615815 0.870588
157.977554 105.030647 1.871672 0.866056
157.977554 105.030647 1.128327 0.870588
157.977554 105.030655 0.384185 0.870588
161.115265 108.142204 -0.000022 0.309422
164.908508 111.903824 0.010009 1.000000
166.924927 113.903427 0.000014 0.340169
168.251602 115.219040 0.000010 0.333028
169.173676 116.133430 0.000003 0.336721
169.853027 116.807106 -0.000006 0.338293
nan nan nan 0.000000
157.977554 105.252426 6.371916 0.811399
157.977539 105.252426 5.604446 0.816327
157.977539 105.252426 4.846065 0.811399
157.977554 105.252426 4.095012 0.773526
157.977554 105.252426 3.349596 0.811399
157.977554 105.252426 2.608170 0.800183
157.977554 105.252426 1.869126 0.811399
157.977554 105.252426 1.130874 0.811399
157.977554 105.252426 0.391829 0.811399
161.025665 108.233208 -0.000022 0.285985
164.845032 111.968216 0.010003 1.000000
166.875397 113.953720 0.000014 0.336660
168.211227 115.260048 0.000011 0.331868
169.139664 116.167976 0.000004 0.338903
169.823685 116.836891 -0.000005 0.324315
nan nan nan 0.000000
157.977554 105.471207 6.338997 0.755001
157.977554 105.471207 5.576712 0.771679
157.977539 105.471199 4.823455 0.753307
157.977539 105.471199 4.077478 0.760052
157.977554 105.471207 3.337098 0.755138
157.977539 105.471199 2.600682 0.752636
157.977554 105.471199 1.866632 0.784802
157.977554 105.471207 1.133368 0.784802
157.977554 105.471207 0.399317 0.752636
160.936691 108.324829 -0.000022 0.284047
164.781998 112.033043 0.009996 1.000000
166.826202 114.004364 0.000014 0.338109
168.171127 115.301331 0.000011 0.333806
169.105881 116.202759 0.000004 0.344701
169.794571 116.866890 -0.000005 0.337575
nan nan nan 0.000000
157.977554 105.687050 6.306753 0.749371
157.977539 105.687050 5.549548 0.770825
157.977539 105.687050 4.801311 0.753811
157.977539 105.687050 4.060304 0.755871
157.977539 105.687042 3.324857 0.747509
157.977539 105.687050 2.593348 0.769543
157.977539 105.687050 1.864189 0.765667
157.977539 105.687050 1.135811 0.768643
157.977539 105.687050 0.406651 0.774243
160.848358 108.417068 -0.000022 0.276524
164.656525 112.038490 0.000004 0.338979
166.777374 114.055351 0.000013 0.330144
168.131317 115.342896 0.000010 0.337057
169.072342 116.237778 0.000003 0.342855
169.794601 116.924606 0.010001 1.000000
157.137543 105.112335 7.326563 0.799252
157.977554 105.900047 6.275168 0.854932
157.977539 105.900047 5.522939 0.848127
157.977539 105.900047 4.779617 0.880308
157.977539 105.900047 4.043480 0.860014
157.977539 105.900047 3.312866 0.848539
157.977539 105.900047 2.586164 0.848798
157.977539 105.900047 1.861796 0.865568
157.977554 105.900047 1.138204 0.850034
157.977539 105.900047 0.413836 0.851011
160.760666 108.509926 -0.000022 0.297597
164.594025 112.104675 0.000004 0.338033
166.728912 114.106674 0.000013 0.339529
168.091797 115.384735 0.000010 0.338430
169.039063 116.273026 0.000003 0.335622
169.766083 116.954803 0.010002 1.000000
157.137543 105.333519 7.288806 0.795178
157.977554 106.110283 6.244225 0.845350
157.977539 106.110275 5.496870 0.858289
157.977539 106.110275 4.758365 0.879332
157.977539 106.110275 4.026999 0.880095
157.977539 106.110275 3.301119 0.862562
157.977539 106.110283 2.579125 0.841840
157.977539 106.110283 1.859452 0.855299
157.977539 106.110283 1.140548 0.862745
157.977554 106.110283 0.420874 0.853056
160.673630 108.603394 -0.000022 0.287373
164.531982 112.171288 0.000004 0.330037
166.680801 114.158340 0.000013 0.340139
168.052582 115.426857 0.000009 0.332250
169.006012 116.308502 0.000001 0.335958
169.737793 116.985199 0.010003 1.000000
157.964539 106.305954 6.971471 0.727474
157.977539 106.317810 6.213910 0.861204
157.977539 106.317810 5.471330 0.866453
157.977539 106.317810 4.737544 0.864271
157.977539 106.317810 4.010851 0.864820
157.977539 106.317810 3.289609 0.860487
157.977539 106.317810 2.572230 0.853162
157.977539 106.317810 1.857155 0.852338
157.977539 106.317810 1.142845 0.853925
157.977539 106.317810 0.427770 0.851926
160.587250 108.697472 -0.000022 0.302998
164.470413 112.238335 0.000003 0.330968
166.633041 114.210335 0.000013 0.334813
168.013657 115.469246 0.000009 0.340536
168.973236 116.344238 0.000007 0.338964
169.709702 117.015785 0.010003 1.000000
157.977524 106.522705 6.932620 0.721569
157.977539 106.522720 6.184205 0.859266
157.977539 106.522713 5.446304 0.870588
157.977539 106.522713 4.717143 0.859220
157.977539 106.522713 3.995028 0.869566
157.977539 106.522713 3.278332 0.859113
157.977539 106.522713 2.565474 0.870588
157.977539 106.522720 1.854904 0.877714
157.977539 106.522720 1.145096 0.850217
157.977539 106.522713 0.434526 0.865843
160.501526 108.792137 -0.000022 0.276509
164.409317 112.305809 0.000003 0.337621
166.585663 114.262665 0.000012 0.338048
167.975021 115.511902 0.000008 0.342443
168.940689 116.380180 0.000007 0.335912
169.681824 117.046570 0.010004 1.000000
157.977524 106.725052 6.898863 0.720256
157.977539 106.725067 6.155098 0.824079
157.977539 106.725067 5.421782 0.793240
157.977539 106.725067 4.697151 0.803433
157.977539 106.725060 3.979525 0.803265
157.977539 106.725067 3.267282 0.803098
157.977539 106.725067 2.558853 0.802762
157.977539 106.725067 1.852699 0.821134
157.977539 106.725067 1.147301 0.821134
157.977539 106.725067 0.441147 0.803433
160.416458 108.887405 -0.000022 0.300374
164.348679 112.373711 0.000003 0.337209
166.538635 114.315323 0.000012 0.337484
167.936691 115.554832 0.000008 0.334600
168.908401 116.416344 0.000007 0.344656
169.654175 117.077553 0.010005 1.000000
157.977539 106.924919 6.865779 0.729549
157.977539 106.924927 6.126575 0.769116
157.977539 106.924927 5.397752 0.769467
157.977539 106.924927 4.677562 0.800488
157.977539 106.924927 3.964332 0.748058
157.977539 106.924927 3.256453 0.787015
157.977539 106.924927 2.552364 0.769116
157.977539 106.924927 1.850537 0.787015
157.977539 106.924927 1.149462 0.792721
157.977539 106.924927 0.447635 0.778637
160.332062 108.983269 -0.000022 0.284260
164.288528 112.442032 0.000003 0.337636
166.491974 114.368301 0.000009 0.332403
167.898666 115.598030 0.000008 0.343084
168.876358 116.452736 0.000007 0.332815
169.626740 117.108719 0.010006 1.000000
157.977539 107.122360 6.833356 0.848127
157.977539 107.122360 6.098622 0.850767
157.977539 107.122360 5.374202 0.865385
157.977539 107.122360 4.658363 0.849653
157.977539 107.122360 3.949443 0.851820
157.977539 107.122360 3.245840 0.859571
157.977539 107.122360 2.546006 0.851560
157.977539 107.122360 1.848420 0.865950
157.977539 107.122360 1.151580 0.849836
157.977539 107.122360 0.453993 0.865187
160.248352 109.079712 -0.000022 0.282582
164.228867 112.510773 0.000003 0.338079
166.445694 114.421608 0.000008 0.342214
167.860931 115.641495 0.000009 0.334295
168.844574 116.489349 0.000008 0.336263
169.599518 117.140083 0.010007 1.000000
157.977539 107.317436 6.801584 0.854398
157.977539 107.317436 6.071225 0.858152
157.977539 107.317436 5.351121 0.868254
157.977539 107.317436 4.639547 0.862745
157.977539 107.317436 3.934849 0.845518
157.977539 107.317436 3.235439 0.849332
157.977539 107.317436 2.539775 0.867094
157.977539 107.317436 1.846344 0.867704
157.977539 107.317436 1.153656 0.857206
157.977539 107.317436 0.460225 0.856794
160.165298 109.176743 -0.000022 0.308019
164.169662 112.579926 0.000003 0.341711
166.399796 114.475235 0.000008 0.325551
167.823517 115.685211 0.000009 0.338643
168.813049 116.526184 0.000007 0.345464
169.542084 117.145767 0.000002 0.339971
157.977539 107.510208 6.770442 0.872007
157.977539 107.510208 6.044373 0.861646
157.977539 107.510208 5.328500 0.844251
157.977539 107.510208 4.621105 0.868254
157.977539 107.510208 3.920547 0.866300
157.977539 107.510208 3.225245 0.872923
157.977539 107.510208 2.533667 0.858366
157.977539 107.510208 1.844310 0.866636
157.977539 107.510208 1.155690 0.867216
157.977539 107.510208 0.466333 0.867216
160.082932 109.274353 -0.000022 0.277287
164.110962 112.649490 0.000002 0.336583
166.354263 114.529190 0.000007 0.344549
167.786392 115.729195 0.000009 0.334722
168.781784 116.563248 0.000008 0.336675
169.515121 117.177719 0.000003 0.342153
157.977539 107.700745 6.739917 0.797208
157.977539 107.700745 6.018054 0.819120
157.977539 107.700737 5.306327 0.807462
157.977539 107.700737 4.603029 0.819120
157.977539 107.700737 3.906529 0.819120
157.977539 107.700737 3.215254 0.819364
157.977539 107.700737 2.527681 0.819120
157.977539 107.700737 1.842316 0.819120
157.977539 107.700737 1.157684 0.834745
157.977539 107.700737 0.472319 0.819120
160.001251 109.372536 -0.000022 0.285054
164.052734 112.719467 0.000002 0.338216
166.309097 114.583450 0.000007 0.334386
167.749588 115.773438 0.000009 0.337667
168.750763 116.600517 0.000008 0.344701
169.488388 117.209862 0.000003 0.332326
157.977539 107.889084 6.709998 0.761120
157.977539 107.889091 5.992256 0.756848
157.977539 107.889084 5.284594 0.756848
157.977539 107.889084 4.585311 0.764736
157.977539 107.889084 3.892788 0.736873
157.977539 107.889084 3.205460 0.761822
157.977539 107.889084 2.521812 0.756848
157.977539 107.889084 1.840361 0.787045
157.977539 107.889084 1.159639 0.765393
157.977539 107.889084 0.478187 0.742443
159.920258 109.471275 -0.000022 0.286030
163.995010 112.789848 0.000002 0.335378
166.264328 114.638039 0.000007 0.343252
167.713089 115.817940 0.000009 0.337652
168.755875 116.667206 0.009996 1.000000
169.461868 117.242180 0.000003 0.324819
157.977539 108.075302 6.680668 0.861616
157.977539 108.075302 5.966968 0.894560
157.977539 108.075302 5.263288 0.870039
157.977539 108.075302 4.567943 0.852430
157.977539 108.075302 3.879318 0.867674
157.977539 108.075302 3.195859 0.854917
157.977539 108.075302 2.516061 0.857893
157.977539 108.075302 1.838445 0.863813
157.977539 108.075302 1.161555 0.845518
157.977539 108.075302 0.483939 0.846616
159.839951 109.570587 -0.000022 0.281788
163.937775 112.860626 0.000002 0.336400
166.219940 114.692932 0.000006 0.338293
167.676910 115.862694 0.000009 0.334798
168.725601 116.704659 0.009996 1.000000
169.435577 117.274689 0.000003 0.341924
157.977539 108.259445 6.651917 0.862898
157.977539 108.259445 5.942177 0.869398
157.977539 108.259438 5.242403 0.870298
157.977539 108.259445 4.550917 0.844755
157.977539 108.259438 3.866113 0.854505
157.977539 108.259438 3.186448 0.859495
157.977539 108.259438 2.510422 0.862852
157.977539 108.259438 1.836566 0.863996
157.977539 108.259445 1.163433 0.869444
157.977539 108.259438 0.489578 0.883986
159.760330 109.670456 -0.000022 0.306203
163.881027 112.931808 0.000001 0.337209
166.175934 114.748131 0.000006 0.346044
167.641037 115.907692 0.000009 0.332555
168.695572 116.742325 0.009997 1.000000
169.409515 117.307381 0.000003 0.340230
157.977539 108.441559 6.623732 0.865538
157.977539 108.441559 5.917875 0.862745
157.977539 108.441551 5.221930 0.851011
157.977539 108.441559 4.534225 0.879362
157.977539 108.441559 3.853168 0.870527
157.977539 108.441559 3.177221 0.856443
157.977539 108.441559 2.504893 0.862745
157.977539 108.441559 1.834725 0.876722
157.977539 108.441559 1.165275 0.882353
157.977539 108.441559 0.495106 0.861646
159.681427 109.770874 -0.000022 0.280980
163.824783 113.003387 0.000002 0.340276
166.132324 114.803642 0.000006 0.339178
167.605469 115.952950 0.000009 0.334371
168.665817 116.780190 0.009997 1.000000
169.383698 117.340256 0.000003 0.342046
157.977539 108.621696 6.596099 0.801282
157.977539 108.621704 5.894049 0.793133
157.977539 108.621696 5.201858 0.800244
157.977539 108.621696 4.517863 0.776303
157.977539 108.621696 3.840477 0.794842
157.977539 108.621696 3.168177 0.801465
157.977539 108.621696 2.499475 0.801709
157.977539 108.621696 1.832920 0.796765
157.977539 108.621696 1.167080 0.796384
157.977539 108.621696 0.500525 0.801709
159.603226 109.871841 -0.000022 0.297169
163.769043 113.075348 0.000001 0.337102
166.089081 114.859451 0.000006 0.345281
167.570221 115.998444 0.000009 0.338308
168.636322 116.818268 0.009997 1.000000
169.358093 117.373306 0.000003 0.331975
157.977539 108.799919 6.569010 0.870588
157.977539 108.799919 5.870692 0.865034
157.977539 108.799919 5.182179 0.870588
157.977539 108.799919 4.501821 0.864103
157.977539 108.799919 3.828036 0.870588
157.977539 108.799919 3.159309 0.870588
157.977524 108.799919 2.494161 0.870588
157.977539 108.799919 1.831151 0.870588
157.977539 108.799919 1.168849 0.849195
157.977539 108.799919 0.505838 0.870588
159.525726 109.973358 -0.000022 0.282872
163.713806 113.147697 0.000001 0.338216
166.099869 114.956207 0.009987 1.000000
167.535294 116.044189 0.000008 0.341146
168.607101 116.856552 0.009996 1.000000
169.332718 117.406532 0.000003 0.338201
157.977539 108.976265 6.542451 0.863600
157.977539 108.976257 5.847793 0.857114
157.977539 108.976257 5.162886 0.853773
157.977539 108.976257 4.486093 0.862745
157.977524 108.976257 3.815840 0.869001
157.977524 108.976257 3.150615 0.863340
157.977524 108.976257 2.488953 0.861189
157.977539 108.976257 1.829415 0.863859
157.977539 108.976257 1.170584 0.855344
157.977539 108.976257 0.511047 0.869398
159.448929 110.075409 -0.000022 0.295048
163.659073 113.220436 0.000001 0.335119
166.057724 115.012253 0.009989 1.000000
167.500702 116.090172 0.000008 0.340032
168.578140 116.895035 0.009996 1.000000
169.307587 117.439941 0.000003 0.338811
157.962601 109.139786 6.521058 0.810666
157.962601 109.139786 5.829345 0.808454
157.962601 109.139786 5.147345 0.785153
157.962616 109.139786 4.473421 0.784817
157.962616 109.139786 3.806012 0.797116
157.962601 109.139786 3.143611 0.825681
157.962601 109.139786 2.484757 0.804837
157.962601 109.139786 1.828018 0.814221
157.962601 109.139786 1.171982 0.807477
157.962601 109.139786 0.515243 0.808499
159.372849 110.177994 -0.000022 0.291066
163.604843 113.293549 0.000001 0.337087
166.015961 115.068588 0.009992 1.000000
167.466415 116.136398 0.000007 0.338155
168.512207 116.906303 0.000008 0.329931
169.282684 117.473518 0.000003 0.337194
157.724289 109.139786 6.569252 0.796277
157.724289 109.139786 5.870901 0.813458
157.724304 109.139786 5.182353 0.796628
157.724304 109.139786 4.501962 0.792432
157.724304 109.139786 3.828147 0.802716
157.724304 109.139786 3.159387 0.784619
157.724304 109.139786 2.494208 0.785214
157.724304 109.139786 1.831166 0.798627
157.724304 109.139786 1.168834 0.816999
157.724289 109.139786 0.505791 0.798337
159.297501 110.281113 -0.000021 0.288151
163.551132 113.367043 0.000001 0.332036
165.974594 115.125214 0.009994 1.000000
167.432449 116.182861 0.000006 0.334112
168.483597 116.945450 0.000008 0.336934
169.258011 117.507271 0.000003 0.330343
157.481354 109.139778 6.618635 0.791806
157.481354 109.139778 5.913481 0.792248
157.481354 109.139778 5.218226 0.786465
157.481354 109.139786 4.531205 0.804578
157.481354 109.139778 3.850827 0.814084
157.481354 109.139786 3.175552 0.803464
157.481354 109.139778 2.503894 0.794644
157.481354 109.139778 1.834392 0.799496
157.481354 109.139778 1.165608 0.805508
157.481354 109.139778 0.496106 0.807355
159.222870 110.384750 -0.000021 0.288640
163.497940 113.440910 0.000000 0.332082
165.933624 115.182129 0.009997 1.000000
167.398819 116.229561 0.000006 0.341924
168.455261 116.984795 0.000008 0.341817
169.233582 117.541199 0.000003 0.340551
157.233612 109.139778 6.669243 0.836759
157.233612 109.139778 5.957117 0.814069
157.233612 109.139778 5.254988 0.837507
157.233612 109.139778 4.561175 0.826108
157.233612 109.139778 3.874069 0.827115
157.233612 109.139778 3.192119 0.831754
157.233612 109.139778 2.513820 0.839704
157.233612 109.139778 1.837698 0.829129
157.233612 109.139778 1.162302 0.829129
157.233612 109.139778 0.486180 0.835050
159.148956 110.488907 -0.000021 0.306706
163.445251 113.515144 0.000000 0.333837
165.893066 115.239334 0.010001 1.000000
167.365509 116.276489 0.000005 0.340002
168.427200 117.024330 0.000008 0.336950
169.209381 117.575287 0.000003 0.343572
156.980911 109.139778 6.721119 0.848676
156.980911 109.139771 6.001847 0.859373
156.980911 109.139778 5.292670 0.855680
156.980927 109.139778 4.591896 0.860471
156.980911 109.139778 3.897894 0.860853
156.980911 109.139778 3.209100 0.860059
156.980911 109.139778 2.523993 0.861952
156.980911 109.139771 1.841087 0.862318
156.980911 109.139771 1.158913 0.864836
156.980911 109.139778 0.476006 0.861952
159.075775 110.593582 -0.000021 0.296010
163.393097 113.589745 0.000000 0.336812
165.852921 115.296829 0.010006 1.000000
167.332520 116.323662 0.000005 0.339879
168.399414 117.064072 0.000007 0.339422
169.185440 117.609550 0.000003 0.332586
156.723083 109.139778 6.774303 0.857664
156.723083 109.139771 6.047708 0.856504
156.723083 109.139771 5.331306 0.867994
156.723083 109.139778 4.623393 0.848325
156.723083 109.139771 3.922322 0.869383
156.723083 109.139771 3.226510 0.850858
156.723083 109.139771 2.534424 0.857282
156.723083 109.139778 1.844562 0.864485
156.723083 109.139778 1.155438 0.863645
156.723083 109.139771 0.465575 0.864958
159.003326 110.698753 -0.000021 0.282841
163.341461 113.664711 -0.000000 0.337911
165.813126 115.354568 0.010003 1.000000
167.299881 116.371056 0.000005 0.332113
168.371918 117.103996 0.000008 0.331441
169.161713 117.643982 0.000003 0.333013
156.459930 109.139771 6.828850 0.864469
156.459930 109.139771 6.094738 0.864561
156.459930 109.139771 5.370929 0.856794
156.459930 109.139771 4.655694 0.863416
156.459930 109.139771 3.947373 0.888212
156.459930 109.139771 3.244365 0.867033
156.459930 109.139771 2.545122 0.854841
156.459930 109.139771 1.848125 0.861509
156.459930 109.139771 1.151874 0.862577
156.459930 109.139771 0.454877 0.883680
158.931610 110.804436 -0.000021 0.284276
163.290344 113.740028 -0.000000 0.333974
165.773743 115.412598 0.010004 1.000000
167.267563 116.418671 0.000004 0.338781
168.344681 117.144119 0.000007 0.333806
169.138245 117.678574 0.000003 0.335363
156.191269 109.139771 6.884800 0.854398
156.191254 109.139763 6.142980 0.858701
156.191269 109.139771 5.411571 0.859022
156.191269 109.139771 4.688827 0.853147
156.191269 109.139771 3.973068 0.853056
156.191269 109.139771 3.262680 0.860426
156.191269 109.139771 2.556096 0.860365
156.191269 109.139771 1.851781 0.867826
156.191269 109.139771 1.148220 0.861280
156.191269 109.139763 0.443904 0.849088
158.860641 110.910622 -0.000021 0.302647
163.239746 113.815704 -0.000001 0.339361
165.734772 115.470901 0.010004 1.000000
167.235580 116.466522 0.000004 0.341955
168.317749 117.184425 0.000007 0.328618
169.115005 117.713333 0.000002 0.336645
155.916885 109.139763 6.942205 0.870436
155.916870 109.139755 6.192478 0.853605
155.916885 109.139763 5.453272 0.860746
155.916885 109.139763 4.722822 0.892439
155.916885 109.139763 3.999433 0.868452
155.916885 109.139763 3.281471 0.859831
155.916885 109.139763 2.567355 0.864790
155.916885 109.139763 1.855531 0.858442
155.916885 109.139763 1.144469 0.846387
155.916885 109.139763 0.432645 0.864744
158.790405 111.017288 -0.000021 0.284428
163.189697 113.891739 -0.000001 0.337667
165.696228 115.529472 0.010005 1.000000
167.203934 116.514595 0.000005 0.340459
168.291077 117.224922 0.000007 0.333867
169.092026 117.748245 0.000002 0.345586
155.636581 109.139763 7.001117 0.853788
155.636566 109.139755 6.243274 0.850324
155.636566 109.139763 5.496067 0.855024
155.636581 109.139763 4.757710 0.842695
155.636581 109.139763 4.026490 0.856428
155.636566 109.139763 3.300756 0.856947
155.636581 109.139763 2.578909 0.857450
155.636581 109.139763 1.859379 0.858457
155.636581 109.139763 1.140621 0.857588
155.636581 109.139763 0.421091 0.854261
158.720917 111.124451 -0.000021 0.289799
163.140167 113.968117 -0.000001 0.337758
165.658066 115.588310 0.010005 1.000000
167.172623 116.562881 0.000005 0.335927
168.264709 117.265610 0.000007 0.333532
169.069275 117.783325 0.000002 0.342580
155.350128 109.139763 7.061593 0.786328
155.350113 109.139755 6.295420 0.754559
155.350113 109.139755 5.539998 0.758968
155.350128 109.139763 4.793523 0.759884
155.350113 109.139755 4.054265 0.766415
155.350113 109.139755 3.320553 0.790204
155.350128 109.139763 2.590769 0.770886
155.350128 109.139763 1.863330 0.775982
155.350128 109.139763 1.136670 0.777630
155.350113 109.139755 0.409230 0.776822
158.652191 111.232094 -0.000021 0.297093
163.091187 114.044838 -0.000001 0.332647
165.620331 115.647415 0.010006 1.000000
167.141647 116.611389 0.000005 0.330632
168.238602 117.306473 0.000007 0.344121
169.046783 117.818565 0.000005 0.342809
155.057281 109.139755 7.123694 0.672450
155.057266 109.139748 6.348963 0.855131
155.057281 109.139755 5.585107 0.849805
155.057281 109.139755 4.830297 0.856764
155.057281 109.139755 4.082785 0.852186
155.057281 109.139755 3.340881 0.865309
155.057281 109.139755 2.602949 0.860685
155.057281 109.139755 1.867387 0.865080
155.057281 109.139755 1.132613 0.855772
155.057281 109.139755 0.397051 0.863676
158.584198 111.340210 -0.000021 0.285740
163.042725 114.121895 -0.000001 0.337758
165.583008 115.706787 0.010007 1.000000
167.111008 116.660110 0.000005 0.340078
168.212799 117.347519 0.000007 0.332326
169.024536 117.853958 0.000005 0.336355
154.757813 109.139748 7.187476 0.710582
154.757797 109.139748 6.403957 0.864866
154.757813 109.139748 5.631438 0.848661
154.757813 109.139755 4.868069 0.854856
154.757813 109.139755 4.112078 0.850919
154.757813 109.139748 3.361759 0.847913
154.757813 109.139748 2.615458 0.855375
154.757813 109.139748 1.871553 0.850431
154.757813 109.139748 1.128446 0.861524
154.757797 109.139748 0.384541 0.860639
158.516983 111.448799 -0.000021 0.290089
162.994812 114.199295 -0.000001 0.337560
165.546112 115.766411 0.010007 1.000000
167.080719 116.709045 0.000006 0.331334
168.187286 117.388741 0.000007 0.340063
169.002533 117.889503 0.000005 0.352514
nan nan nan 0.000000
154.451447 109.139748 6.460457 0.868391
154.451462 109.139748 5.679038 0.870085
154.451462 109.139748 4.906874 0.869718
154.451462 109.139748 4.142172 0.869123
154.451462 109.139748 3.383209 0.870253
154.451462 109.139748 2.628309 0.870558
154.451462 109.139748 1.875835 0.869856
154.451462 109.139748 1.124165 0.870527
154.451447 109.139748 0.371690 0.869825
158.450516 111.557861 -0.000021 0.295720
162.947433 114.277023 -0.000001 0.337255
165.509613 115.826294 0.010008 1.000000
167.050766 116.758194 0.000006 0.337514
168.162048 117.430145 0.000007 0.337789
168.980774 117.925201 0.000005 0.339208
nan nan nan 0.000000
154.137955 109.139740 6.518522 0.777157
154.137939 109.139740 5.727957 0.785733
154.137955 109.139748 4.946753 0.761288
154.137955 109.139748 4.173100 0.774578
154.137955 109.139748 3.405253 0.763684
154.137939 109.139740 2.641517 0.761624
154.137955 109.139740 1.880234 0.756191
154.137955 109.139740 1.119766 0.757488
154.137939 109.139740 0.358482 0.754284
158.384811 111.667381 -0.000021 0.302754
162.900604 114.355080 -0.000001 0.339544
165.473541 115.886429 0.010009 1.000000
167.021164 116.807541 0.000007 0.335927
168.137100 117.471725 0.000008 0.345388
168.959259 117.961052 0.000005 0.335027
nan nan nan 0.000000
153.816986 109.139740 6.578215 0.869963
153.816986 109.139740 5.778245 0.865919
153.816986 109.139740 4.987749 0.854795
153.816986 109.139740 4.204895 0.879805
153.816986 109.139740 3.427915 0.859831
153.816986 109.139740 2.655095 0.856809
153.816986 109.139740 1.884756 0.868147
153.816986 109.139740 1.115243 0.848859
153.816986 109.139740 0.344905 0.864500
158.319885 111.777359 -0.000021 0.286152
162.854324 114.433464 -0.000002 0.338567
165.437897 115.946815 0.010009 1.000000
166.991913 116.857101 0.000007 0.339025
168.112457 117.513474 0.000007 0.326299
168.938004 117.997055 0.000005 0.333944
nan nan nan 0.000000
153.488297 109.139732 6.639596 0.861555
153.488297 109.139732 5.829957 0.856580
153.488297 109.139740 5.029907 0.867124
153.488297 109.139740 4.237590 0.865156
153.488297 109.139732 3.451218 0.864668
153.488297 109.139740 2.669056 0.853101
153.488297 109.139740 1.889408 0.863615
153.488297 109.139740 1.110593 0.867109
153.488297 109.139732 0.330943 0.851926
158.255722 111.887787 -0.000021 0.290440
162.808594 114.512169 -0.000002 0.335180
165.402664 116.007454 0.010009 1.000000
166.962997 116.906868 0.000007 0.339559
168.088089 117.555397 0.000007 0.329534
168.917007 118.033203 0.000005 0.328969
nan nan nan 0.000000
153.151550 109.139740 6.702734 0.859709
153.151550 109.139732 5.883150 0.846815
153.151550 109.139732 5.073272 0.845441
153.151550 109.139732 4.271221 0.835065
153.151550 109.139740 3.475188 0.848463
153.151550 109.139732 2.683419 0.847684
153.151550 109.139732 1.894191 0.827649
153.151550 109.139732 1.105809 0.847349
153.151550 109.139732 0.316581 0.844892
158.192322 111.998657 -0.000021 0.289448
162.763397 114.591187 -0.000002 0.338857
165.367859 116.068329 0.010010 1.000000
166.934433 116.956825 0.000007 0.337713
168.064026 117.597488 0.000008 0.335454
168.896255 118.069496 0.000005 0.333028
nan nan nan 0.000000
152.806412 109.139740 6.767703 0.866468
152.806396 109.139732 5.937884 0.881086
152.806412 109.139740 5.117892 0.859525
152.806412 109.139740 4.305825 0.853056
152.806412 109.139740 3.499853 0.854734
152.806412 109.139740 2.698196 0.864759
152.806412 109.139740 1.899113 0.865538
152.806412 109.139740 1.100886 0.859388
152.806412 109.139740 0.301803 0.878416
158.129700 112.109970 -0.000021 0.303410
162.718765 114.670525 -0.000002 0.333822
165.333481 116.129448 0.010011 1.000000
166.906219 117.006989 0.000008 0.344472
168.040253 117.639748 0.000008 0.336049
168.875763 118.105927 0.000005 0.323018
nan nan nan 0.000000
152.452515 109.139740 6.834580 0.780850
152.452515 109.139732 5.994226 0.795056
152.452515 109.139740 5.163823 0.786297
152.452515 109.139740 4.341448 0.795163
152.452515 109.139740 3.525242 0.777600
152.452515 109.139732 2.713408 0.777020
152.452515 109.139740 1.904180 0.793500
152.452515 109.139740 1.095820 0.793500
152.452515 109.139732 0.286591 0.777020
158.067856 112.221710 -0.000021 0.277729
162.674683 114.750168 -0.000003 0.339666
165.299530 116.190811 0.010011 1.000000
166.878342 117.057343 0.000008 0.327413
168.016785 117.682167 0.000008 0.334646
168.855515 118.142509 0.000006 0.342794
nan nan nan 0.000000
152.089508 109.139740 6.903440 0.873228
152.089508 109.139732 6.052239 0.861799
152.089508 109.139740 5.211118 0.868406
152.089508 109.139740 4.378126 0.866331
152.089508 109.139740 3.551386 0.865629
152.089508 109.139740 2.729071 0.855451
152.089508 109.139740 1.909398 0.866804
152.089508 109.139740 1.090602 0.864866
152.089508 109.139740 0.270928 0.861143
158.006805 112.333885 -0.000021 0.280003
162.631165 114.830124 -0.000003 0.338720
165.266006 116.252403 0.010012 1.000000
166.850830 117.107895 0.000008 0.340490
167.993591 117.724754 0.000008 0.333623
168.835526 118.179230 0.000005 0.345434
nan nan nan 0.000000
151.716980 109.139740 6.974376 0.782895
151.716980 109.139732 6.112001 0.764233
151.716980 109.139740 5.259836 0.794491
151.716980 109.139740 4.415911 0.782223
151.716980 109.139740 3.578315 0.781796
151.716980 109.139740 2.745206 0.782422
151.716980 109.139740 1.914772 0.761639
151.716980 109.139740 1.085228 0.761654
151.716980 109.139740 0.254793 0.762921
157.946533 112.446487 -0.000021 0.298711
162.588211 114.910378 -0.000003 0.337118
165.232910 116.314224 0.010012 1.000000
166.823669 117.158630 0.000008 0.338659
167.970718 117.767502 0.000008 0.338720
168.815796 118.216087 0.000006 0.348714
nan nan nan 0.000000
151.334534 109.139740 7.047471 0.842954
151.334534 109.139732 6.173581 0.829694
151.334534 109.139740 5.310040 0.840742
151.334534 109.139740 4.454843 0.846448
151.334534 109.139740 3.606066 0.837064
151.334534 109.139740 2.761832 0.845838
151.334534 109.139740 1.920310 0.846357
151.334534 109.139740 1.079690 0.838788
151.334534 109.139740 0.238167 0.834760
157.887039 112.559509 -0.000021 0.288716
162.545807 114.990929 -0.000003 0.335424
165.200256 116.376282 0.010013 1.000000
166.796875 117.209564 0.000008 0.340520
167.948135 117.810410 0.000008 0.326253
168.796326 118.253082 0.000005 0.341115
nan nan nan 0.000000
150.941711 109.139740 7.122819 0.680201
150.941711 109.139740 6.237060 0.861036
150.941727 109.139740 5.361789 0.882795
150.941711 109.139740 4.494979 0.866331
150.941727 109.139740 3.634671 0.860487
150.941727 109.139740 2.778971 0.860029
150.941711 109.139740 1.926020 0.866026
150.941711 109.139740 1.073980 0.862211
150.941711 109.139740 0.221028 0.864271
157.828339 112.672935 -0.000020 0.285328
162.503983 115.071770 -0.000003 0.338613
165.168030 116.438568 0.010013 1.000000
166.770416 117.260674 0.000009 0.339239
167.925842 117.853470 0.000008 0.324590
168.777115 118.290207 0.000005 0.341314
nan nan nan 0.000000
150.538055 109.139740 7.200529 0.737987
150.538055 109.139740 6.302527 0.756527
150.538055 109.139740 5.415158 0.756191
150.538055 109.139740 4.536368 0.755886
150.538055 109.139740 3.664174 0.758572
150.538055 109.139740 2.796648 0.756207
150.538055 109.139740 1.931907 0.753719
150.538055 109.139740 1.068093 0.784802
150.538055 109.139740 0.203352 0.754604
157.770447 112.786766 -0.000021 0.295827
162.462708 115.152901 -0.000003 0.336675
165.136246 116.501068 0.010014 1.000000
166.744324 117.311974 0.000009 0.331930
167.903870 117.896683 0.000008 0.339956
168.758163 118.327469 0.000005 0.337591
nan nan nan 0.000000
nan nan nan 0.000000
150.123047 109.139732 6.370070 0.872267
150.123062 109.139740 5.470222 0.858961
150.123062 109.139740 4.579072 0.865141
150.123062 109.139740 3.694610 0.866270
150.123062 109.139740 2.814883 0.866529
150.123062 109.139740 1.937981 0.863020
150.123062 109.139740 1.062019 0.865751
150.123062 109.139740 0.185116 0.865019
157.713333 112.901009 -0.000020 0.292714
162.421997 115.234329 -0.000003 0.337804
165.104889 116.563797 0.010015 1.000000
166.718597 117.363449 0.000008 0.348791
167.882187 117.940056 0.000008 0.342779
168.739456 118.364868 0.000005 0.344244
nan nan nan 0.000000
nan nan nan 0.000000
149.696213 109.139740 6.439782 0.859220
149.696213 109.139740 5.527055 0.868757
149.696213 109.139740 4.623148 0.867323
149.696213 109.139740 3.726025 0.863050
149.696213 109.139740 2.833705 0.870130
149.696213 109.139740 1.944250 0.870359
149.696213 109.139740 1.055749 0.868589
149.696213 109.139740 0.166295 0.852537
157.657028 113.015640 -0.000020 0.296483
162.381866 115.316032 -0.000003 0.334646
165.013290 116.597191 0.000003 0.334722
166.693222 117.415108 0.000009 0.329702
167.860809 117.983574 0.000008 0.339040
168.721039 118.402390 0.000005 0.323491
nan nan nan 0.000000
nan nan nan 0.000000
149.256927 109.139740 6.511768 0.863706
149.256927 109.139740 5.585739 0.866712
149.256943 109.139740 4.668661 0.866743
149.256927 109.139740 3.758464 0.863233
149.256943 109.139740 2.853140 0.878065
149.256943 109.139740 1.950725 0.862043
149.256943 109.139740 1.049275 0.859831
149.256943 109.139740 0.146859 0.864347
157.601532 113.130661 -0.000020 0.300313
162.342300 115.398010 -0.000004 0.336080
164.982605 116.660774 0.000002 0.337560
166.668213 117.466942 0.000009 0.336873
167.839737 118.027237 0.000008 0.340826
168.702866 118.440041 0.000005 0.326268
nan nan nan 0.000000
nan nan nan 0.000000
148.804642 109.139740 6.586133 0.840772
148.804642 109.139740 5.646366 0.834516
148.804642 109.139740 4.715679 0.835889
148.804642 109.139740 3.791975 0.834852
148.804642 109.139740 2.873219 0.841108
148.804642 109.139740 1.957412 0.843809
148.804642 109.139740 1.042587 0.832837
148.804642 109.139740 0.126780 0.832074
157.546829 113.246071 -0.000020 0.288228
162.303314 115.480270 -0.000004 0.335271
164.952362 116.724564 0.000002 0.334386
166.643555 117.518944 0.000008 0.333669
167.818970 118.071053 0.000008 0.335622
168.684952 118.477821 0.000005 0.342702
nan nan nan 0.000000
nan nan nan 0.000000
148.338699 109.139740 6.662996 0.871489
148.338715 109.139740 5.709025 0.860670
148.338715 109.139740 4.764275 0.861891
148.338715 109.139740 3.826613 0.861387
148.338699 109.139740 2.893972 0.855909
148.338715 109.139740 1.964326 0.869627
148.338715 109.139740 1.035674 0.871122
148.338699 109.139740 0.106028 0.858000
157.492935 113.361862 -0.000020 0.282017
162.264908 115.562798 -0.000004 0.337194
164.922577 116.788567 0.000002 0.338674
166.619278 117.571121 0.000009 0.340047
167.798508 118.115013 0.000007 0.324331
168.667313 118.515724 0.000005 0.324498
nan nan nan 0.000000
nan nan nan 0.000000
147.858444 109.139740 6.742476 0.825727
147.858444 109.139740 5.773819 0.826490
147.858444 109.139740 4.814525 0.826535
147.858459 109.139740 3.862428 0.831998
147.858444 109.139740 2.915431 0.821149
147.858444 109.139740 1.971473 0.837034
147.858444 109.139740 1.028527 0.836316
147.858444 109.139740 0.084569 0.827924
157.439850 113.478027 -0.000020 0.282872
162.227066 115.645584 -0.000004 0.337331
164.893234 116.852776 0.000002 0.338338
166.595352 117.623466 0.000009 0.340398
167.778351 118.159111 0.000007 0.341436
168.649933 118.553741 0.000005 0.331289
nan nan nan 0.000000
nan nan nan 0.000000
147.363159 109.139740 6.824705 0.863523
147.363159 109.139740 5.840855 0.857008
147.363159 109.139740 4.866514 0.866835
147.363159 109.139740 3.899484 0.865644
147.363159 109.139740 2.937632 0.865370
147.363159 109.139740 1.978868 0.858946
147.363159 109.139740 1.021131 0.875395
147.363159 109.139740 0.062368 0.852796
157.387589 113.594551 -0.000019 0.290867
162.189804 115.728638 -0.000004 0.332158
164.864334 116.917191 0.000002 0.337011
166.571793 117.675980 0.000009 0.340581
167.758514 118.203346 0.000007 0.341588
168.632828 118.591888 0.000005 0.344640
nan nan nan 0.000000
nan nan nan 0.000000
146.852036 109.139740 6.909825 0.859937
146.852036 109.139740 5.910246 0.869963
146.852036 109.139740 4.920330 0.863966
146.852036 109.139740 3.937842 0.878416
146.852036 109.139740 2.960613 0.866499
146.852036 109.139740 1.986523 0.863462
146.852036 109.139740 1.013477 0.867491
146.852036 109.139740 0.039387 0.870161
157.336121 113.711449 -0.000019 0.301595
162.153137 115.811951 -0.000004 0.337133
164.835892 116.981804 0.000002 0.337621
166.548615 117.728653 0.000009 0.340032
167.738968 118.247719 0.000007 0.338094
168.615982 118.630150 0.000005 0.319066
nan nan nan 0.000000
nan nan nan 0.000000
146.324295 109.139740 6.997977 0.858137
146.324295 109.139740 5.982112 0.857145
146.324295 109.139740 4.976065 0.863493
146.324295 109.139740 3.977566 0.860609
146.324295 109.139740 2.984414 0.863859
146.324295 109.139740 1.994451 0.861234
146.324295 109.139740 1.005549 0.850309
146.324295 109.139740 0.015586 0.863462
157.285477 113.828690 -0.000019 0.296040
162.117035 115.895515 -0.000004 0.338277
164.807892 117.046608 0.000002 0.338628
166.525787 117.781487 0.000009 0.342092
167.719742 118.292236 0.000006 0.334920
168.599411 118.668533 0.000005 0.339239
nan nan nan 0.000000
nan nan nan 0.000000
145.779037 109.139740 7.089332 0.721157
145.779037 109.139740 6.056588 0.810605
145.779037 109.139740 5.033823 0.800092
145.779037 109.139748 4.018733 0.811002
145.779053 109.139748 3.009079 0.813870
145.779053 109.139748 2.002667 0.807080
145.779053 109.139748 0.997333 0.824262
145.948822 109.210976 -0.000034 0.288396
157.235657 113.946289 -0.000020 0.308675
162.081528 115.979340 -0.000004 0.336690
164.780365 117.111610 0.000002 0.331670
166.503342 117.834480 0.000009 0.336797
167.700836 118.336876 0.000006 0.338674
168.583099 118.707024 0.000005 0.337179
nan nan nan 0.000000
nan nan nan 0.000000
145.215332 109.139740 7.184054 0.703563
145.215332 109.139740 6.133806 0.853468
145.215332 109.139740 5.093709 0.859586
145.215332 109.139740 4.061418 0.865385
145.215332 109.139740 3.034653 0.856962
145.215332 109.139740 2.011185 0.864897
145.215332 109.139740 0.988814 0.838987
145.867035 109.407829 -0.000034 0.289769
157.186661 114.064232 -0.000019 0.283513
162.046600 116.063400 -0.000004 0.334524
164.753265 117.176804 0.000001 0.340368
166.481262 117.887627 0.000009 0.340826
167.682236 118.381653 0.000006 0.328008
168.567062 118.745636 0.000005 0.337392
nan nan nan 0.000000
nan nan nan 0.000000
nan nan nan 0.000000
144.632156 109.139740 6.213922 0.871794
144.632156 109.139740 5.155845 0.860456
144.632156 109.139740 4.105703 0.861830
144.632156 109.139740 3.061187 0.867613
144.632156 109.139740 2.020024 0.853040
144.632156 109.139740 0.979976 0.862806
145.786652 109.605247 -0.000034 0.286915
157.138489 114.182510 -0.000019 0.306218
162.012268 116.147705 -0.000005 0.338186
164.726654 117.242188 0.000002 0.336690
166.459549 117.940926 0.000009 0.337804
167.663940 118.426559 0.000006 0.337667
168.551285 118.784348 0.000005 0.336934
nan nan nan 0.000000
nan nan nan 0.000000
nan nan nan 0.000000
144.028442 109.139740 6.297095 0.843107
144.028442 109.139740 5.220347 0.846265
144.028442 109.139740 4.151679 0.832380
144.028427 109.139740 3.088732 0.844587
144.028427 109.139740 2.029200 0.843122
144.028427 109.139740 0.970801 0.830594
145.707626 109.803230 -0.000033 0.302937
157.091156 114.301132 -0.000019 0.278706
161.978516 116.232246 -0.000005 0.338567
164.700470 117.307755 0.000001 0.342672
166.438217 117.994377 0.000009 0.327337
167.645966 118.471588 0.000006 0.336629
168.535797 118.823181 0.000005 0.338247
nan nan nan 0.000000
nan nan nan 0.000000
nan nan nan 0.000000
143.402985 109.139740 6.383499 0.809262
143.402985 109.139740 5.287357 0.810727
143.402985 109.139740 4.199440 0.808530
143.402985 109.139740 3.117348 0.793957
143.402985 109.139740 2.038731 0.806043
143.402985 109.139732 0.961269 0.810254
145.630005 110.001755 -0.000033 0.288746
157.044632 114.420074 -0.000019 0.301167
161.945358 116.317017 -0.000005 0.335882
164.674759 117.373497 0.000001 0.337331
166.417252 118.047974 0.000009 0.334569
167.628311 118.516739 0.000006 0.327398
168.520569 118.862114 0.000005 0.336721
nan nan nan 0.000000
nan nan nan 0.000000
nan nan nan 0.000000
142.754578 109.139740 6.473319 0.850431
142.754578 109.139740 5.357016 0.853208
142.754562 109.139740 4.249090 0.852201
142.754578 109.139740 3.147095 0.867262
142.754562 109.139732 2.048640 0.865431
142.754562 109.139732 0.951360 0.856764
145.553741 110.200813 -0.000033 0.288945
156.998947 114.539337 -0.000019 0.283574
161.912796 116.402023 -0.000005 0.334066
164.649506 117.439423 0.000001 0.339117
166.396667 118.101715 0.000009 0.341222
167.610962 118.562019 0.000005 0.338323
168.505615 118.901154 0.000005 0.338476
nan nan nan 0.000000
nan nan nan 0.000000
nan nan nan 0.000000
142.081818 109.139740 6.566759 0.855940
142.081802 109.139740 5.429482 0.856626
142.081802 109.139732 4.300740 0.852872
142.081802 109.139740 3.178041 0.852552
142.081802 109.139740 2.058948 0.853681
142.081802 109.139740 0.941052 0.857435
145.478882 110.400406 -0.000033 0.302785
156.954102 114.658920 -0.000019 0.284001
161.880829 116.487259 -0.000005 0.340154
164.624710 117.505524 0.000001 0.335088
166.376450 118.155602 0.000009 0.337774
167.593933 118.607414 0.000005 0.340429
168.490921 118.940292 0.000005 0.337972
nan nan nan 0.000000
nan nan nan 0.000000
nan nan nan 0.000000
141.383286 109.139740 6.664028 0.854536
141.383286 109.139740 5.504919 0.848722
141.383270 109.139740 4.354507 0.844205
141.383270 109.139740 3.210256 0.846052
141.383270 109.139740 2.069679 0.847913
141.383270 109.139740 0.930322 0.847654
145.405426 110.600510 -0.000033 0.290547
156.910080 114.778809 -0.000019 0.279759
161.849457 116.572701 -0.000006 0.337926
164.600388 117.571793 0.000001 0.334142
166.356613 118.209625 0.000009 0.344732
167.577225 118.652931 0.000005 0.331044
168.476517 118.979538 0.000005 0.338277
nan nan nan 0.000000
nan nan nan 0.000000
nan nan nan 0.000000
140.657333 109.139740 6.765370 0.853727
140.657333 109.139740 5.583514 0.853834
140.657333 109.139740 4.410525 0.853468
140.657333 109.139740 3.243819 0.853468
140.657333 109.139740 2.080857 0.854200
140.657333 109.139740 0.919142 0.853407
145.333344 110.801125 -0.000033 0.289845
156.866898 114.899002 -0.000019 0.299458
161.818680 116.658371 -0.000006 0.335637
164.576508 117.638229 0.000001 0.336126
166.337158 118.263794 0.000009 0.337972
167.560837 118.698563 0.000005 0.343450
168.462387 119.018883 0.000005 0.334279
nan nan nan 0.000000
nan nan nan 0.000000
nan nan nan 0.000000
139.902283 109.139732 6.871041 0.859449
139.902283 109.139740 5.665465 0.856413
139.902283 109.139740 4.468936 0.859388
139.902283 109.139732 3.278816 0.860563
139.902283 109.139740 2.092515 0.860380
139.902283 109.139740 0.907486 0.856321
145.262680 111.002243 -0.000033 0.299397
156.824554 115.019501 -0.000019 0.283803
161.788498 116.744255 -0.000006 0.335241
164.553116 117.704842 0.000001 0.334707
166.318085 118.318092 0.000009 0.336629
167.544754 118.744308 0.000005 0.341512
168.448532 119.058327 0.000005 0.339834
nan nan nan 0.000000
nan nan nan 0.000000
nan nan nan 0.000000
139.116302 109.139732 6.981305 0.814694
139.116302 109.139740 5.750980 0.812970
139.116302 109.139732 4.529888 0.824582
139.116302 109.139732 3.315332 0.819944
139.116302 109.139732 2.104679 0.814908
139.116302 109.139732 0.895321 0.825589
145.193420 111.203842 -0.000032 0.286046
156.783066 115.140282 -0.000019 0.290898
161.758926 116.830345 -0.000006 0.340993
164.530167 117.771599 0.000000 0.334035
166.299377 118.372520 0.000009 0.337179
167.529007 118.790161 0.000005 0.339422
168.434937 119.097862 0.000005 0.338323
nan nan nan 0.000000
nan nan nan 0.000000
nan nan nan 0.000000
138.297302 109.139732 7.096475 0.721523
138.297287 109.139732 5.840301 0.856382
138.297287 109.139732 4.593551 0.853025
138.297287 109.139732 3.353475 0.855116
138.297287 109.139732 2.117385 0.850935
138.297287 109.139732 0.882616 0.849241
145.125580 111.405930 -0.000032 0.296712
156.742416 115.261360 -0.000018 0.291981
161.729950 116.916641 -0.000006 0.337362
164.507690 117.838524 0.000000 0.333379
166.281067 118.427078 0.000009 0.337789
167.513565 118.836128 0.000005 0.324498
168.421631 119.137497 0.000005 0.334188
nan nan nan 0.000000
nan nan nan 0.000000
nan nan nan 0.000000
137.443115 109.139732 7.216871 0.712184
137.443115 109.139732 5.933671 0.814588
137.443115 109.139732 4.660100 0.821515
137.443115 109.139732 3.393349 0.812573
137.443115 109.139732 2.130666 0.824918
137.443115 109.139732 0.869334 0.815869
145.059143 111.608475 -0.000032 0.297612
156.702606 115.382713 -0.000018 0.293385
161.701569 117.003128 -0.000006 0.340169
164.485687 117.905609 0.000000 0.336706
166.263123 118.481766 0.000009 0.338247
167.498459 118.882195 0.000004 0.340780
168.408600 119.177223 0.000005 0.344091
nan nan nan 0.000000
nan nan nan 0.000000
nan nan nan 0.000000
nan nan nan 0.000000
136.551361 109.139740 6.031371 0.852628
136.551346 109.139740 4.729736 0.842039
136.551346 109.139740 3.435070 0.853254
136.551346 109.139740 2.144564 0.844724
136.551346 109.139740 0.855437 0.852018
144.994125 111.811485 -0.000032 0.285664
156.663651 115.504341 -0.000018 0.300374
161.673813 117.089821 -0.000006 0.335744
164.464157 117.972839 0.000000 0.336110
166.245575 118.536575 0.000009 0.334539
167.483658 118.928368 0.000004 0.336996
168.395859 119.217033 0.000005 0.330510
nan nan nan 0.000000
nan nan nan 0.000000
nan nan nan 0.000000
nan nan nan 0.000000
135.619446 109.139778 6.133694 0.866300
135.619446 109.139771 4.802667 0.862745
135.619446 109.139771 3.478767 0.867460
135.619446 109.139771 2.159118 0.861280
135.619446 109.139771 0.840882 0.870100
144.930527 112.014938 -0.000032 0.294911
156.625549 115.626244 -0.000018 0.292378
161.646652 117.176704 -0.000006 0.332570
164.443100 118.040215 0.000000 0.338628
166.228394 118.591499 0.000009 0.337346
167.469193 118.974648 0.000004 0.340612
168.383377 119.256935 0.000005 0.334310
nan nan nan 0.000000
nan nan nan 0.000000
nan nan nan 0.000000
nan nan nan 0.000000
134.644424 109.139809 6.240982 0.856062
134.644424 109.139809 4.879136 0.853925
134.644424 109.139809 3.524583 0.855207
134.644424 109.139809 2.174380 0.853681
134.644424 109.139809 0.825621 0.855772
144.868332 112.218834 -0.000032 0.299077
156.588303 115.748405 -0.000018 0.291051
161.620087 117.263771 -0.000006 0.335073
164.422501 118.107742 0.000000 0.337026
166.211609 118.646553 0.000009 0.330724
167.455048 119.021027 0.000004 0.339086
168.371185 119.296928 0.000005 0.338262
nan nan nan 0.000000
nan nan nan 0.000000
nan nan nan 0.000000
nan nan nan 0.000000
nan nan nan 0.000000
nan nan nan 0.000000
133.622681 109.139709 3.572696 0.836301
133.622665 109.139709 2.190405 0.836805
133.622665 109.139709 0.809594 0.836332
144.807587 112.423157 -0.000032 0.288670
156.551895 115.870819 -0.000018 0.294057
161.594147 117.351021 -0.000007 0.338628
164.402374 118.175415 0.000001 0.334691
166.195206 118.701714 0.000009 0.336782
167.441223 119.067497 0.000004 0.340154
168.359268 119.336998 0.000005 0.340688
nan nan nan 0.000000
nan nan nan 0.000000
nan nan nan 0.000000
nan nan nan 0.000000
nan nan nan 0.000000
nan nan nan 0.000000
132.551468 109.139709 3.623243 0.803250
132.551453 109.139709 2.207242 0.816083
132.551468 109.139709 0.792758 0.808988
144.748276 112.627907 -0.000031 0.288319
156.516357 115.993492 -0.000018 0.286275
161.568817 117.438461 -0.000007 0.337636
164.382736 118.243217 0.000000 0.332525
166.179184 118.756996 0.000009 0.340414
167.427734 119.114067 0.000004 0.340108
168.347626 119.377151 0.000005 0.338872
nan nan nan 0.000000
nan nan nan 0.000000
nan nan nan 0.000000
nan nan nan 0.000000
nan nan nan 0.000000
nan nan nan 0.000000
131.426682 109.139709 3.676424 0.825254
131.426666 109.139709 2.224956 0.821683
131.426666 109.139709 0.775043 0.820066
144.690369 112.833054 -0.000031 0.294133
156.481659 116.116402 -0.000018 0.285969
161.544083 117.526062 -0.000007 0.337530
164.363556 118.311157 0.000000 0.331441
166.163559 118.812378 0.000009 0.340764
167.414566 119.160728 0.000004 0.345159
168.336273 119.417389 0.000005 0.335897
nan nan nan 0.000000
nan nan nan 0.000000
nan nan nan 0.000000
nan nan nan 0.000000
nan nan nan 0.000000
nan nan nan 0.000000
130.244003 109.139709 3.732451 0.809110
130.244019 109.139709 2.243618 0.807874
130.244019 109.139709 0.756382 0.807736
144.633911 113.038612 -0.000031 0.285924
156.447830 116.239563 -0.000018 0.279484
161.519974 117.613838 -0.000007 0.337942
164.344849 118.379234 0.000000 0.341634
166.148315 118.867874 0.000008 0.330510
167.401718 119.207481 0.000003 0.338689
168.325195 119.457695 0.000005 0.331823
nan nan nan 0.000000
nan nan nan 0.000000
nan nan nan 0.000000
nan nan nan 0.000000
nan nan nan 0.000000
nan nan nan 0.000000
128.998825 109.139709 3.791549 0.810483
128.998825 109.139709 2.263303 0.818708
128.998825 109.139709 0.736696 0.818173
144.578888 113.244545 -0.000031 0.291676
156.414856 116.362946 -0.000018 0.295140
161.496475 117.701782 -0.000007 0.338964
