# This PCD file was generated using the MATLABÂ® pcwrite function
# from Computer Vision ToolboxÂ®.
# .PCD v.7 - Point Cloud Data file format
VERSION .7
FIELDS x y z intensity
SIZE 4 4 4 4
TYPE F F F F
COUNT 1 1 1 1
WIDTH 1215
HEIGHT 1
VIEWPOINT 0 0 0 1 0 0 0
POINTS 1215
DATA ascii
112.577415 17.557304 3.740560 0.678431
112.577408 17.557304 3.387606 0.678431
112.615547 17.769489 3.006853 0.599573
112.615547 17.769489 2.668627 0.675151
112.577408 17.557304 2.350616 0.678431
112.577415 17.557304 2.009640 0.678431
112.577408 17.557304 1.669759 0.678431
112.577408 17.557302 1.330241 0.678431
112.615547 17.769489 1.000951 0.631952
112.615547 17.769489 0.667061 0.708247
112.615547 17.769489 0.331373 0.708873
112.623703 17.814850 -0.000016 0.302068
112.954247 19.653852 -0.000013 0.246098
113.183983 20.932022 -0.000011 0.263752
113.353241 21.873722 -0.000010 0.316503
112.523392 17.662468 4.075071 0.647059
112.504936 17.563732 3.742018 0.678431
112.504936 17.563730 3.388834 0.678431
112.544510 17.775419 3.007887 0.642863
112.544510 17.775421 2.669429 0.677607
112.504936 17.563730 2.351170 0.678431
112.504936 17.563730 2.009972 0.678431
112.504936 17.563730 1.669869 0.678431
112.504936 17.563728 1.330131 0.678431
112.544510 17.775419 1.000608 0.629923
112.544510 17.775417 0.666488 0.690257
112.544510 17.775419 0.330570 0.693721
112.554260 17.827579 -0.000016 0.253773
112.897636 19.664230 -0.000013 0.305745
113.136292 20.940769 -0.000011 0.247868
113.312119 21.881260 -0.000010 0.359670
112.451523 17.668835 4.076875 0.647059
112.432358 17.570166 3.743588 0.678431
112.432358 17.570164 3.390156 0.678431
112.473373 17.781361 3.008997 0.699229
112.473373 17.781361 2.670290 0.677058
112.432358 17.570166 2.351765 0.678431
112.432358 17.570166 2.010328 0.678431
112.432358 17.570164 1.669988 0.678431
112.432358 17.570164 1.330012 0.678431
112.473373 17.781361 1.000241 0.631067
112.473373 17.781361 0.665875 0.674754
112.473373 17.781361 0.329710 0.688502
112.484917 17.840794 -0.000016 0.259022
112.841103 19.675005 -0.000013 0.273915
113.088661 20.949844 -0.000011 0.303380
113.271049 21.889086 -0.000010 0.252003
112.379547 17.675219 4.078805 0.647059
112.359680 17.576611 3.745268 0.678431
112.359680 17.576611 3.391572 0.678431
112.402122 17.787283 3.010187 0.382712
112.402122 17.787283 2.671212 0.674510
112.359680 17.576611 2.352404 0.678431
112.359680 17.576611 2.010711 0.678431
112.359680 17.576611 1.670115 0.678431
112.359680 17.576611 1.329885 0.678431
112.402122 17.787283 0.999847 0.648646
112.402122 17.787285 0.665218 0.680613
112.402122 17.787285 0.328787 0.703258
112.415657 17.854496 -0.000016 0.347646
112.784645 19.686172 -0.000013 0.317021
113.041100 20.959255 -0.000011 0.279088
113.230042 21.897200 -0.000010 0.257160
112.307457 17.681606 4.080866 0.647059
112.286888 17.583065 3.747061 0.678431
112.286888 17.583065 3.393083 0.678431
112.330757 17.793243 3.011447 0.434699
112.330757 17.793243 2.672190 0.676661
112.286888 17.583063 2.353084 0.678431
112.286888 17.583065 2.011118 0.678431
112.286888 17.583065 1.670251 0.678431
112.286888 17.583065 1.329749 0.678431
112.330757 17.793245 0.999429 0.660502
112.330757 17.793243 0.664521 0.693294
112.330757 17.793243 0.327809 0.692515
112.346504 17.868679 -0.000016 0.333318
112.728264 19.697735 -0.000013 0.340276
112.993599 20.968994 -0.000011 0.247333
113.189087 21.905598 -0.000010 0.324437
112.235245 17.688009 4.083054 0.647059
112.213974 17.589531 3.748966 0.678431
112.213974 17.589531 3.394688 0.678431
112.259270 17.799217 3.012784 0.494408
112.259270 17.799217 2.673226 0.678294
112.213974 17.589529 2.353807 0.678431
112.213974 17.589527 2.011552 0.678431
112.213974 17.589527 1.670395 0.678431
112.213974 17.589529 1.329605 0.678431
112.259270 17.799217 0.998987 0.312993
112.259270 17.799213 0.663782 0.667781
112.259270 17.799213 0.326773 0.566384
112.277443 17.883343 -0.000017 0.288502
112.671967 19.709690 -0.000013 0.310933
112.946167 20.979067 -0.000011 0.261357
113.148193 21.914282 -0.000010 0.338811
112.162918 17.694422 4.085372 0.654902
112.140938 17.596006 3.750985 0.678431
112.140938 17.596004 3.396388 0.678431
112.187653 17.805172 3.014200 0.545571
112.187653 17.805170 2.674325 0.676555
112.140938 17.596004 2.354574 0.678431
112.140938 17.596004 2.012011 0.678431
112.140938 17.596004 1.670549 0.678431
112.140938 17.596004 1.329451 0.678431
112.187653 17.805172 0.998518 0.680751
112.187653 17.805172 0.662999 0.681193
112.187653 17.805172 0.325675 0.688167
112.208488 17.898489 -0.000016 0.261006
112.615753 19.722038 -0.000013 0.299947
112.898811 20.989468 -0.000011 0.287266
113.107361 21.923252 -0.000010 0.310826
112.090446 17.700844 4.087822 0.655314
112.067764 17.602493 3.753117 0.678431
112.067764 17.602493 3.398185 0.678431
112.115898 17.811169 3.015688 0.334691
112.115898 17.811169 2.675479 0.485878
112.067764 17.602495 2.355383 0.678431
112.067764 17.602495 2.012496 0.678431
112.067764 17.602493 1.670710 0.678431
112.067764 17.602493 1.329290 0.678431
112.115898 17.811169 0.998025 0.687770
112.115898 17.811167 0.662176 0.678340
112.115898 17.811165 0.324520 0.656779
112.139648 17.914116 -0.000016 0.287205
112.559631 19.734779 -0.000013 0.293126
112.851532 21.000202 -0.000011 0.274403
113.066589 21.932507 -0.000010 0.348592
112.017845 17.707283 4.090401 0.654902
111.994446 17.608994 3.755364 0.678431
111.994446 17.608994 3.400077 0.678431
112.043991 17.817148 3.017259 0.224445
112.043991 17.817150 2.676697 0.674601
111.994446 17.608994 2.356236 0.678431
111.994446 17.608994 2.013007 0.678431
111.994446 17.608994 1.670880 0.678431
111.994446 17.608994 1.329120 0.678431
112.043991 17.817146 0.997505 0.699092
112.043991 17.817150 0.661308 0.677745
112.043991 17.817150 0.323303 0.669413
112.070915 17.930229 -0.000016 0.343038
112.503593 19.747911 -0.000013 0.286229
112.804321 21.011265 -0.000011 0.298726
113.025887 21.942047 -0.000010 0.328191
111.945084 17.713732 4.093113 0.654902
111.920975 17.615509 3.757724 0.678431
111.920975 17.615509 3.402066 0.678431
111.971947 17.823172 3.018901 0.259922
111.971947 17.823170 2.677972 0.667247
111.920975 17.615509 2.357132 0.678431
111.920975 17.615509 2.013544 0.678431
111.920975 17.615505 1.671059 0.678431
111.920975 17.615505 1.328941 0.678431
111.971947 17.823170 0.996961 0.608576
111.971947 17.823168 0.660400 0.316625
111.971947 17.823170 0.322028 0.410315
112.002289 17.946815 -0.000016 0.266819
112.447655 19.761433 -0.000013 0.313008
112.757195 21.022657 -0.000011 0.276646
112.985252 21.951870 -0.000010 0.255940
111.872177 17.720198 4.095957 0.654322
111.847351 17.622038 3.760200 0.678431
111.847351 17.622036 3.404151 0.678431
111.899727 17.829180 3.020626 0.492256
111.899727 17.829178 2.679309 0.675669
111.847351 17.622038 2.358072 0.678431
111.847351 17.622036 2.014107 0.678431
111.847351 17.622034 1.671247 0.678431
111.847351 17.622034 1.328753 0.678431
111.899727 17.829178 0.996389 0.650629
111.899727 17.829178 0.659447 0.657298
111.899727 17.829178 0.320691 0.654765
111.933784 17.963882 -0.000016 0.267674
112.391808 19.775347 -0.000014 0.252262
112.710144 21.034378 -0.000012 0.284779
112.944679 21.961975 -0.000010 0.239765
111.799095 17.726673 4.098935 0.647059
111.773567 17.628580 3.762792 0.678431
111.773567 17.628580 3.406335 0.678431
111.827354 17.835228 3.022425 0.386648
111.827354 17.835230 2.680704 0.549020
111.773567 17.628578 2.359056 0.678431
111.773567 17.628578 2.014697 0.678431
111.773567 17.628578 1.671443 0.678431
111.773567 17.628578 1.328557 0.678431
111.827354 17.835228 0.995794 0.616724
111.827354 17.835228 0.658452 0.685267
111.827354 17.835228 0.319296 0.654902
111.865402 17.981424 -0.000017 0.271946
112.336060 19.789650 -0.000013 0.276188
112.663177 21.046429 -0.000011 0.265629
112.904190 21.972366 -0.000010 0.270939
111.725853 17.733166 4.102046 0.654902
111.699600 17.635139 3.765500 0.678431
111.699600 17.635136 3.408617 0.678431
111.754791 17.841267 3.024306 0.376318
111.754791 17.841267 2.682163 0.673472
111.699600 17.635136 2.360085 0.678431
111.699600 17.635136 2.015313 0.678431
111.699600 17.635136 1.671648 0.678431
111.699600 17.635136 1.328352 0.678431
111.754791 17.841267 0.995171 0.616968
111.754791 17.841267 0.657413 0.677440
111.754791 17.841267 0.317837 0.584268
111.797150 17.999445 -0.000017 0.334234
112.280411 19.804340 -0.000013 0.291402
112.616302 21.058807 -0.000011 0.274327
112.863770 21.983036 -0.000010 0.235309
111.652428 17.739677 4.105291 0.647059
111.625458 17.641712 3.768326 0.678431
111.625458 17.641712 3.410997 0.678431
111.682060 17.847351 3.026262 0.555795
111.682060 17.847351 2.683680 0.651133
111.625458 17.641712 2.361157 0.678431
111.625458 17.641708 2.015955 0.678431
111.625458 17.641708 1.671862 0.678431
111.625458 17.641710 1.328138 0.678431
111.682060 17.847347 0.994523 0.593942
111.682060 17.847347 0.656331 0.629740
111.682060 17.847347 0.316319 0.675456
111.729019 18.017944 -0.000016 0.318349
112.224869 19.819420 -0.000013 0.322759
112.569511 21.071510 -0.000011 0.332967
112.823418 21.993992 -0.000010 0.298009
111.578812 17.746202 4.108671 0.647059
111.551125 17.648302 3.771269 0.678431
111.551125 17.648302 3.413477 0.678431
111.609131 17.853420 3.028302 0.553765
111.609131 17.853422 2.685262 0.657755
111.551125 17.648304 2.362274 0.678431
111.551125 17.648300 2.016625 0.678431
111.551125 17.648300 1.672086 0.678431
111.551125 17.648300 1.327915 0.678431
111.609131 17.853422 0.993847 0.665202
111.609131 17.853422 0.655204 0.664134
111.609131 17.853420 0.314738 0.630777
111.661018 18.036917 -0.000016 0.274784
112.169434 19.834885 -0.000014 0.279057
112.522804 21.084539 -0.000012 0.287434
112.783150 22.005226 -0.000010 0.261875
111.505005 17.752748 4.112188 0.653834
111.476601 17.654911 3.774331 0.678431
111.476601 17.654911 3.416057 0.678431
111.536003 17.859512 3.030422 0.527886
111.536003 17.859512 2.686906 0.563928
111.476601 17.654911 2.363437 0.678431
111.476601 17.654911 2.017321 0.678431
111.476601 17.654909 1.672317 0.678431
111.476601 17.654909 1.327683 0.678431
111.536003 17.859512 0.993145 0.651072
111.536003 17.859512 0.654032 0.676600
111.536003 17.859512 0.313094 0.578393
111.593155 18.056362 -0.000016 0.323415
112.114113 19.850740 -0.000013 0.281178
112.476196 21.097897 -0.000011 0.312840
112.742966 22.016743 -0.000010 0.227161
111.430992 17.759308 4.115843 0.654902
111.401863 17.661537 3.777512 0.678431
111.401863 17.661535 3.418737 0.678431
111.462669 17.865648 3.032618 0.632700
111.462669 17.865646 2.688609 0.591638
111.401863 17.661533 2.364645 0.678431
111.401863 17.661535 2.018045 0.678431
111.401863 17.661533 1.672559 0.678431
111.401863 17.661533 1.327442 0.678431
111.462669 17.865646 0.992418 0.679393
111.462669 17.865643 0.652818 0.677104
111.462669 17.865644 0.311390 0.639628
111.525421 18.076283 -0.000016 0.288319
112.058899 19.866982 -0.000013 0.288075
112.429680 21.111576 -0.000011 0.263722
112.702858 22.028538 -0.000010 0.285328
111.356766 17.765884 4.119637 0.664363
111.326920 17.668182 3.780814 0.678431
111.326920 17.668180 3.421519 0.678431
111.389122 17.871775 3.034900 0.617273
111.389122 17.871775 2.690379 0.642893
111.326920 17.668182 2.365898 0.679057
111.326920 17.668180 2.018796 0.703197
111.326920 17.668179 1.672809 0.703197
111.326920 17.668179 1.327191 0.703197
111.389122 17.871773 0.991662 0.702663
111.389122 17.871773 0.651557 0.678431
111.389122 17.871773 0.309621 0.641917
111.457832 18.096676 -0.000016 0.276600
112.003799 19.883604 -0.000013 0.275944
112.383263 21.125584 -0.000011 0.296529
112.662827 22.040613 -0.000010 0.263218
111.282326 17.772488 4.123567 0.647059
111.282333 17.772509 3.762134 0.603922
111.282333 17.772511 3.405780 0.647059
111.315346 17.877922 3.037263 0.628489
111.315346 17.877918 2.692212 0.675395
111.282333 17.772509 2.358806 0.678431
111.282333 17.772507 2.014547 0.647059
111.282333 17.772511 1.671393 0.680888
111.282333 17.772511 1.328607 0.651225
111.315346 17.877918 0.990879 0.650584
111.315346 17.877918 0.650250 0.644114
111.315346 17.877918 0.307788 0.666636
111.390396 18.117540 -0.000016 0.265003
111.948814 19.900612 -0.000013 0.332464
112.336937 21.139914 -0.000011 0.369055
112.622894 22.052971 -0.000010 0.287160
111.207657 17.779102 4.127640 0.649760
111.207657 17.779102 3.765650 0.647059
111.207657 17.779100 3.408743 0.647059
111.241348 17.884087 3.039708 0.647715
111.241341 17.884085 2.694108 0.396017
111.207657 17.779104 2.360141 0.647059
111.207657 17.779106 2.015347 0.647059
111.207657 17.779104 1.671659 0.654353
111.207657 17.779104 1.328340 0.648157
111.241341 17.884087 0.990070 0.649485
111.241341 17.884087 0.648899 0.616220
111.241341 17.884087 0.305892 0.567041
111.323097 18.138874 -0.000016 0.321752
111.893951 19.918003 -0.000014 0.299886
112.290718 21.154566 -0.000011 0.255863
112.583038 22.065603 -0.000010 0.359594
111.132751 17.785740 4.131854 0.651743
111.132744 17.785725 3.769288 0.647059
111.132744 17.785723 3.411807 0.647059
111.167099 17.890274 3.042237 0.702235
111.167099 17.890274 2.696069 0.432105
111.132744 17.785725 2.361522 0.654902
111.132744 17.785725 2.016174 0.670802
111.132744 17.785725 1.671935 0.654902
111.132744 17.785725 1.328065 0.647059
111.167099 17.890272 0.989232 0.690242
111.167099 17.890272 0.647501 0.626352
111.167099 17.890274 0.303931 0.587564
111.255951 18.160681 -0.000016 0.286870
111.839211 19.935781 -0.000013 0.293538
112.244606 21.169538 -0.000012 0.314611
112.543274 22.078516 -0.000010 0.302007
111.057602 17.792400 4.136209 0.647059
111.024811 17.694902 3.795255 0.678431
111.024811 17.694902 3.433685 0.678431
111.092606 17.896481 3.044849 0.700496
111.092606 17.896481 2.698095 0.434104
111.024811 17.694902 2.371381 0.678431
111.024811 17.694904 2.022080 0.678431
111.024811 17.694904 1.673903 0.678431
111.024811 17.694904 1.326097 0.678431
111.092606 17.896481 0.988367 0.677119
111.092613 17.896482 0.646057 0.615976
111.092613 17.896482 0.301905 0.582406
111.188957 18.182949 -0.000016 0.316121
111.784599 19.953936 -0.000013 0.263508
112.198593 21.184837 -0.000011 0.319448
112.503601 22.091705 -0.000010 0.326879
110.982201 17.799084 4.140707 0.649607
110.948669 17.701653 3.799171 0.678431
110.948669 17.701653 3.436984 0.678431
111.017860 17.902714 3.047545 0.685802
111.017860 17.902714 2.700186 0.348974
110.948669 17.701654 2.372868 0.678431
110.948669 17.701653 2.022971 0.678431
110.948669 17.701653 1.674199 0.678431
110.948669 17.701653 1.325801 0.678431
111.017860 17.902714 0.987474 0.694194
111.017860 17.902714 0.644567 0.607797
111.017860 17.902714 0.299815 0.449821
111.122124 18.205688 -0.000016 0.255848
111.730118 19.972473 -0.000013 0.313985
112.152687 21.200455 -0.000011 0.321904
112.464020 22.105169 -0.000010 0.290562
110.913811 17.826462 4.139861 0.483619
110.872269 17.708427 3.803214 0.678431
110.872269 17.708426 3.440390 0.678431
110.942848 17.908970 3.050326 0.686702
110.942856 17.908970 2.702343 0.281743
110.872269 17.708427 2.374402 0.678431
110.872269 17.708427 2.023891 0.678431
110.872269 17.708427 1.674506 0.678431
110.872269 17.708427 1.325494 0.678431
110.942848 17.908970 0.986553 0.660685
110.942848 17.908970 0.643030 0.636347
110.942856 17.908970 0.297658 0.444953
111.055450 18.228891 -0.000016 0.297322
111.675758 19.991388 -0.000014 0.269718
112.106895 21.216389 -0.000012 0.328573
112.424538 22.118910 -0.000010 0.299550
110.844490 17.851124 4.139863 0.545480
110.795593 17.715221 3.807383 0.678431
110.795593 17.715225 3.443901 0.678431
110.867569 17.915249 3.053192 0.682322
110.867569 17.915249 2.704566 0.258824
110.795593 17.715225 2.375985 0.678431
110.795593 17.715225 2.024839 0.678431
110.795593 17.715225 1.674822 0.678431
110.795593 17.715225 1.325179 0.678431
110.867569 17.915249 0.985604 0.665934
110.867569 17.915245 0.641445 0.660029
110.867569 17.915249 0.295434 0.426108
110.988937 18.252562 -0.000016 0.281819
111.621536 20.010689 -0.000013 0.334630
112.061218 21.232647 -0.000011 0.326360
112.385155 22.132927 -0.000010 0.365255
110.775352 17.876278 4.139862 0.537087
110.718636 17.722048 3.811680 0.678431
110.718636 17.722048 3.447522 0.678431
110.792000 17.921551 3.056146 0.707301
110.792000 17.921551 2.706856 0.576486
110.718643 17.722050 2.377616 0.678431
110.718636 17.722048 2.025817 0.678431
110.718643 17.722050 1.675147 0.678431
110.718643 17.722050 1.324853 0.678431
110.792000 17.921551 0.984626 0.705135
110.792000 17.921551 0.639813 0.653864
110.792000 17.921551 0.293144 0.441352
110.922592 18.276695 -0.000016 0.274205
111.567451 20.030361 -0.000013 0.277913
112.015656 21.249222 -0.000011 0.289281
112.345863 22.147219 -0.000010 0.353017
110.706383 17.901899 4.139866 0.658122
110.641388 17.728895 3.816107 0.678431
110.641388 17.728897 3.451250 0.678431
110.716141 17.927883 3.059186 0.665171
110.716141 17.927883 2.709213 0.462119
110.641388 17.728897 2.379296 0.678431
110.641388 17.728897 2.026824 0.678431
110.641396 17.728899 1.675483 0.678431
110.641396 17.728901 1.324518 0.678431
110.716141 17.927883 0.983619 0.697597
110.716141 17.927883 0.638132 0.660105
110.716141 17.927881 0.290786 0.399741
110.856422 18.301292 -0.000016 0.291859
111.513504 20.050415 -0.000013 0.260838
111.970207 21.266113 -0.000011 0.267613
112.306679 22.161785 -0.000010 0.255894
110.637589 17.927999 4.139869 0.644038
110.563843 17.735773 3.820662 0.678431
110.563843 17.735775 3.455089 0.678431
110.639984 17.934238 3.062314 0.667704
110.639984 17.934238 2.711639 0.487327
110.563843 17.735775 2.381026 0.678431
110.563843 17.735773 2.027860 0.678431
110.563843 17.735771 1.675827 0.678431
110.563843 17.735773 1.324172 0.678431
110.639984 17.934237 0.982583 0.697734
110.639984 17.934237 0.636403 0.694362
110.639984 17.934237 0.288360 0.306401
110.790421 18.326351 -0.000016 0.283940
111.459702 20.070839 -0.000013 0.351415
111.924873 21.283323 -0.000012 0.253559
112.267593 22.176624 -0.000010 0.300343
110.563515 17.940620 4.143628 0.594354
110.485985 17.742676 3.825350 0.678431
110.485985 17.742676 3.459038 0.678431
110.563515 17.940624 3.065531 0.649683
110.563515 17.940622 2.714134 0.653910
110.485985 17.742678 2.382806 0.678431
110.485985 17.742678 2.028926 0.678431
110.485985 17.742678 1.676183 0.678431
110.485985 17.742678 1.323817 0.678431
110.563515 17.940620 0.981517 0.676875
110.563515 17.940620 0.634625 0.707881
110.563515 17.940620 0.285865 0.606317
110.724594 18.351868 -0.000016 0.288823
111.406036 20.091640 -0.000013 0.305257
111.879669 21.300850 -0.000012 0.327504
112.228615 22.191736 -0.000010 0.313817
110.486717 17.947002 4.149220 0.626627
110.407806 17.749607 3.830171 0.678431
110.407806 17.749607 3.463100 0.678431
110.486725 17.947006 3.068842 0.653300
110.486725 17.947004 2.716702 0.608942
110.407806 17.749611 2.384636 0.678431
110.407806 17.749609 2.030023 0.678431
110.407806 17.749609 1.676548 0.678431
110.407806 17.749609 1.323452 0.678431
110.486725 17.947004 0.980421 0.729488
110.486717 17.947004 0.632794 0.556664
110.486725 17.947006 0.283298 0.585382
110.658951 18.377846 -0.000016 0.300755
111.352524 20.112820 -0.000013 0.295048
111.834579 21.318689 -0.000011 0.280461
112.189743 22.207119 -0.000010 0.289494
110.409607 17.953445 4.154956 0.659602
110.329300 17.756567 3.835126 0.678431
110.329300 17.756569 3.467274 0.678431
110.409607 17.953445 3.072239 0.658534
110.409607 17.953447 2.719337 0.624125
110.329308 17.756569 2.386517 0.667765
110.329308 17.756569 2.031150 0.678431
110.329308 17.756569 1.676923 0.678431
110.329308 17.756571 1.323077 0.678431
110.409607 17.953445 0.979296 0.672892
110.409607 17.953444 0.630916 0.614298
110.409607 17.953445 0.280662 0.696086
110.593491 18.404280 -0.000016 0.323568
111.299156 20.134369 -0.000013 0.271473
111.789627 21.336843 -0.000011 0.289876
112.150978 22.222773 -0.000010 0.234714
110.332153 17.959915 4.160848 0.678294
110.250465 17.763559 3.840216 0.678431
110.250465 17.763559 3.471563 0.678431
110.332153 17.959915 3.075728 0.653101
110.332153 17.959915 2.722043 0.642878
110.250465 17.763561 2.388449 0.668757
110.250465 17.763561 2.032308 0.678431
110.250465 17.763559 1.677309 0.678431
110.250465 17.763559 1.322691 0.678431
110.332153 17.959915 0.978140 0.683070
110.332153 17.959915 0.628988 0.601068
110.332153 17.959913 0.277957 0.704082
110.528221 18.431168 -0.000016 0.281849
111.245949 20.156292 -0.000013 0.303380
111.744797 21.355312 -0.000011 0.321935
112.112320 22.238695 -0.000010 0.323262
110.254341 17.966389 4.166903 0.666133
110.171265 17.770580 3.845443 0.678431
110.171265 17.770580 3.475966 0.678431
110.254341 17.966389 3.079314 0.666545
110.254341 17.966389 2.724824 0.652857
110.171272 17.770582 2.390434 0.678431
110.171272 17.770582 2.033496 0.678431
110.171265 17.770582 1.677705 0.678431
110.171265 17.770582 1.322295 0.678431
110.254341 17.966389 0.976953 0.698848
110.254341 17.966389 0.627006 0.573129
110.254341 17.966389 0.275176 0.679805
110.463127 18.458515 -0.000016 0.248173
111.192886 20.178583 -0.000013 0.343191
111.700089 21.374094 -0.000011 0.244968
112.073776 22.254890 -0.000010 0.322667
110.176186 17.972919 4.173109 0.665064
110.091721 17.777634 3.850809 0.678431
110.091721 17.777634 3.480486 0.678431
110.176186 17.972921 3.082989 0.669398
110.176186 17.972919 2.727674 0.588983
110.091721 17.777634 2.392471 0.658091
110.091721 17.777634 2.034717 0.678431
110.091721 17.777634 1.678112 0.678431
110.091721 17.777634 1.321888 0.678431
110.176186 17.972918 0.975736 0.648615
110.176186 17.972919 0.624975 0.352132
110.176186 17.972919 0.272326 0.689067
110.398239 18.486315 -0.000016 0.314580
111.139984 20.201248 -0.000013 0.275792
111.655525 21.393187 -0.000012 0.284062
112.035347 22.271351 -0.000010 0.220035
110.097641 17.979456 4.179480 0.670436
110.011803 17.784721 3.856314 0.678431
110.011795 17.784719 3.485124 0.678431
110.097649 17.979458 3.086762 0.652003
110.097649 17.979458 2.730600 0.696406
110.011803 17.784721 2.394561 0.659068
110.011803 17.784721 2.035969 0.678431
110.011803 17.784721 1.678529 0.678431
110.011803 17.784721 1.321471 0.678431
110.097641 17.979454 0.974486 0.689525
110.097649 17.979456 0.622889 0.438483
110.097649 17.979458 0.269400 0.665354
110.333542 18.514566 -0.000016 0.292515
111.087242 20.224279 -0.000013 0.348287
111.611092 21.412590 -0.000011 0.320424
111.997032 22.288082 -0.000010 0.264195
110.018738 17.986053 4.186006 0.673259
109.931503 17.791840 3.861959 0.678431
109.931503 17.791840 3.489881 0.678431
110.018738 17.986053 3.090627 0.642161
110.018738 17.986053 2.733598 0.670024
109.931503 17.791840 2.396704 0.659922
109.931503 17.791840 2.037253 0.678431
109.931503 17.791840 1.678956 0.678431
109.931503 17.791840 1.321043 0.678431
110.018738 17.986053 0.973206 0.698039
110.018738 17.986053 0.620753 0.496056
110.018738 17.986053 0.266402 0.470619
110.269043 18.543268 -0.000016 0.256703
111.034660 20.247679 -0.000013 0.266423
111.566788 21.432302 -0.000011 0.349889
111.958839 22.305080 -0.000010 0.261341
109.939438 17.992657 4.192702 0.692622
109.850815 17.798996 3.867748 0.678431
109.850815 17.798994 3.494758 0.678431
109.939438 17.992661 3.094592 0.651637
109.939438 17.992659 2.736673 0.655299
109.857170 17.812889 2.397649 0.654994
109.850815 17.798996 2.038570 0.678431
109.850815 17.798996 1.679395 0.678431
109.850815 17.798996 1.320605 0.678431
109.939438 17.992657 0.971893 0.672557
109.939438 17.992657 0.618561 0.305470
109.939438 17.992659 0.263327 0.665827
110.204742 18.572422 -0.000016 0.252415
110.982239 20.271444 -0.000013 0.257481
111.522629 21.452326 -0.000011 0.314626
111.920761 22.322344 -0.000010 0.253056
109.859734 17.999296 4.199564 0.570764
109.769730 17.806183 3.873682 0.678431
109.769722 17.806183 3.499757 0.678431
109.859734 17.999298 3.098656 0.363867
109.859734 17.999298 2.739824 0.481025
109.787788 17.844936 2.397649 0.646555
109.769722 17.806183 2.039920 0.678431
109.769730 17.806183 1.679845 0.678431
109.769730 17.806183 1.320155 0.678431
109.859734 17.999296 0.970547 0.307179
109.859734 17.999296 0.616315 0.323217
109.859734 17.999298 0.260176 0.655039
110.140656 18.602020 -0.000016 0.293889
110.929993 20.295576 -0.000013 0.273014
111.478615 21.472654 -0.000011 0.290425
111.882813 22.339874 -0.000010 0.253788
109.779617 18.005972 4.206592 0.673976
109.688225 17.813408 3.879761 0.678431
109.688225 17.813408 3.504879 0.678431
109.779617 18.005974 3.102817 0.389731
109.779617 18.005974 2.743052 0.665751
109.718628 17.877466 2.397649 0.633600
109.688225 17.813412 2.041302 0.678431
109.688225 17.813412 1.680305 0.678431
109.688225 17.813412 1.319695 0.678431
109.779617 18.005974 0.969169 0.695888
109.779617 18.005972 0.614014 0.331106
109.779617 18.005974 0.256948 0.690471
110.076767 18.632069 -0.000016 0.309148
110.877914 20.320070 -0.000013 0.319921
111.434738 21.493290 -0.000011 0.269642
111.844978 22.357666 -0.000010 0.380301
109.699097 18.012714 4.213780 0.348882
109.606300 17.820675 3.885988 0.678431
109.606300 17.820675 3.510124 0.678431
109.699097 18.012714 3.107075 0.320272
109.699097 18.012714 2.746354 0.661570
109.652809 17.916927 2.397062 0.617700
109.606300 17.820677 2.042719 0.678431
109.606300 17.820675 1.680777 0.678431
109.606300 17.820675 1.319223 0.678431
109.699097 18.012714 0.967759 0.653834
109.699097 18.012712 0.611661 0.417121
109.699097 18.012712 0.253646 0.502312
110.013100 18.662563 -0.000016 0.331563
110.826004 20.344929 -0.000013 0.322744
111.391006 21.514235 -0.000011 0.336690
111.807274 22.375723 -0.000010 0.339605
109.618126 18.019463 4.221148 0.465660
109.523949 17.827978 3.892365 0.678431
109.523949 17.827976 3.515497 0.678431
109.618126 18.019466 3.111438 0.476127
109.618126 18.019463 2.749737 0.657298
109.571251 17.924160 2.399459 0.649165
109.523949 17.827976 2.044170 0.678431
109.523949 17.827978 1.681260 0.678431
109.523949 17.827978 1.318740 0.678431
109.618126 18.019463 0.966314 0.680430
109.618126 18.019463 0.609249 0.534997
109.618126 18.019463 0.250263 0.709438
109.949638 18.693501 -0.000015 0.317403
110.774277 20.370148 -0.000013 0.289158
111.347420 21.535480 -0.000011 0.314885
111.769691 22.394043 -0.000010 0.246876
109.536713 18.026253 4.228689 0.561761
109.441147 17.835320 3.898894 0.678431
109.441147 17.835320 3.520997 0.678431
109.536713 18.026255 3.115903 0.640940
109.536713 18.026253 2.753200 0.655879
109.489250 17.931431 2.401913 0.657984
109.441147 17.835320 2.045654 0.678431
109.441147 17.835320 1.681755 0.678431
109.441147 17.835320 1.318245 0.678431
109.536713 18.026253 0.964835 0.610559
109.536713 18.026249 0.606781 0.535470
109.536713 18.026253 0.246799 0.688624
109.886398 18.724876 -0.000015 0.290257
110.722717 20.395731 -0.000013 0.292073
111.303993 21.557032 -0.000011 0.219623
111.732246 22.412624 -0.000010 0.346746
109.454849 18.033081 4.236404 0.642725
109.357887 17.842701 3.905576 0.678431
109.357887 17.842697 3.526626 0.678431
109.454849 18.033083 3.120472 0.619898
109.454849 18.033081 2.756744 0.670665
109.406799 17.938740 2.404426 0.668696
109.357887 17.842701 2.047174 0.678431
109.357887 17.842701 1.682261 0.678431
109.357887 17.842701 1.317739 0.678431
109.454849 18.033081 0.963322 0.683864
109.454849 18.033081 0.604255 0.709804
109.454849 18.033081 0.243256 0.703014
109.823380 18.756695 -0.000016 0.300542
110.671341 20.421669 -0.000013 0.276371
111.260704 21.578886 -0.000011 0.307500
111.694923 22.431469 -0.000010 0.263706
109.372498 18.039925 4.244305 0.644022
109.274162 17.850128 3.912411 0.678431
109.274155 17.850124 3.532385 0.678431
109.372498 18.039925 3.125152 0.653040
109.372498 18.039927 2.760372 0.673793
109.323883 17.946091 2.406996 0.650126
109.274155 17.850124 2.048729 0.678431
109.274155 17.850124 1.682779 0.678431
109.274155 17.850124 1.317221 0.678431
109.372498 18.039925 0.961772 0.664683
109.372498 18.039925 0.601669 0.698772
109.372498 18.039925 0.239627 0.648753
109.760582 18.788956 -0.000016 0.295888
110.620148 20.447968 -0.000013 0.299031
111.217583 21.601042 -0.000011 0.267567
111.657738 22.450571 -0.000010 0.253346
109.289688 18.046837 4.252378 0.626230
109.189949 17.857592 3.919406 0.678431
109.189949 17.857592 3.538278 0.678431
109.289688 18.046841 3.129932 0.637827
109.289688 18.046837 2.764080 0.673304
109.240486 17.953485 2.409626 0.665248
109.189949 17.857590 2.050320 0.678431
109.189949 17.857590 1.683309 0.678431
109.189949 17.857590 1.316691 0.678431
109.289688 18.046837 0.960189 0.617121
109.289688 18.046835 0.599026 0.709804
109.289688 18.046837 0.235920 0.660334
109.698013 18.821651 -0.000015 0.284718
110.569145 20.474621 -0.000013 0.294911
111.174606 21.623497 -0.000011 0.308736
111.620682 22.469933 -0.000010 0.299397
109.206375 18.053793 4.260633 0.640803
109.140480 17.930843 3.910450 0.647059
109.140480 17.930843 3.530733 0.648035
109.206383 18.053795 3.134820 0.675883
109.206375 18.053793 2.767871 0.670344
109.156601 17.960920 2.412315 0.665797
109.140480 17.930840 2.048283 0.647059
109.140480 17.930840 1.682631 0.647059
109.140480 17.930840 1.317369 0.642634
109.206375 18.053791 0.958570 0.665293
109.206375 18.053793 0.596324 0.684092
109.206375 18.053791 0.232129 0.673793
109.635681 18.854784 -0.000015 0.319875
110.518326 20.501633 -0.000013 0.247868
111.131790 21.646252 -0.000011 0.331365
111.583771 22.489555 -0.000010 0.247730
109.122551 18.060764 4.269080 0.628992
109.072212 17.968391 3.910326 0.662898
109.072212 17.968388 3.530629 0.653101
109.122559 18.060766 3.139822 0.567361
109.122559 18.060766 2.771751 0.557046
109.072205 17.968380 2.415067 0.647486
109.072212 17.968386 2.048255 0.647486
109.072212 17.968391 1.682621 0.652323
109.072205 17.968380 1.317379 0.647486
109.122551 18.060764 0.956913 0.674556
109.122551 18.060764 0.593559 0.680705
109.122559 18.060764 0.228249 0.532799
109.573570 18.888348 -0.000016 0.286030
110.467690 20.528996 -0.000013 0.247700
111.089134 21.669306 -0.000011 0.340017
111.546989 22.509432 -0.000010 0.292332
109.038483 18.068283 4.277570 0.686961
108.987297 17.975899 3.917737 0.654627
108.987297 17.975895 3.536872 0.648157
109.038490 18.068285 3.144850 0.633143
109.038490 18.068283 2.775650 0.509483
108.987305 17.975903 2.417880 0.652232
108.987297 17.975897 2.049941 0.647059
108.987305 17.975903 1.683183 0.665187
108.987289 17.975880 1.316817 0.647059
109.038490 18.068283 0.955248 0.641413
109.038483 18.068281 0.590780 0.642405
109.038490 18.068283 0.224350 0.598001
109.511696 18.922348 -0.000015 0.295613
110.417252 20.556713 -0.000013 0.334051
111.046646 21.692656 -0.000011 0.290700
111.510345 22.529564 -0.000010 0.255741
108.953964 18.075954 4.286219 0.653971
108.848007 17.887840 3.949013 0.678431
108.848007 17.887840 3.563221 0.678431
108.953964 18.075958 3.149971 0.661280
108.953964 18.075958 2.779622 0.395300
108.901825 17.983391 2.420762 0.661799
108.848007 17.887838 2.057055 0.678431
108.848007 17.887840 1.685552 0.678431
108.848007 17.887840 1.314448 0.678431
108.953964 18.075956 0.953552 0.245060
108.953964 18.075954 0.587949 0.675486
108.953964 18.075956 0.220378 0.342260
109.450066 18.956779 -0.000015 0.262669
110.367004 20.584782 -0.000013 0.280049
111.004318 21.716305 -0.000011 0.322942
111.473854 22.549953 -0.000010 0.302953
108.868889 18.083649 4.295065 0.359304
108.761200 17.895538 3.956825 0.678431
108.761200 17.895536 3.569803 0.678431
108.868889 18.083649 3.155211 0.693965
108.868889 18.083649 2.783685 0.369360
108.815819 17.990944 2.423706 0.652049
108.761200 17.895536 2.058832 0.678431
108.761200 17.895536 1.686144 0.678431
108.761200 17.895536 1.313856 0.678431
108.868889 18.083649 0.951817 0.642603
108.868889 18.083649 0.585053 0.680964
108.868889 18.083645 0.216315 0.342855
109.388680 18.991638 -0.000015 0.342916
110.316963 20.613201 -0.000013 0.291829
110.962151 21.740244 -0.000011 0.255131
111.437500 22.570597 -0.000010 0.230518
108.783279 18.091413 4.304099 0.516960
108.673836 17.903286 3.964808 0.678431
108.673836 17.903284 3.576527 0.678431
108.783279 18.091415 3.160561 0.621180
108.783279 18.091415 2.787834 0.422446
108.729233 17.998512 2.426717 0.647059
108.673828 17.903282 2.060647 0.678431
108.673828 17.903282 1.686749 0.678431
108.673828 17.903282 1.313251 0.678431
108.783279 18.091413 0.950045 0.611002
108.783279 18.091413 0.582096 0.667887
108.783279 18.091413 0.212166 0.426581
109.327530 19.026926 -0.000015 0.264088
110.267113 20.641970 -0.000013 0.263386
110.920158 21.764481 -0.000011 0.277546
111.401291 22.591496 -0.000010 0.295750
108.697113 18.099228 4.313329 0.574792
108.585892 17.911083 3.972964 0.678431
108.585892 17.911081 3.583399 0.678431
108.697113 18.099228 3.166027 0.658213
108.697113 18.099228 2.792073 0.613214
108.642082 18.006130 2.429793 0.664454
108.585892 17.911079 2.062502 0.678431
108.585892 17.911083 1.687367 0.678431
108.585892 17.911083 1.312633 0.678431
108.697113 18.099226 0.948235 0.579980
108.697113 18.099224 0.579074 0.695979
108.697113 18.099228 0.207927 0.604532
109.266640 19.062637 -0.000015 0.297948
110.217468 20.671083 -0.000013 0.377447
110.878334 21.789007 -0.000011 0.327657
111.365227 22.612644 -0.000010 0.278752
108.610367 18.107090 4.322759 0.667994
108.497360 17.918932 3.981295 0.678431
108.497360 17.918932 3.590418 0.678431
108.610367 18.107090 3.171611 0.633890
108.610367 18.107090 2.796404 0.599710
108.554359 18.013838 2.432932 0.678431
108.497360 17.918930 2.064397 0.678431
108.497360 17.918932 1.687998 0.678431
108.497360 17.918932 1.312002 0.678431
108.610367 18.107090 0.946385 0.478035
108.610374 18.107092 0.575988 0.677928
108.610367 18.107090 0.203596 0.578790
109.205986 19.098778 -0.000015 0.302205
110.168030 20.700542 -0.000013 0.334173
110.836678 21.813828 -0.000011 0.330770
111.329315 22.634045 -0.000009 0.345220
108.523041 18.115005 4.332392 0.615808
108.408226 17.926836 3.989804 0.678431
108.408226 17.926834 3.597586 0.678431
108.523041 18.115005 3.177316 0.329656
108.523041 18.115005 2.800828 0.655360
108.466026 18.021561 2.436141 0.673838
108.408226 17.926834 2.066333 0.678431
108.408226 17.926834 1.688643 0.678431
108.408226 17.926834 1.311357 0.678431
108.523041 18.115005 0.944496 0.548669
108.523041 18.115005 0.572834 0.689204
108.523041 18.115005 0.199172 0.596887
109.145599 19.135338 -0.000015 0.305409
110.118797 20.730349 -0.000013 0.314855
110.795204 21.838938 -0.000011 0.286870
111.293549 22.655695 -0.000009 0.235340
108.435104 18.122972 4.342231 0.649866
108.318474 17.934795 3.998494 0.678431
108.318474 17.934793 3.604907 0.678431
108.377258 18.029644 3.199429 0.654063
108.435104 18.122972 2.805346 0.662989
108.377090 18.029369 2.439416 0.633463
108.318474 17.934790 2.068310 0.678431
108.318474 17.934792 1.689301 0.678431
108.318474 17.934792 1.310699 0.678431
108.435104 18.122972 0.942566 0.594369
108.435104 18.122972 0.569613 0.681239
108.435104 18.122974 0.194654 0.665690
109.085457 19.172318 -0.000015 0.302892
110.069771 20.760498 -0.000012 0.284962
110.753899 21.864336 -0.000011 0.332280
111.257935 22.677593 -0.000010 0.286976
108.346550 18.130993 4.352277 0.366171
108.228096 17.942810 4.007367 0.678431
108.228096 17.942810 3.612383 0.678431
108.346550 18.130995 3.189091 0.311635
108.346550 18.130993 2.809961 0.677882
108.287506 18.037195 2.442763 0.654902
108.228088 17.942806 2.070328 0.678431
108.228088 17.942806 1.689974 0.678431
108.228088 17.942806 1.310026 0.678431
108.346550 18.130993 0.940596 0.331533
108.346550 18.130993 0.566325 0.683085
108.346550 18.130993 0.190039 0.439658
109.025581 19.209717 -0.000015 0.246662
110.020958 20.790985 -0.000013 0.286656
110.712776 21.890022 -0.000011 0.269688
111.222481 22.699741 -0.000010 0.353979
108.257362 18.139072 4.362536 0.663844
108.137062 17.950880 4.016427 0.669490
108.137062 17.950882 3.620015 0.678431
108.197563 18.045525 3.211636 0.647059
108.257362 18.139069 2.814673 0.685847
108.197296 18.045111 2.446177 0.659495
108.137054 17.950876 2.072389 0.678431
108.137054 17.950878 1.690660 0.678431
108.137054 17.950878 1.309340 0.678431
108.257362 18.139071 0.938584 0.446510
108.257362 18.139071 0.562967 0.714488
108.257362 18.139072 0.185328 0.629496
108.965973 19.247536 -0.000015 0.260899
109.972359 20.821815 -0.000012 0.245792
110.671837 21.915997 -0.000011 0.298131
111.187172 22.722137 -0.000009 0.335424
108.167526 18.147203 4.373010 0.491264
108.045364 17.959009 4.025677 0.662898
108.045357 17.959009 3.627808 0.678431
108.106773 18.053616 3.217920 0.647059
108.167526 18.147205 2.819483 0.659266
108.106400 18.053043 2.449667 0.654902
108.045357 17.959007 2.074493 0.678431
108.045357 17.959007 1.691361 0.678431
108.045357 17.959007 1.308639 0.678431
108.167526 18.147203 0.936530 0.439628
108.167526 18.147205 0.559538 0.670359
108.167526 18.147207 0.180518 0.652979
108.906624 19.285767 -0.000015 0.266087
109.923973 20.852982 -0.000013 0.320272
110.631073 21.942253 -0.000011 0.235630
111.152031 22.744778 -0.000010 0.226322
108.077042 18.155416 4.383696 0.529274
107.952980 17.967201 4.035118 0.656184
107.952980 17.967199 3.635762 0.678431
108.015327 18.061787 3.224332 0.647059
108.077042 18.155416 2.824390 0.663661
108.014870 18.061092 2.453223 0.649577
107.952980 17.967197 2.076640 0.678431
107.952980 17.967201 1.692076 0.678431
107.952980 17.967201 1.307924 0.678431
108.077034 18.155416 0.934434 0.302678
108.077042 18.155416 0.556040 0.668452
108.077034 18.155415 0.175609 0.673884
108.847542 19.324417 -0.000015 0.296803
109.875809 20.884487 -0.000012 0.268910
110.590500 21.968796 -0.000011 0.299519
111.117043 22.767662 -0.000009 0.244999
107.985855 18.163670 4.394610 0.657908
107.872467 17.994225 4.039876 0.648264
107.859909 17.975452 3.643881 0.678431
107.923164 18.069988 3.230881 0.647059
107.985855 18.163670 2.829403 0.661067
107.922592 18.069136 2.456859 0.652110
107.859901 17.975452 2.078832 0.678431
107.859901 17.975451 1.692806 0.678431
107.859901 17.975451 1.307194 0.678431
107.985855 18.163670 0.932293 0.277775
107.985855 18.163666 0.552467 0.693095
107.985855 18.163670 0.170597 0.661540
108.788734 19.363472 -0.000014 0.301259
109.827873 20.916328 -0.000012 0.292393
110.550110 21.995621 -0.000010 0.299351
111.082214 22.790791 -0.000009 0.285344
107.893982 18.172001 4.405745 0.365301
107.804398 18.040131 4.039875 0.668544
107.766113 17.983770 3.652167 0.678431
107.830315 18.078278 3.237562 0.649073
107.893982 18.171999 2.834517 0.427970
107.829651 18.077305 2.460564 0.650431
107.766113 17.983768 2.081069 0.678431
107.766113 17.983768 1.693552 0.678431
107.766113 17.983768 1.306448 0.678431
107.893982 18.172001 0.930110 0.373297
107.893982 18.172001 0.548822 0.275059
107.893982 18.172001 0.165483 0.665980
108.730202 19.402939 -0.000015 0.281010
109.780151 20.948503 -0.000012 0.290211
110.509903 22.022728 -0.000010 0.257008
111.047554 22.814163 -0.000009 0.222614
107.801399 18.180393 4.417109 0.664637
107.736786 18.086699 4.039823 0.657359
107.671585 17.992149 3.660623 0.678431
107.736740 18.086628 3.244380 0.647059
107.801399 18.180391 2.839736 0.701717
107.735954 18.085493 2.464349 0.648890
107.671585 17.992147 2.083353 0.678431
107.671593 17.992149 1.694312 0.678431
107.671593 17.992149 1.305688 0.678431
107.801399 18.180395 0.927881 0.612406
107.801399 18.180393 0.545103 0.678431
107.801399 18.180395 0.160264 0.661295
108.671944 19.442810 -0.000015 0.306447
109.732658 20.981010 -0.000012 0.293660
110.469894 22.050112 -0.000011 0.261341
111.013054 22.837778 -0.000009 0.269352
107.708076 18.188850 4.428706 0.664408
107.642334 18.094913 4.050006 0.650919
107.576317 18.000599 3.669252 0.678431
107.642418 18.095039 3.251338 0.647059
107.708084 18.188852 2.845062 0.657755
107.641541 18.093784 2.468208 0.670619
107.576309 18.000595 2.085682 0.678431
107.576317 18.000595 1.695088 0.678431
107.576317 18.000597 1.304912 0.678431
107.708084 18.188854 0.925606 0.581811
107.708076 18.188850 0.541306 0.449973
107.708076 18.188850 0.154938 0.665614
108.613968 19.483093 -0.000014 0.291173
109.685394 21.013847 -0.000012 0.275868
110.430077 22.077778 -0.000010 0.297185
110.978722 22.861629 -0.000009 0.253513
107.614014 18.197378 4.440540 0.669444
107.547012 18.103060 4.060432 0.663081
107.480270 18.009115 3.678056 0.678431
107.547333 18.103516 3.258438 0.660227
107.614014 18.197376 2.850497 0.556298
107.546356 18.102137 2.472147 0.672557
107.480270 18.009111 2.088059 0.678431
107.480270 18.009113 1.695880 0.678431
107.480270 18.009113 1.304120 0.678431
107.614014 18.197376 0.923285 0.513909
107.614014 18.197376 0.537432 0.259464
107.614014 18.197376 0.149503 0.659190
108.556267 19.523777 -0.000014 0.281788
109.638359 21.047016 -0.000012 0.264195
110.390450 22.105719 -0.000011 0.264363
110.944557 22.885723 -0.000009 0.309560
107.519173 18.205971 4.452615 0.416907
107.450996 18.111403 4.071035 0.655589
107.383438 18.017700 3.687040 0.678431
107.451462 18.112055 3.265684 0.647059
107.519173 18.205971 2.856043 0.379950
107.450356 18.110516 2.476169 0.671534
107.383438 18.017696 2.090485 0.678431
107.383438 18.017696 1.696688 0.678431
107.383438 18.017698 1.303312 0.678431
107.519173 18.205971 0.920917 0.703990
107.519173 18.205971 0.533480 0.291707
107.519173 18.205971 0.143957 0.632731
108.498863 19.564865 -0.000014 0.283192
109.591553 21.080509 -0.000012 0.282918
110.351021 22.133936 -0.000011 0.349935
110.910553 22.910053 -0.000009 0.293523
107.423546 18.214634 4.464934 0.375845
107.354073 18.119671 4.081892 0.654902
107.285805 18.026360 3.696204 0.678431
107.354767 18.120617 3.273086 0.673777
107.423546 18.214632 2.861701 0.465232
107.353577 18.118992 2.480269 0.678431
107.285805 18.026356 2.092959 0.678431
107.285805 18.026356 1.697512 0.678431
107.285805 18.026356 1.302488 0.678431
107.423546 18.214634 0.918501 0.693507
107.423546 18.214634 0.529447 0.569711
107.423546 18.214632 0.138299 0.435935
108.441742 19.606350 -0.000014 0.261570
109.544991 21.114330 -0.000012 0.232273
110.311790 22.162430 -0.000010 0.252369
110.876732 22.934620 -0.000009 0.268894
107.327126 18.223379 4.477501 0.655619
107.256462 18.128201 4.092916 0.647059
107.187340 18.035088 3.705555 0.678431
107.257278 18.129301 3.280628 0.709804
107.327126 18.223377 2.867472 0.639475
107.255981 18.127544 2.484453 0.647059
107.187340 18.035084 2.095484 0.678431
107.187340 18.035084 1.698353 0.678431
107.187340 18.035086 1.301647 0.678431
107.327118 18.223377 0.916036 0.698405
107.327118 18.223375 0.525333 0.498283
107.327126 18.223381 0.132528 0.283192
108.384911 19.648233 -0.000014 0.372168
109.498657 21.148472 -0.000012 0.311818
110.272758 22.191196 -0.000010 0.344228
110.843079 22.959423 -0.000010 0.259113
107.229866 18.232187 4.490324 0.663752
107.157860 18.136602 4.104217 0.647059
107.088028 18.043892 3.715095 0.678431
107.088028 18.043894 3.305810 0.675395
107.229858 18.232185 2.873362 0.648676
107.157524 18.136154 2.488722 0.678431
107.088028 18.043892 2.098060 0.678431
107.088028 18.043892 1.699211 0.678431
107.088028 18.043892 1.300789 0.678431
107.229866 18.232187 0.913521 0.664424
107.229858 18.232185 0.521136 0.644923
107.229866 18.232191 0.126639 0.604852
108.328369 19.690514 -0.000014 0.307790
109.452568 21.182941 -0.000012 0.311131
110.233925 22.220234 -0.000010 0.262394
110.809593 22.984461 -0.000009 0.328893
107.131767 18.241081 4.503402 0.490593
107.058434 18.145130 4.115729 0.674296
106.987854 18.052776 3.724825 0.647868
106.987854 18.052776 3.313742 0.656687
107.131767 18.241081 2.879368 0.562066
107.058243 18.144882 2.493073 0.647059
106.987846 18.052773 2.100687 0.668788
106.987846 18.052776 1.700086 0.668788
106.987846 18.052776 1.299914 0.668788
107.131767 18.241079 0.910957 0.681483
107.131767 18.241081 0.516855 0.665888
107.131760 18.241077 0.120632 0.561074
108.272133 19.733187 -0.000014 0.257939
109.406723 21.217730 -0.000012 0.283070
110.195305 22.249540 -0.000010 0.280964
110.776291 23.009731 -0.000009 0.259876
107.032799 18.250050 4.516744 0.637827
106.958214 18.153866 4.127438 0.654902
106.959190 18.155125 3.713249 0.647059
106.959183 18.155117 3.304307 0.678431
107.032799 18.250050 2.885496 0.658869
106.958046 18.153645 2.497515 0.647059
106.959183 18.155109 2.097562 0.647059
106.959190 18.155121 1.699045 0.647059
106.959198 18.155128 1.300955 0.647059
107.032799 18.250050 0.908340 0.685863
107.032799 18.250048 0.512487 0.627024
107.032799 18.250050 0.114504 0.657313
108.216194 19.776249 -0.000014 0.298146
109.361115 21.252836 -0.000012 0.271229
110.156883 22.279118 -0.000010 0.302998
110.743164 23.035234 -0.000009 0.284596
106.932945 18.259102 4.530353 0.639887
106.893784 18.209316 4.126565 0.650904
106.893776 18.209316 3.712803 0.650263
106.893776 18.209312 3.303942 0.407340
106.932938 18.259100 2.891745 0.656565
106.893776 18.209316 2.497160 0.624689
106.893776 18.209312 2.097441 0.674098
106.893776 18.209316 1.699005 0.632288
106.893776 18.209316 1.300995 0.624399
106.932945 18.259102 0.905671 0.657893
106.932938 18.259098 0.508033 0.649058
106.932938 18.259100 0.108255 0.668696
108.160553 19.819702 -0.000014 0.265293
109.315758 21.288260 -0.000012 0.267582
110.118668 22.308962 -0.000010 0.287892
110.710213 23.060966 -0.000009 0.273411
106.832115 18.268156 4.544259 0.526482
106.832115 18.268156 4.124875 0.613199
106.832115 18.268154 3.711380 0.345296
106.832108 18.268154 3.302782 0.705119
106.832115 18.268154 2.898132 0.606119
106.832115 18.268154 2.496519 0.657023
106.832115 18.268154 2.097056 0.401404
106.832108 18.268154 1.698877 0.669841
106.832108 18.268154 1.301123 0.315190
106.832115 18.268154 0.902943 0.666407
106.832115 18.268154 0.503480 0.570871
106.832115 18.268154 0.101868 0.656901
108.105217 19.863546 -0.000014 0.263890
109.270645 21.324001 -0.000012 0.275288
110.080666 22.339073 -0.000010 0.308980
110.677444 23.086929 -0.000009 0.244678
106.730324 18.277254 4.558456 0.638056
106.730324 18.277256 4.137116 0.310750
106.730324 18.277256 3.721693 0.697902
106.730316 18.277252 3.311189 0.693080
106.730316 18.277252 2.904653 0.670512
106.730324 18.277254 2.501166 0.661265
106.730316 18.277252 2.099841 0.708827
106.730316 18.277252 1.699804 0.678431
106.730316 18.277252 1.300196 0.704768
106.730324 18.277252 0.900159 0.674266
106.730316 18.277252 0.498833 0.656275
106.730316 18.277252 0.095347 0.666423
108.050194 19.907772 -0.000013 0.331243
109.225792 21.360058 -0.000011 0.302052
110.042877 22.369448 -0.000010 0.286061
110.644859 23.113119 -0.000009 0.294255
106.627563 18.286436 4.572938 0.666972
106.627563 18.286438 4.149603 0.408743
106.627563 18.286434 3.732213 0.411490
106.627563 18.286434 3.319765 0.678431
106.627563 18.286434 2.911304 0.663920
106.627563 18.286434 2.505907 0.654902
106.627563 18.286434 2.102681 0.688457
106.627563 18.286434 1.700750 0.637537
106.627563 18.286434 1.299250 0.676692
106.627563 18.286434 0.897319 0.665537
106.627563 18.286434 0.494093 0.673106
106.627563 18.286434 0.088696 0.661341
107.995476 19.952381 -0.000014 0.251514
109.181183 21.396423 -0.000011 0.300542
110.005295 22.400084 -0.000010 0.305501
110.612457 23.139536 -0.000009 0.266224
106.523827 18.295710 4.587708 0.671580
106.523834 18.295712 4.162337 0.283940
106.523827 18.295710 3.742941 0.337575
106.523827 18.295708 3.328511 0.568353
106.523827 18.295708 2.918087 0.720134
106.523827 18.295710 2.510741 0.647410
106.523827 18.295710 2.105578 0.375891
106.523827 18.295710 1.701715 0.653666
106.523827 18.295710 1.298285 0.435416
106.523827 18.295710 0.894422 0.659983
106.523827 18.295712 0.489258 0.665370
106.523827 18.295708 0.081913 0.669245
107.941071 19.997372 -0.000014 0.239841
109.136833 21.433100 -0.000012 0.295827
109.967926 22.430984 -0.000010 0.294987
110.580238 23.166180 -0.000009 0.298146
106.419083 18.305073 4.602772 0.698131
106.419083 18.305073 4.175327 0.666270
106.419083 18.305073 3.753884 0.669001
106.419083 18.305069 3.337432 0.294286
106.419083 18.305071 2.925005 0.679469
106.419083 18.305073 2.515673 0.678187
106.419083 18.305073 2.108532 0.675258
106.419083 18.305069 1.702699 0.651453
106.419083 18.305069 1.297301 0.683803
106.419083 18.305073 0.891468 0.637507
106.419083 18.305069 0.484327 0.674830
106.419083 18.305069 0.074995 0.654185
107.886986 20.042742 -0.000013 0.276722
109.092735 21.470089 -0.000011 0.318410
109.930779 22.462143 -0.000010 0.358526
110.548210 23.193045 -0.000009 0.305119
