# This PCD file was generated using the MATLABÂ® pcwrite function
# from Computer Vision System ToolboxÂ®.
# .PCD v.7 - Point Cloud Data file format
VERSION .7
FIELDS x y z intensity
SIZE 4 4 4 4
TYPE F F F F
COUNT 1 1 1 1
WIDTH 1191
HEIGHT 1
VIEWPOINT 0 0 0 1 0 0 0
POINTS 1191
DATA ascii
152.677856 108.301826 -0.000018 0.452308
152.364471 106.378731 -0.000013 0.659358
152.116791 104.858856 0.000012 0.661158
151.916092 103.627335 0.000012 0.643030
151.750107 102.608757 0.000012 0.638086
151.610504 101.752052 0.000009 0.657542
151.491409 101.021217 0.000006 0.657816
151.388580 100.390198 0.000005 0.659953
151.298874 99.839714 0.000000 0.642527
151.219894 99.355095 -0.000005 0.641627
151.149811 98.925026 -0.000005 0.664424
151.087173 98.540680 -0.000005 0.650767
151.030853 98.195015 -0.000004 0.642786
165.038071 178.778656 24.583241 0.672297
165.038071 178.778656 23.357010 0.678431
154.874725 120.049507 8.241427 0.303029
154.850616 119.910248 7.819654 0.315435
154.843643 119.869888 7.424635 0.315038
165.038071 178.778656 18.526278 0.678431
164.993591 178.521606 17.288185 0.719753
154.778931 119.495995 6.215744 0.355444
154.746567 119.308960 5.813436 0.116869
154.731430 119.221497 5.431655 0.104097
154.716446 119.134895 5.053684 0.123247
154.701599 119.049133 4.679343 0.117647
154.686890 118.964134 4.308446 0.112734
154.672318 118.879929 3.940828 0.119203
154.657883 118.796532 3.576323 0.129778
154.642471 118.707413 3.214380 0.534310
154.624786 118.605278 2.854754 0.623957
154.607269 118.504036 2.498301 0.630823
154.589905 118.403648 2.144859 0.643839
157.054504 132.645416 1.889532 0.634897
157.054504 132.645416 1.350468 0.576242
157.054504 132.645416 0.811311 0.521584
156.276291 128.148468 0.421280 0.348257
156.057709 126.885376 -0.000014 0.445747
154.716599 119.135742 -0.000015 0.434607
153.862717 114.201622 -0.000016 0.479103
153.271210 110.783531 -0.000017 0.417258
152.837097 108.275070 -0.000017 0.473808
152.504868 106.355225 -0.000022 0.647120
152.242279 104.837852 0.000003 0.653193
152.029495 103.608292 0.000011 0.641840
151.853516 102.591393 0.000012 0.660380
151.705505 101.736084 0.000011 0.652308
151.579239 101.006454 0.000007 0.663539
151.470215 100.376488 0.000005 0.651576
151.375107 99.826881 0.000005 0.671580
151.291382 99.343063 -0.000000 0.676478
151.217072 98.913727 -0.000005 0.634195
151.150681 98.530006 -0.000005 0.658091
151.090958 98.184921 -0.000004 0.615732
155.151932 120.015587 9.034265 0.319478
165.916382 178.778687 23.395060 0.629953
155.108307 119.777412 8.188516 0.317082
165.869278 178.521606 20.904219 0.607691
165.916382 178.778687 19.755482 0.628550
155.032074 119.361237 6.950817 0.102022
155.015747 119.272141 6.558939 0.109331
154.999603 119.184021 6.171423 0.105882
154.983643 119.096848 5.788065 0.107301
154.967834 119.010574 5.408666 0.098528
154.952194 118.925217 5.033048 0.117647
154.935043 118.831604 4.659988 0.517739
154.915970 118.727470 4.289454 0.678431
154.897095 118.624420 3.922735 0.622034
154.878403 118.522385 3.559648 0.663371
154.859894 118.421326 3.200018 0.664271
154.841553 118.321190 2.843673 0.656977
154.823364 118.221924 2.490448 0.638743
154.805344 118.123497 2.140185 0.666667
156.570374 127.758812 1.857488 0.304768
156.505966 127.407219 1.384851 0.256260
156.442795 127.062424 0.921356 0.228061
156.380829 126.724091 0.466588 0.288823
156.319977 126.391953 0.020149 0.223423
154.982101 119.088440 -0.000015 0.442893
154.079819 114.162933 -0.000015 0.433097
153.454788 110.750824 -0.000016 0.437018
152.996078 108.246750 -0.000017 0.417914
152.644989 106.330132 -0.000006 0.657771
152.367554 104.815643 -0.000010 0.652506
152.142700 103.588127 0.000011 0.641169
151.956741 102.573006 0.000011 0.656916
151.800339 101.719193 0.000011 0.655467
151.666916 100.990822 0.000010 0.647379
151.551712 100.361969 0.000006 0.638117
151.451218 99.813324 0.000005 0.657786
151.362732 99.330330 0.000004 0.661295
151.284225 98.901749 -0.000001 0.663706
151.214066 98.518715 -0.000004 0.632334
151.150955 98.174232 -0.000004 0.697383
155.374237 119.695946 8.963028 0.331884
155.338364 119.510384 8.524226 0.116915
155.320526 119.418114 8.115340 0.120821
155.302902 119.327011 7.711658 0.117464
155.285507 119.237030 7.312945 0.089311
155.268311 119.148041 6.918960 0.117739
155.251358 119.060410 6.529567 0.104509
155.232422 118.962440 6.142584 0.591989
155.211777 118.855652 5.758513 0.630396
155.191360 118.750122 5.378983 0.676081
155.171188 118.645798 5.003789 0.654429
155.151245 118.542618 4.632728 0.666438
155.131500 118.440536 4.265608 0.649210
155.111969 118.339500 3.902243 0.659037
155.092621 118.239456 3.542453 0.669612
155.073471 118.140358 3.186064 0.663493
155.054489 118.042160 2.832908 0.632258
155.035660 117.944809 2.482819 0.650065
155.038910 117.961655 2.137910 0.640650
156.662994 126.361374 1.848611 0.294194
156.600098 126.036041 1.393556 0.250355
156.538361 125.716751 0.946978 0.250309
156.477737 125.403244 0.508495 0.364248
156.418198 125.095261 0.077740 0.344457
155.247131 119.038544 -0.000014 0.443137
154.296555 114.122131 -0.000015 0.450828
153.638031 110.716309 -0.000015 0.437613
153.154770 108.216866 -0.000016 0.424109
152.784851 106.303665 0.000007 0.654673
152.492615 104.792175 -0.000019 0.641688
152.255707 103.566910 0.000003 0.663172
152.059784 102.553612 0.000011 0.655344
151.895004 101.701370 0.000011 0.655497
151.754440 100.974342 0.000010 0.649653
151.633072 100.346642 0.000008 0.659113
151.527191 99.799026 0.000005 0.655085
151.433975 99.316917 0.000004 0.675929
151.351257 98.889107 0.000003 0.638148
151.277328 98.506798 -0.000002 0.658625
151.210861 98.162956 -0.000005 0.665782
155.593307 119.387184 8.895123 0.116136
155.574539 119.294960 8.483386 0.120729
155.555984 119.203812 8.077013 0.094118
155.535416 119.102753 7.673324 0.590509
155.512985 118.992516 7.272714 0.663401
155.490845 118.883774 6.877484 0.676829
155.468994 118.776443 6.487391 0.655818
155.447418 118.670456 6.102207 0.675761
155.426117 118.565758 5.721710 0.666468
155.405045 118.462296 5.345686 0.647059
155.384232 118.360001 4.973930 0.658213
155.363632 118.258827 4.606246 0.657938
155.343262 118.158722 4.242443 0.669657
155.327408 118.080826 3.884179 0.653315
155.332169 118.104271 3.536252 0.660960
155.336945 118.127716 3.188358 0.652354
156.446335 123.577820 3.094271 0.429099
156.343018 123.070229 2.655731 0.431464
156.811554 125.372086 2.287426 0.307042
156.748962 125.064529 1.840395 0.326863
156.687500 124.762611 1.401620 0.219455
156.627151 124.466133 0.970728 0.223148
156.567856 124.174828 0.547366 0.338445
156.509567 123.888481 0.131194 0.421317
155.511658 118.986038 -0.000014 0.441123
154.512863 114.079193 -0.000015 0.468360
153.820938 110.680016 -0.000015 0.448890
153.313156 108.185425 -0.000015 0.433631
152.924454 106.275856 0.000020 0.656947
152.617401 104.767357 -0.000012 0.655558
152.368500 103.544609 -0.000008 0.650431
152.162628 102.533203 0.000010 0.660731
151.989487 101.682617 0.000010 0.671763
151.841797 100.957008 0.000010 0.649699
151.714264 100.330521 0.000010 0.658381
151.603012 99.783966 0.000006 0.652964
151.505066 99.302811 0.000005 0.631998
151.418152 98.875824 0.000004 0.631189
151.340485 98.494247 0.000003 0.672511
151.270630 98.151085 -0.000002 0.657832
155.820587 119.141083 8.844374 0.666926
155.796478 119.028275 8.430098 0.677150
155.772705 118.917130 8.021900 0.664134
155.749283 118.807556 7.619507 0.653834
155.726181 118.699501 7.222663 0.638392
155.703384 118.592880 6.831116 0.663996
155.680878 118.487640 6.444634 0.668589
155.658661 118.383713 6.062989 0.675258
155.636719 118.281052 5.685961 0.630793
155.624588 118.224297 5.319664 0.665064
155.629715 118.248314 4.966532 0.669093
155.634842 118.272293 4.613908 0.649485
156.975143 124.541290 4.890656 0.421347
156.861176 124.008217 4.405799 0.382788
156.741302 123.447563 3.934247 0.376684
156.679581 123.158836 3.494980 0.401587
156.644806 122.996185 3.070026 0.387717
156.610245 122.834549 2.649965 0.428794
156.890106 124.143494 2.264123 0.318715
156.828949 123.857513 1.832768 0.377050
156.768906 123.576630 1.409110 0.298116
156.709900 123.300621 0.992802 0.236942
156.686737 123.192352 0.578056 0.286213
156.668365 123.106377 0.164809 0.396078
155.775665 118.930931 -0.000013 0.447120
154.728729 114.034134 -0.000013 0.433783
154.003479 110.641914 -0.000014 0.456916
153.471237 108.152435 -0.000015 0.449928
153.063812 106.246826 0.000014 0.656611
152.741928 104.741272 0.000000 0.652445
152.481079 103.521187 -0.000017 0.641321
152.265274 102.511826 0.000004 0.667491
152.083786 101.662949 0.000010 0.643412
151.928970 100.938820 0.000010 0.653269
151.795303 100.313606 0.000009 0.645274
151.678696 99.768173 0.000008 0.658228
151.576035 99.288002 0.000005 0.659770
151.484924 98.861893 0.000004 0.664103
151.403519 98.481087 0.000004 0.669535
151.330292 98.138618 0.000002 0.658763
156.032715 118.844711 8.780663 0.670253
156.007935 118.734116 8.370291 0.639048
155.983505 118.625137 7.965904 0.667445
155.959427 118.517700 7.567243 0.655802
155.935684 118.411736 7.174050 0.654414
155.926010 118.368530 6.798160 0.644007
155.931549 118.393272 6.437745 0.657755
155.937073 118.417938 6.078339 0.650889
157.250793 124.280487 6.627285 0.390005
157.222534 124.154358 6.168193 0.427085
157.179153 123.960785 5.705498 0.419074
157.105927 123.633965 5.234246 0.395987
157.054092 123.402657 4.782766 0.415961
157.018158 123.242340 4.344852 0.404105
156.982101 123.081429 3.912167 0.413657
156.946320 122.921738 3.484684 0.435904
156.910400 122.761421 3.062116 0.415915
156.874542 122.601440 2.644361 0.374319
157.031891 123.303581 2.248607 0.322377
157.012466 123.216919 1.828930 0.343267
156.993164 123.130760 1.411647 0.260029
156.973953 123.045059 0.996596 0.192157
156.954849 122.959793 0.583616 0.352941
156.935822 122.874908 0.172553 0.415076
156.039108 118.873238 -0.000012 0.443046
154.944153 113.986969 -0.000013 0.431952
154.185638 110.602028 -0.000014 0.416693
153.628983 108.117889 -0.000014 0.451743
153.202881 106.216431 0.000008 0.651438
152.866196 104.713959 0.000012 0.659861
152.593399 103.496590 -0.000017 0.638468
152.367722 102.489464 -0.000006 0.642039
152.177887 101.642349 0.000009 0.654200
152.015976 100.919777 0.000009 0.663706
151.876175 100.295906 0.000009 0.640131
151.754211 99.751633 0.000008 0.648920
151.646835 99.272491 0.000007 0.690623
151.551559 98.847305 0.000004 0.671550
151.466415 98.467316 0.000004 0.629831
151.389832 98.125580 0.000004 0.679774
156.241196 118.553680 8.718798 0.635523
156.231644 118.512955 8.329390 0.657115
156.237656 118.538589 7.959475 0.674266
157.457657 123.742920 8.758172 0.343862
157.428482 123.618492 8.286762 0.429786
157.420990 123.586548 7.839473 0.453925
157.411819 123.547440 7.393970 0.365209
157.402695 123.508514 6.951626 0.408957
157.393417 123.468903 6.512128 0.401114
157.384415 123.430481 6.075603 0.396078
157.368042 123.360657 5.637655 0.370596
157.345490 123.264450 5.199986 0.494926
157.321503 123.162125 4.765560 0.401984
157.284027 123.002289 4.329962 0.438712
157.247070 122.844620 3.899790 0.466545
157.212814 122.698517 3.475366 0.400534
157.176666 122.544312 3.055140 0.415747
157.136002 122.370811 2.638915 0.379034
157.299698 123.069092 2.245293 0.373663
157.279633 122.983536 1.827832 0.291661
157.259689 122.898468 1.412739 0.248737
157.239853 122.813850 0.999854 0.216938
157.220123 122.729660 0.589019 0.352941
157.200470 122.645844 0.180078 0.419608
156.301971 118.812981 -0.000012 0.426368
155.159103 113.937683 -0.000012 0.451560
154.367386 110.560356 -0.000013 0.416480
153.786377 108.081802 -0.000013 0.456031
153.341644 106.184677 0.000003 0.652537
152.990204 104.685486 0.000018 0.658610
152.705460 103.470818 -0.000006 0.645289
152.469940 102.466095 -0.000015 0.633310
152.271790 101.620857 0.000003 0.654429
152.102783 100.899872 0.000009 0.654185
151.956863 100.277405 0.000009 0.666041
151.829559 99.734360 0.000009 0.659007
151.717499 99.256287 0.000008 0.653391
151.618042 98.832062 0.000006 0.641047
151.529175 98.452927 0.000004 0.646052
151.449234 98.111961 0.000004 0.651118
157.737961 123.544701 10.076359 0.362585
157.728210 123.504898 9.614669 0.431006
157.718597 123.465607 9.157145 0.434073
157.708939 123.426163 8.703431 0.414221
157.699356 123.387039 8.253443 0.356374
157.689850 123.348221 7.806982 0.424262
157.680374 123.309517 7.363825 0.414145
157.670929 123.270889 6.923791 0.447974
157.661591 123.232773 6.486775 0.459983
157.651978 123.193459 6.052343 0.434501
157.634613 123.122543 5.616475 0.473869
157.611389 123.027679 5.181182 0.372885
157.586060 122.924240 4.748848 0.432166
157.547394 122.766251 4.315618 0.410666
157.509247 122.610413 3.887768 0.474861
157.476547 122.476837 3.466276 0.534218
157.440445 122.329407 3.048377 0.393194
157.394608 122.142143 2.633607 0.398703
157.564728 122.837082 2.242075 0.319112
157.544037 122.752579 1.826766 0.358404
157.523483 122.668564 1.413800 0.209339
157.503021 122.585007 1.003020 0.215686
157.482666 122.501869 0.594267 0.218143
157.462402 122.419113 0.187389 0.374075
156.564240 118.750130 -0.000011 0.451469
155.373566 113.886284 -0.000012 0.442069
154.548737 110.516899 -0.000013 0.474266
153.943405 108.044167 -0.000013 0.432563
153.480072 106.151505 0.000002 0.656077
153.113953 104.655884 0.000013 0.655192
152.817261 103.443947 0.000005 0.665110
152.571899 102.441666 -0.000016 0.664546
152.365479 101.598457 -0.000005 0.642603
152.189392 100.879128 0.000009 0.636454
152.037369 100.258125 0.000008 0.646952
151.904739 99.716347 0.000008 0.661692
151.787979 99.239395 0.000008 0.670192
151.684372 98.816154 0.000008 0.659876
151.591782 98.437927 0.000005 0.654017
151.508514 98.097755 0.000004 0.638529
158.005463 123.306351 10.032950 0.435721
157.995483 123.267227 9.573728 0.378485
157.985550 123.228317 9.118568 0.408911
157.975601 123.189369 8.667219 0.388327
157.965744 123.150742 8.219573 0.457572
157.955963 123.112411 7.775431 0.455390
157.946243 123.074333 7.334597 0.429068
157.936371 123.035645 6.896742 0.409720
157.926727 122.997894 6.461965 0.396078
157.917267 122.960770 6.030020 0.490150
157.898407 122.886887 5.595892 0.519661
157.874390 122.792839 5.162855 0.418585
157.847382 122.686966 4.732417 0.446662
157.808014 122.532761 4.301689 0.424506
157.769989 122.383751 3.876471 0.420432
157.737747 122.257416 3.457458 0.375723
157.701797 122.116623 3.041820 0.411658
157.651154 121.918175 2.628531 0.408453
157.827072 122.607437 2.238949 0.320897
157.805786 122.523987 1.825729 0.330098
157.784607 122.441010 1.414831 0.235294
157.763535 122.358475 1.006095 0.192157
157.742569 122.276344 0.599367 0.191867
157.721710 122.194603 0.194491 0.352941
156.825867 118.684700 -0.000010 0.439979
155.587509 113.832794 -0.000011 0.442817
154.729630 110.471664 -0.000012 0.439048
154.100067 108.004997 -0.000012 0.488716
153.618164 106.116959 0.000005 0.653376
153.237396 104.625061 0.000008 0.665415
152.928802 103.415993 0.000015 0.653147
152.673615 102.416206 -0.000010 0.675898
152.458954 101.575150 -0.000014 0.658946
152.275803 100.857544 0.000004 0.652293
152.117676 100.238045 0.000008 0.661280
151.979736 99.697594 0.000008 0.640391
151.858307 99.221817 0.000008 0.638560
151.750549 98.799614 0.000008 0.650233
151.654251 98.422302 0.000006 0.644358
151.567642 98.082977 0.000004 0.632242
158.270294 123.070496 9.990809 0.477073
158.260025 123.031891 9.533943 0.390082
158.249832 122.993492 9.081113 0.467872
158.239609 122.955025 8.632061 0.446448
158.229462 122.916878 8.186690 0.401053
158.219406 122.879028 7.744799 0.407843
158.209381 122.841263 7.306162 0.517647
158.199417 122.803787 6.870645 0.421134
158.189209 122.765335 6.437863 0.417212
158.179443 122.728607 6.008084 0.410681
158.159363 122.653069 5.575831 0.387198
158.134750 122.560410 5.145056 0.443336
158.106522 122.454170 4.716663 0.444251
158.066010 122.301712 4.288165 0.409552
158.028900 122.162071 3.865706 0.383612
157.996155 122.038818 3.448823 0.380575
157.960831 121.905899 3.035464 0.432929
157.964722 121.920532 2.631194 0.368673
158.086838 122.380089 2.235914 0.246189
158.064941 122.297668 1.824723 0.351202
158.043152 122.215714 1.415831 0.210544
158.021500 122.134186 1.009081 0.251194
157.999939 122.053055 0.604317 0.251713
157.978470 121.972282 0.201388 0.406134
157.086853 118.616714 -0.000010 0.443793
155.800903 113.777199 -0.000011 0.443137
154.910080 110.424652 -0.000011 0.462333
154.256332 107.964294 -0.000012 0.442145
153.755920 106.081062 0.000007 0.656153
153.340027 104.515869 0.009983 1.000000
153.040070 103.387009 0.000016 0.650034
152.775070 102.389709 -0.000000 0.654322
152.552170 101.550865 -0.000014 0.648646
152.362000 100.835144 -0.000004 0.641566
152.197800 100.217178 0.000008 0.658686
152.054550 99.678116 0.000008 0.643046
151.928452 99.203545 0.000008 0.668696
151.816559 98.782425 0.000008 0.645930
151.716553 98.406067 0.000007 0.653132
151.626617 98.067612 0.000005 0.665171
158.532578 122.837273 9.949970 0.400626
158.522018 122.799057 9.495358 0.417548
158.511520 122.761032 9.044756 0.421698
158.501022 122.723045 8.597936 0.456367
158.490616 122.685364 8.154771 0.384039
158.480286 122.647987 7.715065 0.475822
158.469940 122.610504 7.278558 0.474510
158.459625 122.573212 6.845137 0.413108
158.449524 122.536652 6.414711 0.447974
158.439026 122.498627 5.986773 0.378836
158.417923 122.422226 5.556435 0.371389
158.392807 122.331322 5.127892 0.471473
158.363113 122.223831 4.701375 0.436179
158.321472 122.073067 4.275042 0.418997
158.283478 121.935570 3.854741 0.431373
158.249893 121.813965 3.439939 0.411826
158.296280 121.981880 3.042848 0.580392
158.296173 121.981514 2.635958 0.580392
158.296173 121.981506 2.229436 0.578653
158.295166 121.977844 1.823097 0.597345
158.295166 121.977844 1.416903 0.583337
158.295166 121.977852 1.010638 0.576440
158.295166 121.977867 0.604165 0.568627
158.295166 121.977875 0.197342 0.581949
157.347137 118.546173 -0.000009 0.432975
156.013763 113.719513 -0.000010 0.449271
155.090057 110.375877 -0.000011 0.437369
154.412186 107.922050 -0.000011 0.455711
153.869476 105.957565 0.010006 1.000000
153.462051 104.482719 0.009992 1.000000
153.151062 103.356964 0.000011 0.655512
152.876251 102.362213 0.000011 0.665934
152.645157 101.525673 -0.000015 0.632700
152.447968 100.811890 -0.000011 0.667155
152.277695 100.195541 0.000005 0.621881
152.129166 99.657890 0.000008 0.635752
151.998413 99.184586 0.000007 0.681102
151.882385 98.764580 0.000008 0.669398
151.778702 98.389229 0.000007 0.668605
151.685440 98.051659 0.000007 0.637964
158.792297 122.606102 9.910272 0.424872
158.781494 122.568428 9.457891 0.436347
158.770721 122.530869 9.009478 0.379690
158.759949 122.493347 8.564822 0.390234
158.749268 122.456123 8.123795 0.415351
158.738678 122.419197 7.686206 0.423026
158.728119 122.382385 7.251840 0.416632
158.717697 122.346039 6.820581 0.420172
158.706970 122.308647 6.392005 0.369085
158.696808 122.273201 5.966422 0.348379
158.673965 122.193596 5.537598 0.392554
158.648132 122.103531 5.111126 0.487953
158.617218 121.995766 4.686536 0.374304
158.574112 121.845505 4.262199 0.336812
158.535614 121.711258 3.844098 0.432166
158.501129 121.591034 3.431299 0.385550
158.560257 121.797180 3.037977 0.638178
158.550064 121.761642 2.631283 0.580392
158.549988 121.761353 2.226624 0.580438
158.550964 121.764755 1.822208 0.678431
158.550964 121.764755 1.417791 0.666667
158.548981 121.757866 1.013446 0.592157
158.548981 121.757874 0.608845 0.554253
158.548981 121.757889 0.203898 0.592157
157.606735 118.473076 -0.000008 0.439948
156.226028 113.659744 -0.000009 0.460410
155.269562 110.325333 -0.000010 0.423972
154.567612 107.878281 -0.000010 0.428946
154.005676 105.919289 0.009999 1.000000
153.583771 104.448456 0.009992 1.000000
153.261749 103.325836 0.000006 0.656123
152.977173 102.333786 0.000014 0.666026
152.737869 101.499512 -0.000004 0.639933
152.533691 100.787766 -0.000013 0.662470
152.357391 100.173141 -0.000002 0.653269
152.203583 99.636948 0.000007 0.645594
152.068192 99.164948 0.000007 0.636027
151.948044 98.746094 0.000007 0.646647
151.840668 98.371780 0.000007 0.664256
151.744110 98.035141 0.000006 0.670527
159.049667 122.377396 9.871822 0.404623
159.038544 122.340027 9.421544 0.439384
159.027512 122.302925 8.975251 0.454383
159.016479 122.265854 8.532693 0.355428
159.005539 122.229073 8.093745 0.386130
158.994690 122.192596 7.658213 0.487724
158.983810 122.156036 7.225848 0.455802
158.973068 122.119934 6.796572 0.415991
158.962021 122.082809 6.369974 0.414359
158.951584 122.047714 5.946367 0.388235
158.927612 121.967163 5.519321 0.430396
158.901077 121.877945 5.094859 0.419608
158.868942 121.769936 4.672139 0.464805
158.824738 121.621361 4.249843 0.419654
158.785400 121.489113 3.833772 0.398016
158.749786 121.369423 3.422867 0.378378
158.812103 121.578911 3.031610 0.661555
158.801498 121.543266 2.626729 0.580392
158.801437 121.543060 2.223895 0.604349
158.802536 121.546722 1.821300 0.678431
158.802536 121.546722 1.418699 0.678431
158.800507 121.539886 1.016170 0.566247
158.800507 121.539894 0.613386 0.568627
158.800507 121.539902 0.210256 0.598596
157.865601 118.397423 -0.000007 0.448112
156.437698 113.597878 -0.000008 0.443442
155.448547 110.273026 -0.000009 0.454597
154.722610 107.832993 -0.000010 0.401175
154.141464 105.879562 0.010004 1.000000
153.727921 104.489563 0.000005 0.646265
153.372131 103.293617 0.000002 0.667689
153.077820 102.304375 0.000014 0.652873
152.830307 101.472435 0.000005 0.630823
152.619186 100.762787 -0.000014 0.652277
152.436874 100.149963 -0.000010 0.671656
152.277802 99.615273 0.000006 0.637446
152.137772 99.144615 0.000007 0.654627
152.013519 98.726967 0.000007 0.642206
151.902481 98.353722 0.000007 0.668879
151.802612 98.018051 0.000007 0.648539
159.304626 122.150627 9.834469 0.433799
159.293289 122.113838 9.386309 0.548760
159.281967 122.077110 8.942058 0.445808
159.270676 122.040489 8.501536 0.351934
159.259491 122.004150 8.064603 0.423529
159.248367 121.968109 7.631064 0.401938
159.237320 121.932266 7.200724 0.507225
159.226120 121.895889 6.773280 0.474342
159.215302 121.860832 6.348885 0.376837
159.204025 121.824203 5.926900 0.421698
159.178955 121.742874 5.501595 0.424857
159.151703 121.654472 5.079080 0.485252
159.117828 121.544548 4.657998 0.452415
159.073074 121.399376 4.237862 0.435050
159.032928 121.269127 3.823761 0.412573
158.996216 121.149986 3.414694 0.464118
158.954224 121.013763 3.008699 0.431067
158.895203 120.822266 2.605027 0.412131
159.050751 121.326935 2.221252 0.605631
159.049789 121.323845 1.820373 0.579965
159.049789 121.323845 1.419626 0.568627
159.049805 121.323845 1.018811 0.558160
159.049789 121.323845 0.617789 0.566674
158.980743 121.099823 0.227171 0.386557
158.123703 118.319237 -0.000007 0.443595
156.648758 113.533951 -0.000008 0.439323
155.626999 110.218964 -0.000009 0.465354
154.877167 107.786171 -0.000009 0.417151
154.276840 105.838516 0.010009 1.000000
153.849701 104.452667 0.000008 0.654368
153.482178 103.260300 0.000001 0.656001
153.178177 102.274010 0.000010 0.655131
152.922501 101.444473 0.000012 0.659953
152.704422 100.736954 -0.000009 0.658228
152.516098 100.125977 -0.000012 0.653605
152.351791 99.592896 -0.000001 0.623438
152.207153 99.123611 0.000007 0.644587
152.078796 98.707199 0.000007 0.650706
151.964096 98.335060 0.000007 0.684337
151.860947 98.000381 0.000007 0.660365
159.606598 122.080345 9.840550 0.768170
159.604324 122.073196 9.399720 0.758404
159.534195 121.853371 8.909877 0.430640
159.522644 121.817177 8.471329 0.492882
159.511200 121.781273 8.036347 0.381445
159.499832 121.745651 7.604740 0.410849
159.564072 121.947052 7.220705 0.678431
159.552658 121.911263 6.791834 0.678431
159.541321 121.875710 6.365836 0.678431
159.493378 121.725449 5.925842 0.807843
159.428055 121.520676 5.484412 0.437781
159.400131 121.433105 5.063786 0.362875
159.365005 121.323013 4.644463 0.308400
159.319199 121.179436 4.226244 0.379019
159.277634 121.049149 3.813904 0.354314
159.238937 120.927841 3.406476 0.362051
159.192673 120.782806 3.001867 0.469612
159.135422 120.603333 2.600543 0.480644
159.348557 121.271461 2.221962 0.282795
159.323792 121.193848 1.820097 0.268009
159.299179 121.116653 1.420432 0.234394
159.274673 121.039871 1.022810 0.184802
159.250290 120.963440 0.627083 0.179538
159.226013 120.887329 0.233102 0.342458
158.381027 118.238518 -0.000006 0.432120
156.859177 113.467957 -0.000007 0.430060
155.804932 110.163162 -0.000008 0.447944
155.031235 107.737846 -0.000008 0.421271
154.411835 105.796173 0.010011 1.000000
153.971100 104.414597 0.000008 0.659281
153.569916 103.157013 0.010001 1.000000
153.278229 102.242661 0.000006 0.653178
153.014404 101.415649 0.000013 0.640391
152.789383 100.710258 -0.000001 0.659052
152.595093 100.101204 -0.000012 0.645487
152.425568 99.569794 -0.000008 0.653208
152.276306 99.101913 0.000007 0.627024
152.143890 98.686790 0.000006 0.683009
152.025528 98.315796 0.000006 0.648798
151.919098 97.982147 0.000007 0.679026
159.886093 121.940392 9.828321 0.678431
159.874146 121.904137 9.380566 0.666667
159.784256 121.631630 8.878688 0.453330
159.772446 121.595856 8.442051 0.498405
159.760742 121.560371 8.008961 0.440757
159.749130 121.525162 7.579227 0.369604
159.815125 121.725204 7.196856 0.678431
159.803452 121.689835 6.769839 0.678431
159.791855 121.654694 6.345674 0.678431
159.742706 121.505676 5.907570 0.807843
159.675018 121.300499 5.467759 0.515068
159.646805 121.214935 5.049104 0.419608
159.610046 121.103523 4.631347 0.339544
159.563217 120.961533 4.214988 0.342229
159.517944 120.824280 3.803827 0.396078
159.478455 120.704567 3.398311 0.447333
159.429230 120.555321 2.995293 0.458930
159.375336 120.391953 2.596384 0.414405
159.594482 121.056343 2.219434 0.266178
159.569183 120.979614 1.819260 0.352941
159.544006 120.903320 1.421265 0.215686
159.518967 120.827408 1.025299 0.214069
159.494034 120.751823 0.631210 0.223529
159.469223 120.676582 0.238852 0.396445
158.637543 118.155289 -0.000005 0.458183
157.068939 113.399895 -0.000007 0.428779
155.982300 110.105614 -0.000007 0.408835
155.184830 107.688011 -0.000008 0.421012
154.574478 105.837669 -0.000008 0.446174
154.092117 104.375328 0.000009 0.652842
153.678635 103.121811 0.009992 1.000000
153.377975 102.210327 0.000002 0.655970
153.106033 101.385918 0.000013 0.648630
152.874084 100.682724 0.000007 0.654185
152.673843 100.075661 -0.000012 0.652232
152.499115 99.545952 -0.000012 0.656931
152.345276 99.079575 0.000000 0.661662
152.208771 98.665741 0.000006 0.650782
152.086777 98.295929 0.000006 0.630060
151.977066 97.963341 0.000006 0.635721
160.136566 121.718010 9.794078 0.678431
160.124359 121.682175 9.348232 0.666667
160.032227 121.411812 8.848475 0.478737
160.020172 121.376442 8.413687 0.445838
160.008209 121.341377 7.982430 0.407843
159.996353 121.306580 7.554511 0.433082
160.064072 121.505264 7.173749 0.678431
160.052155 121.470291 6.748526 0.678431
160.040314 121.435570 6.326140 0.678431
159.949188 121.168137 5.872383 0.416297
159.919922 121.082283 5.451629 0.445014
159.891022 120.997482 5.034744 0.425147
159.853027 120.885979 4.618642 0.388907
159.805176 120.745537 4.204082 0.457023
159.756989 120.604149 3.794256 0.437293
159.715546 120.482559 3.390344 0.413001
159.663116 120.328674 2.988851 0.352255
159.613266 120.182419 2.592356 0.402975
159.838379 120.843002 2.216984 0.321569
159.812531 120.767159 1.818447 0.321569
159.786819 120.691711 1.422074 0.234440
159.761246 120.616646 1.027710 0.179522
159.735779 120.541931 0.635209 0.257313
159.710434 120.467529 0.244424 0.299138
158.893250 118.069542 -0.000005 0.439567
157.278030 113.329773 -0.000006 0.423026
156.159088 110.046326 -0.000006 0.420417
155.337936 107.636665 -0.000007 0.450629
154.709442 105.792412 -0.000007 0.392264
154.212753 104.334869 0.000010 0.656474
153.786957 103.085403 0.010003 1.000000
153.477386 102.177002 0.000001 0.651911
153.197372 101.355316 0.000009 0.662394
152.958527 100.654396 0.000010 0.655070
152.752319 100.049309 -0.000005 0.658061
152.572403 99.521378 -0.000011 0.644495
152.414001 99.056557 -0.000006 0.655406
152.273438 98.644058 0.000006 0.678569
152.147827 98.275459 0.000006 0.653315
152.034851 97.943962 0.000006 0.660594
160.385010 121.497520 9.760921 0.678431
160.372543 121.462097 9.316921 0.678431
160.278168 121.193832 8.819212 0.501610
160.265884 121.158890 8.386222 0.379873
160.253693 121.124222 7.956738 0.448371
160.241577 121.089821 7.530576 0.351171
160.311005 121.287155 7.151373 0.678431
160.298843 121.252594 6.727890 0.678431
160.286774 121.218262 6.307227 0.678431
160.192764 120.951050 5.855033 0.415137
160.162827 120.865944 5.436008 0.386038
160.133270 120.781914 5.020841 0.485618
160.094040 120.670403 4.606344 0.305745
160.045151 120.531425 4.193523 0.460288
159.995926 120.391495 3.785402 0.372152
159.950821 120.263252 3.382661 0.446799
159.898071 120.113327 2.983046 0.409384
159.849274 119.974602 2.588456 0.397009
160.080322 120.631393 2.214612 0.278431
160.053940 120.556389 1.817661 0.419608
160.027695 120.481781 1.422856 0.257603
160.001587 120.407555 1.030046 0.145510
159.975586 120.333672 0.639083 0.210483
159.949722 120.260117 0.249820 0.262501
159.148087 117.981285 -0.000004 0.440269
157.486404 113.257607 -0.000005 0.463004
156.335297 109.985298 -0.000006 0.410361
155.490524 107.583824 -0.000006 0.445884
154.843964 105.745827 -0.000007 0.440085
154.332977 104.293228 0.000011 0.654765
153.918915 103.116180 0.000007 0.651469
153.576477 102.142693 0.000001 0.664866
153.288406 101.323814 0.000005 0.676005
153.042679 100.625252 0.000011 0.652735
152.830536 100.022186 0.000002 0.645548
152.645462 99.496078 -0.000012 0.670039
152.482513 99.032860 -0.000011 0.642710
152.337891 98.621758 0.000002 0.647410
152.208664 98.254395 0.000006 0.645426
152.092453 97.924019 0.000006 0.665995
160.547424 121.047195 9.664521 0.453742
160.534805 121.012444 9.225815 0.418021
160.522186 120.977654 8.790888 0.487816
160.509644 120.943100 8.359633 0.446036
160.497223 120.908844 7.931871 0.441993
160.484879 120.874840 7.507410 0.463386
160.472504 120.840744 7.086006 0.392264
160.460007 120.806290 6.667451 0.473259
160.447998 120.773186 6.251880 0.417350
160.434433 120.735809 5.838245 0.378698
160.403793 120.651367 5.420887 0.354620
160.373627 120.568214 5.007392 0.417044
160.333130 120.456604 4.594438 0.338964
160.282822 120.317978 4.183200 0.431373
160.232986 120.180603 3.776830 0.389517
160.183823 120.045105 3.375170 0.373159
160.133224 119.905685 2.977708 0.471672
160.083450 119.768478 2.584681 0.335653
160.320358 120.421425 2.212315 0.388235
160.293457 120.347252 1.816900 0.351492
160.266678 120.273476 1.423614 0.232700
160.240051 120.200073 1.032308 0.192767
160.213547 120.127022 0.642833 0.176043
160.187149 120.054276 0.255045 0.248066
159.402039 117.890541 -0.000003 0.450431
157.694077 113.183395 -0.000004 0.438514
156.510895 109.922546 -0.000005 0.459739
155.642578 107.529480 -0.000005 0.440299
154.978012 105.697922 -0.000006 0.460899
154.452789 104.250412 0.000012 0.651637
154.027206 103.077499 0.000007 0.648096
153.675201 102.107399 0.000003 0.646525
153.379135 101.291420 0.000002 0.663020
153.126541 100.595284 0.000012 0.651621
152.908478 99.994293 0.000009 0.671916
152.718262 99.470055 -0.000009 0.651911
152.550781 99.008469 -0.000010 0.657832
152.402145 98.598831 -0.000005 0.649989
152.269302 98.232727 0.000006 0.637522
152.149841 97.903519 0.000006 0.653971
160.817917 120.906471 9.654466 0.420249
160.804657 120.871040 9.216081 0.439399
160.791397 120.835587 8.781505 0.429007
160.778229 120.800369 8.350618 0.464897
160.765167 120.765450 7.923246 0.444862
160.752213 120.730789 7.499195 0.393713
160.739166 120.695938 7.078203 0.441093
160.726379 120.661736 6.660261 0.392401
160.713379 120.626961 6.244983 0.436759
160.698502 120.587189 5.831580 0.375494
160.666779 120.502357 5.414772 0.357397
160.635010 120.417419 5.001679 0.428199
160.592255 120.303078 4.589073 0.401617
160.539581 120.162262 4.178308 0.399359
160.487137 120.022018 3.772435 0.382422
160.434937 119.882446 3.371288 0.424384
160.382523 119.742325 2.974632 0.425864
160.330460 119.603111 2.582397 0.384405
160.579514 120.269043 2.211267 0.333333
160.551285 120.193542 1.816539 0.393179
160.523193 120.118446 1.423985 0.257816
160.495255 120.043739 1.033456 0.221241
160.467453 119.969398 0.644801 0.242145
160.439774 119.895386 0.257876 0.261830
159.655090 117.797295 -0.000003 0.435126
157.901001 113.107147 -0.000004 0.478401
156.685867 109.858078 -0.000004 0.446311
155.794098 107.473648 -0.000004 0.454414
155.111588 105.648712 -0.000005 0.420951
154.572189 104.206451 0.000008 0.653315
154.135086 103.037735 0.000009 0.654856
153.773590 102.071144 0.000004 0.653834
153.469528 101.258125 0.000001 0.633906
153.210114 100.564514 0.000009 0.662074
152.986160 99.965675 0.000010 0.679118
152.790787 99.443298 -0.000003 0.658961
152.618790 98.983414 -0.000011 0.659983
152.466156 98.575272 -0.000009 0.631693
152.329727 98.210480 0.000003 0.638544
152.207031 97.882446 0.000006 0.682002
161.151657 120.931946 9.691586 0.405478
161.137909 120.896271 9.251122 0.467567
161.124191 120.860657 8.814508 0.473381
161.110550 120.825256 8.381599 0.453788
161.097031 120.790146 7.952225 0.401663
161.083603 120.755302 7.526194 0.433661
161.070084 120.720215 7.103229 0.386450
161.056808 120.685753 6.683330 0.453544
161.043335 120.650757 6.266119 0.467582
161.029007 120.613564 5.851217 0.372808
160.996094 120.528114 5.432391 0.397528
160.963135 120.442581 5.017318 0.508400
160.919205 120.328537 4.602845 0.402136
160.865143 120.188194 4.190230 0.499611
160.810837 120.047241 3.782421 0.461662
160.756775 119.906891 3.379372 0.399283
160.702530 119.766060 2.980856 0.405478
160.648605 119.626091 2.586796 0.401190
160.904938 120.291504 2.213948 0.352941
160.875702 120.215591 1.817428 0.371145
160.846619 120.140106 1.423102 0.233722
160.817688 120.065002 1.030818 0.223529
160.788895 119.990273 0.640428 0.232807
160.760239 119.915871 0.251784 0.264103
159.907227 117.701569 -0.000001 0.441398
158.107178 113.028877 -0.000003 0.470176
156.860199 109.791893 -0.000003 0.436072
155.945068 107.416336 -0.000004 0.441199
155.244659 105.598183 -0.000005 0.450523
154.691147 104.161339 0.000003 0.655787
154.242584 102.996925 0.000009 0.661845
153.871613 102.033920 0.000005 0.653529
153.559586 101.223946 0.000001 0.679423
153.293381 100.532921 0.000005 0.651514
153.063553 99.936295 0.000011 0.646983
152.863052 99.415833 0.000004 0.648310
152.686569 98.957687 -0.000011 0.632898
152.529922 98.551064 -0.000010 0.654032
152.389923 98.187653 -0.000003 0.644160
152.264023 97.860817 0.000005 0.629770
161.488495 120.957588 9.729816 0.396521
161.474304 120.921814 9.287250 0.488487
161.460114 120.886024 8.848533 0.395315
161.445999 120.850426 8.413538 0.448524
161.432007 120.815125 7.982099 0.450340
161.418106 120.780083 7.554024 0.414389
161.404251 120.745132 7.129096 0.479881
161.390305 120.709976 6.707099 0.393545
161.376328 120.674728 6.287893 0.369604
161.362717 120.640404 5.871478 0.440192
161.328537 120.554230 5.450560 0.361135
161.294357 120.468018 5.033437 0.388891
161.249847 120.355774 4.617198 0.463722
161.193817 120.214478 4.202524 0.388479
161.137634 120.072777 3.792717 0.401129
161.081650 119.931625 3.387706 0.391974
161.025528 119.790077 2.987272 0.447059
160.969711 119.649323 2.591331 0.396231
161.233353 120.314178 2.216710 0.321569
161.203079 120.237846 1.818343 0.324254
161.172989 120.161957 1.422191 0.234897
161.143051 120.086449 1.028100 0.201221
161.113251 120.011307 0.635921 0.229999
161.083588 119.936508 0.245505 0.285222
160.158401 117.603386 -0.000001 0.433097
158.312561 112.948586 -0.000002 0.411856
157.033875 109.723999 -0.000003 0.444022
156.095459 107.357544 -0.000003 0.453712
155.377243 105.546356 -0.000004 0.430610
154.809677 104.115051 -0.000002 0.657374
154.349686 102.955063 0.000010 0.666194
153.969269 101.995750 0.000006 0.657237
153.649307 101.188873 0.000001 0.633951
153.376343 100.500519 0.000003 0.637629
153.140656 99.906151 0.000012 0.660258
152.935043 99.387672 0.000008 0.651316
152.754074 98.931282 -0.000007 0.660548
152.593445 98.526237 -0.000010 0.630640
152.449905 98.164238 -0.000009 0.658183
152.320786 97.838631 0.000004 0.701183
161.828659 120.983673 9.769259 0.342794
161.813965 120.947655 9.324481 0.459922
161.799301 120.911697 8.883601 0.464820
161.784683 120.875893 8.446453 0.444846
161.770203 120.840378 8.012886 0.416037
161.755829 120.805145 7.582702 0.373297
161.741470 120.769958 7.155684 0.416907
161.727036 120.734581 6.731614 0.442161
161.713074 120.700333 6.310559 0.445808
161.698746 120.665230 5.892009 0.389487
161.664246 120.580666 5.469286 0.419608
161.629257 120.494904 5.050188 0.409064
161.583740 120.383301 4.631987 0.386831
161.525726 120.241096 4.215194 0.474266
161.467606 120.098640 3.803329 0.396078
161.409683 119.956665 3.396295 0.386862
161.351639 119.814362 2.993886 0.378347
161.293884 119.672806 2.596004 0.390768
161.564880 120.337067 2.219556 0.321569
161.533569 120.260323 1.819287 0.322713
161.502426 120.184006 1.421252 0.240070
161.471466 120.108086 1.025299 0.222065
161.440643 120.032532 0.631276 0.187396
161.409958 119.957321 0.239036 0.450980
160.408600 117.502724 -0.000000 0.443717
158.517151 112.866280 -0.000001 0.424536
157.206863 109.654404 -0.000002 0.462196
156.245270 107.297272 -0.000002 0.424018
155.509308 105.493225 -0.000003 0.414115
154.927734 104.067612 -0.000007 0.660151
154.456360 102.912148 0.000011 0.664363
154.066544 101.956619 0.000007 0.643214
153.738678 101.152916 0.000003 0.657877
153.458969 100.467285 0.000002 0.640375
153.217453 99.875267 0.000009 0.654551
153.006775 99.358818 0.000009 0.666560
152.821304 98.904205 -0.000000 0.644999
152.656738 98.500778 -0.000010 0.642298
152.509644 98.140213 -0.000009 0.638605
152.377335 97.815903 -0.000001 0.672435
162.172195 121.010071 9.809893 0.464942
162.156998 120.973831 9.362846 0.376761
162.141830 120.937691 8.919732 0.498405
162.126724 120.901672 8.480367 0.453361
162.111740 120.865952 8.044607 0.341909
162.096878 120.830505 7.612253 0.433661
162.082016 120.795090 7.183077 0.446235
162.067093 120.759483 6.756875 0.465171
162.052612 120.724983 6.333702 0.429496
162.037796 120.689659 5.913058 0.429129
162.003311 120.607445 5.488581 0.462043
161.967072 120.521027 5.067313 0.390356
161.920990 120.411186 4.647223 0.530083
161.860962 120.268066 4.228250 0.440558
161.800888 120.124832 3.814262 0.488121
161.740982 119.982010 3.405145 0.408331
161.680969 119.838936 3.000698 0.390692
161.621246 119.696556 2.600819 0.444602
161.899612 120.360199 2.222490 0.385870
161.867233 120.283020 1.820259 0.343816
161.835037 120.206268 1.420285 0.237079
161.803009 120.129913 1.022413 0.209934
161.771149 120.053932 0.626493 0.195544
161.739426 119.978302 0.232374 0.450980
160.657791 117.399628 0.000000 0.429480
158.720932 112.781967 -0.000000 0.430594
157.379166 109.583107 -0.000001 0.414054
156.394485 107.235542 -0.000002 0.423804
155.640839 105.438805 -0.000003 0.419745
155.045303 104.018982 -0.000009 0.660060
154.562607 102.868187 0.000011 0.664149
154.163437 101.916534 0.000007 0.655711
153.827682 101.116081 0.000004 0.652934
153.541275 100.433243 0.000001 0.654887
153.293961 99.843643 0.000005 0.659037
153.078201 99.329262 0.000010 0.665034
152.888275 98.876465 0.000006 0.651591
152.719757 98.474709 -0.000010 0.643153
152.569138 98.115601 -0.000009 0.672801
152.433670 97.792625 -0.000005 0.617243
162.519257 121.036842 9.851762 0.465537
162.503525 121.000336 9.402370 0.467674
162.487869 120.963997 8.956951 0.389166
162.472244 120.927757 8.515301 0.411521
162.456757 120.891830 8.077279 0.362387
162.441391 120.856171 7.642689 0.386755
162.426010 120.820503 7.211294 0.434653
162.410553 120.784630 6.782886 0.418601
162.395554 120.749840 6.357528 0.425605
162.380219 120.714272 5.934726 0.394751
162.345886 120.634628 5.508465 0.418799
162.308304 120.547424 5.084947 0.435203
162.261795 120.439545 4.662928 0.427161
162.199677 120.295433 4.241703 0.407660
162.137589 120.151375 3.825526 0.447517
162.075653 120.007675 3.414261 0.396078
162.013641 119.863815 3.007717 0.376379
161.951889 119.720573 2.605779 0.375357
162.237671 120.383575 2.225510 0.315435
162.204208 120.305939 1.821260 0.299260
162.170944 120.228745 1.419289 0.264027
162.137833 120.151947 1.019443 0.234699
162.104889 120.075531 0.621566 0.217456
162.072113 119.999466 0.225512 0.370550
160.905975 117.294075 0.000001 0.442832
158.923859 112.695663 0.000000 0.467170
157.550766 109.510132 -0.000000 0.436683
156.543091 107.172348 -0.000001 0.414389
155.771851 105.383095 -0.000002 0.422156
155.162399 103.969215 -0.000010 0.657435
154.668427 102.823227 0.000007 0.657053
154.259918 101.875496 0.000008 0.655924
153.892410 101.022873 0.009985 1.000000
153.623230 100.398392 0.000001 0.650004
153.370148 99.811256 0.000002 0.658839
153.149353 99.299011 0.000010 0.655894
152.954987 98.848091 0.000008 0.663600
152.782532 98.447998 -0.000005 0.658061
152.628387 98.090401 -0.000009 0.682277
152.489761 97.768784 -0.000008 0.623133
162.869934 121.063919 9.894874 0.416632
162.853668 121.027176 9.443069 0.349325
162.837494 120.990639 8.995279 0.394400
162.821350 120.954178 8.551278 0.438880
162.805344 120.918022 8.110929 0.360067
162.789459 120.882141 7.674035 0.381979
162.773575 120.846268 7.240358 0.423499
162.757919 120.810898 6.809821 0.373129
162.742081 120.775124 6.382086 0.492607
162.726227 120.739319 5.957061 0.401801
162.691788 120.661537 5.528858 0.417655
162.653152 120.574265 5.103119 0.389456
162.606201 120.468208 4.679095 0.369345
162.541977 120.323151 4.255558 0.438544
162.477829 120.178261 3.837126 0.397086
162.413818 120.033676 3.423650 0.408667
162.349762 119.888985 3.014942 0.383917
162.285950 119.744873 2.610886 0.421012
162.579178 120.407196 2.228620 0.318868
162.544601 120.329094 1.822291 0.330632
162.510223 120.251434 1.418264 0.264729
162.476028 120.174187 1.016383 0.186648
162.441986 120.097321 0.616495 0.212711
162.408112 120.020813 0.218447 0.388937
161.153107 117.186096 0.000002 0.450538
159.125946 112.607368 0.000001 0.432914
157.721634 109.435471 0.000000 0.456825
156.691055 107.107689 0.000000 0.406714
155.902283 105.326103 -0.000001 0.448631
155.279007 103.918297 -0.000014 0.658152
154.773819 102.777222 0.000002 0.669306
154.356003 101.833519 0.000009 0.650538
153.980133 100.984535 0.009986 1.000000
153.704834 100.362732 0.000002 0.664149
153.446014 99.778122 0.000002 0.632578
153.220200 99.268066 0.000008 0.654124
153.021408 98.819069 0.000008 0.653941
152.845016 98.420670 0.000000 0.648493
152.687393 98.064629 -0.000010 0.639750
152.545609 97.744385 -0.000008 0.651102
163.224274 121.091118 9.939193 0.424063
163.207520 121.054276 9.484953 0.445716
163.190857 121.017616 9.034744 0.480323
163.174179 120.980927 8.588321 0.326284
163.157654 120.944550 8.145574 0.445716
163.141235 120.908447 7.706308 0.508080
163.124832 120.872360 7.270285 0.437781
163.108643 120.836731 6.837414 0.345800
163.092285 120.800728 6.407371 0.442756
163.075912 120.764709 5.980062 0.396078
163.041641 120.689331 5.549928 0.451499
163.001709 120.601479 5.121833 0.411032
162.954346 120.497269 4.695741 0.407507
162.887970 120.351250 4.269824 0.406836
162.821747 120.205521 3.849072 0.440558
162.755600 120.060005 3.433317 0.409995
162.689453 119.914474 3.022385 0.392065
162.623550 119.769470 2.616144 0.404334
162.924255 120.431068 2.231821 0.285405
162.888550 120.352493 1.823352 0.276692
162.853027 120.274368 1.417209 0.240452
162.817703 120.196655 1.013235 0.223529
162.782562 120.119324 0.611274 0.221149
162.747574 120.042351 0.211177 0.419608
161.399155 117.075699 0.000003 0.440604
159.327148 112.517097 0.000001 0.454902
157.891769 109.359146 0.000001 0.474464
156.838379 107.041588 0.000001 0.400427
156.032166 105.267822 0.000000 0.431632
155.395096 103.866226 -0.000015 0.663432
154.878738 102.730186 -0.000002 0.653269
154.451660 101.790596 0.000009 0.649592
154.067474 100.945351 0.009987 1.000000
153.786087 100.326271 0.000003 0.652338
153.521545 99.744240 0.000001 0.663142
153.290741 99.236435 0.000006 0.651301
153.087540 98.789398 0.000009 0.637903
152.907242 98.392723 0.000006 0.637446
152.746140 98.038269 -0.000009 0.669810
152.601212 97.719437 -0.000009 0.614649
163.582581 121.118896 9.984886 0.493553
163.565277 121.081802 9.528091 0.395621
163.548080 121.044937 9.075368 0.428840
163.530869 121.008034 8.626453 0.465126
163.513794 120.971405 8.181239 0.492561
163.496841 120.935081 7.739531 0.453788
163.479919 120.898788 7.301091 0.475578
163.463181 120.862900 6.865822 0.448295
163.446274 120.826675 6.433405 0.358236
163.429367 120.790421 6.003740 0.492699
163.395355 120.717514 5.571621 0.435035
163.354111 120.629066 5.141100 0.482353
163.306381 120.526749 4.712882 0.414374
163.237823 120.379745 4.284511 0.372793
163.169434 120.233139 3.861370 0.445960
163.101135 120.086685 3.443269 0.422187
163.032852 119.940292 3.030044 0.416297
162.964783 119.794357 2.621558 0.376028
163.273026 120.455215 2.235116 0.343755
163.236145 120.376152 1.824444 0.371389
163.199478 120.297531 1.416123 0.218265
163.163010 120.219345 1.009994 0.246021
163.126709 120.141533 0.605902 0.304112
163.090591 120.064087 0.203693 0.450858
161.644104 116.962891 0.000004 0.447349
159.527451 112.424850 0.000002 0.454322
158.061142 109.281143 0.000002 0.451057
156.985046 106.974037 0.000002 0.470176
156.161453 105.208282 0.000001 0.426139
155.510681 103.813034 -0.000018 0.655375
154.983185 102.682114 -0.000006 0.652094
154.546906 101.746735 0.000010 0.658122
154.154434 100.905296 0.009988 1.000000
153.843353 100.238358 0.009986 1.000000
153.596741 99.709618 0.000000 0.649866
153.360962 99.204117 0.000003 0.643610
153.153381 98.759079 0.000010 0.661509
152.969193 98.364189 0.000007 0.671824
152.804611 98.011322 -0.000003 0.645594
152.656586 97.693947 -0.000009 0.635950
163.944931 121.147079 10.031924 0.381888
163.927048 121.109711 9.572496 0.406775
163.909317 121.072639 9.117188 0.383948
163.891541 121.035484 8.665703 0.435813
163.873901 120.998619 8.217944 0.397925
163.856415 120.962051 7.773724 0.382101
163.838943 120.925552 7.332799 0.460472
163.821625 120.889351 6.895047 0.434928
163.804169 120.852859 6.460184 0.431205
163.786697 120.816360 6.028097 0.401617
163.753098 120.746132 5.593957 0.357214
163.710464 120.657013 5.160930 0.459434
163.662491 120.556747 4.730535 0.409552
163.591660 120.408684 4.299634 0.439429
163.521072 120.261162 3.874030 0.496452
163.450546 120.113739 3.453514 0.436423
163.380066 119.966438 3.037928 0.412741
163.309799 119.819565 2.627128 0.413565
163.625610 120.479637 2.238507 0.235294
163.587540 120.400063 1.825568 0.280766
163.549683 120.320946 1.415005 0.242649
163.512039 120.242256 1.006659 0.192157
163.474579 120.163971 0.600374 0.238911
163.437302 120.086044 0.195994 0.388235
161.887955 116.847687 0.000004 0.437919
159.726837 112.330643 0.000003 0.448325
158.229752 109.201477 0.000003 0.433280
157.131058 106.905060 0.000002 0.468284
156.290161 105.147469 0.000001 0.450401
155.625717 103.758682 -0.000018 0.656077
155.087158 102.633011 -0.000007 0.669337
154.641708 101.701958 0.000009 0.667277
154.240997 100.864403 0.009988 1.000000
153.923386 100.200546 0.009987 1.000000
153.671600 99.674255 0.000001 0.663935
153.430862 99.171097 0.000002 0.666163
153.218933 98.728119 0.000009 0.662226
153.030869 98.335052 0.000008 0.631388
152.862823 97.983795 0.000003 0.653056
152.711685 97.667915 -0.000009 0.625513
164.311432 121.175606 10.080320 0.462745
164.292969 121.137993 9.618193 0.465080
164.274689 121.100716 9.160225 0.365774
164.256332 121.063309 8.706095 0.400336
164.238129 121.026199 8.255723 0.493187
164.220078 120.989388 7.808911 0.418143
164.202072 120.952682 7.365434 0.417227
164.184189 120.916222 6.925140 0.372915
164.166168 120.879509 6.487763 0.418753
164.148148 120.842766 6.053183 0.458091
164.114960 120.775108 5.616939 0.402686
164.070953 120.685394 5.181345 0.429587
164.022720 120.587082 4.748693 0.419608
163.949600 120.438019 4.315196 0.384009
163.876785 120.289581 3.887059 0.385199
163.803970 120.141151 3.464056 0.480293
163.731262 119.992935 3.046041 0.383185
163.658722 119.845078 2.632860 0.380545
