# This PCD file was generated using the MATLABÂ® pcwrite function
# from Computer Vision System ToolboxÂ®.
# .PCD v.7 - Point Cloud Data file format
VERSION .7
FIELDS x y z intensity
SIZE 4 4 4 4
TYPE F F F F
COUNT 1 1 1 1
WIDTH 1254
HEIGHT 1
VIEWPOINT 0 0 0 1 0 0 0
POINTS 1254
DATA ascii
89.520676 93.604355 0.324946 0.980392
89.902931 93.838066 0.248948 0.968627
89.902931 93.838066 0.116464 0.968627
89.988480 93.890373 0.000009 0.504677
90.620255 94.276634 0.000010 0.490684
91.165726 94.610130 0.000010 0.587716
91.641602 94.901085 0.000010 0.460883
92.060539 95.157219 0.000011 0.425605
92.432304 95.384514 0.000011 0.451774
92.764534 95.587639 0.000011 0.480552
93.063332 95.770325 0.000012 0.500252
88.646095 93.199875 4.573432 0.968627
88.094810 92.870216 4.574384 0.756252
87.481361 92.503380 4.575454 0.756970
86.794411 92.092590 4.576653 0.761074
86.019608 91.629265 4.578004 0.752041
85.138618 91.102440 4.579548 0.750332
84.156303 90.515030 4.575359 0.968627
82.955246 89.796814 4.583372 0.721782
81.578888 88.973763 4.585774 0.770474
80.138634 88.112503 4.556560 0.942672
77.953354 86.805733 4.592101 0.771878
75.709534 85.463951 4.568596 0.967407
72.376274 83.470695 4.601832 0.688350
68.282822 81.022858 4.608976 0.763714
62.763729 77.722496 4.611167 0.972580
62.762924 77.722015 4.065974 0.980392
62.762131 77.721542 3.521597 0.980392
62.761318 77.721054 2.977849 0.977172
62.760513 77.720573 2.434541 0.976989
62.759708 77.720093 1.891488 0.956863
62.758904 77.719612 1.348504 0.980392
62.758099 77.719131 0.805403 0.970367
72.020027 83.257668 0.615309 0.146838
74.137978 84.524178 0.326089 0.749966
79.395500 87.668121 0.316898 0.775921
82.782005 89.693214 0.310978 0.761364
88.157951 92.907974 0.606156 0.968627
89.315521 93.600182 0.582080 0.974746
89.315521 93.600189 0.442611 0.980209
89.315529 93.600189 0.302733 0.979843
89.713135 93.837952 0.226474 0.968627
89.713135 93.837952 0.091819 0.968627
89.938629 93.972801 0.000008 0.490059
90.574165 94.352844 0.000009 0.345617
91.122887 94.680969 0.000010 0.368750
91.601601 94.967239 0.000010 0.537652
92.023033 95.219246 0.000011 0.483345
92.397003 95.442879 0.000011 0.300694
92.731224 95.642738 0.000012 0.449622
93.031792 95.822479 0.000011 0.460044
88.589195 93.295319 4.573535 0.968627
88.034676 92.971069 4.574489 0.779583
87.417610 92.610252 4.575565 0.804929
86.726608 92.206192 4.576771 0.754498
85.947227 91.750458 4.578131 0.736553
85.061035 91.232269 4.579683 0.709804
84.044090 90.637619 4.581465 0.763180
82.864738 89.948013 4.583529 0.754314
81.480202 89.138420 4.585946 0.776471
80.122993 88.344803 4.542065 0.917830
77.833099 87.005814 4.592311 0.745586
75.693352 85.754623 4.553622 0.948241
72.222641 83.725166 4.602100 0.776135
68.104576 81.317169 4.609285 0.772427
62.461121 78.017227 4.619133 0.764004
58.678814 75.805565 4.330821 0.968627
58.767551 75.857452 3.722740 0.968627
62.381290 77.970543 2.984400 0.976257
62.381004 77.970375 2.438459 0.958328
62.380730 77.970215 1.892791 0.957412
62.380524 77.970100 1.347207 0.980392
62.380245 77.969933 0.801523 0.980392
71.873322 83.520897 0.615561 0.156725
74.001419 84.765282 0.326326 0.754772
79.287827 87.856453 0.317086 0.758892
82.693153 89.847679 0.311132 0.658640
88.099579 93.009018 0.606257 0.972534
89.103195 93.595879 0.563864 0.974227
89.103203 93.595879 0.421947 0.980392
89.242065 93.677078 0.299721 0.962692
89.516975 93.837830 0.203111 0.968627
89.516983 93.837830 0.066199 0.968627
89.889603 94.055717 0.000008 0.420478
90.528831 94.429504 0.000009 0.504295
91.080750 94.752228 0.000010 0.459541
91.562248 95.033775 0.000010 0.407492
91.986130 95.281639 0.000010 0.503563
92.362289 95.501595 0.000011 0.478813
92.698448 95.698158 0.000011 0.402411
93.000771 95.874939 0.000011 0.363607
88.533249 93.391335 4.573633 0.844266
87.975533 93.072517 4.574594 0.913481
87.354919 92.717751 4.575674 0.736355
86.659920 92.320465 4.576888 0.761761
85.876053 91.872375 4.578254 0.769390
84.984734 91.362862 4.579816 0.729641
83.961906 90.778175 4.581607 0.744091
82.775711 90.100098 4.583685 0.776379
81.383148 89.304054 4.586116 0.745159
80.107765 88.574997 4.527953 0.927535
77.714821 87.207092 4.592517 0.776471
75.524651 85.955109 4.558728 0.929870
72.071533 83.981171 4.602364 0.747219
67.929222 81.613266 4.609592 0.776471
62.422348 78.465317 4.605379 0.968627
58.680771 76.326485 4.315346 0.968627
58.769005 76.376923 3.710763 0.968627
58.856731 76.427071 3.109581 0.968627
58.944000 76.476959 2.511570 0.968627
59.030846 76.526604 1.916500 0.968627
59.117283 76.576019 1.324150 0.968627
67.704666 81.484894 0.926592 0.892927
71.729141 83.785446 0.615810 0.150378
73.867203 85.007645 0.326560 0.711803
79.181976 88.045776 0.317270 0.769711
82.605804 90.002968 0.311285 0.692515
88.042183 93.110619 0.606357 0.978180
88.883263 93.591415 0.544891 0.980392
88.883263 93.591415 0.400424 0.980392
89.190697 93.767151 0.299798 0.970184
89.314140 93.837723 0.178815 0.968627
89.314148 93.837723 0.039556 0.968627
89.841385 94.139114 0.000008 0.411048
90.484253 94.506607 0.000009 0.514488
91.039314 94.823898 0.000009 0.424567
91.523552 95.100708 0.000010 0.431266
91.949852 95.344391 0.000010 0.457984
92.328148 95.560638 0.000011 0.394858
92.666222 95.753899 0.000011 0.400656
92.970261 95.927704 0.000011 0.524407
88.359169 93.421364 4.609325 0.960266
87.917374 93.174538 4.574700 0.968627
87.293282 92.825867 4.575782 0.777737
86.594376 92.435394 4.577001 0.768475
85.806076 91.994987 4.578376 0.776471
84.909721 91.494209 4.579946 0.743664
83.881111 90.919533 4.581748 0.754376
82.688202 90.253075 4.583838 0.765713
81.287735 89.470650 4.586282 0.712779
79.820114 88.650719 4.557438 0.919738
77.598541 87.409554 4.592720 0.776211
75.097900 86.012482 4.597084 0.733806
71.922974 84.238693 4.602623 0.746365
67.756836 81.911133 4.609893 0.776471
62.405899 78.921638 4.590219 0.939101
58.682659 76.841515 4.300304 0.968627
58.770397 76.890533 3.699120 0.968627
58.857639 76.939278 3.101304 0.968627
58.944420 76.987762 2.506627 0.968627
59.030785 77.036011 1.914861 0.968627
68.284393 82.205872 1.394515 1.000000
68.314117 82.222481 0.944137 0.399390
71.587585 84.051315 0.616058 0.149157
73.735291 85.251205 0.326789 0.746578
79.077950 88.236076 0.317451 0.767330
82.519958 90.159081 0.311434 0.714214
87.985779 93.212753 0.606455 0.961181
88.655258 93.586784 0.525117 0.964950
88.655266 93.586784 0.377993 0.960632
89.104202 93.837601 0.294718 0.840558
89.104202 93.837601 0.153526 0.968627
89.104202 93.837601 0.011822 0.968627
89.793991 94.222977 0.000008 0.391501
90.440437 94.584137 0.000009 0.503838
90.998581 94.895966 0.000009 0.535012
91.485512 95.168007 0.000010 0.571374
91.914185 95.407501 0.000010 0.389929
92.294586 95.620026 0.000010 0.407294
92.634537 95.809952 0.000011 0.439033
92.940277 95.980766 0.000011 0.307286
88.124191 93.421227 4.663020 0.980392
87.860229 93.277138 4.574805 0.968627
87.232727 92.934593 4.575887 0.805386
86.529961 92.550972 4.577113 0.775006
85.737320 92.118294 4.578496 0.776471
84.836014 91.626297 4.580074 0.763928
83.801720 91.061699 4.581885 0.726711
82.602203 90.406914 4.583987 0.754940
81.193970 89.638199 4.586446 0.772259
79.805458 88.880249 4.543864 0.929030
77.484268 87.613167 4.592919 0.721462
74.969673 86.240517 4.597308 0.744869
71.776978 84.497704 4.602878 0.768521
67.587402 82.210724 4.610189 0.746822
62.389904 79.373550 4.575475 0.968627
58.684490 77.350861 4.285688 0.968627
58.771748 77.398491 3.687809 0.968627
58.858509 77.445854 3.093263 0.968627
58.944828 77.492973 2.501823 0.968627
59.030720 77.539864 1.913266 0.968627
68.802780 82.874168 1.399600 1.000000
68.692894 82.814186 0.956266 0.511101
71.448448 84.318375 0.616297 0.155703
73.605774 85.496002 0.327017 0.769818
78.975761 88.427338 0.317628 0.736767
82.435638 90.315987 0.311581 0.774319
87.930367 93.315422 0.606551 0.962646
88.418694 93.581985 0.504491 0.966140
88.418694 93.581985 0.354596 0.980392
88.886726 93.837471 0.270913 0.962814
88.886726 93.837471 0.127185 0.968627
88.985504 93.891396 0.000007 0.463645
89.747421 94.307304 0.000008 0.464805
90.397385 94.662102 0.000009 0.439979
90.958557 94.968430 0.000009 0.462211
91.448143 95.235680 0.000010 0.358663
91.879143 95.470955 0.000010 0.433997
92.261612 95.679733 0.000010 0.388006
92.603416 95.866318 0.000011 0.537743
92.910812 96.034119 0.000011 0.384482
87.880585 93.421074 4.718983 0.980392
87.804108 93.380302 4.574906 0.889769
87.173233 93.043915 4.575992 0.893568
86.466690 92.667191 4.577223 0.743618
85.669777 92.242279 4.578613 0.776471
84.763611 91.759109 4.580200 0.681865
83.723732 91.204651 4.582021 0.749844
82.517731 90.561607 4.584134 0.710109
81.101883 89.806679 4.586606 0.732082
79.791199 89.107826 4.530653 0.952377
77.372009 87.817917 4.593115 0.741512
74.843719 86.469841 4.597526 0.691325
71.633553 84.758179 4.603128 0.770214
67.420990 82.512054 4.610478 0.761181
62.564823 79.922745 4.545565 0.958373
58.686268 77.854706 4.271486 0.968627
58.773056 77.900986 3.676815 0.968627
58.859364 77.947006 3.085447 0.968627
58.945213 77.992783 2.497156 0.968627
68.747337 83.219254 1.839647 0.062745
69.189720 83.455132 1.403634 0.994614
69.237137 83.480423 0.971885 0.975402
71.311882 84.586670 0.616532 0.147158
73.478577 85.741943 0.327239 0.752361
78.875443 88.619545 0.317803 0.711086
82.352829 90.473686 0.311725 0.799832
87.875954 93.418610 0.606645 0.965911
88.173019 93.577003 0.482963 0.962005
88.173019 93.577003 0.330174 0.968353
88.661255 93.837326 0.246100 0.968627
88.661263 93.837326 0.099730 0.968627
88.935722 93.983673 0.000007 0.403296
89.701675 94.392075 0.000008 0.356252
90.355087 94.740479 0.000008 0.498054
90.919250 95.041290 0.000009 0.505348
91.411430 95.303719 0.000010 0.441032
91.844727 95.534744 0.000010 0.566674
92.229218 95.739761 0.000010 0.421637
92.572845 95.922981 0.000011 0.470298
92.881874 96.087753 0.000011 0.251972
87.627838 93.420929 4.777353 0.980392
87.627846 93.420929 4.608747 0.978042
87.114799 93.153809 4.576100 0.968627
86.404564 92.784027 4.577332 0.725795
85.603462 92.366928 4.578729 0.776471
84.692528 91.892639 4.580324 0.749859
83.647163 91.348366 4.582155 0.771282
82.434792 90.717140 4.584278 0.772778
81.011444 89.976067 4.586764 0.775921
79.726936 89.307281 4.525657 0.968627
77.261810 88.023804 4.593307 0.741176
74.720047 86.700417 4.597743 0.775982
71.492737 85.020103 4.603373 0.732433
67.257553 82.815033 4.610764 0.745602
62.297661 80.232643 4.552191 0.952087
58.687992 78.353249 4.257692 0.968627
58.774326 78.398193 3.666137 0.968627
58.860184 78.442902 3.077857 0.968627
58.945583 78.487366 2.492623 0.968627
69.186966 83.819595 1.835270 0.031373
69.687012 84.079941 1.408420 1.000000
69.680153 84.076370 0.985037 0.993637
71.177948 84.856209 0.616767 0.147372
73.353775 85.989059 0.327458 0.728161
78.776970 88.812675 0.317975 0.671748
86.558731 92.864296 0.660454 0.223529
87.822548 93.522308 0.606738 0.968536
87.917648 93.571815 0.460472 0.963119
87.897003 93.561066 0.302061 0.963195
88.427307 93.837173 0.220218 0.968627
88.427307 93.837173 0.071091 0.968627
88.886841 94.076431 0.000007 0.402853
89.656769 94.477303 0.000008 0.408911
90.313576 94.819267 0.000008 0.443473
90.880661 95.114525 0.000008 0.520058
91.375397 95.372108 0.000009 0.442878
91.810928 95.598877 0.000009 0.418952
92.197426 95.800110 0.000010 0.476631
92.542824 95.979942 0.000010 0.599970
92.853462 96.141678 0.000010 0.365225
87.365349 93.420769 4.838280 0.958511
87.365364 93.420776 4.666421 0.973037
87.057465 93.264290 4.576205 0.968627
86.343605 92.901474 4.577438 0.674815
85.538383 92.492233 4.578842 0.777188
84.622765 92.026878 4.580445 0.767468
83.572014 91.492844 4.582285 0.776471
82.353394 90.873497 4.584420 0.759167
80.922691 90.146355 4.586919 0.776471
79.218590 89.280266 4.589892 0.776471
77.153625 88.230766 4.593496 0.778149
74.598663 86.932236 4.597954 0.754604
71.308922 85.260254 4.608652 0.946563
67.097153 83.119675 4.611044 0.763790
62.031479 80.545097 4.558953 0.854963
58.689651 78.846649 4.244294 0.968627
86.561226 93.012077 2.226791 0.223529
86.560936 93.011932 2.053284 0.223529
86.560654 93.011787 1.879917 0.223529
86.560371 93.011642 1.706631 0.223529
86.560081 93.011497 1.533367 0.223529
86.559799 93.011353 1.360064 0.223529
86.559517 93.011208 1.186664 0.223529
86.559227 93.011063 1.013107 0.223529
86.558945 93.010918 0.839333 0.223529
86.558662 93.010773 0.665282 0.223529
87.651932 93.566422 0.595520 0.958907
87.651939 93.566422 0.436958 0.956771
87.844795 93.664444 0.302158 0.963623
88.184395 93.837036 0.193210 0.968627
88.184410 93.837044 0.041207 0.968627
88.838875 94.169670 0.000006 0.429374
89.612701 94.562958 0.000007 0.449790
90.272835 94.898468 0.000008 0.528435
90.842789 95.188141 0.000008 0.414832
91.340027 95.440857 0.000009 0.453223
91.777771 95.663338 0.000009 0.458305
92.166222 95.860764 0.000010 0.455833
92.513374 96.037193 0.000010 0.346868
92.825577 96.195869 0.000010 0.515053
87.092514 93.420609 4.901926 0.980392
87.092529 93.420609 4.726668 0.972946
87.001213 93.375328 4.576309 0.945876
86.283806 93.019531 4.577542 0.857359
85.474541 92.618179 4.578954 0.771023
84.554329 92.161804 4.580564 0.769207
83.498299 91.638069 4.582414 0.768521
86.563713 93.158348 3.793925 0.223529
86.563423 93.158203 3.617289 0.223529
86.563133 93.158058 3.441344 0.223529
86.562843 93.157921 3.266026 0.223529
86.562553 93.157776 3.091273 0.223529
86.562271 93.157631 2.917021 0.223529
86.561989 93.157494 2.743210 0.223529
86.561707 93.157349 2.569778 0.223529
86.561417 93.157211 2.396666 0.223529
86.561134 93.157074 2.223811 0.223529
86.560852 93.156929 2.051156 0.223529
86.560570 93.156792 1.878640 0.223529
86.560287 93.156647 1.706206 0.223529
86.560005 93.156509 1.533792 0.223529
86.559715 93.156372 1.361341 0.223529
86.559433 93.156227 1.188792 0.223529
86.559151 93.156082 1.016087 0.223529
86.558868 93.155945 0.843167 0.223529
86.558586 93.155807 0.669970 0.223529
87.375206 93.560806 0.574211 0.976761
87.375214 93.560806 0.412352 0.957504
87.793442 93.768227 0.302233 0.960678
87.931885 93.836891 0.164994 0.968627
87.931915 93.836906 0.009986 0.968627
88.791824 94.263374 0.000006 0.448249
89.569481 94.649048 0.000007 0.494499
90.232872 94.978058 0.000008 0.390402
90.805641 95.262123 0.000008 0.471260
91.305336 95.509941 0.000009 0.476707
91.745247 95.728119 0.000009 0.466789
92.135612 95.921715 0.000009 0.374411
92.484482 96.094734 0.000010 0.483314
92.798233 96.250336 0.000010 0.442466
86.808632 93.420433 4.968471 0.960357
86.808647 93.420441 4.789659 0.971206
86.808662 93.420448 4.612001 0.962509
86.564781 93.302467 4.494869 0.301076
86.564484 93.302322 4.315668 0.167773
86.564194 93.302177 4.137419 0.170977
86.563904 93.302040 3.960057 0.220722
86.563614 93.301903 3.783513 0.223529
86.563324 93.301758 3.607723 0.223529
86.563034 93.301620 3.432620 0.223529
86.562752 93.301483 3.258142 0.223529
86.562462 93.301346 3.084225 0.223529
86.562180 93.301208 2.910809 0.223529
86.561897 93.301071 2.737830 0.223529
86.561615 93.300934 2.565229 0.223529
86.561325 93.300797 2.392945 0.223529
86.561050 93.300659 2.220919 0.223529
86.560768 93.300522 2.049091 0.223529
86.560486 93.300385 1.877401 0.223529
86.560204 93.300247 1.705793 0.223529
86.559921 93.300110 1.534205 0.223529
86.559639 93.299973 1.362580 0.223529
86.559357 93.299843 1.190858 0.223529
86.559074 93.299706 1.018980 0.223529
86.558792 93.299568 0.846888 0.272923
86.559189 93.299759 0.674577 0.224811
87.086693 93.554955 0.551893 0.971298
87.086700 93.554955 0.386579 0.965957
87.669144 93.836731 0.293128 0.968627
87.669144 93.836731 0.135491 0.968627
87.816681 93.908104 0.000005 0.485161
88.745697 94.357536 0.000006 0.490425
89.527100 94.735558 0.000007 0.435721
90.193695 95.058037 0.000008 0.555413
90.769226 95.336464 0.000008 0.436790
91.271332 95.579369 0.000009 0.535073
91.713356 95.793213 0.000009 0.317357
92.105606 95.982971 0.000009 0.327001
92.456154 96.152557 0.000010 0.389029
92.771416 96.305069 0.000010 0.511086
86.565567 93.445068 5.022933 0.223529
86.565269 93.444923 4.841298 0.223529
86.564972 93.444786 4.660825 0.223529
86.564674 93.444641 4.481442 0.226658
86.564384 93.444511 4.303077 0.235294
86.564095 93.444366 4.125661 0.235294
86.563805 93.444229 3.949127 0.223941
86.563515 93.444099 3.773408 0.223529
86.563232 93.443962 3.598439 0.223529
86.562943 93.443825 3.424153 0.223529
86.562660 93.443695 3.250490 0.223529
86.562370 93.443558 3.077386 0.223529
86.562088 93.443420 2.904779 0.223529
86.561806 93.443291 2.732608 0.223529
86.561523 93.443161 2.560813 0.223529
86.561241 93.443024 2.389334 0.223529
86.560959 93.442894 2.218112 0.223529
86.528885 93.427757 2.048237 0.223529
86.495125 93.411835 1.877616 0.223529
86.461189 93.395828 1.706108 0.223529
86.427063 93.379730 1.533645 0.223529
86.392731 93.363533 1.360160 0.223529
86.358192 93.347244 1.185584 0.223529
86.323418 93.330841 1.009847 0.223529
86.288399 93.314323 0.832875 0.223529
86.253128 93.297684 0.654595 0.223529
86.785561 93.548836 0.528493 0.960632
86.785568 93.548843 0.359558 0.974319
87.395584 93.836594 0.265543 0.968627
87.395584 93.836594 0.104628 0.968627
87.767113 94.011856 0.000005 0.466850
88.700500 94.452148 0.000006 0.404227
89.485573 94.822479 0.000007 0.486519
90.155296 95.138397 0.000007 0.468589
90.733543 95.411163 0.000008 0.363424
91.238007 95.649124 0.000008 0.529519
91.682114 95.858620 0.000009 0.513252
92.076202 96.044518 0.000009 0.475395
92.428398 96.210655 0.000009 0.486870
92.745148 96.360069 0.000010 0.468071
86.565460 93.585922 5.007441 0.223529
86.565163 93.585785 4.826632 0.223529
86.564865 93.585648 4.646980 0.223529
86.564575 93.585518 4.468413 0.227756
86.564285 93.585381 4.290861 0.235294
86.563995 93.585251 4.114253 0.235294
86.563705 93.585114 3.938521 0.223529
86.563416 93.584984 3.763603 0.223529
86.534836 93.571838 3.594153 0.223529
86.500572 93.556091 3.425418 0.223529
86.466240 93.540306 3.256316 0.223529
86.431824 93.524483 3.086791 0.223529
86.397308 93.508614 2.916780 0.223529
86.362686 93.492691 2.746225 0.223529
86.327934 93.476715 2.575063 0.223529
86.293045 93.460678 2.403232 0.223529
86.258018 93.444572 2.230669 0.223529
86.222824 93.428391 2.057311 0.223529
86.187454 93.412125 1.883091 0.223529
86.151886 93.395775 1.707943 0.278676
78.739960 89.988007 1.478663 0.522362
78.739464 89.987778 1.195931 0.062745
78.738976 89.987549 0.913039 0.727565
78.738480 89.987320 0.629890 0.596567
78.928238 90.074570 0.358736 0.937743
85.642723 93.161674 0.610547 0.956222
86.470917 93.542450 0.503935 0.980392
86.470924 93.542458 0.331199 0.980392
87.110252 93.836403 0.236635 0.968627
87.110260 93.836403 0.072287 0.968627
87.718567 94.116089 0.000004 0.392706
88.656235 94.547195 0.000005 0.405737
89.444901 94.909798 0.000006 0.444480
90.117699 95.219131 0.000007 0.373968
90.698586 95.486206 0.000008 0.424201
91.205368 95.719208 0.000008 0.416220
91.651505 95.924324 0.000008 0.431571
92.047409 96.106346 0.000009 0.371160
92.401215 96.269020 0.000009 0.391653
92.719414 96.415314 0.000009 0.371221
86.516098 93.703453 5.006496 0.223529
86.480423 93.687477 4.835313 0.223529
86.444763 93.671501 4.664210 0.223529
86.409111 93.655533 4.493126 0.223529
86.373451 93.639557 4.322005 0.223529
86.337761 93.623573 4.150788 0.223529
86.302048 93.607574 3.979414 0.223529
86.266296 93.591560 3.807824 0.223529
86.230476 93.575516 3.635962 0.223529
86.194588 93.559441 3.463766 0.223529
86.158623 93.543335 3.291176 0.254414
86.122551 93.527176 3.118131 0.323873
70.703033 86.620331 4.604753 0.776471
78.816368 90.254524 3.446468 0.969085
78.742783 90.221565 3.170226 0.693416
78.742287 90.221344 2.887673 0.776226
78.741791 90.221123 2.605542 0.778149
78.741302 90.220901 2.323734 0.549325
78.740807 90.220680 2.042155 0.230549
78.740311 90.220459 1.760706 0.352148
78.739822 90.220238 1.479291 0.519493
78.739334 90.220016 1.197813 0.380941
78.738846 90.219803 0.916177 0.937011
78.738350 90.219582 0.634285 0.664530
78.893982 90.289291 0.362129 0.943542
85.587151 93.287354 0.610643 0.960464
86.141754 93.535774 0.478135 0.979477
86.175659 93.550964 0.305064 0.956863
86.812538 93.836243 0.206338 0.968627
86.812546 93.836243 0.038390 0.968627
87.671051 94.220787 0.000004 0.469718
88.612900 94.642670 0.000005 0.386175
89.405090 94.997520 0.000006 0.412497
90.080887 95.300224 0.000006 0.470481
90.664375 95.561584 0.000007 0.405371
91.173416 95.789604 0.000008 0.458915
91.621552 95.990334 0.000008 0.477760
92.019218 96.168457 0.000009 0.491646
92.374603 96.327652 0.000009 0.396475
92.694221 96.470818 0.000009 0.439521
86.212265 93.709923 5.078328 0.223529
86.174896 93.693626 4.903724 0.235019
86.137535 93.677330 4.729180 0.298589
85.546898 93.419701 4.687073 0.957961
85.174110 93.257088 4.579489 0.968627
84.232330 92.846291 4.581123 0.776471
83.151451 92.374817 4.583016 0.784314
81.897842 91.828003 4.585211 0.755932
80.425964 91.185982 4.587786 0.776471
78.672760 90.421249 4.590845 0.748165
76.548164 89.494514 4.594553 0.747616
73.919189 88.347778 4.599140 0.741176
70.580757 86.891579 4.604967 0.731548
78.861443 90.503555 3.434364 0.968627
78.742630 90.451729 3.163524 0.778408
78.742142 90.451508 2.882193 0.794232
78.741646 90.451294 2.601281 0.722698
78.741150 90.451080 2.320693 0.388815
78.740669 90.450867 2.040329 0.174990
78.740173 90.450653 1.760097 0.164355
78.739685 90.450439 1.479899 0.273167
78.739197 90.450226 1.199639 0.223941
78.738708 90.450012 0.919220 0.943633
78.738220 90.449799 0.638547 0.478553
78.917587 90.528038 0.369095 0.968627
85.532791 93.413544 0.610737 0.975753
85.796974 93.528778 0.450997 0.980392
86.123550 93.671234 0.305159 0.968536
86.501442 93.836060 0.174540 0.968627
86.501419 93.836052 0.002810 0.968627
87.624557 94.325958 0.000004 0.375158
88.570503 94.738571 0.000005 0.445258
89.366142 95.085625 0.000006 0.418051
90.044884 95.381683 0.000007 0.424475
90.630905 95.637306 0.000007 0.400427
91.142159 95.860306 0.000008 0.627894
91.592239 96.056633 0.000008 0.396948
91.991638 96.230843 0.000008 0.443305
92.348572 96.386536 0.000009 0.303120
92.669586 96.526558 0.000009 0.425895
82.433388 92.246925 6.135023 0.980392
85.195206 93.419472 5.152782 0.954070
85.195221 93.419479 4.954770 0.956985
85.195236 93.419487 4.757964 0.959899
85.117821 93.386620 4.579592 0.968627
84.172012 92.985069 4.581228 0.776471
83.086472 92.524200 4.583130 0.777173
81.827454 91.989677 4.585334 0.760433
80.349228 91.362083 4.587920 0.775876
78.588432 90.614525 4.590991 0.771756
76.454620 89.708603 4.594715 0.738567
73.814217 88.587601 4.599322 0.732525
70.461197 87.164055 4.605175 0.776471
78.821968 90.713676 3.430372 0.968627
78.742485 90.679932 3.157028 0.758175
78.741997 90.679718 2.876881 0.782437
78.741501 90.679512 2.597151 0.482475
78.741013 90.679306 2.317743 0.583688
78.740524 90.679100 2.038560 0.420890
78.740044 90.678894 1.759508 0.326223
78.739555 90.678688 1.480489 0.316945
78.739075 90.678482 1.201408 0.504189
78.738586 90.678276 0.922170 0.838895
78.738098 90.678070 0.642679 0.377798
78.918747 90.754761 0.374443 0.968627
85.435364 93.521439 0.607359 0.962890
85.435371 93.521439 0.422420 0.958694
86.072433 93.791908 0.305233 0.980392
86.175972 93.835869 0.141129 0.968627
86.430542 93.943947 0.000003 0.456718
87.579102 94.431572 0.000004 0.407004
88.529053 94.834885 0.000005 0.435798
89.328064 95.174110 0.000006 0.468727
90.009674 95.463493 0.000006 0.543694
90.598175 95.713341 0.000007 0.494301
91.111595 95.931320 0.000007 0.386267
91.563583 96.123215 0.000008 0.487861
91.964676 96.293503 0.000008 0.298878
92.323120 96.445679 0.000009 0.320867
92.645493 96.582542 0.000009 0.437766
82.428619 92.428741 6.117843 0.970184
85.186600 93.567833 5.140587 0.969726
85.186249 93.567688 4.943352 0.974090
85.185898 93.567543 4.747306 0.968627
85.062836 93.516716 4.579686 0.964767
84.113060 93.124443 4.581331 0.775692
83.022980 92.674225 4.583239 0.730510
81.758675 92.152039 4.585454 0.751339
80.274223 91.538940 4.588050 0.775097
78.506004 90.808632 4.591136 0.754986
76.363190 89.923615 4.594874 0.769497
73.711601 88.828461 4.599502 0.674098
70.344337 87.437721 4.605379 0.776471
78.823372 90.939713 3.422814 0.968627
78.742340 90.906242 3.150733 0.694636
78.741852 90.906036 2.871733 0.734737
78.741364 90.905838 2.593149 0.705699
78.740875 90.905640 2.314885 0.700496
78.740395 90.905441 2.036845 0.377447
78.739914 90.905235 1.758936 0.301015
78.739426 90.905037 1.481060 0.292714
78.738945 90.904839 1.203123 0.921141
78.738449 90.904640 0.925029 0.769787
78.737968 90.904434 0.646683 0.343145
78.919861 90.979561 0.379625 0.956619
85.055603 93.513733 0.581882 0.968627
85.055611 93.513733 0.392290 0.968627
85.835045 93.835655 0.285331 0.968627
85.835045 93.835655 0.105985 0.968627
86.381393 94.061302 0.000003 0.423468
87.534683 94.537636 0.000003 0.370962
88.488556 94.931595 0.000005 0.407385
89.290855 95.262962 0.000005 0.478187
89.975273 95.545639 0.000006 0.438163
90.566200 95.789703 0.000007 0.467124
91.081734 96.002625 0.000007 0.447105
91.535583 96.190071 0.000008 0.361379
91.938324 96.356415 0.000008 0.474418
92.298248 96.505066 0.000008 0.479820
92.621941 96.638763 0.000008 0.342519
82.321152 92.567932 6.130113 0.913024
85.186752 93.718681 5.126496 0.977996
85.186356 93.718521 4.930062 0.978790
85.186020 93.718384 4.734797 0.968627
85.009163 93.647362 4.579776 0.968627
84.055496 93.264397 4.581431 0.764477
82.960976 92.824867 4.583347 0.768750
81.691505 92.315086 4.585570 0.761028
80.200981 91.716537 4.588179 0.725521
78.425522 91.003563 4.591276 0.776471
76.273895 90.139534 4.595031 0.693233
73.611389 89.070343 4.599678 0.727428
70.230209 87.712563 4.605579 0.775113
78.824242 91.163681 3.415540 0.969604
78.742195 91.130730 3.144636 0.631037
78.741707 91.130531 2.866747 0.636271
78.741226 91.130341 2.589273 0.707424
78.740746 91.130150 2.312117 0.427680
78.740265 91.129951 2.035185 0.297093
78.739777 91.129761 1.758383 0.108324
78.739288 91.129562 1.481614 0.107271
78.738815 91.129372 1.204784 0.973342
78.738327 91.129181 0.927798 0.571466
84.899872 93.603477 0.954999 0.223529
84.899536 93.603340 0.764586 0.223529
84.899200 93.603210 0.573869 0.223529
84.832268 93.576324 0.376661 0.223529
85.477440 93.835411 0.252702 0.968627
85.477486 93.835426 0.068977 0.968627
86.333397 94.179138 0.000002 0.402869
87.491318 94.644127 0.000003 0.475395
88.448997 95.028702 0.000004 0.465003
89.254517 95.352173 0.000005 0.477317
89.941681 95.628120 0.000006 0.411322
90.534973 95.866371 0.000006 0.422019
91.052574 96.074219 0.000007 0.437522
91.508240 96.257210 0.000008 0.488594
91.912598 96.419586 0.000008 0.370993
92.273964 96.564697 0.000008 0.425528
92.598953 96.695206 0.000008 0.451347
69.544052 87.764259 9.691610 0.760616
85.186302 93.868103 5.113015 0.979934
85.185997 93.867981 4.917311 0.974746
85.185493 93.867783 4.722840 0.968627
84.956764 93.778534 4.579865 0.968627
83.999313 93.404922 4.581531 0.729305
82.900459 92.976128 4.583452 0.776471
81.625961 92.478806 4.585683 0.774594
80.129501 91.894859 4.588303 0.714137
78.346970 91.199295 4.591413 0.776471
76.186760 90.356346 4.595182 0.722972
73.513596 89.313240 4.599848 0.765438
70.118813 87.988541 4.605774 0.771954
65.662903 86.249779 4.613552 0.769055
59.553673 83.865860 4.624216 0.731838
58.703499 83.534119 4.130407 0.968627
58.785652 83.566170 3.567604 0.968627
58.867371 83.598061 3.007796 0.968627
58.948677 83.629791 2.450773 0.968627
84.901108 93.756813 1.714558 0.223529
84.900780 93.756683 1.525439 0.223529
84.900444 93.756554 1.336279 0.223529
84.859726 93.740669 1.145593 0.223529
84.752533 93.698837 0.950327 0.223529
78.850403 91.395737 0.384970 0.980392
81.963661 92.610580 0.350670 0.144518
84.038330 93.420143 0.308796 0.884565
85.102043 93.835220 0.218318 0.968627
85.102058 93.835228 0.029968 0.968627
86.286560 94.297440 0.000002 0.446555
87.448990 94.751038 0.000003 0.380987
88.410400 95.126190 0.000004 0.441688
89.219055 95.441742 0.000005 0.432731
89.908890 95.710930 0.000005 0.364523
90.504501 95.943344 0.000006 0.434180
91.024117 96.146103 0.000007 0.465248
91.481560 96.324608 0.000007 0.601419
91.887489 96.483002 0.000007 0.510292
92.250267 96.624565 0.000008 0.312734
92.576523 96.751877 0.000008 0.427741
69.434349 88.047432 9.691803 0.752941
85.185364 94.016205 5.100098 0.966323
85.185333 94.016197 4.905053 0.967803
85.185081 94.016098 4.711243 0.968627
84.905685 93.910225 4.579949 0.968627
83.944534 93.545998 4.581625 0.667948
82.841438 93.127991 4.583555 0.776471
81.562027 92.643158 4.585794 0.752972
80.059799 92.073898 4.588424 0.721935
78.270355 91.395798 4.591547 0.776471
76.101776 90.574020 4.595331 0.754437
73.418213 89.557098 4.600015 0.776471
70.010201 88.265648 4.605963 0.762188
65.536819 86.570480 4.613771 0.773754
59.403488 84.246284 4.624476 0.748287
58.704620 83.981453 4.120876 0.968627
84.902000 93.908829 2.279821 0.223529
84.901672 93.908707 2.091151 0.223529
84.885384 93.902527 1.902968 0.223529
84.779167 93.862282 1.715055 0.223529
59.109764 84.134979 1.345277 0.968627
59.189724 84.165283 0.797419 0.968627
69.772263 88.175484 0.619194 0.154864
72.043373 89.036110 0.329741 0.767544
77.743019 91.195961 0.319786 0.753552
81.903023 92.772377 0.350776 0.149111
83.985298 93.561447 0.308900 0.967620
84.707222 93.835014 0.182015 0.968627
84.801086 93.870583 0.000000 0.424308
86.240891 94.416191 0.000002 0.445045
87.407707 94.858353 0.000003 0.493904
88.372765 95.224060 0.000004 0.427939
89.184479 95.531654 0.000005 0.450584
89.876923 95.794052 0.000005 0.471778
90.474785 96.020607 0.000006 0.556954
90.996368 96.218262 0.000006 0.487160
91.455536 96.392258 0.000007 0.571984
91.863007 96.546669 0.000007 0.482231
92.227150 96.684662 0.000007 0.403952
92.554642 96.808762 0.000008 0.419425
81.521935 92.816315 6.301523 0.223529
85.186996 94.164177 5.086937 0.969268
85.186569 94.164017 4.892726 0.978363
85.185913 94.163780 4.699739 0.968627
84.855888 94.042412 4.580035 0.966598
83.891136 93.687614 4.581719 0.676966
82.783920 93.280426 4.583656 0.776471
81.499733 92.808151 4.585902 0.766476
79.991859 92.253616 4.588543 0.757671
78.195709 91.593063 4.591677 0.776471
76.018951 90.792542 4.595476 0.724056
73.325256 89.801910 4.600178 0.742016
84.903229 94.059822 3.032156 0.223529
84.902901 94.059700 2.842916 0.223529
84.902565 94.059578 2.654089 0.223529
84.805794 94.023987 2.471669 0.223529
58.787243 84.455421 3.553088 0.968627
58.868351 84.485245 2.997473 0.968627
58.949055 84.514931 2.444606 0.968627
59.029377 84.544464 1.894278 0.968627
59.109360 84.573883 1.346280 0.968627
59.189026 84.603180 0.800413 0.968627
69.659439 88.453773 0.618921 0.160189
71.950043 89.296165 0.329902 0.776471
77.669357 91.399498 0.319915 0.733577
81.843918 92.934731 0.350879 0.146563
83.933388 93.703156 0.308980 0.962646
84.291077 93.834694 0.143605 0.968627
84.751289 94.003944 0.000000 0.429572
86.196381 94.535393 0.000001 0.450553
87.367493 94.966080 0.000003 0.395834
88.336090 95.322289 0.000004 0.478019
89.150787 95.621895 0.000004 0.522179
89.845772 95.877487 0.000005 0.470298
90.445824 96.098160 0.000005 0.451041
90.969322 96.290680 0.000006 0.308965
91.430183 96.460167 0.000007 0.443885
91.839149 96.610573 0.000007 0.345190
92.204628 96.744980 0.000007 0.368338
92.533325 96.865860 0.000008 0.400641
69.223389 88.616989 9.692173 0.771435
85.186653 94.310349 5.074722 0.980392
85.186363 94.310242 4.881160 0.978927
85.186066 94.310135 4.688771 0.968627
84.807404 94.175087 4.580118 0.896849
83.839149 93.829758 4.581810 0.673335
82.727928 93.433434 4.583753 0.768963
81.439072 92.973763 4.586007 0.733501
84.904457 94.209702 3.786878 0.223529
84.904121 94.209579 3.595994 0.219333
84.903793 94.209465 3.405791 0.219333
84.834778 94.184853 3.224346 0.223529
84.727371 94.146545 3.045533 0.223529
65.294258 87.215645 4.614196 0.776471
59.114559 85.011635 4.624982 0.756359
58.706741 84.866180 4.102750 0.968627
58.787983 84.895157 3.546190 0.968627
58.868805 84.923981 2.992568 0.968627
58.949223 84.952667 2.441675 0.968627
59.029270 84.981216 1.893305 0.968627
59.108967 85.009636 1.347249 0.968627
59.188354 85.037949 0.803309 0.968627
69.113960 88.577957 0.603515 0.144198
71.859207 89.557060 0.330060 0.774884
77.597641 91.603699 0.320040 0.729397
81.786407 93.097633 0.350980 0.161242
83.852272 93.834435 0.306288 0.841978
83.852303 93.834450 0.102964 0.968627
84.702812 94.137787 -0.000000 0.426093
86.153061 94.655022 0.000001 0.467231
87.328331 95.074188 0.000002 0.431556
88.300385 95.420868 0.000003 0.443137
89.117973 95.712471 0.000004 0.454963
89.815445 95.961220 0.000005 0.451896
90.417633 96.175995 0.000005 0.482536
90.943001 96.363373 0.000006 0.502342
91.405495 96.528320 0.000006 0.461769
91.815918 96.674698 0.000007 0.363622
92.182701 96.805519 0.000007 0.443366
92.512566 96.923164 0.000007 0.302770
69.122131 88.903305 9.692350 0.757931
85.187302 94.455849 5.062662 0.976898
85.186996 94.455742 4.869780 0.974044
85.186188 94.455467 4.678182 0.968627
84.905701 94.358521 4.548536 0.249973
84.905357 94.358398 4.354891 0.223529
84.905029 94.358284 4.162208 0.223529
84.868484 94.345657 3.976737 0.223529
84.760506 94.308334 3.802525 0.223529
78.052292 91.989807 4.591927 0.764706
75.859848 91.232040 4.595753 0.776471
73.146683 90.294296 4.600489 0.776471
69.700928 89.103355 4.606505 0.779873
65.177811 87.540047 4.614400 0.775067
58.975849 85.396492 4.625225 0.761074
58.707745 85.303825 4.094142 0.968627
58.788704 85.331810 3.539526 0.968627
58.869240 85.359642 2.987830 0.968627
58.949379 85.387344 2.438844 0.968627
59.029148 85.414909 1.892365 0.968627
59.108570 85.442360 1.348185 0.968627
59.187695 85.469711 0.806106 0.968627
68.243164 88.599518 0.576851 0.155413
71.770844 89.818771 0.330213 0.709178
77.527878 91.808556 0.320160 0.699046
81.699692 93.250435 0.348730 0.288167
83.388527 93.834145 0.268960 0.968627
83.388634 93.834183 0.059867 0.968627
85.161362 94.446884 0.059780 0.345098
86.110901 94.775070 0.000001 0.516655
87.290237 95.182678 0.000002 0.461234
88.265648 95.519806 0.000003 0.524468
89.086060 95.803360 0.000004 0.429969
89.785934 96.045258 0.000005 0.523171
90.390205 96.254105 0.000005 0.404456
90.917381 96.436310 0.000006 0.451453
91.381485 96.596718 0.000006 0.442664
91.793320 96.739059 0.000006 0.494499
92.161369 96.866264 0.000007 0.501747
92.492371 96.980667 0.000007 0.443915
85.185005 94.599365 5.245378 0.928435
85.184303 94.599129 5.051968 0.951782
85.172302 94.595116 4.862560 0.968627
85.147438 94.586792 4.676953 0.968627
84.800217 94.470589 4.561657 0.223529
83.739403 94.115562 4.581985 0.760327
82.620476 93.741089 4.583941 0.675456
81.322678 93.306747 4.586211 0.715526
79.798805 92.796753 4.588878 0.775097
77.983536 92.189232 4.592048 0.766857
75.783569 91.452965 4.595887 0.776471
74.937843 91.169922 4.379522 0.975891
74.936401 91.169441 4.052788 0.975982
74.934952 91.168953 3.726855 0.967803
74.933929 91.168610 3.401576 0.961456
74.932945 91.168282 3.076880 0.979843
74.931976 91.167961 2.752658 0.970748
74.931007 91.167633 2.428798 0.980392
74.930038 91.167305 2.105187 0.972030
74.929070 91.166985 1.781718 0.980392
74.928101 91.166656 1.458276 0.980392
74.927147 91.166344 1.134753 0.971481
74.926178 91.166016 0.811036 0.971572
74.925232 91.165695 0.487016 0.972396
81.947205 93.515762 0.599323 0.223529
85.162193 94.591728 0.616296 0.223529
85.161888 94.591629 0.432961 0.223529
85.161583 94.591522 0.249208 0.232074
85.161278 94.591423 0.064972 0.345098
86.069931 94.895523 0.000001 0.455772
87.253204 95.291534 0.000002 0.414191
88.231880 95.619072 0.000003 0.403464
89.055038 95.894554 0.000004 0.456168
89.757256 96.129570 0.000004 0.428275
90.363548 96.332481 0.000005 0.441337
90.892487 96.509499 0.000006 0.488289
91.358139 96.665344 0.000006 0.439963
91.771355 96.803635 0.000006 0.391470
92.140633 96.927223 0.000006 0.397833
92.472748 97.038368 0.000007 0.261173
75.069176 91.467316 8.008295 0.980392
85.107796 94.717728 5.060757 0.968627
85.082458 94.709526 4.874117 0.969726
84.998589 94.682373 4.701416 0.979568
84.669754 94.575897 4.580375 0.968627
83.691650 94.259193 4.582070 0.675090
82.569046 93.895706 4.584033 0.706737
81.266960 93.474106 4.586308 0.758022
79.738060 92.979057 4.588983 0.778408
77.916771 92.389343 4.592164 0.796155
75.709496 91.674644 4.596016 0.737636
75.063347 91.465431 4.355880 0.980392
75.062820 91.465263 4.031849 0.980392
75.062309 91.465096 3.708638 0.980392
75.061798 91.464928 3.386134 0.980392
75.061279 91.464760 3.064224 0.980392
75.060768 91.464592 2.742797 0.956863
75.060257 91.464432 2.421740 0.965591
79.151657 92.789185 2.016482 0.980392
79.151192 92.789040 1.752148 0.974884
79.150734 92.788887 1.487848 0.980392
85.163322 94.735710 1.347606 0.223529
85.163017 94.735611 1.165895 0.223529
85.162720 94.735512 0.984021 0.223529
85.162415 94.735413 0.801919 0.223529
85.162109 94.735321 0.619528 0.223529
85.161804 94.735214 0.436784 0.223529
85.161507 94.735123 0.253623 0.223529
85.161201 94.735023 0.069980 0.345098
86.030136 95.016373 0.000000 0.446708
87.217247 95.400749 0.000002 0.431495
88.199089 95.718658 0.000003 0.403037
89.024918 95.986053 0.000003 0.439628
89.729401 96.214165 0.000004 0.422309
90.337662 96.411110 0.000005 0.416403
90.868309 96.582932 0.000005 0.443305
91.335472 96.734192 0.000005 0.429267
91.750023 96.868423 0.000006 0.309911
92.120499 96.988380 0.000006 0.339025
92.453690 97.096260 0.000007 0.369512
74.930489 91.675751 8.026278 0.976989
84.822906 94.771858 5.123756 0.968627
84.708336 94.736000 4.955367 0.978607
84.592529 94.699753 4.785153 0.973312
84.475426 94.663101 4.613027 0.980392
83.645294 94.403290 4.582158 0.967849
82.519127 94.050827 4.584123 0.739773
81.212891 93.641998 4.586405 0.709346
79.679115 93.161964 4.589086 0.765896
77.852005 92.590118 4.592277 0.774868
79.155228 92.998001 4.135411 0.980392
79.154770 92.997856 3.868358 0.980392
79.154297 92.997711 3.602072 0.980392
79.153839 92.997559 3.336458 0.980392
79.153374 92.997421 3.071425 0.980392
79.152908 92.997276 2.806878 0.980392
82.258270 93.969185 2.393525 0.223529
85.164444 94.878754 2.072639 0.223529
85.164139 94.878654 1.891527 0.223529
85.163841 94.878563 1.710501 0.223529
85.163544 94.878471 1.529497 0.223529
85.163239 94.878372 1.348454 0.223529
85.162933 94.878281 1.167309 0.223529
85.162628 94.878181 0.986001 0.223529
85.162331 94.878090 0.804467 0.223529
85.162033 94.877998 0.622644 0.223529
85.161728 94.877899 0.440469 0.223529
85.161423 94.877808 0.257879 0.223529
85.132355 94.868706 0.071441 0.223529
85.991531 95.137611 0.000000 0.454734
87.182365 95.510315 0.000001 0.456016
88.167274 95.818573 0.000002 0.404028
88.995689 96.077843 0.000003 0.443503
89.702385 96.299026 0.000004 0.423316
90.312546 96.489990 0.000004 0.361578
90.844856 96.656593 0.000005 0.427024
91.313477 96.803261 0.000005 0.414908
91.729324 96.933418 0.000005 0.471916
92.100967 97.049728 0.000006 0.430777
92.435196 97.154335 0.000006 0.524880
79.159851 93.205780 6.854021 0.968627
84.408020 94.791939 5.220251 0.968627
84.286659 94.755264 5.048023 0.969085
84.163933 94.718170 4.873848 0.966232
84.039764 94.680641 4.697633 0.961364
83.600365 94.547844 4.582244 0.960906
82.470749 94.206436 4.584209 0.764706
81.160484 93.810432 4.586500 0.776471
79.621971 93.345444 4.589189 0.773846
79.155563 93.204483 4.394955 0.972763
79.155098 93.204346 4.127843 0.972213
79.154633 93.204201 3.861594 0.970184
79.154167 93.204063 3.596110 0.968627
81.951233 94.049423 3.082032 0.223529
85.165260 95.020805 2.614105 0.223529
85.164955 95.020714 2.432912 0.223529
85.164658 95.020622 2.251991 0.223529
85.164352 95.020531 2.071277 0.223529
85.164055 95.020439 1.890710 0.223529
85.163757 95.020348 1.710229 0.223529
85.163452 95.020256 1.529769 0.223529
85.163155 95.020164 1.349271 0.223529
85.162857 95.020073 1.168672 0.223529
85.162552 95.019981 0.987909 0.223529
85.162247 95.019890 0.806921 0.223529
85.059067 94.988708 0.617894 0.223529
84.916313 94.945564 0.422159 0.223529
84.770142 94.901382 0.221726 0.223529
84.480255 94.813774 -0.000001 0.452888
85.954124 95.259224 0.000000 0.483040
87.148560 95.620216 0.000001 0.492500
88.136452 95.918793 0.000002 0.361715
88.967361 96.169922 0.000003 0.355200
89.676201 96.384148 0.000004 0.440146
90.288208 96.569122 0.000004 0.553109
90.822128 96.730484 0.000005 0.397986
91.292168 96.872551 0.000005 0.364477
91.709274 96.998611 0.000006 0.475761
92.082039 97.111275 0.000006 0.422843
92.417274 97.212593 0.000006 0.430411
79.159698 93.410843 6.838828 0.968627
79.159210 93.410706 6.560270 0.968627
83.841049 94.775688 5.146273 0.968627
83.710770 94.737701 4.967944 0.960678
83.578903 94.699257 4.787434 0.969726
83.445396 94.660339 4.604634 0.970932
82.423920 94.362526 4.584293 0.968627
81.109756 93.979385 4.586589 0.776471
79.566650 93.529495 4.589287 0.720943
79.155426 93.409599 4.386897 0.968627
85.166374 95.162086 3.337853 0.223529
85.166077 95.161995 3.155472 0.223529
85.165771 95.161911 2.973616 0.223529
85.165466 95.161819 2.792219 0.223529
85.165169 95.161736 2.611219 0.223529
85.164864 95.161644 2.430552 0.223529
85.164566 95.161560 2.250155 0.223529
85.164268 95.161469 2.069966 0.223529
85.163971 95.161385 1.889924 0.223529
85.163673 95.161293 1.709967 0.223529
85.163368 95.161209 1.530031 0.223529
85.123077 95.149460 1.349239 0.223529
84.982903 95.108597 1.163849 0.223529
84.839607 95.066818 0.974326 0.223529
79.148537 93.407593 0.439875 0.968627
80.606209 93.832573 0.286303 0.968627
80.606186 93.832565 0.042726 0.968627
82.569191 94.404877 -0.000004 0.468025
84.439735 94.950233 -0.000002 0.459312
85.917915 95.381195 -0.000000 0.462394
87.115829 95.730446 0.000001 0.400671
88.106606 96.019302 0.000002 0.395789
88.939949 96.262268 0.000003 0.418509
89.650848 96.469528 0.000003 0.427634
90.264641 96.648476 0.000004 0.444404
90.800125 96.804596 0.000004 0.533532
91.271530 96.942039 0.000005 0.354757
91.689857 97.063995 0.000005 0.508690
92.063713 97.172997 0.000005 0.412894
92.399933 97.271019 0.000006 0.434669
79.159554 93.614754 6.824224 0.968627
79.159065 93.614616 6.546444 0.968627
83.369316 94.797386 5.250629 0.969039
83.230789 94.758469 5.067937 0.964218
83.090492 94.719055 4.882913 0.973770
82.948372 94.679131 4.695442 0.980392
82.378616 94.519073 4.584379 0.968627
85.167198 95.302460 3.882448 0.223529
85.166885 95.302368 3.698616 0.223529
85.166580 95.302284 3.515503 0.223529
85.166283 95.302200 3.333045 0.223529
85.165977 95.302116 3.151175 0.223529
85.165680 95.302032 2.969827 0.223529
85.165375 95.301949 2.788938 0.223529
85.165077 95.301865 2.608444 0.223529
85.164780 95.301781 2.428282 0.223529
85.164474 95.301697 2.248391 0.223529
85.164177 95.301613 2.068707 0.259800
85.046509 95.268555 1.891562 0.223529
84.905174 95.228851 1.711471 0.223529
84.760834 95.188301 1.527547 0.223529
79.149788 93.612007 1.228158 0.968627
79.246971 93.639305 0.970085 0.223529
79.246506 93.639175 0.709785 0.223529
79.048943 93.583679 0.437086 0.223529
79.933662 93.832214 0.239664 0.968627
80.073784 93.871582 -0.000014 0.435340
82.524750 94.560127 -0.000004 0.443839
84.400558 95.087090 -0.000002 0.418692
85.882896 95.503517 -0.000001 0.499962
87.084190 95.840988 0.000000 0.438926
88.077751 96.120110 0.000001 0.342550
88.913437 96.354874 0.000002 0.400641
89.626343 96.555153 0.000003 0.458015
90.241859 96.728065 0.000003 0.509575
90.778847 96.878922 0.000004 0.456352
91.251587 97.011726 0.000004 0.402487
91.671089 97.129578 0.000005 0.342626
92.045990 97.234894 0.000005 0.540307
92.383156 97.329613 0.000006 0.334112
79.159409 93.817535 6.810199 0.968627
79.158928 93.817406 6.533166 0.968627
79.158447 93.817276 6.257906 0.968627
85.168335 95.442123 4.618245 0.223529
85.168022 95.442039 4.431349 0.223529
85.167717 95.441956 4.245450 0.223529
85.167404 95.441872 4.060472 0.223529
85.167099 95.441795 3.876350 0.223529
85.166794 95.441711 3.693013 0.223529
85.166489 95.441628 3.510394 0.223529
85.166191 95.441544 3.328427 0.223529
85.165886 95.441467 3.147047 0.223529
85.165588 95.441383 2.966188 0.223529
85.165291 95.441299 2.785786 0.223529
85.110321 95.426445 2.609863 0.223529
84.970154 95.388542 2.437988 0.223529
84.827202 95.349899 2.262711 0.223529
79.151489 93.815392 2.271396 0.968627
79.248657 93.841660 2.008771 0.223529
79.248207 93.841537 1.749578 0.223529
79.126587 93.808662 1.489596 0.223529
77.397720 93.341240 1.193575 0.223529
77.298256 93.314346 0.905757 0.223529
77.407120 93.343781 0.624886 0.970230
78.064529 93.521515 0.380144 0.968627
79.212234 93.831818 0.189498 0.941665
80.024231 94.051353 -0.000014 0.449561
82.481842 94.715797 -0.000004 0.431815
84.362732 95.224319 -0.000002 0.414343
85.849091 95.626175 -0.000001 0.434028
87.053635 95.951843 -0.000000 0.457221
88.049889 96.221191 0.000001 0.460517
88.887840 96.447746 0.000002 0.472053
89.602669 96.641006 0.000002 0.451774
90.219856 96.807877 0.000003 0.490059
90.758301 96.953445 0.000004 0.426566
91.232323 97.081604 0.000004 0.422339
91.652962 97.195328 0.000005 0.540658
92.028877 97.296967 0.000005 0.507408
92.366959 97.388367 0.000005 0.469642
85.169182 95.580956 5.176397 0.223529
85.168861 95.580872 4.986567 0.223529
85.168549 95.580795 4.797950 0.223529
85.168236 95.580711 4.610474 0.223529
85.167923 95.580627 4.424063 0.223529
85.167618 95.580551 4.238644 0.223529
85.167313 95.580475 4.054146 0.223529
85.167007 95.580391 3.870501 0.223529
85.166702 95.580315 3.687639 0.223529
85.166397 95.580231 3.505494 0.223529
85.166100 95.580154 3.323999 0.223529
85.037682 95.546783 3.157878 0.223529
84.895370 95.509804 2.990187 0.223529
84.750359 95.472122 2.819321 0.223529
79.250351 94.042915 3.043944 0.223529
79.249893 94.042793 2.784406 0.223529
79.202637 94.030518 2.527474 0.209934
58.871937 88.747467 2.955636 0.968627
58.950180 88.767799 2.419609 0.968627
59.028091 88.788048 1.885979 0.968627
59.105659 88.808205 1.354545 0.968627
59.182949 88.828285 0.825112 0.968627
60.793747 89.246864 0.349368 0.768017
77.354538 93.550278 0.624983 0.886625
77.289322 93.533333 0.336133 0.968627
78.436150 93.831345 0.135386 0.968627
79.976440 94.231598 -0.000015 0.461982
82.440460 94.871880 -0.000005 0.491402
84.326248 95.361916 -0.000003 0.466529
85.816483 95.749161 -0.000001 0.416678
87.024170 96.062988 0.000000 0.469596
88.023018 96.322540 0.000001 0.437171
88.863152 96.540855 0.000002 0.519448
89.579849 96.727097 0.000002 0.441550
90.198647 96.887894 0.000003 0.417807
90.738495 97.028175 0.000004 0.449317
91.213745 97.151672 0.000004 0.386481
91.635483 97.261261 0.000004 0.380423
92.012383 97.359200 0.000005 0.411826
92.351341 97.447281 0.000005 0.446448
85.169083 95.718826 5.167545 0.223529
85.168762 95.718750 4.978187 0.223529
85.168449 95.718674 4.790040 0.223529
85.168137 95.718597 4.603030 0.223529
85.167831 95.718521 4.417081 0.223529
85.167526 95.718445 4.232124 0.223529
85.167221 95.718369 4.048085 0.223529
85.110840 95.704300 3.874440 0.223529
84.968475 95.668800 3.713465 0.223529
84.823608 95.632668 3.549653 0.223529
79.154434 94.218765 4.094218 0.968627
79.251587 94.242996 3.820298 0.223529
79.251129 94.242882 3.559703 0.215686
79.074066 94.198723 3.315291 0.223529
58.635628 89.101341 4.572652 0.980392
58.714912 89.121117 4.029606 0.968627
58.793747 89.140778 3.489556 0.968627
58.872177 89.160339 2.952291 0.968627
58.950230 89.179802 2.417613 0.968627
59.027939 89.199181 1.885316 0.968627
59.105324 89.218483 1.355205 0.968627
73.943291 92.919098 1.125831 0.223529
73.942749 92.918961 0.796179 0.223529
76.457138 93.546059 0.585063 0.964858
76.989212 93.678757 0.321097 0.973129
77.598877 93.830811 0.076860 0.968627
79.930428 94.412300 -0.000015 0.428748
82.400604 95.028366 -0.000005 0.450233
84.291130 95.499863 -0.000003 0.455741
85.785080 95.872459 -0.000002 0.445655
86.995789 96.174416 -0.000001 0.387793
87.997139 96.424149 0.000001 0.456611
88.839378 96.634209 0.000001 0.492668
89.557869 96.813400 0.000002 0.391104
90.178215 96.968117 0.000003 0.490822
90.719414 97.103088 0.000003 0.410590
91.195862 97.221916 0.000004 0.456504
91.618652 97.327362 0.000004 0.347829
91.996490 97.421600 0.000004 0.421271
92.336304 97.506348 0.000005 0.456962
85.168983 95.856033 5.159076 0.223529
85.168671 95.855957 4.970170 0.223529
85.168358 95.855881 4.782472 0.223529
