# This PCD file was generated using the MATLABÂ® pcwrite function
# from Computer Vision System ToolboxÂ®.
# .PCD v.7 - Point Cloud Data file format
VERSION .7
FIELDS x y z intensity
SIZE 4 4 4 4
TYPE F F F F
COUNT 1 1 1 1
WIDTH 1263
HEIGHT 1
VIEWPOINT 0 0 0 1 0 0 0
POINTS 1263
DATA ascii
133.623795 89.207642 0.010005 1.000000
133.845703 88.941483 0.000006 0.660517
134.069962 88.672501 0.000004 0.648920
nan nan nan 0.000000
nan nan nan 0.000000
nan nan nan 0.000000
nan nan nan 0.000000
nan nan nan 0.000000
nan nan nan 0.000000
nan nan nan 0.000000
nan nan nan 0.000000
nan nan nan 0.000000
nan nan nan 0.000000
nan nan nan 0.000000
nan nan nan 0.000000
nan nan nan 0.000000
nan nan nan 0.000000
nan nan nan 0.000000
81.155518 153.517944 6.921852 0.701411
81.153778 153.520065 5.741905 0.678431
81.152031 153.522202 4.563296 0.678431
115.329910 111.700203 2.324930 0.277256
115.625999 111.337891 1.851888 0.310674
115.924751 110.972321 1.391202 0.321569
115.292259 111.746277 0.913900 0.235264
106.729958 122.223587 -0.000061 0.439460
115.685143 111.265518 -0.000044 0.440726
120.662415 105.175049 -0.000010 0.656916
123.830963 101.297836 -0.000026 0.656107
126.026077 98.611771 -0.000025 0.442252
127.637039 96.640503 -0.000022 0.385290
128.869995 95.131783 -0.000020 0.438666
129.844330 93.939529 -0.000018 0.476646
130.633942 92.973328 -0.000017 0.480110
131.287003 92.174202 -0.000016 0.464118
131.836304 91.502052 -0.000015 0.391989
132.304886 90.928658 -0.000014 0.420844
132.709457 90.433594 -0.000013 0.442725
133.062424 90.001694 -0.000013 0.351324
133.373154 89.621468 -0.000012 0.410437
133.676071 89.250801 0.010002 1.000000
133.895355 88.982468 0.000006 0.680797
134.116959 88.711304 0.000002 0.649638
nan nan nan 0.000000
nan nan nan 0.000000
nan nan nan 0.000000
nan nan nan 0.000000
nan nan nan 0.000000
nan nan nan 0.000000
nan nan nan 0.000000
nan nan nan 0.000000
nan nan nan 0.000000
nan nan nan 0.000000
nan nan nan 0.000000
115.390724 112.188004 5.668760 0.309422
115.453072 112.110161 5.179332 0.412100
116.184242 111.197311 4.602525 0.290196
115.362793 112.222870 4.236704 0.290196
82.286285 153.518005 6.879912 0.712184
115.556763 111.980705 3.269238 0.275044
114.986832 112.692253 2.827467 0.304112
116.097305 111.305855 2.309433 0.328588
116.402328 110.925034 1.846590 0.351385
116.371429 110.963623 1.393085 0.318013
115.441513 112.124588 0.909967 0.318975
107.107651 122.529198 -0.000062 0.444923
115.954819 111.483742 -0.000045 0.445624
120.872108 105.344635 -0.000007 0.654551
124.002495 101.436432 -0.000015 0.657633
126.171051 98.729050 -0.000025 0.410559
127.762573 96.742073 -0.000022 0.452857
128.980667 95.221321 -0.000020 0.416068
129.943253 94.019562 -0.000018 0.445487
130.723328 93.045654 -0.000017 0.435370
131.368515 92.240150 -0.000016 0.387076
131.911194 91.562637 -0.000015 0.443122
132.374130 90.984680 -0.000014 0.360510
132.773819 90.485664 -0.000013 0.545388
133.122528 90.050316 -0.000013 0.551705
133.429504 89.667061 -0.000012 0.466346
133.728775 89.293442 0.010002 1.000000
133.945404 89.022972 0.000004 0.673640
134.164337 88.749641 0.000000 0.639689
nan nan nan 0.000000
nan nan nan 0.000000
nan nan nan 0.000000
nan nan nan 0.000000
nan nan nan 0.000000
nan nan nan 0.000000
nan nan nan 0.000000
nan nan nan 0.000000
nan nan nan 0.000000
nan nan nan 0.000000
nan nan nan 0.000000
nan nan nan 0.000000
116.025162 111.955948 5.132422 0.318013
115.800827 112.241730 4.692643 0.370398
82.412804 154.774933 8.117820 0.580392
116.116478 111.839622 3.714389 0.590936
115.255753 112.936096 3.312134 0.297337
115.714340 112.351913 2.803939 0.390524
116.200775 111.732231 2.314730 0.410544
115.643280 112.442429 1.857460 0.324498
115.794960 112.249207 1.384147 0.450980
115.330231 112.841225 0.897583 0.281880
115.781158 112.266785 0.439603 0.640650
116.226646 111.699272 -0.000045 0.446281
121.083549 105.512039 0.000004 0.652888
124.175392 101.573326 -0.000004 0.654795
126.317162 98.844910 -0.000025 0.471397
127.889099 96.842407 -0.000023 0.415900
129.092209 95.309769 -0.000020 0.432563
130.042953 94.098610 -0.000018 0.474174
130.813431 93.117096 -0.000017 0.387915
131.450684 92.305298 -0.000016 0.414221
131.986664 91.622498 -0.000015 0.420859
132.443909 91.040016 -0.000014 0.416373
132.838684 90.537102 -0.000013 0.515984
133.183105 90.098351 -0.000013 0.390402
133.486298 89.712097 -0.000012 0.419532
133.755417 89.369286 0.000006 0.654749
133.995850 89.062988 0.000002 0.642954
134.212097 88.787514 -0.000002 0.652705
nan nan nan 0.000000
nan nan nan 0.000000
nan nan nan 0.000000
nan nan nan 0.000000
nan nan nan 0.000000
nan nan nan 0.000000
nan nan nan 0.000000
nan nan nan 0.000000
nan nan nan 0.000000
nan nan nan 0.000000
nan nan nan 0.000000
nan nan nan 0.000000
nan nan nan 0.000000
116.085205 112.452110 4.691929 0.322545
116.009430 112.550613 4.226501 0.902464
116.221642 112.274750 3.730846 0.297673
116.444420 111.985130 3.244267 0.301961
116.500832 111.911797 2.776763 0.236362
116.042671 112.507401 2.328655 0.225452
116.338799 112.122437 1.853013 0.964843
115.998657 112.564621 1.383335 0.525765
116.019699 112.537262 0.910604 0.531197
116.289856 112.186066 0.451908 0.272297
116.500580 111.912132 -0.000045 0.438102
121.296272 105.677811 -0.000017 0.653422
124.349609 101.708534 0.000006 0.654826
126.464401 98.959343 -0.000025 0.422904
128.016617 96.941490 -0.000022 0.433158
129.204605 95.397118 -0.000020 0.412818
130.143417 94.176689 -0.000018 0.450111
130.904221 93.187645 -0.000017 0.468071
131.533478 92.369637 -0.000016 0.412695
132.062729 91.681602 -0.000015 0.436622
132.514236 91.094666 -0.000014 0.464027
132.904053 90.587898 -0.000014 0.363348
133.244141 90.145790 -0.000013 0.407782
133.543549 89.756577 -0.000012 0.481956
133.809265 89.411140 0.000004 0.677592
134.071381 89.070404 0.010002 1.000000
134.260208 88.824921 -0.000004 0.674983
nan nan nan 0.000000
nan nan nan 0.000000
nan nan nan 0.000000
nan nan nan 0.000000
nan nan nan 0.000000
nan nan nan 0.000000
nan nan nan 0.000000
nan nan nan 0.000000
nan nan nan 0.000000
nan nan nan 0.000000
nan nan nan 0.000000
116.583618 112.378296 5.603761 0.316823
nan nan nan 0.000000
81.766335 158.571533 9.594820 0.678431
116.317581 112.731255 4.223402 0.256657
116.549225 112.423935 3.726143 0.813397
116.829590 112.051956 3.236006 0.535927
116.727722 112.187119 2.779434 0.231250
116.130081 112.980026 2.334999 0.640482
116.081650 113.044281 1.858833 0.808225
116.009811 113.139587 1.380386 0.269001
116.904182 111.952995 0.930255 0.301961
116.082550 113.043083 0.425475 0.215686
117.237923 111.510208 0.035096 0.298360
121.510849 105.841187 -0.000016 0.658122
124.525032 101.842163 0.000003 0.651087
126.612762 99.072304 -0.000025 0.456184
128.145081 97.039314 -0.000022 0.422080
129.317871 95.483353 -0.000020 0.378073
130.244644 94.253761 -0.000018 0.405676
130.995697 93.257309 -0.000017 0.497398
131.616882 92.433159 -0.000016 0.368872
132.139374 91.739967 -0.000015 0.398093
132.585083 91.148621 -0.000014 0.442557
132.969925 90.638046 -0.000013 0.450095
133.305649 90.192619 -0.000013 0.448157
133.601212 89.800491 -0.000012 0.450309
133.863495 89.452522 -0.000012 0.421180
134.122284 89.109169 0.010001 1.000000
134.308701 88.861847 -0.000005 0.677668
nan nan nan 0.000000
nan nan nan 0.000000
nan nan nan 0.000000
nan nan nan 0.000000
nan nan nan 0.000000
nan nan nan 0.000000
nan nan nan 0.000000
nan nan nan 0.000000
nan nan nan 0.000000
nan nan nan 0.000000
nan nan nan 0.000000
nan nan nan 0.000000
nan nan nan 0.000000
116.629532 112.905403 4.694860 0.186313
116.580078 112.972374 4.226019 0.300893
105.374367 128.147034 4.863427 0.298650
116.400604 113.215408 3.290521 0.304601
116.621063 112.916870 2.800671 0.937621
116.612335 112.928688 2.328528 0.996094
116.495804 113.086502 1.857434 0.270207
105.068390 128.561401 1.256660 0.258824
116.918213 112.514481 0.921582 0.235996
116.746918 112.746445 0.446264 0.288823
117.054611 112.329758 -0.000045 0.441871
121.726852 106.002655 -0.000031 0.654490
124.701683 101.974182 -0.000010 0.655253
126.762215 99.183823 -0.000026 0.463218
128.274521 97.135880 -0.000023 0.495933
129.431961 95.568481 -0.000020 0.475700
130.346619 94.329849 -0.000018 0.493935
131.087860 93.326073 -0.000017 0.489662
131.700928 92.495857 -0.000016 0.385916
132.216583 91.797569 -0.000015 0.514199
132.656479 91.201874 -0.000014 0.547387
133.036270 90.687553 -0.000013 0.506905
133.367615 90.238853 -0.000013 0.384131
133.659317 89.843842 -0.000012 0.591043
133.918167 89.493309 -0.000012 0.401434
134.173569 89.147438 0.010000 1.000000
134.357544 88.898300 -0.000007 0.656382
nan nan nan 0.000000
nan nan nan 0.000000
nan nan nan 0.000000
nan nan nan 0.000000
nan nan nan 0.000000
nan nan nan 0.000000
nan nan nan 0.000000
nan nan nan 0.000000
nan nan nan 0.000000
nan nan nan 0.000000
nan nan nan 0.000000
nan nan nan 0.000000
nan nan nan 0.000000
116.936356 113.085106 4.691791 0.549493
116.832207 113.229088 4.230237 0.337407
87.687500 153.518356 6.686899 0.721523
105.386292 129.051773 4.174678 0.873442
116.905479 113.127792 2.800752 0.333333
105.262344 129.223114 2.718387 0.939941
117.491920 112.317108 1.849521 0.940108
116.905434 113.127853 1.383930 0.234134
117.033463 112.950874 0.915999 0.376471
116.521194 113.659027 0.417784 0.320195
117.334694 112.534454 -0.000045 0.440742
121.945053 106.161148 0.000016 0.657191
124.879730 102.104294 -0.000009 0.655192
126.912773 99.293846 -0.000025 0.464530
128.404877 97.231171 -0.000022 0.432135
129.546890 95.652481 -0.000020 0.475273
130.449341 94.404930 -0.000018 0.434699
131.180695 93.393921 -0.000017 0.333288
131.785583 92.557732 -0.000016 0.455924
132.294357 91.854408 -0.000015 0.375357
132.728378 91.254433 -0.000014 0.416098
133.103104 90.736404 -0.000013 0.488045
133.430038 90.284470 -0.000013 0.489464
133.717834 89.886612 -0.000012 0.482918
133.973236 89.533554 -0.000012 0.406699
134.225220 89.185204 0.009998 1.000000
134.406754 88.934265 -0.000007 0.668009
nan nan nan 0.000000
nan nan nan 0.000000
nan nan nan 0.000000
nan nan nan 0.000000
nan nan nan 0.000000
nan nan nan 0.000000
nan nan nan 0.000000
nan nan nan 0.000000
nan nan nan 0.000000
nan nan nan 0.000000
nan nan nan 0.000000
nan nan nan 0.000000
85.554672 157.987549 10.562469 0.905882
117.242599 113.264481 4.689025 0.468254
87.813858 154.799026 7.886219 0.062745
105.866776 129.319855 4.902449 0.284382
105.860229 129.329102 4.172369 0.271000
88.718353 153.522461 4.413157 0.714107
105.605713 129.688309 2.721891 0.395071
105.827118 129.375824 1.984747 0.499504
117.788071 112.494629 1.390662 0.343297
117.508926 112.888596 0.922429 0.268666
109.435173 124.283569 -0.000063 0.442542
117.616768 112.736389 -0.000045 0.441337
122.164520 106.317879 0.000035 0.654429
125.058975 102.232765 -0.000018 0.650858
127.064392 99.402405 -0.000026 0.466773
128.536179 97.325172 -0.000023 0.496208
129.662628 95.735344 -0.000020 0.436866
130.552795 94.478996 -0.000018 0.471199
131.274200 93.460854 -0.000017 0.377523
131.870850 92.618767 -0.000016 0.454231
132.372681 91.910492 -0.000015 0.437659
132.800797 91.306274 -0.000014 0.387121
133.170425 90.784592 -0.000013 0.507301
133.492889 90.329475 -0.000013 0.421530
133.776779 89.928810 -0.000013 0.492287
134.028687 89.573265 -0.000012 0.378012
134.277237 89.222473 0.009993 1.000000
134.456314 88.969742 -0.000007 0.615717
nan nan nan 0.000000
nan nan nan 0.000000
nan nan nan 0.000000
nan nan nan 0.000000
nan nan nan 0.000000
nan nan nan 0.000000
nan nan nan 0.000000
nan nan nan 0.000000
nan nan nan 0.000000
nan nan nan 0.000000
nan nan nan 0.000000
nan nan nan 0.000000
86.642242 157.983734 10.500662 0.905882
117.548378 113.443459 4.686552 0.166567
89.742035 153.516479 7.730646 0.468437
89.740646 153.518478 6.616902 0.717433
89.739243 153.520477 5.504817 0.732143
89.737869 153.522491 4.393994 0.703456
89.736481 153.524475 3.284062 0.626596
117.061844 114.144630 1.860908 0.290196
106.652328 129.146271 1.259582 0.317708
91.716087 150.671585 0.024125 0.443915
109.832977 124.562485 -0.000062 0.446769
117.900803 112.935562 -0.000045 0.447700
122.385277 106.472778 0.000030 0.654292
125.239494 102.359436 -0.000023 0.653895
127.217072 99.509460 -0.000026 0.443519
128.668396 97.417877 -0.000023 0.411933
129.779190 95.817070 -0.000020 0.429191
130.656982 94.552048 -0.000018 0.458122
131.368347 93.526871 -0.000017 0.373312
131.956696 92.678970 -0.000016 0.431388
132.451553 91.965790 -0.000015 0.403723
132.873718 91.357407 -0.000014 0.448371
133.238205 90.832123 -0.000014 0.509087
133.556183 90.373856 -0.000013 0.392264
133.836121 89.970428 -0.000012 0.514138
134.084549 89.612427 -0.000012 0.370871
134.306564 89.292465 -0.000007 0.676051
134.506210 89.004738 -0.000007 0.674647
nan nan nan 0.000000
nan nan nan 0.000000
nan nan nan 0.000000
nan nan nan 0.000000
nan nan nan 0.000000
nan nan nan 0.000000
nan nan nan 0.000000
nan nan nan 0.000000
nan nan nan 0.000000
nan nan nan 0.000000
nan nan nan 0.000000
nan nan nan 0.000000
87.715820 157.978745 10.440406 0.905882
87.314209 158.569824 9.319163 0.678431
90.747627 153.516571 7.689600 0.552728
90.911011 153.276093 6.566050 0.686168
90.744934 153.520538 5.478720 0.689464
90.909645 153.278107 4.365688 0.698039
90.742233 153.524506 3.272885 0.683314
90.279358 154.205750 2.176289 0.546349
90.284943 154.197540 1.063776 0.647059
92.563477 150.844009 0.030752 0.443839
110.233490 124.837509 -0.000063 0.446448
118.186775 113.131950 -0.000046 0.440909
122.607491 106.625587 0.000018 0.653040
125.421242 102.484344 -0.000030 0.424033
127.370796 99.615005 -0.000025 0.451331
128.801529 97.509285 -0.000022 0.418189
129.896545 95.897652 -0.000020 0.445029
130.761871 94.624069 -0.000018 0.408957
131.463135 93.591957 -0.000017 0.517143
132.043137 92.738319 -0.000016 0.402335
132.530975 92.020325 -0.000015 0.433616
132.947128 91.407822 -0.000014 0.407340
133.306442 90.878983 -0.000013 0.335683
133.619919 90.417618 -0.000013 0.484184
133.895889 90.011459 -0.000012 0.527260
134.140778 89.651031 -0.000012 0.329931
134.359634 89.328918 -0.000007 0.681376
134.577988 89.007538 0.009993 1.000000
nan nan nan 0.000000
nan nan nan 0.000000
nan nan nan 0.000000
nan nan nan 0.000000
nan nan nan 0.000000
nan nan nan 0.000000
nan nan nan 0.000000
nan nan nan 0.000000
nan nan nan 0.000000
nan nan nan 0.000000
nan nan nan 0.000000
nan nan nan 0.000000
88.775055 157.973785 10.381791 0.905882
88.378784 158.569519 9.268486 0.177569
91.739914 153.516632 7.649677 0.485847
91.738594 153.518616 6.550689 0.636912
91.737289 153.520569 5.453333 0.258518
91.898254 153.278595 4.347641 0.689830
91.416000 154.003586 3.273310 0.602640
91.281525 154.205750 2.172631 0.572061
91.286964 154.197571 1.067434 0.611765
91.546295 153.807693 -0.028692 0.444053
110.636681 125.108566 -0.000062 0.445243
118.474670 113.325500 -0.000046 0.455817
122.831268 106.776100 0.000015 0.654093
125.604256 102.607384 -0.000029 0.443809
127.525543 99.719055 -0.000026 0.435554
128.935532 97.599380 -0.000023 0.421973
130.014679 95.977066 -0.000020 0.460594
130.867462 94.695053 -0.000019 0.415473
131.558563 93.656113 -0.000017 0.430686
132.130142 92.796822 -0.000016 0.466743
132.610916 92.074066 -0.000015 0.507408
133.021042 91.457512 -0.000014 0.457664
133.375153 90.925171 -0.000013 0.493492
133.684082 90.460754 -0.000013 0.437781
133.956039 90.051903 -0.000012 0.405676
134.197372 89.689095 -0.000012 0.329580
134.413055 89.364853 -0.000011 0.482506
134.628265 89.041336 0.009992 1.000000
nan nan nan 0.000000
nan nan nan 0.000000
nan nan nan 0.000000
nan nan nan 0.000000
nan nan nan 0.000000
nan nan nan 0.000000
nan nan nan 0.000000
nan nan nan 0.000000
nan nan nan 0.000000
nan nan nan 0.000000
nan nan nan 0.000000
nan nan nan 0.000000
89.818558 157.971741 10.325121 0.937255
89.429535 158.569214 9.219193 0.678431
92.719315 153.516724 7.610847 0.652140
92.718048 153.518677 6.518938 0.674388
92.716774 153.520615 5.428649 0.678431
92.870720 153.284180 4.330293 0.665431
92.289406 154.176971 3.266723 0.584604
92.270691 154.205719 2.169070 0.452140
92.275978 154.197601 1.070993 0.654902
92.418182 153.979202 -0.022092 0.444389
111.042534 125.375641 -0.000062 0.437858
118.764450 113.516220 -0.000046 0.456886
123.056465 106.924477 0.000007 0.655955
125.788467 102.728622 -0.000030 0.423453
127.681313 99.821571 -0.000026 0.473396
129.070419 97.688156 -0.000023 0.415763
130.133591 96.055336 -0.000021 0.459632
130.973740 94.765007 -0.000019 0.425666
131.654602 93.719322 -0.000017 0.429587
132.217743 92.854462 -0.000016 0.424933
132.691391 92.127029 -0.000015 0.438453
133.095444 91.506470 -0.000014 0.386892
133.444305 90.970680 -0.000013 0.383429
133.748657 90.503250 -0.000013 0.497444
134.016586 90.091751 -0.000012 0.518761
134.254364 89.726593 -0.000012 0.448447
134.466843 89.400253 -0.000011 0.440101
134.678864 89.074631 0.009994 1.000000
78.063889 178.032928 30.745657 0.620218
78.114899 177.952850 29.166897 0.395499
78.114891 177.952881 27.622934 0.391516
78.114899 177.952866 26.088366 0.404715
78.114914 177.952850 24.562580 0.398840
78.063904 178.032898 23.063236 0.620218
78.114906 177.952850 21.535030 0.405478
78.114899 177.952866 20.032110 0.395605
78.063896 178.032898 18.550064 0.620218
78.114906 177.952850 17.045151 0.401587
78.063904 178.032898 15.571890 0.620142
78.114914 177.952850 14.079751 0.410605
90.249710 158.909775 10.379796 0.921202
90.249710 158.909760 9.205729 0.887678
93.686279 153.516785 7.573089 0.630335
93.685043 153.518723 6.488060 0.726162
93.683807 153.520660 5.404643 0.703487
93.682579 153.522583 4.322462 0.712016
93.242126 154.213776 3.257200 0.505241
93.247284 154.205704 2.165607 0.576211
93.252426 154.197632 1.074453 0.646204
93.709976 153.479584 -0.000107 0.444236
111.450920 125.638824 -0.000065 0.440681
119.056099 113.704063 -0.000046 0.446967
123.283081 107.070686 -0.000005 0.656306
125.973862 102.848053 -0.000031 0.432654
127.838074 99.922554 -0.000026 0.454276
129.206177 97.775604 -0.000023 0.431861
130.253265 96.132416 -0.000020 0.433173
131.080704 94.833908 -0.000018 0.464591
131.751282 93.781593 -0.000017 0.454749
132.305878 92.911247 -0.000016 0.400458
132.772369 92.179192 -0.000015 0.437354
133.170319 91.554703 -0.000014 0.416159
133.513901 91.015511 -0.000013 0.457832
133.813644 90.545120 -0.000013 0.404120
134.077530 90.131004 -0.000012 0.442771
134.311707 89.763527 -0.000012 0.365377
134.520966 89.435120 -0.000011 0.415442
134.729782 89.107422 0.009996 1.000000
79.315277 178.096954 30.585655 0.324361
79.405121 177.952866 28.996948 0.450523
79.405106 177.952881 27.462509 0.403845
79.315262 178.096970 25.974665 0.324361
79.405121 177.952850 24.421043 0.402197
79.315277 178.096954 22.945448 0.325673
79.405121 177.952866 21.412170 0.392950
79.405121 177.952866 19.918516 0.406149
79.315277 178.096954 18.457066 0.326970
79.405121 177.952850 16.949989 0.395300
79.315262 178.096970 15.495255 0.326970
79.405121 177.952850 14.002888 0.404334
90.249725 160.560028 10.517295 0.905882
90.249733 160.560028 9.324800 0.937194
94.641220 153.516846 7.536367 0.667765
94.640015 153.518784 6.458027 0.702449
94.638824 153.520691 5.381296 0.709804
94.637619 153.522629 4.305792 0.730022
94.206726 154.213715 3.247097 0.625528
94.211723 154.205688 2.162241 0.678431
94.216721 154.197662 1.077819 0.678431
94.221725 154.189667 -0.006544 0.737957
111.861923 125.897903 -0.000065 0.442710
119.349548 113.889076 -0.000047 0.436545
123.511177 107.214569 -0.000010 0.655406
126.160423 102.965652 -0.000030 0.465965
127.995819 100.021988 -0.000026 0.459449
129.342773 97.861717 -0.000023 0.409277
130.373688 96.208328 -0.000021 0.389517
131.188339 94.901756 -0.000018 0.404456
131.848541 93.842911 -0.000017 0.444221
132.394592 92.967155 -0.000016 0.425818
132.853867 92.230560 -0.000015 0.426001
133.245651 91.602188 -0.000014 0.352056
133.583939 91.059654 -0.000013 0.413169
133.879044 90.586342 -0.000013 0.452140
134.138855 90.169662 -0.000012 0.394171
134.369400 89.799904 -0.000012 0.552453
134.575439 89.469452 -0.000011 0.574990
134.781036 89.139717 0.009998 1.000000
80.630806 178.032898 30.391233 0.678431
80.679626 177.952850 28.831694 0.399802
80.679611 177.952881 27.306524 0.400107
80.630814 178.032898 25.811190 0.678431
80.679642 177.952850 24.283401 0.410315
80.679619 177.952881 22.784294 0.400427
80.679642 177.952850 21.292688 0.400061
80.679626 177.952850 19.808060 0.413916
80.630806 178.032898 18.344048 0.678431
80.679634 177.952850 16.857449 0.391623
80.679634 177.952850 15.390396 0.447852
80.679642 177.952850 13.928137 0.398184
80.679626 177.952866 12.470153 0.406012
90.249771 162.263046 9.448432 0.918807
95.584549 153.516907 7.500659 0.711681
95.583389 153.518829 6.428830 0.678431
95.582214 153.520752 5.358593 0.678431
95.705627 153.318405 4.281746 0.678431
95.159576 154.213654 3.237276 0.495491
95.164429 154.205673 2.158969 0.572076
95.169304 154.197693 1.081090 0.419608
95.174156 154.189728 0.003273 0.622904
112.275459 126.152916 -0.000065 0.448341
119.644829 114.071167 -0.000047 0.450965
123.740570 107.356384 -0.000027 0.654307
126.348122 103.081413 -0.000030 0.426780
128.154541 100.119881 -0.000026 0.443671
129.480225 97.946480 -0.000023 0.444495
130.494843 96.283051 -0.000020 0.509407
131.296646 94.968544 -0.000018 0.465293
131.946411 93.903267 -0.000017 0.434852
132.483826 93.022202 -0.000016 0.491585
132.935852 92.281128 -0.000015 0.445686
133.321457 91.648941 -0.000013 0.393027
133.654388 91.103111 -0.000013 0.501793
133.944855 90.626923 -0.000013 0.412360
134.200562 90.207710 -0.000012 0.533104
134.427460 89.835709 -0.000012 0.515099
134.630249 89.503250 -0.000011 0.528069
134.832596 89.171494 0.010004 1.000000
81.891220 178.032913 30.221338 0.678431
81.938972 177.952850 28.671009 0.416632
81.938950 177.952896 27.154844 0.393027
81.891235 178.032867 25.668339 0.678431
81.938965 177.952850 24.149588 0.398184
81.938950 177.952881 22.659327 0.380529
81.938972 177.952866 21.176531 0.401633
81.938950 177.952881 19.700666 0.398322
81.891220 178.032898 18.245295 0.678431
81.938965 177.952850 16.767473 0.421820
81.938965 177.952866 15.309089 0.400870
81.938965 177.952850 13.855462 0.412665
81.938965 177.952881 12.406087 0.425528
90.249786 164.021835 9.576880 0.924712
96.516647 153.516968 7.465938 0.721248
96.515503 153.518890 6.400438 0.436515
96.514374 153.520798 5.336521 0.430762
96.632309 153.323105 4.266211 0.681163
96.101082 154.213562 3.227725 0.500008
96.105812 154.205643 2.155788 0.545342
96.110542 154.197723 1.084273 0.423041
96.115265 154.189789 0.012819 0.660075
112.691460 126.403885 -0.000065 0.443259
119.941872 114.250366 -0.000046 0.442481
123.971519 107.495651 -0.000025 0.654414
126.536957 103.195320 -0.000030 0.476585
128.314209 100.216202 -0.000026 0.443778
129.618500 98.029892 -0.000023 0.463142
130.616745 96.356583 -0.000020 0.420706
131.405579 95.034271 -0.000019 0.394583
132.044876 93.962662 -0.000017 0.459586
132.573608 93.076363 -0.000016 0.423072
133.018341 92.330887 -0.000015 0.414572
133.397720 91.694946 -0.000014 0.430518
133.725281 91.145874 -0.000013 0.406775
134.011047 90.666855 -0.000012 0.539452
134.262619 90.245155 -0.000012 0.453880
134.485870 89.870941 -0.000012 0.498466
134.685379 89.536507 -0.000011 0.575341
134.864807 89.235725 -0.000006 0.616831
83.183617 177.952911 30.032001 0.400763
83.183640 177.952866 28.514795 0.402884
83.183632 177.952881 27.007376 0.436469
83.167191 177.981079 25.516302 0.322896
83.183640 177.952881 24.019480 0.411749
83.183624 177.952911 22.537827 0.435355
83.167191 177.981064 21.069422 0.323445
83.183640 177.952881 19.596251 0.408072
83.167198 177.981049 18.140179 0.324117
83.183640 177.952881 16.679998 0.405005
83.183632 177.952881 15.230037 0.446708
83.167191 177.981049 13.788447 0.324620
83.183640 177.952881 12.343795 0.401831
83.167191 177.981049 10.909283 0.325658
97.437897 153.517029 7.432185 0.722927
97.436783 153.518921 6.372834 0.678431
97.435684 153.520813 5.315059 0.678431
97.546677 153.330551 4.251210 0.678431
97.031616 154.213501 3.218439 0.474372
97.036224 154.205612 2.152692 0.580392
97.040817 154.197739 1.087366 0.465507
97.045410 154.189865 0.022097 0.585412
113.109932 126.650726 -0.000065 0.444984
120.240662 114.426628 -0.000046 0.444495
124.204102 107.632172 0.000010 0.658335
126.726906 103.307373 -0.000030 0.435035
128.474823 100.310944 -0.000026 0.474037
129.757584 98.111938 -0.000023 0.446464
130.739349 96.428909 -0.000020 0.446189
131.515167 95.098915 -0.000019 0.468666
132.143906 94.021088 -0.000017 0.466957
132.663925 93.129639 -0.000016 0.480461
133.101303 92.379829 -0.000015 0.486625
133.474426 91.740204 -0.000014 0.480140
133.796585 91.187935 -0.000013 0.442618
134.077637 90.706139 -0.000013 0.408179
134.325058 90.281982 -0.000012 0.388891
134.544617 89.905594 -0.000011 0.330190
134.740829 89.569221 -0.000011 0.399451
134.917313 89.266693 -0.000006 0.671916
84.414116 177.952911 29.871571 0.442420
84.368515 178.032867 28.385679 0.678431
84.414131 177.952881 26.864035 0.408072
84.368515 178.032867 25.394451 0.678431
84.414131 177.952881 23.893005 0.395590
84.414124 177.952896 22.419712 0.406073
84.368500 178.032898 20.970259 0.678431
84.414139 177.952866 19.494745 0.410895
84.368515 178.032898 18.055948 0.678431
84.414139 177.952881 16.594965 0.413794
84.414131 177.952881 15.153187 0.407843
84.368515 178.032883 13.726404 0.678431
84.414139 177.952881 12.283245 0.421744
84.368507 178.032898 10.861917 0.678431
97.825500 154.434494 7.475534 0.713237
97.827026 154.431824 6.407970 0.678431
97.826019 154.433594 5.342368 0.678431
98.005211 154.119354 4.266081 0.686412
96.893616 156.068665 3.251349 0.539742
112.891457 128.014603 1.952349 0.299123
97.114182 155.681870 1.079193 0.689464
97.177299 155.571198 -0.000106 0.444327
113.530792 126.893463 -0.000064 0.445563
120.541168 114.599945 -0.000046 0.447028
124.437706 107.766922 0.000010 0.654627
126.917931 103.417557 -0.000030 0.449058
128.636353 100.404121 -0.000026 0.459998
129.897461 98.192619 -0.000023 0.451942
130.862656 96.500031 -0.000021 0.447547
131.625397 95.162483 -0.000019 0.449500
132.243515 94.078537 -0.000017 0.499992
132.754761 93.182022 -0.000016 0.410834
133.184753 92.427963 -0.000015 0.426261
133.551575 91.784698 -0.000014 0.386114
133.868301 91.229301 -0.000013 0.421805
134.144608 90.744759 -0.000013 0.377203
134.387848 90.318199 -0.000012 0.339940
134.603699 89.939674 -0.000011 0.441505
134.796616 89.601395 -0.000011 0.525353
134.970108 89.297150 -0.000006 0.652033
85.630920 177.952896 29.715633 0.406760
85.586334 178.032898 28.237953 0.678431
85.630920 177.952896 26.724697 0.412695
85.630943 177.952850 25.243134 0.414588
85.630936 177.952881 23.770071 0.406882
85.630920 177.952911 22.304911 0.402304
85.586334 178.032898 20.863451 0.678431
85.630936 177.952881 19.396091 0.390417
85.586327 178.032898 17.965239 0.569772
85.630936 177.952850 16.512308 0.407385
85.630936 177.952881 15.078487 0.399115
85.586334 178.032883 13.659588 0.678431
85.630936 177.952881 12.224388 0.390845
85.586334 178.032898 10.810911 0.678431
113.823311 127.366570 5.208399 0.236027
97.831238 156.061569 6.491574 0.681010
97.835358 156.054169 5.406879 0.678431
98.019897 155.723038 4.311575 0.695705
113.489349 127.965813 2.610558 0.261036
113.870789 127.281372 1.945020 0.536858
113.946030 127.146378 1.295990 0.258824
113.936340 127.163757 0.647471 0.294423
113.953995 127.132080 -0.000064 0.442267
120.843353 114.770332 -0.000047 0.446326
124.672501 107.899590 -0.000006 0.655131
127.110039 103.525856 -0.000030 0.445045
128.798798 100.495689 -0.000026 0.442374
130.038116 98.271927 -0.000023 0.424094
130.986664 96.569939 -0.000020 0.429465
131.736221 95.224976 -0.000019 0.449500
132.343674 94.135002 -0.000017 0.505852
132.846085 93.233513 -0.000016 0.459388
133.268677 92.475266 -0.000015 0.475975
133.629166 91.828430 -0.000013 0.461494
133.940414 91.269951 -0.000013 0.456535
134.211945 90.782730 -0.000013 0.417700
134.450989 90.353798 -0.000012 0.461234
134.663116 89.973175 -0.000011 0.455299
134.852692 89.633011 -0.000011 0.509926
135.023193 89.327095 -0.000011 0.363180
86.834473 177.952911 29.564096 0.407080
86.790924 178.032898 28.094383 0.678431
86.834488 177.952881 26.589287 0.407919
86.834503 177.952850 25.115707 0.402335
86.834488 177.952881 23.650593 0.406943
86.834473 177.952911 22.193338 0.413977
86.790909 178.032898 20.759659 0.678431
86.834496 177.952866 19.300201 0.400549
86.834488 177.952881 17.863253 0.400122
86.834503 177.952850 16.431980 0.411078
86.834488 177.952881 15.005897 0.394919
86.790916 178.032898 13.594648 0.678431
86.834488 177.952881 12.167192 0.394080
86.790924 178.032898 10.761334 0.678431
97.829300 157.760956 7.684968 0.436835
114.317986 127.479553 4.546043 0.803876
114.110649 127.860336 3.914648 0.883131
114.576706 127.004417 3.226568 0.290196
113.983299 128.094208 2.608086 0.302449
114.631348 126.904083 1.940455 0.298589
97.789749 157.833588 1.069042 0.612192
113.896561 128.253510 0.628350 0.319112
114.379539 127.366516 -0.000066 0.446998
121.147217 114.937714 -0.000047 0.434363
124.908615 108.029907 -0.000018 0.656641
127.303200 103.632263 -0.000030 0.461692
128.962128 100.585663 -0.000026 0.439185
130.179565 98.349846 -0.000023 0.437263
131.111343 96.638634 -0.000021 0.443336
131.847672 95.286362 -0.000018 0.498558
132.444397 94.190483 -0.000017 0.409506
132.937927 93.284111 -0.000016 0.447700
133.353043 92.521751 -0.000015 0.485832
133.707169 91.871407 -0.000014 0.390021
134.012924 91.309898 -0.000013 0.418814
134.279663 90.820030 -0.000012 0.399664
134.514481 90.388779 -0.000012 0.526787
134.722870 90.006088 -0.000012 0.296773
134.909088 89.664078 -0.000011 0.504707
135.076569 89.356499 -0.000010 0.348745
88.025238 177.952881 29.416834 0.387594
87.982681 178.032898 27.954872 0.678431
88.025238 177.952911 26.457714 0.384894
88.025261 177.952850 24.991896 0.391028
87.982681 178.032898 23.553148 0.527260
88.025238 177.952896 22.084925 0.419638
87.982681 178.032898 20.658796 0.678431
88.025246 177.952881 19.207039 0.394354
88.025246 177.952881 17.777658 0.408347
88.025253 177.952881 16.353930 0.413947
88.025246 177.952881 14.935354 0.417136
87.982697 178.032883 13.531542 0.678431
88.025253 177.952881 12.111612 0.388464
87.982689 178.032898 10.713163 0.678431
114.905815 127.411652 5.173916 0.326818
97.835159 159.508148 6.669978 0.716579
104.466187 147.040390 4.898537 0.754223
114.868858 127.481133 3.235777 0.355642
114.968575 127.293640 2.585073 0.704692
114.590477 128.004547 1.946925 0.312230
97.843124 159.493164 1.059643 0.723659
114.759933 127.685944 0.646199 0.731716
114.807358 127.596771 -0.000066 0.442985
121.452690 115.102119 -0.000047 0.455177
125.146324 108.157288 0.000010 0.655451
127.497398 103.736771 -0.000030 0.462470
129.126328 100.674042 -0.000026 0.433875
130.321762 98.426361 -0.000023 0.439689
131.236694 96.706085 -0.000021 0.450599
131.959717 95.346664 -0.000019 0.375692
132.545654 94.244980 -0.000017 0.410437
133.030258 93.333794 -0.000015 0.438254
133.437866 92.567406 -0.000015 0.474739
133.785599 91.913612 -0.000014 0.418891
134.085815 91.349129 -0.000013 0.482994
134.347733 90.856667 -0.000012 0.494102
134.578323 90.423126 -0.000012 0.357595
134.782928 90.038406 -0.000011 0.520958
134.965790 89.694595 -0.000011 0.328664
135.130249 89.385384 -0.000011 0.510109
89.203613 177.952911 29.273779 0.371786
89.162079 178.032898 27.819334 0.678431
89.203621 177.952896 26.329878 0.397971
89.203636 177.952881 24.871616 0.396201
89.162079 178.032898 23.440264 0.678431
89.203621 177.952911 21.979599 0.414603
89.162079 178.032898 20.560812 0.678431
89.203629 177.952881 19.116526 0.405966
89.203629 177.952881 17.694498 0.398123
89.162079 178.032898 16.290575 0.444450
89.203629 177.952881 14.866828 0.395254
89.162094 178.032867 13.470239 0.678431
89.203621 177.952896 12.057618 0.393896
89.162086 178.032883 10.666364 0.678431
89.203629 177.952881 9.262851 0.406699
115.194092 127.906235 4.543997 1.000000
115.037468 128.207825 3.908761 0.601022
115.326843 127.650612 3.233714 0.316732
115.358536 127.589584 2.586655 0.870588
115.045898 128.191589 1.946622 0.968627
114.993134 128.293198 1.292629 0.229313
114.942505 128.390686 0.635616 0.814130
115.237419 127.822800 -0.000066 0.444984
121.759773 115.263504 -0.000047 0.437690
125.384857 108.283134 -0.000015 0.655573
127.692604 103.839386 -0.000031 0.457877
129.291397 100.760788 -0.000026 0.448203
130.464706 98.501488 -0.000023 0.449729
131.362701 96.772324 -0.000021 0.485817
132.072342 95.405853 -0.000018 0.432456
132.647430 94.298477 -0.000017 0.441108
133.123077 93.382584 -0.000016 0.482704
133.523148 92.612221 -0.000015 0.388571
133.864426 91.955048 -0.000014 0.404974
134.159103 91.387642 -0.000013 0.493675
134.416168 90.892632 -0.000013 0.470771
134.642487 90.456848 -0.000012 0.384161
134.843307 90.070145 -0.000011 0.366232
135.022781 89.724548 -0.000011 0.463691
135.184189 89.413742 -0.000010 0.413077
90.370056 177.952881 29.134821 0.394263
90.370056 177.952896 27.665535 0.398245
90.370056 177.952881 26.205713 0.404334
90.370064 177.952866 24.754778 0.407980
90.329514 178.032867 23.330618 0.678431
90.370041 177.952911 21.877300 0.406714
90.329498 178.032898 20.465637 0.678431
90.370064 177.952866 19.028603 0.406638
90.370056 177.952896 17.613729 0.408484
90.329498 178.032898 16.216854 0.667948
90.370049 177.952881 14.800264 0.400748
90.329498 178.032883 13.410691 0.678431
90.370056 177.952881 12.005171 0.398123
90.329498 178.032898 10.620906 0.678431
90.370056 177.952881 9.224448 0.406760
115.465752 128.446899 4.565052 0.929274
115.712555 127.960022 3.884521 0.281010
97.841690 163.213684 4.530859 0.209598
97.841599 163.213867 3.366120 0.716243
115.525047 128.329926 1.945995 0.847547
115.338020 128.698868 1.291296 0.521782
116.050446 127.293457 0.664720 0.268070
115.669678 128.044601 -0.000066 0.443015
122.068420 115.421875 -0.000047 0.446036
125.624634 108.406586 -0.000037 0.654566
127.888817 103.940048 -0.000031 0.424659
129.457306 100.845917 -0.000026 0.449500
130.608368 98.575211 -0.000023 0.412467
131.489349 96.837303 -0.000021 0.444434
132.185547 95.463943 -0.000018 0.412192
132.749741 94.350967 -0.000017 0.422797
133.216370 93.430450 -0.000016 0.472480
133.608856 92.656197 -0.000015 0.349371
133.943665 91.995705 -0.000014 0.427878
134.232758 91.425438 -0.000013 0.395132
134.484955 90.927925 -0.000012 0.464912
134.706970 90.489944 -0.000012 0.392874
134.903992 90.101280 -0.000011 0.462562
135.080078 89.753937 -0.000011 0.524254
135.238419 89.441566 -0.000010 0.351308
91.524933 177.952896 28.999884 0.401389
91.524918 177.952911 27.537807 0.394202
91.524933 177.952911 26.085148 0.385931
91.524940 177.952866 24.641325 0.403891
91.485367 178.032883 23.224144 0.678431
91.524925 177.952896 21.777950 0.396551
91.524918 177.952911 20.357279 0.409339
91.524933 177.952881 18.943233 0.415396
91.524933 177.952896 17.535294 0.405005
91.485352 178.032898 16.145267 0.678431
91.524933 177.952896 14.735629 0.411200
91.485367 178.032883 13.352868 0.678431
91.524933 177.952896 11.954238 0.400534
91.524933 177.952911 10.569152 0.415778
91.524933 177.952881 9.187155 0.400061
115.889915 128.695160 4.566942 0.541253
115.885422 128.704239 3.911484 0.321569
103.260803 154.226929 4.188364 0.879377
97.840012 165.185928 3.400760 0.727214
121.578606 117.194550 1.863086 0.313710
115.505692 129.471924 1.287264 0.341955
115.729095 129.020264 0.631573 0.284459
116.104095 128.262146 -0.000066 0.439521
122.378609 115.577209 -0.000047 0.447074
125.865898 108.527092 -0.000020 0.656397
128.085999 104.038803 -0.000031 0.427192
129.624039 100.929413 -0.000026 0.445319
130.752762 98.647522 -0.000023 0.453529
131.616638 96.901039 -0.000020 0.428061
132.299316 95.520912 -0.000018 0.378180
132.852554 94.402451 -0.000017 0.435355
133.310120 93.477394 -0.000016 0.424949
133.694992 92.699326 -0.000015 0.418189
134.023300 92.035583 -0.000014 0.542687
134.306778 91.462502 -0.000013 0.449928
134.554077 90.962540 -0.000012 0.509117
134.771790 90.522400 -0.000012 0.332769
134.964981 90.131821 -0.000011 0.403906
135.137650 89.782768 -0.000010 0.586175
135.292923 89.468857 -0.000010 0.447425
92.668640 177.952896 28.868874 0.409400
92.668640 177.952911 27.413788 0.394842
92.630051 178.032883 25.988785 0.413977
92.668648 177.952881 24.531170 0.391867
92.630043 178.032898 23.120775 0.678431
92.668640 177.952911 21.681501 0.397192
92.668640 177.952911 20.267624 0.400656
92.668640 177.952881 18.860340 0.401236
92.668640 177.952911 17.459141 0.403983
92.630035 178.032913 16.075769 0.678431
92.668640 177.952896 14.672870 0.408148
92.630051 178.032867 13.296728 0.678431
121.917465 117.331284 5.275454 0.321569
121.934647 117.295700 4.782146 0.159991
121.862923 117.444344 4.305727 0.160784
92.668640 177.952911 7.778162 0.403754
107.583374 147.040375 4.833908 0.787625
106.247147 149.809875 4.015525 0.726314
121.545799 118.101616 2.365630 0.292882
122.155663 116.837608 1.859329 0.267155
122.338959 116.457703 1.383431 0.258824
122.257202 116.627151 0.906518 0.290196
116.540642 128.475403 -0.000065 0.442100
122.690308 115.729492 -0.000047 0.446326
126.108429 108.645035 0.000009 0.654429
128.284149 104.135605 -0.000031 0.460334
129.791580 101.011276 -0.000026 0.443595
130.897858 98.718399 -0.000023 0.452552
131.744553 96.963531 -0.000020 0.436881
132.413635 95.576767 -0.000019 0.472450
132.955872 94.452927 -0.000017 0.450095
133.404327 93.523422 -0.000015 0.421378
133.781540 92.741615 -0.000014 0.413611
134.103333 92.074677 -0.000013 0.406836
134.381165 91.498840 -0.000013 0.463844
134.623535 90.996475 -0.000012 0.516426
134.836914 90.554222 -0.000012 0.462150
135.026276 90.161766 -0.000011 0.465492
135.195496 89.811035 -0.000011 0.415793
135.347687 89.495605 -0.000010 0.433616
93.801575 177.952896 28.741714 0.394644
93.801575 177.952896 27.293413 0.401740
93.763947 178.032883 25.875069 0.678431
93.801590 177.952866 24.424248 0.413916
93.763947 178.032883 23.020437 0.678431
93.801575 177.952911 21.587877 0.390311
93.801575 177.952911 20.180603 0.396094
93.801582 177.952881 18.779890 0.394156
93.801575 177.952911 17.385227 0.367346
93.763947 178.032898 16.008310 0.678431
93.801575 177.952911 14.611960 0.396323
93.763954 178.032867 13.242234 0.678431
122.334724 117.300293 5.255023 0.314427
122.367401 117.230820 4.761275 0.144579
93.801582 177.952881 9.115803 0.370260
93.801575 177.952881 7.749421 0.401801
121.966278 118.083496 3.351757 0.569604
104.648254 154.896240 4.188360 0.875563
121.966896 118.082176 2.361728 0.247120
122.556343 116.829193 1.858151 0.525750
93.801575 177.952896 0.939730 0.370687
122.125702 117.744598 0.885597 0.291310
122.192238 117.603165 0.400833 0.188632
123.003479 115.878723 -0.000048 0.442939
126.351822 108.761185 -0.000002 0.656306
128.483231 104.230469 -0.000031 0.404501
129.959930 101.091476 -0.000026 0.458289
131.043640 98.787857 -0.000023 0.448142
131.873062 97.024757 -0.000021 0.427115
132.528503 95.631493 -0.000019 0.405859
133.059677 94.502380 -0.000017 0.499672
133.498993 93.568520 -0.000015 0.432120
133.868515 92.783051 -0.000015 0.482002
134.183731 92.112984 -0.000013 0.490791
134.455887 91.534454 -0.000013 0.563043
134.693329 91.029732 -0.000012 0.356298
134.902359 90.585396 -0.000011 0.422934
135.087845 90.191101 -0.000011 0.311971
135.253616 89.838730 -0.000010 0.446036
135.402710 89.521820 -0.000010 0.394263
94.924088 177.952911 28.618328 0.385168
94.924080 177.952911 27.176626 0.389929
94.887405 178.032883 25.764725 0.678431
94.924095 177.952881 24.320507 0.404517
94.887405 178.032883 22.923077 0.678431
94.924080 177.952911 21.497038 0.381994
94.924072 177.952911 20.096161 0.394293
94.924088 177.952881 18.701820 0.386236
94.924088 177.952896 17.313501 0.420829
94.887405 178.032898 15.942850 0.678431
94.924080 177.952911 14.552852 0.400931
94.887421 178.032867 13.189362 0.678431
94.924080 177.952911 11.810226 0.408209
122.684486 117.406799 4.763496 0.293858
122.430016 117.961807 4.322088 0.634928
94.924088 177.952896 7.721535 0.403281
123.014305 116.687454 3.273468 0.235874
122.667404 117.444054 2.827890 0.968627
122.763908 117.233582 2.340022 0.316182
122.531395 117.740692 1.863631 0.358663
122.387329 118.054916 1.374106 0.263310
103.660690 158.898132 -0.000110 0.443992
122.965614 116.793655 0.435532 0.273838
123.318115 116.024841 -0.000047 0.449287
126.596542 108.874512 0.000016 0.653239
128.683243 104.323364 -0.000031 0.469062
130.129044 101.170029 -0.000026 0.447211
131.190094 98.855881 -0.000023 0.425177
132.002167 97.084724 -0.000020 0.469368
132.643890 95.685089 -0.000019 0.456992
133.163956 94.550819 -0.000017 0.448753
133.594086 93.612686 -0.000015 0.460609
133.955872 92.823624 -0.000014 0.466484
134.264511 92.150497 -0.000014 0.453986
134.530975 91.569321 -0.000013 0.388922
134.763443 91.062294 -0.000012 0.484306
134.968109 90.615936 -0.000012 0.504204
135.149719 90.219833 -0.000011 0.325536
135.312012 89.865852 -0.000010 0.293523
135.457977 89.547501 -0.000010 0.567620
96.036530 177.952911 28.498640 0.405585
96.036530 177.952911 27.063328 0.380774
96.000809 178.032867 25.657679 0.678431
96.036537 177.952881 24.219872 0.397955
96.036530 177.952911 22.810610 0.395605
96.036522 177.952911 21.408918 0.401907
96.036522 177.952911 20.014256 0.395590
96.000793 178.032898 18.640562 0.678431
96.036530 177.952911 17.243931 0.405936
96.000793 178.032898 15.879354 0.678431
96.036530 177.952911 14.495518 0.394965
96.000809 178.032883 13.138073 0.678431
96.036530 177.952911 11.765050 0.394995
96.036514 177.952911 10.405321 0.399771
96.036537 177.952881 9.048623 0.404120
122.951431 117.696365 3.802594 0.258824
123.022369 117.537537 3.308821 0.354253
123.072792 117.424652 2.821839 0.215686
123.413277 116.662392 2.324544 0.369009
122.711945 118.232529 1.866077 0.968627
122.371330 118.995071 1.368456 0.296880
122.966057 117.663620 0.893921 0.299641
122.944305 117.712303 0.407847 0.278981
123.634163 116.167877 -0.000047 0.442939
126.842255 108.985649 0.000020 0.654841
128.884155 104.414284 -0.000031 0.418067
130.298935 101.246918 -0.000026 0.467521
131.337204 98.922455 -0.000023 0.441138
132.131851 97.143417 -0.000021 0.471733
132.759811 95.737549 -0.000018 0.450996
133.268707 94.598228 -0.000017 0.414328
133.689621 93.655922 -0.000015 0.488640
134.043640 92.863350 -0.000015 0.447089
134.345642 92.187225 -0.000013 0.411292
134.606400 91.603455 -0.000013 0.447120
134.833878 91.094170 -0.000012 0.477073
135.034149 90.645821 -0.000012 0.563668
135.211853 90.247955 -0.000011 0.436500
135.370682 89.892395 -0.000010 0.364874
135.513504 89.572632 -0.000010 0.426825
97.104507 178.032837 28.405315 0.615946
97.139252 177.952942 26.953463 0.435080
97.104485 178.032883 25.553879 0.678431
97.139275 177.952896 24.122282 0.445518
97.139259 177.952942 22.719112 0.430777
97.139267 177.952927 21.323465 0.405356
97.139252 177.952942 19.934828 0.419425
97.104477 178.032898 18.567060 0.678431
97.139267 177.952911 17.176466 0.413062
97.104477 178.032898 15.817776 0.678431
97.139267 177.952911 14.439924 0.433402
97.104492 178.032867 13.088336 0.545922
123.075684 118.321640 5.316585 0.544732
123.072548 118.328857 4.821805 0.376135
123.397789 117.581085 4.268548 0.758312
123.444160 117.474472 3.778899 0.286397
122.931122 118.654022 3.357348 0.619791
123.318916 117.762421 2.828707 0.313207
122.892540 118.742722 2.366051 0.308095
123.080238 118.311180 1.865576 0.321569
123.007568 118.478249 1.373232 0.301961
122.881668 118.767708 0.873413 0.968627
123.613373 117.085419 0.435459 0.245365
123.951607 116.307785 -0.000047 0.434516
127.088989 109.094536 0.000013 0.655497
129.085953 104.503235 -0.000031 0.428367
130.469574 101.322128 -0.000026 0.456992
131.484970 98.987587 -0.000023 0.409659
132.262115 97.200836 -0.000021 0.440070
132.876236 95.788872 -0.000019 0.429465
133.373932 94.644608 -0.000017 0.487541
133.785568 93.698212 -0.000015 0.476448
134.131790 92.902199 -0.000015 0.390661
134.427139 92.223145 -0.000013 0.393530
134.682144 91.636848 -0.000013 0.498131
134.904617 91.125351 -0.000012 0.546105
135.100479 90.675056 -0.000012 0.422080
135.274277 90.275467 -0.000011 0.469368
135.429596 89.918365 -0.000010 0.525872
135.569275 89.597214 -0.000010 0.426184
98.220718 177.981033 28.278030 0.313161
98.232620 177.952911 26.846956 0.415900
98.220718 177.981033 25.440136 0.314519
98.232620 177.952911 24.027683 0.406714
98.232613 177.952942 22.630409 0.395346
98.232620 177.952911 21.240633 0.401816
98.232620 177.952927 19.857830 0.408438
98.220718 177.981049 18.486519 0.316991
98.232620 177.952911 17.111059 0.428168
98.220703 177.981064 15.750305 0.316991
98.232620 177.952927 14.386025 0.410574
98.232620 177.952911 13.030418 0.412848
98.232620 177.952911 11.678775 0.418006
123.621536 117.977386 4.775794 0.290196
98.232620 177.952911 8.985448 0.395743
98.232628 177.952911 7.642829 0.393317
111.318565 147.040359 4.763279 0.784253
123.376122 118.557121 2.851877 0.306783
123.371025 118.569160 2.359213 0.264286
123.165016 119.055809 1.869835 0.785565
123.436905 118.413544 1.374729 0.260288
123.861671 117.410110 0.905501 0.274601
123.117844 119.167252 0.366433 0.256214
124.270393 116.444603 -0.000047 0.441306
127.336670 109.201218 -0.000008 0.655467
129.288605 104.590202 -0.000031 0.452979
130.640930 101.395660 -0.000026 0.475837
131.633362 99.051277 -0.000023 0.435218
132.392929 97.256973 -0.000020 0.476158
132.993164 95.839043 -0.000018 0.478828
133.479599 94.689949 -0.000017 0.415946
133.881912 93.739563 -0.000016 0.485878
134.220306 92.940186 -0.000014 0.450294
134.508987 92.258263 -0.000013 0.482185
134.758224 91.669495 -0.000013 0.507988
134.975662 91.155838 -0.000012 0.336629
135.167084 90.703644 -0.000011 0.385336
135.336960 90.302368 -0.000010 0.563119
135.488770 89.943756 -0.000010 0.459861
135.625290 89.621246 -0.000010 0.345113
99.284012 178.032867 28.183598 0.678431
99.316925 177.952927 26.743753 0.411810
99.284012 178.032867 25.355757 0.678431
99.316940 177.952911 23.936014 0.400519
99.316925 177.952942 22.544462 0.386069
99.316925 177.952927 21.160366 0.417350
99.316925 177.952911 19.783218 0.405661
99.283997 178.032898 18.426777 0.678431
99.316925 177.952927 17.047688 0.406912
99.283997 178.032898 15.700252 0.678431
99.316933 177.952911 14.333797 0.388647
99.316925 177.952927 12.983742 0.395727
99.316933 177.952911 11.637629 0.399420
99.316933 177.952911 10.294973 0.376532
99.283997 178.032913 8.961555 0.400839
99.316940 177.952896 7.618188 0.378241
116.533295 136.144501 4.210182 0.546181
123.813065 118.466232 2.843620 0.206653
116.641502 135.881744 2.723861 0.407446
123.671616 118.809746 1.867071 0.590768
123.484871 119.263245 1.369718 0.231220
123.514694 119.190811 0.870607 0.317266
119.201866 129.664124 -0.000067 0.442039
124.590515 116.578270 -0.000047 0.438895
127.585602 109.304977 0.000002 0.655482
129.492111 104.675179 -0.000031 0.446433
130.813004 101.467514 -0.000026 0.427329
131.782379 99.113487 -0.000023 0.423896
132.524292 97.311821 -0.000020 0.401160
133.110580 95.888069 -0.000018 0.420249
133.585709 94.734253 -0.000017 0.459876
133.978668 93.779968 -0.000015 0.470695
134.309204 92.977303 -0.000014 0.467658
134.591171 92.292580 -0.000013 0.442924
134.834610 91.701393 -0.000013 0.424353
135.046997 91.185623 -0.000012 0.442908
135.233978 90.731567 -0.000011 0.464057
135.399902 90.328651 -0.000011 0.553201
135.548172 89.968567 -0.000010 0.614221
135.681534 89.644730 -0.000010 0.459648
100.360497 178.032867 28.077915 0.678431
100.392509 177.952911 26.643793 0.400931
100.392525 177.952881 25.241230 0.397742
100.392517 177.952896 23.847225 0.409751
100.392509 177.952911 22.461206 0.398932
100.360497 178.032867 21.099169 0.678431
100.392502 177.952927 19.710955 0.410605
100.360489 178.032898 18.359911 0.678431
100.392502 177.952911 16.986311 0.405951
100.360489 178.032898 15.644233 0.678431
100.392509 177.952911 14.283218 0.403540
100.392509 177.952911 12.938527 0.408240
100.392509 177.952911 11.597770 0.408820
124.037315 118.893387 4.834534 0.301961
100.360489 178.032898 8.932345 0.510170
100.392502 177.952911 7.594326 0.407431
112.768524 147.040359 4.737965 0.807172
108.885773 156.738602 4.188339 0.878019
107.405891 160.435028 3.238841 0.937255
116.485626 137.755844 1.999662 0.641443
