# This PCD file was generated using the MATLABÂ® pcwrite function
# from Computer Vision System ToolboxÂ®.
# .PCD v.7 - Point Cloud Data file format
VERSION .7
FIELDS x y z intensity
SIZE 4 4 4 4
TYPE F F F F
COUNT 1 1 1 1
WIDTH 1205
HEIGHT 1
VIEWPOINT 0 0 0 1 0 0 0
POINTS 1205
DATA ascii
116.331207 137.238846 1.318225 0.776059
116.845795 136.779892 0.728111 0.435691
113.810234 139.487259 0.000024 0.438148
124.369652 130.069443 -0.000052 0.733318
130.240097 124.833664 0.000011 0.436713
133.976852 121.500900 -0.000012 0.652873
136.653397 119.113724 0.010013 1.000000
138.465698 117.497353 0.000006 0.655177
139.919739 116.200516 0.000000 0.659113
141.068817 115.175667 -0.000000 0.647898
142.000076 114.345085 0.000009 0.678630
142.770203 113.658218 -0.000004 0.651194
143.418015 113.080437 -0.000003 0.653452
143.970642 112.587563 -0.000005 0.657282
144.447784 112.162010 -0.000006 0.665080
144.864044 111.790741 -0.000006 0.665904
145.230515 111.463898 -0.000005 0.662089
145.555695 111.173866 -0.000007 0.661601
145.846313 110.914665 -0.000007 0.688365
146.107697 110.681557 -0.000005 0.694560
nan nan nan 0.000000
nan nan nan 0.000000
nan nan nan 0.000000
nan nan nan 0.000000
nan nan nan 0.000000
nan nan nan 0.000000
nan nan nan 0.000000
nan nan nan 0.000000
nan nan nan 0.000000
nan nan nan 0.000000
nan nan nan 0.000000
nan nan nan 0.000000
90.249779 161.576263 9.674127 0.889342
90.249786 161.576263 8.594640 0.918990
98.041313 154.488541 6.757929 0.690425
106.067093 147.187714 5.181516 0.830152
116.943344 137.293915 3.714712 0.364706
117.173317 137.084717 3.105532 0.300496
97.101494 155.343475 3.043958 0.611963
117.274811 136.992386 1.916106 0.462043
117.316147 136.954788 1.324259 0.396078
116.644508 137.565750 0.714846 0.587091
114.135376 139.848236 0.000024 0.443168
124.601807 130.327225 -0.000052 0.727230
130.420593 125.034042 0.000012 0.451316
134.124466 121.664742 -0.000010 0.658381
136.777466 119.251381 0.010018 1.000000
138.573776 117.617325 0.000008 0.653147
140.015030 116.306259 0.000004 0.657282
141.153961 115.270210 -0.000001 0.654841
142.077057 114.430504 0.000012 0.659312
142.840378 113.736130 -0.000005 0.665248
143.482498 113.152016 -0.000002 0.638437
144.030243 112.653740 -0.000005 0.682826
144.503189 112.223518 -0.000007 0.649622
144.915787 111.848183 -0.000005 0.650675
145.279022 111.517761 -0.000006 0.653910
145.601349 111.224548 -0.000007 0.671229
145.889404 110.962509 -0.000007 0.684016
146.148483 110.726837 -0.000005 0.687007
nan nan nan 0.000000
nan nan nan 0.000000
nan nan nan 0.000000
nan nan nan 0.000000
nan nan nan 0.000000
nan nan nan 0.000000
nan nan nan 0.000000
nan nan nan 0.000000
nan nan nan 0.000000
nan nan nan 0.000000
nan nan nan 0.000000
nan nan nan 0.000000
90.249771 162.671387 9.747097 0.875944
90.249786 162.671371 8.657830 0.934783
117.362045 137.517303 4.903742 0.269139
106.938820 147.187714 5.143660 0.812970
106.938812 147.187714 4.359371 0.863294
97.831650 155.637115 3.982710 0.721782
97.103577 156.312592 3.056805 0.682246
122.267654 132.966003 1.874212 0.235294
124.125542 131.242310 1.382374 0.258824
123.936707 131.417511 0.901985 0.301228
114.464066 140.205978 0.000024 0.442741
124.836533 130.582672 -0.000051 0.731807
130.603043 125.232643 0.000012 0.442252
134.273651 121.827148 -0.000011 0.657633
136.902863 119.387833 0.010020 1.000000
138.683075 117.736206 0.000014 0.653330
140.111328 116.411095 0.000003 0.649729
141.240036 115.363914 -0.000003 0.661128
142.154846 114.515175 0.000013 0.662760
142.911301 113.813354 -0.000006 0.653758
143.547668 113.222954 -0.000002 0.662669
144.090500 112.719322 -0.000005 0.659419
144.559189 112.284485 -0.000007 0.641398
144.968094 111.905113 -0.000005 0.653803
145.328064 111.571144 -0.000006 0.665110
145.647491 111.274780 -0.000007 0.673411
145.932968 111.009926 -0.000007 0.671458
146.189713 110.771721 -0.000004 0.628779
nan nan nan 0.000000
nan nan nan 0.000000
nan nan nan 0.000000
nan nan nan 0.000000
nan nan nan 0.000000
nan nan nan 0.000000
nan nan nan 0.000000
nan nan nan 0.000000
nan nan nan 0.000000
nan nan nan 0.000000
nan nan nan 0.000000
nan nan nan 0.000000
123.685043 132.149811 5.288593 0.269978
123.866364 131.978241 4.775605 0.250523
97.830688 156.613480 6.873300 0.718547
123.745087 132.092987 3.811746 0.434073
124.497818 131.380753 3.276402 0.245838
97.838654 156.605957 4.004230 0.735912
124.257584 131.608063 2.335975 0.310460
124.538719 131.342041 1.856098 0.321569
123.805588 132.035751 1.377296 0.388617
97.120789 157.285202 0.170382 0.588754
114.796211 140.560516 0.000024 0.441886
125.073730 130.835815 -0.000051 0.738643
130.787430 125.429443 0.000012 0.442329
134.424454 121.988060 -0.000010 0.657938
136.944321 119.603729 0.000010 0.651576
138.793488 117.854019 0.000016 0.653590
140.208649 116.514992 0.000000 0.647868
141.327011 115.456772 -0.000005 0.658991
142.233475 114.599068 0.000016 0.641382
142.982986 113.889870 -0.000006 0.640085
143.613525 113.293251 -0.000003 0.647242
144.151398 112.784317 -0.000006 0.644633
144.615784 112.344894 -0.000007 0.656840
145.020950 111.961533 -0.000005 0.651011
145.377625 111.624039 -0.000007 0.648188
145.694138 111.324554 -0.000007 0.672435
145.976990 111.056908 -0.000007 0.635294
146.231384 110.816200 -0.000004 0.662120
nan nan nan 0.000000
nan nan nan 0.000000
nan nan nan 0.000000
nan nan nan 0.000000
nan nan nan 0.000000
nan nan nan 0.000000
nan nan nan 0.000000
nan nan nan 0.000000
nan nan nan 0.000000
nan nan nan 0.000000
nan nan nan 0.000000
123.893959 132.456375 5.788346 0.596674
123.638138 132.703232 5.329590 0.280949
124.358749 132.007858 4.746987 0.272358
124.396774 131.971161 4.260283 0.270695
124.446342 131.923325 3.774933 0.235294
108.628220 147.187714 4.303108 0.899535
123.912010 132.438950 2.840536 0.565515
124.734589 131.645172 2.329706 0.391028
123.850342 132.498474 1.864584 0.263554
123.859741 132.489395 1.375501 0.325475
123.856979 132.492065 0.886344 0.321569
124.772903 131.608200 0.438629 0.304417
125.313400 131.086624 -0.000050 0.734890
130.973755 125.624420 0.000012 0.430228
134.576813 122.147476 -0.000008 0.656306
137.073120 119.738564 0.000008 0.654536
138.905029 117.970787 0.000013 0.662730
140.306931 116.617958 -0.000008 0.642924
141.414902 115.548767 -0.000006 0.662440
142.312897 114.682220 0.000011 0.653300
143.055435 113.965675 -0.000006 0.670985
143.680069 113.362900 -0.000004 0.647074
144.212921 112.848709 -0.000006 0.630686
144.672989 112.404747 -0.000007 0.648264
145.074356 112.017426 -0.000006 0.641657
145.427704 111.676453 -0.000007 0.634348
145.741257 111.373871 -0.000008 0.652888
146.021484 111.103462 -0.000007 0.688396
146.273499 110.860260 -0.000003 0.639597
78.104782 178.033005 28.213396 0.631708
78.186218 177.952850 26.765093 0.398917
78.104782 178.033005 25.382387 0.633677
78.186226 177.952850 23.954971 0.385702
78.186203 177.952881 22.562237 0.389807
78.186241 177.952835 21.176958 0.401556
78.186211 177.952866 19.798649 0.365286
78.104782 178.033005 18.445625 0.631708
78.186226 177.952850 17.060791 0.400717
78.104774 178.033005 15.716042 0.631327
78.186218 177.952850 14.344603 0.398978
78.186203 177.952881 12.993395 0.396872
78.186218 177.952850 11.646136 0.382910
124.634666 132.241318 4.744030 0.336034
97.832840 158.617920 6.973576 0.701381
124.414993 132.457504 3.798244 0.751385
109.447327 147.187714 4.276213 0.902296
124.300278 132.570389 2.834436 0.905882
124.907524 131.972778 2.331763 0.290196
125.168640 131.715805 1.854830 0.282536
124.180115 132.688644 1.376093 0.303990
124.536194 132.338211 0.898005 0.345098
125.123215 131.760513 0.443362 0.530724
125.555534 131.335052 -0.000049 0.739498
131.161972 125.817558 0.000012 0.451637
134.730728 122.305420 -0.000008 0.656245
137.203278 119.872101 0.000009 0.654902
139.017715 118.086441 0.000012 0.656199
140.406250 116.719940 -0.000013 0.649790
141.503723 115.639877 -0.000004 0.650080
142.393097 114.764603 0.000004 0.649302
143.128601 114.040771 -0.000007 0.649714
143.747299 113.431900 -0.000005 0.645075
144.275085 112.912491 -0.000005 0.670741
144.730759 112.464035 -0.000007 0.659068
145.128311 112.072792 -0.000006 0.643961
145.478287 111.728363 -0.000007 0.635325
145.788864 111.422722 -0.000008 0.653315
146.066422 111.149574 -0.000006 0.624933
146.316040 110.903908 -0.000003 0.653208
79.517128 178.033005 27.951986 0.678431
79.596970 177.952866 26.517923 0.413199
79.596992 177.952850 25.122419 0.408804
79.596977 177.952850 23.735426 0.412100
79.596962 177.952881 22.356380 0.441245
79.517151 178.032990 21.006451 0.678431
79.596962 177.952881 19.619953 0.396139
79.517128 178.033005 18.280237 0.678431
79.596970 177.952866 16.909019 0.415290
79.517143 178.032990 15.577476 0.678431
79.596962 177.952881 14.219523 0.410559
79.596954 177.952881 12.881601 0.419120
79.596977 177.952850 11.547580 0.415198
124.481949 132.904037 4.793115 0.307713
125.143890 132.239685 4.235463 0.488365
124.632690 132.752747 3.801412 0.838163
124.903122 132.481339 3.298311 0.234897
124.755630 132.629364 2.825223 0.435462
124.645416 132.739990 2.346034 0.820020
124.493980 132.891968 1.863388 0.937865
124.408493 132.977768 1.375818 0.582712
124.142891 133.244339 0.879983 0.290196
115.813370 141.604263 0.000024 0.442420
125.800064 131.581116 -0.000050 0.718181
131.352081 126.008835 0.000012 0.441062
134.886200 122.461823 -0.000007 0.652522
137.334717 120.004372 0.000008 0.654017
139.131531 118.200996 0.000009 0.652506
140.506607 116.820892 -0.000011 0.658793
141.593430 115.730103 0.000001 0.651820
142.474136 114.846184 0.000001 0.653376
143.202530 114.115143 -0.000006 0.663630
143.815201 113.500221 -0.000006 0.659907
144.337860 112.975662 -0.000006 0.674952
144.789124 112.522751 -0.000007 0.663645
145.182816 112.127625 -0.000006 0.663371
145.529388 111.779778 -0.000007 0.647959
145.836945 111.471100 -0.000008 0.670192
146.111801 111.195236 -0.000006 0.665843
146.359009 110.947136 -0.000003 0.690532
80.980431 177.952850 27.668917 0.395621
80.980400 177.952866 26.277922 0.407797
80.980415 177.952850 24.895870 0.396353
80.878235 178.057449 23.554319 0.295201
80.980400 177.952881 22.156485 0.411688
80.878227 178.057449 20.826145 0.296605
80.980392 177.952881 19.446445 0.376516
80.878227 178.057434 18.125275 0.296605
80.980400 177.952866 16.761639 0.379400
80.980385 177.952881 15.427442 0.375204
80.980392 177.952881 14.098071 0.393194
80.980385 177.952881 12.773045 0.376150
124.812187 133.088684 5.274328 0.606287
80.980400 177.952866 10.134129 0.371618
124.801163 133.099960 4.296988 0.316854
125.287827 132.601837 3.767941 0.276967
124.776535 133.125168 3.323400 0.174701
97.843697 160.692383 4.097966 0.733715
124.506386 133.401688 2.357202 0.485435
124.791023 133.110336 1.863040 0.436622
124.737206 133.165436 1.376455 0.452842
124.615784 133.289703 0.885871 0.278431
124.440331 133.469284 0.387953 0.324086
126.047028 131.824753 -0.000049 0.712276
131.544067 126.198242 0.000013 0.442390
135.043198 122.616692 -0.000006 0.653834
137.467468 120.135323 0.000009 0.653605
139.246460 118.314423 0.000007 0.645121
140.607971 116.920837 -0.000005 0.660395
141.684021 115.819450 0.000003 0.654765
142.555969 114.926956 -0.000003 0.639017
143.277176 114.188774 -0.000005 0.668284
143.883774 113.567879 -0.000006 0.646296
144.401245 113.038216 -0.000007 0.645701
144.848053 112.580894 -0.000007 0.674266
145.237839 112.181923 -0.000006 0.641184
145.580994 111.830688 -0.000008 0.654002
145.885498 111.519012 -0.000008 0.659876
146.157639 111.240456 -0.000005 0.638605
146.402390 110.989944 -0.000003 0.657511
82.337563 177.952850 27.422676 0.403922
82.310501 177.981094 26.054480 0.320974
82.337555 177.952850 24.675846 0.410010
82.310509 177.981094 23.323776 0.321736
82.337547 177.952866 21.962355 0.403479
82.310509 177.981094 20.624275 0.322072
82.337540 177.952866 19.277927 0.412100
82.310509 177.981079 17.951794 0.322927
82.337547 177.952866 16.618504 0.373297
82.337524 177.952881 15.296920 0.416663
82.337547 177.952866 13.980109 0.406455
82.337532 177.952881 12.667609 0.407614
82.310501 177.981094 11.362794 0.325597
125.129822 133.283661 4.777658 0.735164
97.836456 161.774155 7.135444 0.713481
111.911606 147.081635 4.930161 0.654765
111.810394 147.187302 4.200099 0.867216
97.842674 161.767654 4.123287 0.719875
97.842911 161.767426 3.121621 0.713115
125.807068 132.576721 1.855906 0.231342
124.767303 133.662079 1.374256 0.258824
124.863258 133.561920 0.885408 0.285206
125.481522 132.916534 0.424659 0.346441
126.296371 132.065948 -0.000048 0.749569
131.737885 126.385757 0.000013 0.443748
135.201691 122.770020 -0.000004 0.652003
137.601471 120.264977 0.000009 0.648936
139.362518 118.426697 0.000007 0.654368
140.710342 117.019760 0.000003 0.647410
141.775467 115.907921 0.000003 0.662531
142.638596 115.006920 -0.000006 0.650614
143.352524 114.261681 -0.000005 0.663600
143.953003 113.634865 -0.000006 0.654154
144.465256 113.100143 -0.000007 0.653407
144.907547 112.638458 -0.000006 0.621836
145.293396 112.235672 -0.000006 0.666758
145.633087 111.881096 -0.000008 0.661982
145.934525 111.566437 -0.000008 0.650538
146.203918 111.285225 -0.000005 0.645716
146.446198 111.032326 -0.000003 0.655680
83.669403 177.952866 27.183493 0.400931
83.594147 178.032974 25.845558 0.678431
83.669403 177.952850 24.462116 0.413062
83.594124 178.033005 23.138212 0.678431
83.669403 177.952866 21.773781 0.402167
83.594147 178.032990 20.461781 0.678431
83.669388 177.952881 19.114244 0.411261
83.669395 177.952866 17.794006 0.406561
83.669395 177.952881 16.479467 0.391409
83.669380 177.952881 15.170138 0.405676
83.669395 177.952881 13.865533 0.400427
83.669388 177.952881 12.565202 0.396078
125.226746 133.711334 5.290369 0.455589
83.669388 177.952881 9.975466 0.437919
97.837509 162.869644 7.192711 0.723201
112.643097 147.107758 4.901589 0.652888
125.549881 133.367340 3.306890 0.295308
124.516357 134.467621 2.873926 0.142382
125.004303 133.948151 2.358187 0.388235
125.831604 133.067413 1.858126 0.350210
97.841782 162.865097 1.114299 0.714763
124.161530 134.845367 0.857638 0.249363
125.020897 133.930496 0.390199 0.357778
126.548065 132.304688 -0.000047 0.743328
131.933533 126.571365 0.000013 0.451637
135.361679 122.921799 -0.000005 0.655528
137.736786 120.393288 0.000012 0.655085
139.479721 118.537781 0.000013 0.653300
140.813614 117.117737 0.000002 0.649256
141.867798 115.995461 0.000007 0.650935
142.722015 115.086060 -0.000006 0.660334
143.428604 114.333847 -0.000005 0.642527
144.022903 113.701157 -0.000006 0.642237
144.529877 113.161438 -0.000007 0.645747
144.967606 112.695427 -0.000006 0.640162
145.349487 112.288879 -0.000007 0.655406
145.685669 111.930984 -0.000008 0.645762
145.984009 111.613380 -0.000008 0.630823
146.250626 111.329536 -0.000004 0.663218
146.490402 111.074272 -0.000004 0.667124
84.976906 177.952866 26.951120 0.388327
84.903130 178.032974 25.625343 0.678431
84.976913 177.952866 24.254478 0.399573
84.903084 178.033020 22.942610 0.678431
84.976906 177.952866 21.590580 0.399283
84.976898 177.952881 20.269590 0.405692
84.976891 177.952881 18.955219 0.416068
84.976906 177.952850 17.646980 0.360769
84.976906 177.952866 16.344393 0.404715
84.976891 177.952881 15.046962 0.409354
84.903099 178.032990 13.767837 0.678431
84.976891 177.952881 12.465706 0.390875
84.903107 178.032990 11.191686 0.678431
125.771690 133.659698 4.763552 0.404837
97.838837 163.987946 7.251703 0.722759
113.368134 147.126938 4.873297 0.681620
112.615799 147.943787 4.200098 0.873365
97.841034 163.985565 4.176247 0.727199
97.840942 163.985657 3.153400 0.727260
125.162994 134.320602 1.867112 0.291936
111.099998 149.589569 1.237022 0.968246
125.388046 134.076248 0.885102 0.241749
117.216583 142.948456 0.000026 0.442969
126.802078 132.540939 -0.000047 0.739391
132.131012 126.755028 0.000013 0.438254
135.523178 123.071976 -0.000004 0.655634
137.873337 120.520264 0.000014 0.656184
139.597977 118.647736 0.000017 0.654353
140.917831 117.214691 0.000001 0.657298
141.960968 116.082108 0.000009 0.640528
142.806213 115.164375 -0.000008 0.661265
143.505371 114.405251 -0.000005 0.660700
144.093430 113.766769 -0.000006 0.646159
144.595093 113.222092 -0.000007 0.645457
145.028229 112.751808 -0.000006 0.650477
145.406097 112.341537 -0.000007 0.663401
145.738754 111.980354 -0.000008 0.642054
146.033951 111.659836 -0.000008 0.674937
146.297775 111.373383 -0.000003 0.672160
146.535034 111.115784 -0.000004 0.659648
86.260986 177.952850 26.725330 0.378363
86.235550 177.981033 25.394085 0.311742
86.260986 177.952866 24.052731 0.399039
86.260956 177.952896 22.728868 0.382208
86.260986 177.952850 21.412569 0.385519
86.260971 177.952881 20.103354 0.385885
86.260971 177.952881 18.800701 0.351827
86.260979 177.952866 17.504128 0.398047
86.235542 177.981033 16.218904 0.313863
86.260963 177.952881 14.927281 0.387793
86.235535 177.981049 13.650809 0.313863
86.260971 177.952881 12.369034 0.411627
86.235535 177.981049 11.099472 0.315740
86.260971 177.952881 9.825711 0.389425
97.840149 165.130356 7.312516 0.716793
114.087280 147.138641 4.845228 0.703487
113.024071 148.316010 4.200096 0.865171
106.306152 155.755280 3.790431 0.802869
106.306152 155.755280 2.921960 0.777020
106.306152 155.755295 2.053937 0.809537
111.497940 150.006027 1.236763 0.876936
111.892944 149.568604 0.481733 0.864500
117.575539 143.275818 0.000026 0.444205
127.058411 132.774689 -0.000046 0.737484
132.443695 126.811157 0.009993 1.000000
135.779129 123.117569 0.010005 1.000000
138.011124 120.645912 0.000014 0.657053
139.717285 118.756546 0.000017 0.656596
141.022995 117.310631 -0.000002 0.660288
142.055008 116.167809 0.000014 0.645350
142.891159 115.241859 -0.000008 0.667857
143.582855 114.475906 -0.000005 0.677958
144.164612 113.831680 -0.000006 0.651942
144.660889 113.282104 -0.000008 0.647150
145.089386 112.807594 -0.000007 0.665644
145.463211 112.393631 -0.000007 0.663203
145.792313 112.029198 -0.000008 0.654154
146.084351 111.705795 -0.000007 0.622049
146.345352 111.416771 -0.000003 0.631937
146.580063 111.156853 -0.000005 0.634348
87.522491 177.952866 26.505905 0.401175
87.522491 177.952850 25.176996 0.405432
87.522491 177.952866 23.856661 0.413733
87.522461 177.952896 22.544371 0.378836
87.522484 177.952866 21.239584 0.384955
87.522476 177.952881 19.941813 0.390570
87.451553 178.032990 18.669647 0.516747
87.522484 177.952866 17.365294 0.402060
87.451530 178.033020 16.101837 0.678431
87.522461 177.952896 14.810976 0.431510
87.451553 178.032990 13.554328 0.678431
87.522469 177.952881 12.275088 0.382681
87.451561 178.032974 11.023452 0.678431
87.522461 177.952881 9.753994 0.403510
87.451553 178.032990 8.505595 0.678431
114.795921 147.148193 4.817792 0.727413
113.435944 148.684265 4.200095 0.873594
87.522476 177.952881 4.742020 0.393713
87.451553 178.032990 3.494885 0.678431
87.522476 177.952881 2.244189 0.402792
87.522476 177.952881 0.995809 0.382910
112.526466 149.711487 0.487934 0.918959
117.937714 143.599625 0.000026 0.443732
127.317024 133.005920 -0.000046 0.734142
132.531387 127.116440 0.000019 0.656977
135.850525 123.367546 -0.000002 0.654108
138.150131 120.770203 0.000015 0.657694
139.837570 118.864281 0.000003 0.654658
141.129105 117.405525 -0.000003 0.651408
142.149857 116.252602 0.000016 0.660044
142.976883 115.318504 -0.000008 0.658595
143.661011 114.545799 -0.000005 0.669032
144.236420 113.895889 -0.000006 0.663523
144.727280 113.341469 -0.000008 0.654093
145.151108 112.862778 -0.000007 0.654566
145.520844 112.445160 -0.000008 0.648280
145.846344 112.077515 -0.000008 0.644800
146.135208 111.751259 -0.000006 0.647745
146.393356 111.459686 -0.000003 0.631968
146.625504 111.197479 -0.000005 0.633127
88.762253 177.952881 26.292645 0.400793
88.762268 177.952850 24.975117 0.409445
88.762253 177.952866 23.666101 0.413092
88.762253 177.952881 22.365049 0.411002
88.672935 178.055771 21.099482 0.307027
88.762253 177.952881 19.784792 0.396658
88.672943 178.055756 18.528923 0.309041
88.762253 177.952881 17.230368 0.413535
88.672928 178.055786 15.982307 0.310613
88.762238 177.952881 14.697935 0.433112
88.672935 178.055756 13.455827 0.310613
88.762253 177.952881 12.183774 0.397711
88.672928 178.055786 10.945847 0.312078
88.762238 177.952881 9.684288 0.398352
88.672943 178.055756 8.448765 0.312078
115.493149 147.157059 4.791080 0.751949
113.851410 149.048447 4.200094 0.866026
88.762238 177.952881 4.715264 0.410483
88.672928 178.055786 3.479411 0.315007
88.762238 177.952881 2.238839 0.412970
88.762238 177.952881 1.001157 0.393408
96.668121 168.844772 0.000105 0.656718
118.303024 143.919891 0.000026 0.436591
127.577881 133.234619 -0.000046 0.734432
132.734161 127.294220 0.000018 0.654521
136.016357 123.512924 -0.000002 0.655100
138.290329 120.893143 0.000013 0.661692
139.958984 118.970749 0.000001 0.653758
141.236130 117.499374 -0.000005 0.656382
142.245544 116.336472 0.000017 0.649821
143.063339 115.394310 -0.000008 0.654047
143.739853 114.614929 -0.000007 0.662547
144.308853 113.959389 -0.000006 0.652659
144.794250 113.400185 -0.000008 0.651835
145.213348 112.917351 -0.000007 0.657588
145.578979 112.496124 -0.000008 0.652735
145.900848 112.125298 -0.000008 0.626688
146.186493 111.796219 -0.000005 0.659175
146.441772 111.502129 -0.000003 0.652705
146.671326 111.237656 -0.000005 0.650858
89.981049 177.952881 26.085352 0.438361
89.981064 177.952866 24.778898 0.395773
89.912888 178.032990 23.505404 0.678431
89.981049 177.952881 22.190756 0.404761
89.912918 178.032959 20.929651 0.678431
89.981049 177.952881 19.632175 0.390066
89.912903 178.032974 18.381506 0.678431
89.981071 177.952850 17.099203 0.417197
89.912895 178.032990 15.857092 0.678431
89.981049 177.952881 14.588054 0.398581
89.912903 178.032974 13.352636 0.678431
89.981049 177.952881 12.095018 0.415488
89.912895 178.032990 10.864538 0.678431
89.981041 177.952896 9.616535 0.412436
89.912903 178.032974 8.389233 0.678431
116.179901 147.164566 4.765017 0.775357
114.270432 149.408539 4.200092 0.877577
89.981056 177.952881 4.689259 0.388525
89.912895 178.032990 3.463201 0.678431
89.981049 177.952881 2.233640 0.416114
89.981049 177.952881 1.006357 0.431098
97.605179 168.993179 0.009890 1.000000
118.671478 144.236526 0.000026 0.443488
127.840988 133.460709 -0.000045 0.736614
132.938690 127.470001 0.000018 0.657923
136.183609 123.656647 -0.000001 0.657008
138.431732 121.014702 0.000011 0.654414
140.081436 119.075996 0.000000 0.660838
141.344070 117.592178 -0.000008 0.644068
142.341995 116.419449 0.000009 0.661082
143.150543 115.469254 -0.000009 0.659083
143.819366 114.683266 -0.000006 0.677302
144.381912 114.022186 -0.000007 0.670314
144.861801 113.458237 -0.000008 0.647272
145.276138 112.971306 -0.000007 0.652949
145.637604 112.546516 -0.000008 0.649180
145.955826 112.172546 -0.000009 0.654322
146.238220 111.840675 -0.000005 0.663264
146.490601 111.544098 -0.000004 0.646922
146.717560 111.277390 -0.000006 0.643107
91.112877 178.032959 25.911032 0.678431
91.179672 177.952881 24.588137 0.391485
91.112854 178.032974 23.325121 0.678431
91.179665 177.952881 22.021307 0.402838
91.112869 178.032959 20.770588 0.678431
91.179657 177.952881 19.483807 0.428748
91.112854 178.032990 18.243443 0.678431
91.179665 177.952881 16.971703 0.399908
91.112854 178.032990 15.739819 0.678431
91.179657 177.952881 14.481232 0.403342
91.112862 178.032959 13.255994 0.678431
91.179657 177.952881 12.008734 0.409262
91.112862 178.032959 10.788387 0.678431
91.179657 177.952881 9.550664 0.400671
91.112869 178.032959 8.333470 0.678431
116.866821 147.158401 4.738638 0.853071
114.692940 149.764526 4.200091 0.872374
91.179665 177.952881 4.663975 0.410727
91.112869 178.032959 3.448016 0.678431
91.179657 177.952881 2.228586 0.407568
91.179657 177.952881 1.011411 0.397192
97.901588 169.894455 0.000104 0.657099
119.042992 144.549561 0.000026 0.444205
128.106308 133.684204 -0.000044 0.725673
133.144897 127.643799 0.000016 0.655482
136.352264 123.798721 0.000001 0.656245
138.574341 121.134842 0.000011 0.652064
140.204910 119.180061 -0.000003 0.652323
141.452957 117.683884 -0.000006 0.651347
142.439285 116.501450 0.000006 0.649180
143.238480 115.543335 -0.000008 0.665187
143.899551 114.750824 -0.000007 0.649531
144.455582 114.084251 -0.000008 0.663096
144.929901 113.515617 -0.000008 0.649149
145.339447 113.024651 -0.000007 0.640208
145.696732 112.596329 -0.000009 0.652842
146.011261 112.219254 -0.000008 0.630289
146.290390 111.884621 -0.000004 0.644556
146.539841 111.585587 -0.000004 0.635340
146.764160 111.316658 -0.000007 0.621134
92.293343 178.032959 25.714872 0.678431
92.358833 177.952850 24.402657 0.395758
92.293320 178.032990 23.149847 0.678431
92.358818 177.952881 21.856560 0.368383
92.293335 178.032959 20.615950 0.678431
92.358810 177.952881 19.339546 0.411948
92.293320 178.032990 18.109203 0.678431
92.358810 177.952881 16.847733 0.407568
92.293335 178.032959 15.625795 0.678431
92.358810 177.952881 14.377371 0.423392
92.293327 178.032974 13.162035 0.678431
92.358818 177.952881 11.924843 0.402823
92.293343 178.032959 10.714352 0.678431
92.358810 177.952881 9.486622 0.411521
92.293335 178.032959 8.279256 0.678431
117.537643 147.158157 4.713436 0.886351
115.118973 150.116287 4.200090 0.882658
106.670090 160.449615 3.899246 0.937133
92.293327 178.032974 3.433254 0.678431
92.358818 177.952881 2.223673 0.403006
110.753540 155.455383 1.206529 0.938277
110.754227 155.454544 0.379468 0.920333
119.417625 144.858856 0.000027 0.443473
128.373810 133.905090 -0.000043 0.727352
133.352829 127.815536 0.000015 0.652644
136.522324 123.939133 0.000002 0.653407
138.718124 121.253571 0.000012 0.654169
140.329330 119.283005 -0.000017 0.653223
141.562729 117.774513 -0.000003 0.652781
142.537338 116.582520 -0.000002 0.651652
143.327148 115.616554 -0.000008 0.641443
143.980408 114.817596 -0.000007 0.666835
144.529846 114.145599 -0.000008 0.645411
144.998581 113.572327 -0.000008 0.642573
145.403275 113.077370 -0.000008 0.663279
145.756332 112.645561 -0.000009 0.672312
146.067154 112.265411 -0.000008 0.654307
146.342987 111.928055 -0.000003 0.651637
146.589478 111.626587 -0.000005 0.659831
146.811157 111.355469 -0.000007 0.642466
93.455002 178.032959 25.524153 0.678431
93.519180 177.952881 24.222322 0.400885
93.454987 178.032990 22.979429 0.678431
93.519165 177.952881 21.696379 0.385321
93.455002 178.032959 20.465582 0.678431
93.519180 177.952881 19.199289 0.399207
93.454987 178.032990 17.978683 0.568444
93.519173 177.952881 16.727196 0.390173
93.455002 178.032959 15.514926 0.678431
93.519165 177.952881 14.276393 0.389944
93.454987 178.032990 13.070669 0.678431
93.519180 177.952881 11.843271 0.365133
93.519165 177.952881 10.632254 0.400778
93.519165 177.952911 9.424355 0.396506
93.454987 178.032974 8.226544 0.678431
118.198151 147.157440 4.688895 0.909743
115.548416 150.463867 4.200089 0.873808
107.546005 160.449615 3.881205 0.937255
107.466492 160.548843 2.978909 0.996567
107.363770 160.677032 2.073993 0.094118
111.260323 155.814743 1.206788 0.777127
111.566658 155.432480 0.389843 0.820096
119.795212 145.164551 0.000027 0.443320
128.643433 134.123367 -0.000043 0.744610
133.562439 127.985229 0.000014 0.655390
136.693726 124.077873 0.000003 0.652201
138.863083 121.370865 0.000015 0.655924
140.454803 119.384659 -0.000023 0.650187
141.673401 117.864044 0.000002 0.653040
142.636200 116.662613 -0.000009 0.652232
143.416519 115.688896 -0.000008 0.660548
144.061905 114.883568 -0.000007 0.654078
144.604721 114.206207 -0.000008 0.630137
145.067795 113.628365 -0.000008 0.667323
145.467621 113.129448 -0.000008 0.647761
145.816422 112.694199 -0.000009 0.661814
146.123505 112.311012 -0.000007 0.686824
146.396011 111.970970 -0.000003 0.656825
146.639526 111.667099 -0.000005 0.682383
146.858536 111.393814 -0.000007 0.668727
94.598526 178.032959 25.338688 0.678431
94.661423 177.952881 24.046959 0.394797
94.661407 177.952896 22.789965 0.405768
94.661423 177.952881 21.540611 0.384558
94.661423 177.952881 20.298422 0.405035
94.661415 177.952881 19.062899 0.409262
94.661423 177.952881 17.833574 0.416159
94.661423 177.952881 16.609987 0.397406
94.661407 177.952896 15.391679 0.401480
94.661423 177.952881 14.178197 0.397482
94.661407 177.952896 12.969098 0.407034
94.661415 177.952896 11.763956 0.390311
94.661415 177.952896 10.562336 0.419120
124.305450 140.208374 5.270365 0.223529
94.661415 177.952896 8.167943 0.386740
118.848663 147.156281 4.664996 0.923156
115.981255 150.807236 4.200088 0.875685
108.408257 160.449615 3.863662 0.943236
108.330322 160.548843 2.968365 0.989456
123.678108 141.007156 1.906770 0.273716
108.206085 160.707031 1.169279 0.094118
112.287445 155.510406 0.397442 0.924666
120.175812 145.466476 0.000027 0.443122
128.915222 134.338959 -0.000042 0.740001
133.773697 128.152863 0.000013 0.655726
136.866486 124.214935 0.000003 0.653010
139.009155 121.486771 0.000014 0.649470
140.581406 119.484894 -0.000008 0.654948
141.784927 117.952492 0.000005 0.646387
142.735870 116.741692 -0.000010 0.660029
143.506592 115.760361 -0.000007 0.660410
144.144043 114.948738 -0.000007 0.665385
144.680191 114.266075 -0.000008 0.671595
145.137573 113.683716 -0.000008 0.655543
145.532471 113.180908 -0.000008 0.656519
145.876984 112.742249 -0.000009 0.660471
146.180298 112.356064 -0.000006 0.655177
146.449448 112.013367 -0.000003 0.669535
146.689957 111.707123 -0.000006 0.662882
146.906281 111.431702 -0.000007 0.631998
95.786194 177.952881 25.131964 0.374258
95.786186 177.952881 23.876427 0.393332
95.786179 177.952911 22.628988 0.404623
95.786186 177.952881 21.389137 0.411307
95.786179 177.952896 20.156395 0.395636
95.786179 177.952911 18.930269 0.411902
95.786194 177.952881 17.710285 0.403632
95.786179 177.952896 16.496008 0.412192
95.786179 177.952911 15.286963 0.390204
95.786179 177.952896 14.082706 0.419150
95.786179 177.952911 12.882805 0.398032
95.786179 177.952911 11.686822 0.371069
95.786179 177.952911 10.494337 0.398383
95.786179 177.952896 9.304920 0.408103
95.786179 177.952911 8.118154 0.425788
119.489540 147.154694 4.641726 0.928496
116.417435 151.146332 4.200087 0.874540
109.257309 160.449615 3.846601 0.941070
109.180939 160.548843 2.958114 0.991424
124.495071 140.650909 1.901649 0.236484
109.059174 160.707047 1.172706 0.094118
124.595078 140.520981 0.778177 0.269017
120.559349 145.764664 0.000028 0.448173
129.189102 134.551880 -0.000042 0.725521
133.986603 128.318405 0.000012 0.655726
137.040604 124.350281 0.000004 0.654734
139.156403 121.601181 0.000019 0.654139
140.770950 119.503372 0.010014 1.000000
141.951889 117.968964 0.010001 1.000000
142.836319 116.819794 -0.000010 0.653773
143.597382 115.830940 -0.000007 0.659922
144.226822 115.013092 -0.000007 0.654246
144.756241 114.325211 -0.000009 0.653101
145.207886 113.738380 -0.000008 0.648386
145.597824 113.231720 -0.000009 0.686076
145.938019 112.789703 -0.000009 0.649287
146.237518 112.400551 -0.000005 0.644404
146.503296 112.055237 -0.000004 0.637522
146.740784 111.746643 -0.000007 0.645609
146.954391 111.469109 -0.000007 0.638514
96.894089 177.952881 24.956762 0.375525
96.894089 177.952881 23.710583 0.373175
96.894081 177.952881 22.472439 0.375296
96.894089 177.952881 21.241823 0.378790
96.894073 177.952896 20.018269 0.399832
96.894073 177.952896 18.801275 0.380301
96.894089 177.952881 17.590385 0.390265
96.894089 177.952881 16.385157 0.409110
96.894073 177.952911 15.185123 0.408408
96.894081 177.952881 13.989840 0.427298
96.894073 177.952896 12.798877 0.417731
96.894073 177.952896 11.611810 0.394522
96.894073 177.952896 10.428209 0.382055
125.057678 140.606506 5.258145 0.321569
124.797234 140.951874 4.727509 0.301991
124.861732 140.866348 4.154736 0.344488
116.856964 151.481079 4.200082 0.875669
110.093628 160.449615 3.830010 0.937255
125.000046 140.682922 2.459531 0.237446
125.616287 139.865753 1.893112 0.362432
124.795868 140.953674 1.337968 0.318807
124.818130 140.924164 0.774535 0.209781
120.945786 146.059082 0.000028 0.446082
129.465042 134.762115 -0.000042 0.733516
134.201111 128.481842 0.000011 0.655421
137.216019 124.483917 0.000005 0.655146
139.304718 121.714188 0.000018 0.651164
140.898422 119.600853 0.009986 1.000000
142.010590 118.126076 0.000013 0.651392
142.985809 116.832878 0.010013 1.000000
143.688843 115.900620 -0.000007 0.655543
144.310226 115.076630 -0.000006 0.654383
144.832870 114.383591 -0.000009 0.669749
145.278732 113.792351 -0.000008 0.656947
145.663681 113.281891 -0.000009 0.650889
145.999512 112.836548 -0.000009 0.654841
146.295181 112.444473 -0.000004 0.652506
146.557541 112.096573 -0.000005 0.629969
146.792007 111.785667 -0.000007 0.632273
147.002869 111.506042 -0.000007 0.636988
97.985718 177.952866 24.786364 0.407309
97.926544 178.032959 23.573885 0.677058
97.985687 177.952911 22.320183 0.403571
97.926544 178.032959 21.120396 0.677653
97.985703 177.952881 19.883932 0.392920
97.985687 177.952911 18.675825 0.405173
97.985703 177.952881 17.473783 0.413626
97.985703 177.952881 16.277342 0.403250
97.985695 177.952896 15.086077 0.407843
97.985703 177.952881 13.899516 0.398642
97.985695 177.952896 12.717253 0.373922
97.985695 177.952896 11.538854 0.391791
97.985703 177.952881 10.363894 0.437827
97.985695 177.952896 9.191960 0.420066
125.199966 141.118637 4.719775 0.920256
120.743362 147.150620 4.597010 0.857069
125.501778 140.710144 3.567269 0.443244
125.349205 140.916656 3.018834 0.632105
125.339020 140.930435 2.459445 0.290196
125.329201 140.943726 1.899890 0.931640
125.155853 141.178345 1.338199 0.293507
125.246361 141.055847 0.777492 0.277699
125.916344 140.149017 0.252410 0.290196
129.743042 134.969620 -0.000042 0.734493
134.417221 128.643173 0.000011 0.654826
137.392761 124.615799 0.000007 0.658442
139.454132 121.825760 0.000015 0.658381
140.966766 119.778419 -0.000003 0.640269
142.124634 118.211273 0.000006 0.450477
143.087112 116.908554 0.010008 1.000000
143.780991 115.969406 -0.000008 0.643717
144.394241 115.139359 -0.000008 0.666941
144.910065 114.441208 -0.000009 0.645319
145.350098 113.845627 -0.000008 0.656138
145.730011 113.331413 -0.000009 0.655619
146.061462 112.882790 -0.000008 0.654139
146.353271 112.487839 -0.000004 0.660914
146.612198 112.137375 -0.000005 0.669490
146.843597 111.824181 -0.000007 0.685710
147.051712 111.542503 -0.000007 0.649805
99.061592 177.952881 24.620644 0.414923
99.003647 178.032959 23.416830 0.678431
99.061584 177.952896 22.172106 0.407843
99.003647 178.032944 20.980896 0.678431
99.061584 177.952896 19.753281 0.412802
99.003639 178.032959 18.572805 0.678431
99.061600 177.952881 17.360367 0.414710
99.003647 178.032959 16.188810 0.678431
99.061577 177.952911 14.989748 0.414374
99.061584 177.952896 13.811676 0.407126
99.061577 177.952911 12.637869 0.404898
99.061584 177.952896 11.467899 0.412695
99.061584 177.952896 10.301345 0.403342
99.061584 177.952896 9.137794 0.410468
99.061584 177.952896 7.976838 0.410636
125.472534 141.461731 4.161572 0.220645
125.817467 140.985138 3.568902 0.414939
125.486847 141.441940 3.030054 0.326467
125.664375 141.196655 2.459894 0.279820
125.436195 141.511932 1.902479 0.740017
125.525536 141.388489 1.338517 0.549020
125.445305 141.499344 0.772768 0.937072
125.466866 141.469559 0.208828 0.905180
130.023087 135.174377 -0.000041 0.733959
134.634903 128.802368 0.000010 0.658915
137.570770 124.745964 0.000008 0.658122
139.604675 121.935783 0.000019 0.656779
141.097183 119.873650 0.000008 0.471611
142.239532 118.295296 0.000006 0.428244
143.142197 117.048119 -0.000011 0.651774
143.873795 116.037285 -0.000008 0.648112
144.478882 115.201256 -0.000008 0.663615
144.987823 114.498070 -0.000009 0.653620
145.421982 113.898201 -0.000008 0.639155
145.796844 113.380280 -0.000010 0.649882
146.123871 112.928421 -0.000007 0.656870
146.411789 112.530624 -0.000004 0.663096
146.667267 112.177643 -0.000006 0.656840
146.895584 111.862183 -0.000007 0.626932
147.100906 111.578476 -0.000007 0.658259
100.122314 177.952881 24.459461 0.382788
100.065536 178.032959 23.264084 0.678431
100.122284 177.952911 22.028084 0.395880
100.065544 178.032944 20.845224 0.678431
100.122299 177.952896 19.626209 0.411612
100.065552 178.032944 18.454000 0.678431
100.122314 177.952881 17.250063 0.395972
100.065529 178.032974 16.086720 0.678431
100.122299 177.952896 14.896055 0.405264
100.065521 178.032990 13.739816 0.678431
100.122284 177.952911 12.560661 0.421424
100.122299 177.952896 11.398887 0.437110
126.131714 141.263458 5.811016 0.243915
100.122284 177.952911 9.085114 0.374197
125.943497 141.528961 4.712306 0.309071
126.472252 140.783096 4.094703 0.261326
125.915550 141.568390 3.588021 1.000000
125.376320 142.329041 3.055772 0.930785
125.842392 141.671570 2.465439 0.376471
125.833481 141.684158 1.901881 0.316548
126.416130 140.862259 1.344712 0.290196
125.914246 141.570221 0.776999 0.258824
122.122215 146.919342 0.000028 0.445197
130.305115 135.376373 -0.000040 0.732494
134.854126 128.959442 0.000008 0.655543
137.750061 124.874374 0.000009 0.652979
139.823914 121.948959 0.009995 1.000000
141.228455 119.967682 0.000008 0.434791
142.355255 118.378189 0.000007 0.410056
143.245712 117.122101 0.000006 0.431983
144.009109 116.045219 0.009998 1.000000
144.564117 115.262314 -0.000009 0.669505
145.066132 114.554169 -0.000009 0.649256
145.494385 113.950066 -0.000009 0.669032
145.864136 113.428490 -0.000010 0.633738
146.186722 112.973434 -0.000006 0.637034
146.470718 112.572838 -0.000004 0.653513
146.722717 112.217361 -0.000007 0.654475
146.947922 111.899681 -0.000007 0.679103
147.150467 111.613968 -0.000007 0.652873
101.168350 177.952881 24.302696 0.400153
101.112747 178.032974 23.115520 0.678431
101.168343 177.952896 21.887995 0.380743
101.112770 178.032944 20.713261 0.678431
101.168343 177.952911 19.502613 0.412482
101.112755 178.032959 18.338457 0.678431
101.168350 177.952881 17.142784 0.389792
101.112747 178.032974 15.987423 0.678431
101.168335 177.952911 14.804929 0.446265
101.112747 178.032974 13.656625 0.678431
101.168335 177.952911 12.485564 0.409705
101.112755 178.032959 11.342653 0.678431
101.168343 177.952911 10.181335 0.406027
101.168335 177.952911 9.033872 0.404761
101.168335 177.952911 7.888963 0.409033
126.204758 141.890778 4.157239 0.301961
118.647156 152.776642 4.200077 0.875364
125.610352 142.746948 3.062571 0.248096
126.183441 141.921463 2.465609 0.683482
126.323441 141.719818 1.900231 0.163653
126.272957 141.792526 1.339189 0.651102
113.203949 160.616974 0.327452 0.240162
122.519928 147.198349 0.000028 0.443107
130.589111 135.575592 -0.000040 0.722606
135.074890 129.114334 0.000007 0.655161
137.930603 125.001015 0.000010 0.657526
139.908752 122.151711 -0.000006 0.653513
141.360641 120.060425 0.000008 0.424903
142.471786 118.459938 0.000007 0.391669
143.349869 117.195175 0.000006 0.368277
144.102707 116.110786 0.010010 1.000000
144.649963 115.322540 -0.000009 0.656321
145.144989 114.609497 -0.000009 0.638865
145.567291 114.001213 -0.000009 0.637491
145.931915 113.476028 -0.000010 0.666941
146.250015 113.017830 -0.000006 0.640574
146.530060 112.614471 -0.000004 0.631571
146.778549 112.256538 -0.000007 0.651133
147.000626 111.936661 -0.000007 0.647379
147.200363 111.648972 -0.000007 0.639536
102.200241 177.952881 24.150217 0.414786
102.145782 178.032959 22.971027 0.678431
102.200211 177.952911 21.751760 0.417166
102.145805 178.032944 20.584913 0.678431
102.200226 177.952896 19.382402 0.397955
102.145798 178.032959 18.226070 0.678431
102.200226 177.952896 17.038437 0.383902
102.145782 178.032974 15.890843 0.678431
102.200211 177.952911 14.716295 0.419608
102.145790 178.032959 13.575715 0.678431
102.200211 177.952911 12.412523 0.425116
102.145805 178.032944 11.277296 0.678431
102.200211 177.952911 10.123791 0.395224
102.200211 177.952911 8.984036 0.409476
102.200211 177.952911 7.846826 0.403021
120.846848 150.523575 4.755787 0.814572
119.102554 153.089447 4.200076 0.876402
126.805527 141.758331 3.013739 0.302296
114.031601 160.548859 2.902239 0.992828
126.852264 141.689575 1.898107 0.258824
126.052254 142.866394 1.332578 0.260273
113.985306 160.616974 0.336141 0.233036
122.920341 147.473450 0.000028 0.444068
130.875046 135.772034 -0.000039 0.734997
135.297165 129.267059 0.000006 0.654200
138.112427 125.125793 0.000017 0.656687
140.062546 122.257149 0.000010 0.440940
141.493744 120.151855 0.000008 0.457832
142.589111 118.540550 0.000007 0.447547
143.454742 117.267220 0.000006 0.405844
144.156174 116.235390 -0.000008 0.657404
144.736374 115.381912 -0.000010 0.657435
145.224396 114.664040 -0.000009 0.637720
145.640701 114.051651 -0.000010 0.664576
146.000137 113.522911 -0.000010 0.634943
146.313736 113.061607 -0.000005 0.662776
146.589798 112.655518 -0.000005 0.646860
146.834763 112.295166 -0.000008 0.676524
147.053696 111.973114 -0.000007 0.658427
147.250595 111.683487 -0.000008 0.687831
103.218422 177.952896 24.001928 0.407843
103.218422 177.952896 22.806738 0.410666
103.218430 177.952896 21.619246 0.408804
103.165138 178.032959 20.460089 0.678431
103.218430 177.952896 19.265488 0.396948
103.165131 178.032959 18.116770 0.678431
103.218430 177.952881 16.936949 0.407843
103.165131 178.032959 15.796909 0.678431
103.218414 177.952911 14.630100 0.406928
103.165131 178.032959 13.497024 0.678431
103.218414 177.952911 12.341486 0.392340
103.165146 178.032944 11.213729 0.678431
103.218422 177.952896 10.067814 0.399619
103.218422 177.952896 8.935566 0.414084
126.939835 142.310898 4.718100 0.266117
120.852036 151.457962 4.801337 0.760189
119.560989 153.397797 4.200076 0.885542
114.867683 160.449600 3.739586 0.937255
114.801628 160.548859 2.893800 0.980438
114.736305 160.647003 2.045322 0.094118
114.736305 160.647003 1.194676 0.094118
127.345108 141.701965 0.790779 0.225101
123.323456 147.744598 0.000028 0.442176
131.162903 135.965637 -0.000039 0.744335
135.520935 129.417587 0.000005 0.655756
138.295395 125.248886 0.000017 0.654871
140.217270 122.361221 0.000010 0.424765
141.627731 120.241982 0.000008 0.441398
142.707230 118.619995 0.000007 0.437415
143.560303 117.338234 0.000006 0.442817
144.251648 116.299484 0.000005 0.413321
144.823380 115.440445 -0.000010 0.643885
145.304321 114.717804 -0.000009 0.633982
145.714600 114.101364 -0.000010 0.651728
146.068832 113.569107 -0.000009 0.643061
146.377884 113.104752 -0.000004 0.661036
146.649948 112.695976 -0.000006 0.642969
146.891373 112.333237 -0.000008 0.650843
147.107132 112.009056 -0.000007 0.648844
147.301163 111.717506 -0.000007 0.650523
104.223412 177.952881 23.857700 0.401556
104.223404 177.952896 22.670212 0.409720
104.223396 177.952911 21.490376 0.394217
104.223404 177.952881 20.317720 0.412848
104.223404 177.952911 19.151789 0.396078
104.205093 177.981003 17.998554 0.324453
104.223404 177.952911 16.838251 0.412146
104.205101 177.980988 15.695313 0.325353
104.223389 177.952911 14.546264 0.406226
104.205101 177.980988 13.411907 0.325353
104.223396 177.952911 12.272400 0.394675
104.205101 177.980988 11.144980 0.326421
104.223404 177.952896 10.013378 0.399619
104.205101 177.980988 8.891282 0.326940
104.223396 177.952911 7.765976 0.377371
120.868591 152.402771 4.847338 0.681605
120.022430 153.701630 4.200074 0.882490
115.626305 160.449615 3.725927 0.937255
115.561661 160.548843 2.885591 0.981857
115.497719 160.646988 2.042583 0.094118
115.497719 160.646988 1.197417 0.094118
115.517258 160.617004 0.352809 0.223529
123.729202 148.011780 0.000028 0.440513
131.452637 136.156418 -0.000038 0.737682
135.746155 129.565918 0.000005 0.657267
138.479568 125.370178 0.000016 0.650126
140.373016 122.463768 0.000010 0.479377
141.762589 120.330788 0.000009 0.440208
142.826126 118.698280 0.000007 0.426078
143.666565 117.408203 0.000006 0.404654
144.347672 116.362724 0.000005 0.465309
144.946960 115.442833 0.009995 1.000000
145.384781 114.770782 -0.000009 0.659495
145.788986 114.150345 -0.000010 0.651347
146.137985 113.614632 -0.000008 0.641032
146.442459 113.147263 -0.000003 0.666575
146.710480 112.735847 -0.000007 0.653544
146.948334 112.370750 -0.000008 0.680812
147.160904 112.044464 -0.000008 0.657282
147.352066 111.751022 -0.000008 0.654398
105.215607 177.952881 23.717438 0.431373
105.215607 177.952911 22.537437 0.377356
105.215607 177.952896 21.365044 0.391592
105.215607 177.952896 20.199785 0.407843
105.215599 177.952911 19.041206 0.364706
105.215614 177.952881 17.888838 0.404730
105.215607 177.952881 16.742264 0.431144
105.164566 178.032959 15.616709 0.678431
105.215591 177.952911 14.464731 0.396963
105.164566 178.032959 13.346052 0.678431
105.215591 177.952927 12.205212 0.406378
105.164566 178.032944 11.091785 0.678431
105.215599 177.952911 9.960441 0.408392
105.164558 178.032959 8.850677 0.678431
105.215591 177.952927 7.727212 0.450980
120.892334 153.364899 4.894271 0.659754
120.486847 154.000885 4.200073 0.883223
116.375290 160.449600 3.712644 0.937255
116.312012 160.548843 2.877609 0.982040
116.249435 160.647003 2.039918 0.094118
116.249435 160.647003 1.200082 0.094118
116.268555 160.617004 0.360802 0.223529
124.136169 148.277130 -0.000056 0.731212
131.744232 136.344330 -0.000037 0.740108
135.972839 129.712036 0.000003 0.654673
138.664932 125.489647 0.000015 0.657069
140.529755 122.564789 0.000010 0.434882
141.898331 120.418259 0.000008 0.427848
142.945770 118.775398 0.000007 0.438773
143.773514 117.477127 0.000006 0.498573
144.444321 116.425011 0.000006 0.439826
145.034576 115.499229 0.010006 1.000000
145.465744 114.822975 -0.000009 0.647959
145.863831 114.198593 -0.000011 0.646723
146.207565 113.659477 -0.000007 0.650187
146.507431 113.189148 -0.000004 0.664637
146.771408 112.775116 -0.000007 0.636622
147.005661 112.407700 -0.000008 0.607996
147.215027 112.079346 -0.000008 0.654383
147.403305 111.784042 -0.000007 0.646372
106.195480 177.952881 23.581030 0.406195
106.195465 177.952911 22.408323 0.365896
106.195480 177.952881 21.243156 0.396750
106.195465 177.952911 20.085094 0.399161
106.195465 177.952911 18.933670 0.403174
106.195480 177.952881 17.788416 0.400931
106.195465 177.952911 16.648918 0.416266
106.145531 178.032944 15.530309 0.678431
106.195457 177.952911 14.385444 0.402899
106.145523 178.032959 13.273674 0.678431
106.195457 177.952911 12.139872 0.374411
106.145538 178.032928 11.033318 0.678431
106.195465 177.952911 9.908955 0.405921
106.145531 178.032944 8.806041 0.678431
106.195465 177.952911 7.689512 0.407172
120.916061 154.356659 4.942997 0.671077
120.810593 154.525726 4.212508 0.874754
117.114960 160.449600 3.699727 0.945235
117.114952 160.449615 2.867550 0.937255
117.114952 160.449615 2.035803 0.937255
117.114944 160.449615 1.204197 0.930983
117.114944 160.449631 0.372448 0.927611
124.547119 148.536285 -0.000055 0.736599
132.037903 136.529007 -0.000016 0.654551
136.200943 129.855911 0.000003 0.655146
138.851456 125.607300 0.000015 0.655222
140.687469 122.664261 0.000010 0.457618
142.034912 120.504402 0.000009 0.431296
143.066177 118.851334 0.000007 0.469917
143.881134 117.545006 0.000006 0.466545
144.541580 116.486351 0.000006 0.458076
145.122711 115.554840 0.010001 1.000000
145.547226 114.874359 -0.000010 0.661295
145.939163 114.246109 -0.000011 0.641382
146.277588 113.703629 -0.000006 0.659495
146.572830 113.230392 -0.000005 0.651011
146.832718 112.813789 -0.000008 0.664210
147.063354 112.444092 -0.000008 0.633112
147.269485 112.113693 -0.000008 0.626627
147.454849 111.816551 -0.000007 0.654902
107.114548 178.032928 23.472862 0.678431
107.163383 177.952927 22.282774 0.376059
107.114563 178.032928 21.146503 0.555291
107.163391 177.952911 19.973579 0.408881
107.163391 177.952911 18.829098 0.392065
107.163399 177.952911 17.690769 0.398795
107.163399 177.952911 16.558147 0.420813
107.163391 177.952911 15.430815 0.428534
107.163391 177.952911 14.308344 0.400244
107.114532 178.032974 13.203290 0.678431
107.163391 177.952911 12.076332 0.402426
107.114548 178.032928 10.976467 0.678431
107.163383 177.952927 9.858892 0.399695
107.114532 178.032959 8.762642 0.678431
107.163391 177.952911 7.652856 0.401480
120.810593 155.591354 5.008229 0.877485
120.810593 155.591370 4.254084 0.898436
117.553284 160.928619 3.705536 0.937255
117.553284 160.928619 2.871034 0.936522
117.553276 160.928619 2.036963 0.939834
117.553284 160.928604 1.203036 0.938613
117.553284 160.928604 0.368965 0.928817
124.960594 148.791397 -0.000054 0.728389
132.333115 136.711197 -0.000017 0.655467
136.430435 129.997543 0.000002 0.654597
