# This PCD file was generated using the MATLAB® pcwrite function
# from Computer Vision System Toolbox®.
# .PCD v.7 - Point Cloud Data file format
VERSION .7
FIELDS x y z intensity
SIZE 4 4 4 4
TYPE F F F F
COUNT 1 1 1 1
WIDTH 1226
HEIGHT 1
VIEWPOINT 0 0 0 1 0 0 0
POINTS 1226
DATA ascii
nan nan nan 0.000000
nan nan nan 0.000000
nan nan nan 0.000000
nan nan nan 0.000000
nan nan nan 0.000000
nan nan nan 0.000000
nan nan nan 0.000000
nan nan nan 0.000000
74.798775 206.491852 0.029647 0.443732
72.190971 175.100555 -0.000008 0.657053
71.019424 160.998093 -0.000007 0.654963
70.368324 153.160507 -0.000020 0.652842
69.953766 148.170273 -0.000025 0.654108
69.666565 144.713120 -0.000013 0.653758
69.455795 142.175995 -0.000001 0.662608
69.294479 140.234207 0.000007 0.656291
69.167007 138.699783 0.000010 0.661585
69.063705 137.456284 0.000011 0.648692
68.978271 136.427811 0.000011 0.675471
68.906403 135.562759 0.000012 0.653483
68.845100 134.824799 0.000013 0.661173
68.792168 134.187653 0.000013 0.653971
68.745995 133.631805 0.000012 0.656504
68.705345 133.142471 0.000011 0.674571
68.669266 132.708221 0.000010 0.653223
68.637032 132.320145 0.000009 0.676127
68.608032 131.971146 0.000009 0.669947
nan nan nan 0.000000
nan nan nan 0.000000
nan nan nan 0.000000
nan nan nan 0.000000
nan nan nan 0.000000
nan nan nan 0.000000
nan nan nan 0.000000
nan nan nan 0.000000
nan nan nan 0.000000
nan nan nan 0.000000
nan nan nan 0.000000
nan nan nan 0.000000
nan nan nan 0.000000
nan nan nan 0.000000
nan nan nan 0.000000
nan nan nan 0.000000
nan nan nan 0.000000
nan nan nan 0.000000
nan nan nan 0.000000
nan nan nan 0.000000
nan nan nan 0.000000
75.596390 206.482529 0.028457 0.443763
72.674957 175.058289 -0.000018 0.656031
71.364975 160.967560 -0.000001 0.657099
70.636971 153.136841 -0.000019 0.655741
70.173439 148.150909 -0.000023 0.652781
69.852318 144.696777 -0.000013 0.655512
69.616653 142.161850 -0.000002 0.651896
69.436279 140.221725 0.000007 0.657374
69.293755 138.688629 0.000009 0.654078
69.178246 137.446198 0.000010 0.654856
69.082718 136.418625 0.000011 0.653498
69.002365 135.554306 0.000012 0.653666
68.933815 134.817001 0.000013 0.663951
68.874634 134.180405 0.000013 0.660014
68.823006 133.625031 0.000011 0.671351
68.777550 133.136108 0.000011 0.645670
68.737213 132.702240 0.000010 0.656321
68.701164 132.314514 0.000009 0.666209
68.668747 131.965790 0.000009 0.684611
77.650536 218.674347 25.987263 0.575860
77.570564 217.897034 24.493044 0.406058
77.650528 218.674332 23.393227 0.681346
77.570564 217.897064 21.936836 0.401190
77.650536 218.674362 20.830696 0.679713
77.570564 217.897049 19.409842 0.401724
77.650536 218.674347 18.295609 0.678431
77.570564 217.897064 16.908146 0.397314
77.650536 218.674347 15.784125 0.678431
77.570564 217.897064 14.427985 0.401190
77.650536 218.674332 13.292510 0.678431
77.570564 217.897064 11.965722 0.405722
77.650536 218.674347 10.817157 0.678431
77.570572 217.897064 9.517829 0.405859
77.650536 218.674332 8.354536 0.678431
77.570564 217.897064 7.080844 0.423621
77.650536 218.674347 5.901207 0.678431
77.570564 217.897064 4.651375 0.396078
77.650536 218.674362 3.453753 0.678431
77.570564 217.897049 2.226067 0.412772
77.570564 217.897049 1.013933 0.411658
76.395905 206.479187 0.026991 0.444099
73.158508 175.011292 -0.000030 0.656596
71.710205 160.933624 0.000005 0.655192
70.905373 153.110535 -0.000017 0.656291
70.392921 148.129410 -0.000023 0.651087
70.037903 144.678619 -0.000014 0.653239
69.777359 142.146118 -0.000003 0.652903
69.577957 140.207870 0.000007 0.653025
69.420380 138.676239 0.000008 0.658076
69.292686 137.434998 0.000010 0.655070
69.187073 136.408401 0.000011 0.662394
69.098236 135.544922 0.000012 0.639582
69.022453 134.808319 0.000012 0.655344
68.957024 134.172333 0.000013 0.669993
68.899940 133.617493 0.000011 0.667735
68.849693 133.129044 0.000010 0.657038
68.805099 132.695602 0.000010 0.644739
68.765244 132.308228 0.000009 0.628702
68.729408 131.959854 0.000009 0.620264
77.570549 209.787415 23.679354 0.400473
77.570557 209.787430 22.501389 0.403296
77.570557 209.787415 21.331015 0.395560
77.570557 209.787445 20.167768 0.402258
77.570557 209.787415 19.011181 0.409171
77.570557 209.787445 17.860807 0.407904
77.570557 209.787415 16.716202 0.407568
77.650658 210.497482 15.694913 0.678431
77.570549 209.787384 14.442587 0.401907
77.650658 210.497482 13.411569 0.678431
77.570557 209.787415 12.186965 0.397345
77.650658 210.497467 11.144709 0.683284
77.570557 209.787415 9.946065 0.402197
77.650658 210.497498 8.891078 0.656809
77.570557 209.787430 7.716685 0.427924
77.570557 209.787415 6.605343 0.418158
77.570557 209.787415 5.495718 0.410574
77.570557 209.787415 4.387420 0.427436
77.650658 210.497482 3.294103 0.678431
77.570549 209.787399 2.173295 0.413458
77.570549 209.787415 1.066705 0.398932
77.196236 206.469315 0.025500 0.444587
73.641304 174.957047 0.000041 0.655940
72.055138 160.896683 -0.000007 0.654215
71.173508 153.081589 -0.000016 0.655146
70.612175 148.105743 -0.000021 0.656641
70.223305 144.658630 -0.000015 0.654658
69.937912 142.128799 -0.000003 0.653880
69.719482 140.192612 0.000006 0.661433
69.546883 138.662598 0.000008 0.660716
69.407005 137.422668 0.000009 0.653330
69.291321 136.397156 0.000010 0.644663
69.194008 135.534592 0.000011 0.654078
69.111000 134.798767 0.000012 0.665003
69.039330 134.163452 0.000012 0.654795
68.976807 133.609207 0.000012 0.649104
68.921761 133.121277 0.000010 0.656428
68.872917 132.688278 0.000010 0.684550
68.829262 132.301331 0.000010 0.642298
68.790001 131.953323 0.000009 0.634012
78.166626 207.831833 23.190744 0.678431
78.156807 207.751862 22.018969 0.390463
78.166634 207.831879 20.894426 0.678431
78.156807 207.751862 19.739262 0.396719
78.166626 207.831848 18.625975 0.678431
78.156815 207.751877 17.485598 0.419165
78.156807 207.751862 16.367435 0.403067
78.156807 207.751831 15.254487 0.408423
78.156807 207.751831 14.146348 0.386023
78.166626 207.831848 13.053744 0.672114
78.156807 207.751862 11.942838 0.399802
78.166626 207.831818 10.855671 0.678431
78.156807 207.751846 9.753706 0.356542
78.166626 207.831848 8.670428 0.678431
78.156807 207.751862 7.575833 0.371572
78.156807 207.751862 6.490169 0.390173
78.156807 207.751862 5.406176 0.405020
78.156807 207.751846 4.323484 0.397314
78.156807 207.751846 3.241716 0.408179
78.156807 207.751862 2.160511 0.405356
78.156807 207.751862 1.079488 0.409674
77.998070 206.458817 0.023863 0.444312
74.124016 174.902145 -0.000023 0.655604
72.399628 160.855865 0.000004 0.657969
71.441345 153.050018 -0.000015 0.655558
70.831192 148.079941 -0.000020 0.652964
70.408501 144.636826 -0.000016 0.655924
70.098282 142.109924 -0.000003 0.660655
69.860863 140.175964 0.000005 0.649638
69.673248 138.647720 0.000008 0.647044
69.521202 137.409225 0.000009 0.643610
69.395447 136.384903 0.000010 0.659373
69.289680 135.523331 0.000011 0.669535
69.199448 134.788361 0.000011 0.660502
69.121544 134.153778 0.000012 0.659586
69.053581 133.600159 0.000012 0.658625
68.993752 133.112793 0.000010 0.629358
68.940659 132.680298 0.000010 0.660273
68.893204 132.293793 0.000010 0.655055
68.850533 131.946198 0.000009 0.667857
78.985275 207.831818 23.217813 0.678431
78.974663 207.751862 22.044567 0.391730
78.985283 207.831863 20.918615 0.674830
78.974663 207.751892 19.762001 0.400854
78.985275 207.831848 18.647312 0.640558
78.974663 207.751892 17.505510 0.399939
78.974663 207.751862 16.385942 0.392874
78.974655 207.751846 15.271601 0.419303
78.974655 207.751846 14.162071 0.428489
78.985275 207.831848 13.068096 0.672877
78.974663 207.751862 11.955791 0.388235
78.985275 207.831818 10.867261 0.678431
78.974663 207.751862 9.763913 0.401495
78.985275 207.831848 8.679277 0.677485
78.974655 207.751862 7.583310 0.387228
78.974655 207.751862 6.496278 0.436286
78.974655 207.751862 5.410929 0.402777
78.974663 207.751862 4.326878 0.386114
78.974655 207.751862 3.243753 0.361212
78.974655 207.751862 2.161188 0.354971
78.974655 207.751862 1.078810 0.380179
78.802658 206.456085 0.021912 0.443809
74.605736 174.839111 0.000025 0.656123
72.743721 160.811859 0.000005 0.655695
71.708855 153.015823 -0.000013 0.654948
71.049942 148.051971 -0.000019 0.655085
70.593468 144.613190 -0.000016 0.654994
70.258461 142.089462 -0.000004 0.654429
70.002060 140.157928 0.000005 0.649378
69.788933 138.552368 0.009997 1.000000
69.635262 137.394653 0.000008 0.650675
69.499458 136.371613 0.000009 0.648981
69.385231 135.511124 0.000010 0.658900
69.287796 134.777069 0.000011 0.650767
69.203659 134.143295 0.000011 0.642573
69.130264 133.590363 0.000011 0.667033
69.065651 133.103607 0.000010 0.626902
69.008316 132.671661 0.000010 0.654765
68.957069 132.285629 0.000010 0.652110
68.910988 131.938477 0.000009 0.646571
79.797890 207.774536 23.231939 0.324041
79.794647 207.751862 22.072203 0.387198
79.797890 207.774536 20.931229 0.324041
79.794647 207.751862 19.786545 0.376364
79.797890 207.774536 18.658445 0.325002
79.794647 207.751862 17.527000 0.395041
79.794655 207.751862 16.405924 0.418784
79.794647 207.751831 15.290071 0.432898
79.794647 207.751831 14.179037 0.406470
79.797890 207.774536 13.075581 0.326711
79.794647 207.751846 11.969776 0.409308
79.797890 207.774536 10.873312 0.327672
79.794647 207.751862 9.774936 0.395453
79.797890 207.774536 8.683893 0.327672
79.794647 207.751862 7.591380 0.397879
79.794647 207.751862 6.502879 0.406302
74.005440 167.195953 3.537845 0.185809
74.005440 167.195953 2.989418 0.140261
79.794647 207.751846 3.245949 0.402884
79.794647 207.751846 2.161920 0.396078
79.794647 207.751846 1.078078 0.407843
79.608047 206.444656 0.019977 0.443778
75.087112 174.773560 0.000001 0.655421
73.087402 160.764709 -0.000002 0.654398
71.976013 152.979004 -0.000011 0.656229
71.268402 148.021866 -0.000018 0.653941
70.778198 144.587769 -0.000017 0.659144
70.418427 142.067429 -0.000004 0.658076
70.143082 140.138504 0.000004 0.651057
69.925499 138.614243 0.000007 0.651698
69.749168 137.378967 0.000008 0.648310
69.603325 136.357315 0.000009 0.652934
69.480659 135.497986 0.000010 0.660502
69.376022 134.764923 0.000011 0.659403
69.285675 134.131989 0.000012 0.640940
69.206848 133.579819 0.000011 0.651057
69.137459 133.093719 0.000011 0.662394
69.075890 132.662354 0.000010 0.650095
69.020859 132.276855 0.000010 0.662394
68.971367 131.930161 0.000009 0.679438
77.636345 188.242615 18.107386 0.222248
77.614662 188.100662 17.191488 0.386725
77.614662 188.100677 16.318729 0.400778
77.614662 188.100677 15.451284 0.408331
77.614662 188.100662 14.588803 0.402777
77.636345 188.242584 13.758536 0.234318
77.614662 188.100677 12.877414 0.411933
77.614662 188.100677 12.027854 0.388220
77.636345 188.242584 11.203731 0.232853
77.614662 188.100677 10.339407 0.414420
77.614662 188.100677 9.499911 0.389380
77.636345 188.242599 8.679193 0.217716
77.614662 188.100662 7.828839 0.405615
77.614662 188.100677 6.996677 0.397482
77.636345 188.242584 6.176723 0.212970
77.614662 188.100662 5.337627 0.395468
74.421852 167.202362 3.540926 0.224506
74.421852 167.202362 2.991620 0.168673
77.614662 188.100662 2.857933 0.398123
77.614662 188.100647 2.032597 0.410407
77.614662 188.100647 1.207401 0.381048
77.614662 188.100677 0.382064 0.404303
75.521721 174.401489 0.009971 1.000000
73.397560 160.497925 0.010019 1.000000
72.242805 152.939545 -0.000010 0.654704
71.486557 147.989624 -0.000017 0.653635
70.962669 144.560516 -0.000018 0.654444
70.578171 142.043839 -0.000005 0.656199
70.283905 140.117706 0.000004 0.657191
70.051361 138.595642 0.000006 0.650599
69.862915 137.362167 0.000008 0.664302
69.707054 136.341980 0.000009 0.650126
69.575958 135.483902 0.000010 0.649256
69.464127 134.751907 0.000010 0.648234
69.367569 134.119888 0.000011 0.655970
69.283325 133.568512 0.000011 0.648508
69.209167 133.083115 0.000011 0.670771
69.143364 132.652390 0.000010 0.655695
69.084549 132.267441 0.000010 0.646235
69.031662 131.921249 0.000009 0.672465
77.614677 184.250168 17.077412 0.402197
77.614670 184.250137 16.251980 0.420798
77.614670 184.250153 15.431882 0.414099
77.614670 184.250137 14.616767 0.400412
77.614670 184.250153 13.806329 0.400488
77.614670 184.250153 13.000238 0.391318
77.614670 184.250153 12.198193 0.393011
77.614670 184.250137 11.399888 0.395087
77.694710 184.741669 10.680572 0.678431
77.614670 184.250153 9.813319 0.400671
77.614670 184.250153 9.024474 0.420722
77.694717 184.741684 8.293844 0.678569
77.614670 184.250153 7.454229 0.420645
77.614670 184.250137 6.672274 0.422263
77.694717 184.741684 5.927978 0.683619
77.614670 184.250137 5.113323 0.399786
77.614670 184.250137 4.335786 0.392538
77.694717 184.741684 3.575487 0.680659
77.614670 184.250137 2.783242 0.404578
77.614670 184.250153 2.007702 0.415702
77.614670 184.250153 1.232296 0.400168
77.614670 184.250137 0.456755 0.401663
76.047318 174.625061 0.000059 0.655299
73.773308 160.660431 -0.000026 0.439948
72.509193 152.897491 -0.000008 0.655497
71.704391 147.955231 -0.000015 0.656626
71.146866 144.531464 -0.000018 0.652842
70.737679 142.018677 -0.000005 0.657694
70.424515 140.095520 0.000004 0.657786
70.177040 138.575821 0.000006 0.660227
69.976494 137.344254 0.000007 0.656580
69.810623 136.325638 0.000008 0.656352
69.671112 135.468887 0.000009 0.654429
69.552094 134.738022 0.000010 0.673045
69.449341 134.106995 0.000011 0.653727
69.359688 133.556473 0.000012 0.651301
69.280769 133.071823 0.000011 0.647532
69.210739 132.641754 0.000010 0.645350
69.148148 132.257401 0.000010 0.649882
69.091866 131.911743 0.000009 0.632609
77.636642 180.964523 16.232803 0.248676
77.614685 180.837524 15.420648 0.425010
77.614685 180.837524 14.647141 0.399832
77.614685 180.837509 13.878337 0.398581
77.636642 180.964523 13.140461 0.250355
77.614685 180.837524 12.353658 0.405432
77.614685 180.837524 11.597178 0.406027
77.636642 180.964523 10.865509 0.252033
77.614685 180.837509 10.094535 0.416587
77.614685 180.837524 9.347806 0.396033
77.636642 180.964523 8.619887 0.252872
77.614685 180.837524 7.862182 0.400381
77.614685 180.837524 7.122750 0.408484
77.636642 180.964523 6.396214 0.254551
77.614685 180.837524 5.649340 0.395636
77.614685 180.837524 4.914847 0.405509
77.614685 180.837524 4.181486 0.404013
77.636650 180.964523 3.453224 0.255390
77.614685 180.837524 2.717153 0.406363
77.614685 180.837524 1.985674 0.395361
77.614685 180.837524 1.254323 0.409049
77.614685 180.837524 0.522846 0.396811
76.526375 174.544342 0.000068 0.656428
74.115433 160.602982 -0.000026 0.443839
72.775154 152.852829 -0.000008 0.657649
71.921875 147.918701 -0.000014 0.657801
71.330765 144.500580 -0.000019 0.656168
70.896935 141.991943 -0.000006 0.657221
70.564896 140.071945 0.000003 0.660639
70.302521 138.554749 0.000005 0.662654
70.089890 137.325211 0.000007 0.671000
69.914032 136.308289 0.000008 0.652354
69.766113 135.452942 0.000009 0.656626
69.639931 134.723282 0.000010 0.657847
69.530983 134.093292 0.000010 0.651499
69.435928 133.543671 0.000011 0.643427
69.352257 133.059814 0.000011 0.663920
69.278008 132.630463 0.000010 0.626215
69.211647 132.246750 0.000010 0.629252
69.151970 131.901657 0.000009 0.663142
77.644226 177.952911 15.459436 0.424186
77.644226 177.952911 14.720412 0.403494
77.644226 177.952911 13.986151 0.395987
77.649376 177.981018 13.262628 0.306355
77.644226 177.952911 12.530750 0.411612
77.644226 177.952911 11.809034 0.403800
77.649376 177.981018 11.096047 0.307591
77.644226 177.952911 10.376198 0.396292
77.644226 177.952911 9.664543 0.411490
77.644226 177.952911 8.955701 0.410925
77.649376 177.981018 8.252996 0.308812
77.644226 177.952911 7.545455 0.397314
77.644226 177.952911 6.843543 0.401816
77.649376 177.981018 6.145875 0.309621
77.644226 177.952911 5.444893 0.404440
77.644226 177.952911 4.747667 0.402274
77.649376 177.981003 4.052829 0.309621
77.649368 177.981003 3.357138 0.310857
77.644226 177.952911 2.661484 0.403815
77.644226 177.952911 1.967120 0.406210
77.644226 177.952911 1.272877 0.404578
77.644226 177.952911 0.578515 0.410010
77.004623 174.459000 0.000076 0.655222
74.456963 160.542191 -0.000025 0.446189
73.040665 152.805542 -0.000006 0.654597
72.138985 147.880035 -0.000013 0.658579
71.514351 144.467896 -0.000018 0.657267
71.055916 141.963654 -0.000006 0.658839
70.705048 140.047012 0.000003 0.653590
70.427788 138.532455 0.000005 0.656382
70.203094 137.305069 0.000006 0.650568
70.017258 136.289917 0.000008 0.660533
69.860954 135.436066 0.000009 0.650095
69.727608 134.707672 0.000009 0.663081
69.612480 134.078781 0.000010 0.641047
69.512047 133.530121 0.000011 0.643458
69.423622 133.047119 0.000011 0.646143
69.345161 132.618500 0.000010 0.659800
69.275040 132.235458 0.000010 0.647242
69.211975 131.890976 0.000009 0.702525
78.174530 177.952911 15.485023 0.363806
78.174530 177.952911 14.744633 0.400992
78.174530 177.952911 14.009012 0.398428
78.189987 178.032913 13.295751 0.667704
78.174530 177.952911 12.550920 0.384054
78.174530 177.952911 11.827871 0.388769
78.189987 178.032898 11.123001 0.667323
78.174530 177.952911 10.392390 0.403113
78.174530 177.952911 9.679416 0.393713
78.174530 177.952911 8.969266 0.403113
78.189987 178.032913 8.271867 0.669505
78.174530 177.952911 7.556411 0.404257
78.174522 177.952896 6.853200 0.398856
78.189987 178.032913 6.158751 0.668086
78.174530 177.952911 5.451964 0.393439
78.174530 177.952911 4.753450 0.400900
78.189987 178.032913 4.059750 0.494148
78.189987 178.032913 3.362081 0.667323
78.174522 177.952896 2.663408 0.396384
78.174530 177.952911 1.967762 0.407248
78.174530 177.952911 1.272236 0.397589
78.174522 177.952896 0.576591 0.396887
77.482056 174.369202 0.000075 0.656733
74.797890 160.478058 -0.000025 0.446220
73.305702 152.755661 -0.000005 0.655299
72.355713 147.839249 -0.000012 0.652766
71.697609 144.433411 -0.000017 0.656687
71.214607 141.933807 -0.000007 0.655497
70.844940 140.020691 0.000003 0.653193
70.552826 138.508942 0.000005 0.648692
70.316101 137.283813 0.000006 0.658106
70.120308 136.270538 0.000007 0.660548
69.955620 135.418259 0.000008 0.665660
69.804520 134.636292 0.009999 1.000000
69.693840 134.063477 0.000010 0.661295
69.588020 133.515823 0.000011 0.653422
69.494858 133.033722 0.000011 0.656001
69.412193 132.605896 0.000010 0.661524
69.338318 132.223557 0.000010 0.645426
69.271873 131.879700 0.000009 0.654002
78.723114 178.032913 15.533346 0.678431
78.706841 177.952911 14.770209 0.409064
78.706841 177.952911 14.033156 0.381811
78.723114 178.032913 13.318504 0.678431
78.706841 177.952911 12.572225 0.397559
78.706841 177.952911 11.847768 0.399176
78.723114 178.032898 11.141522 0.678431
78.706841 177.952911 10.409486 0.398276
78.706841 177.952911 9.695122 0.407965
78.706841 177.952911 8.983588 0.400183
78.723114 178.032928 8.284832 0.678431
78.706841 177.952896 7.567979 0.430167
78.706833 177.952896 6.863399 0.427741
78.723114 178.032898 6.167596 0.678431
78.706841 177.952911 5.459433 0.396094
78.706841 177.952911 4.759558 0.400092
78.706841 177.952911 4.060762 0.387671
78.723114 178.032913 3.365475 0.678431
78.706841 177.952911 2.665443 0.381964
78.706841 177.952896 1.968441 0.401877
78.706841 177.952896 1.271559 0.391638
78.706841 177.952911 0.574556 0.410651
77.958633 174.275009 0.000064 0.655711
75.138153 160.410522 -0.000024 0.442435
73.570229 152.703171 -0.000004 0.655680
72.572021 147.796326 -0.000011 0.654002
71.880516 144.397125 -0.000016 0.652705
71.373009 141.902390 -0.000008 0.660349
70.984573 139.993011 0.000002 0.650202
70.677635 138.484192 0.000004 0.653513
70.428886 137.261444 0.000005 0.641993
70.223152 136.250137 0.000007 0.661265
70.050110 135.399521 0.000008 0.633738
69.902496 134.673889 0.000009 0.663523
69.775040 134.047379 0.000010 0.625879
69.663849 133.500793 0.000010 0.660136
69.565964 133.019608 0.000011 0.673671
69.479095 132.592621 0.000010 0.653513
69.401474 132.211029 0.000009 0.652155
69.331657 131.867844 0.000009 0.623819
79.247284 177.981018 15.548012 0.292012
79.241287 177.952911 14.797162 0.409293
79.241287 177.952911 14.058599 0.405478
79.247292 177.981018 13.330838 0.293568
79.241280 177.952896 12.594671 0.410239
79.241287 177.952911 11.868730 0.402869
79.247292 177.981018 11.151561 0.294896
79.241280 177.952911 10.427499 0.386130
79.241287 177.952911 9.711672 0.400488
79.241280 177.952911 8.998680 0.396078
79.247284 177.981018 8.291855 0.297688
79.241280 177.952911 7.580171 0.448127
79.241280 177.952911 6.874148 0.401923
79.247284 177.981018 6.172390 0.299596
79.241280 177.952911 5.467302 0.397299
79.241280 177.952911 4.765991 0.407752
79.241280 177.952911 4.065765 0.409552
79.247284 177.981003 3.367315 0.301060
79.241280 177.952911 2.667584 0.401633
79.241280 177.952911 1.969155 0.413520
79.241280 177.952911 1.270844 0.420432
79.241280 177.952911 0.572414 0.413428
78.434273 174.176117 0.000054 0.656764
75.477753 160.339722 -0.000023 0.450141
73.834290 152.648346 -0.000018 0.441871
72.787903 147.751297 -0.000010 0.659632
72.063057 144.359039 -0.000015 0.650965
71.531082 141.869431 -0.000008 0.651560
71.123924 139.963959 0.000001 0.655848
70.802185 138.458221 0.000004 0.660746
70.541451 137.237976 0.000005 0.645731
70.325798 136.228729 0.000007 0.649012
70.144417 135.379852 0.000008 0.648386
69.989677 134.655701 0.000009 0.657145
69.856079 134.030472 0.000009 0.649714
69.739532 133.485016 0.000010 0.659968
69.636925 133.004822 0.000011 0.641596
69.545868 132.578705 0.000010 0.636316
69.464500 132.197876 0.000010 0.639918
69.391319 131.855408 0.000009 0.685573
79.795891 178.032913 15.591846 0.678431
79.777977 177.952911 14.825502 0.381384
79.777977 177.952911 14.085351 0.385916
79.795891 178.032913 13.367693 0.678431
79.777969 177.952911 12.618271 0.405798
79.777977 177.952911 11.890771 0.390555
79.795891 178.032898 11.181555 0.678431
79.777977 177.952911 10.446440 0.356878
79.777977 177.952911 9.729073 0.392386
79.777977 177.952911 9.014548 0.382849
79.795898 178.032928 8.312853 0.678431
79.777969 177.952896 7.592987 0.373068
79.777969 177.952896 6.885445 0.374166
79.795891 178.032913 6.186718 0.678431
79.777977 177.952911 5.475576 0.387457
79.777977 177.952911 4.772758 0.373526
79.777977 177.952911 4.071025 0.379217
79.795891 178.032913 3.372814 0.678431
79.777977 177.952911 2.669837 0.373373
79.777977 177.952896 1.969905 0.358877
79.777977 177.952896 1.270093 0.410071
79.777977 177.952911 0.570161 0.386130
78.908928 174.072617 0.000044 0.655573
75.816635 160.265549 -0.000023 0.437232
74.097740 152.590698 -0.000017 0.442756
73.003326 147.704132 -0.000009 0.650996
72.245216 144.319168 -0.000014 0.657877
71.688835 141.834930 -0.000009 0.657130
71.262985 139.933517 0.000001 0.659907
70.926483 138.431030 0.000003 0.653864
70.653778 137.213394 0.000005 0.652247
70.428230 136.206329 0.000006 0.666163
70.238518 135.359268 0.000007 0.657816
70.076683 134.636673 0.000008 0.646296
69.936951 134.012772 0.000009 0.664637
69.815048 133.468491 0.000010 0.653605
69.707733 132.989319 0.000011 0.643946
69.612503 132.564117 0.000010 0.669474
69.527397 132.184113 0.000010 0.634928
69.450859 131.842377 0.000009 0.663844
80.335770 178.032898 15.623307 0.678431
80.317032 177.952911 14.855241 0.396567
80.317032 177.952911 14.113419 0.389975
80.335777 178.032913 13.394148 0.678431
80.317032 177.952911 12.643040 0.387381
80.317024 177.952896 11.913897 0.402365
80.335770 178.032898 11.203087 0.678431
80.317032 177.952911 10.466316 0.439521
80.317032 177.952911 9.747335 0.405905
80.317032 177.952911 9.031199 0.442573
80.335777 178.032913 8.327928 0.678431
80.317032 177.952896 7.606440 0.439521
80.317032 177.952911 6.897305 0.429389
80.335777 178.032913 6.197001 0.678431
80.317032 177.952911 5.484258 0.407919
80.317032 177.952911 4.779858 0.393866
80.317024 177.952896 4.076543 0.384894
80.335777 178.032913 3.376761 0.678431
80.317032 177.952911 2.672202 0.398245
80.317032 177.952911 1.970695 0.425589
80.317032 177.952911 1.269305 0.394507
80.317032 177.952911 0.567797 0.398108
79.382530 173.964401 0.000033 0.656870
76.154770 160.188049 -0.000023 0.439475
74.360619 152.530457 -0.000017 0.433234
73.218277 147.654861 -0.000007 0.656550
72.426979 144.277512 -0.000013 0.651576
71.846230 141.798859 -0.000009 0.653391
71.401741 139.901733 0.000000 0.658183
71.050499 138.402618 0.000002 0.647959
70.765854 137.187714 0.000004 0.650233
70.530434 136.182907 0.000006 0.639139
70.332413 135.337753 0.000007 0.658915
70.163490 134.616776 0.000008 0.632715
70.017647 133.994293 0.000009 0.651850
69.890404 133.451218 0.000010 0.666133
69.778389 132.973129 0.000010 0.669581
69.678993 132.548889 0.000010 0.638590
69.590157 132.169739 0.000010 0.654765
69.510269 131.828766 0.000009 0.689372
80.878151 178.032913 15.656274 0.678431
80.858574 177.952911 14.886395 0.384588
80.858574 177.952911 14.142827 0.375128
80.878151 178.032928 13.421865 0.678431
80.858574 177.952911 12.668985 0.392798
80.858574 177.952911 11.938131 0.382925
80.878143 178.032898 11.225645 0.678431
80.858574 177.952896 10.487141 0.419867
80.858574 177.952911 9.766467 0.394827
80.858574 177.952911 9.048647 0.403723
80.878151 178.032913 8.343715 0.678431
80.858574 177.952911 7.620531 0.390494
80.858574 177.952896 6.909725 0.390311
80.878151 178.032913 6.207775 0.678431
80.858574 177.952911 5.493356 0.389548
80.858574 177.952911 4.787296 0.396185
80.858574 177.952896 4.082325 0.418418
80.878151 178.032913 3.380896 0.678431
80.858574 177.952896 2.674679 0.409247
80.858574 177.952911 1.971519 0.409552
80.858574 177.952911 1.268479 0.420813
80.858574 177.952896 0.565320 0.403586
79.782974 173.556931 0.009953 1.000000
76.492142 160.107269 -0.000023 0.446555
74.622894 152.467651 -0.000017 0.438651
73.432739 147.603500 -0.000006 0.655299
72.608322 144.234070 -0.000012 0.653391
72.003273 141.761246 -0.000010 0.650019
71.540184 139.868591 -0.000000 0.646387
71.174240 138.372986 0.000002 0.658122
70.877678 137.160950 0.000004 0.651926
70.632401 136.158478 0.000006 0.669734
70.426094 135.315323 0.000006 0.642466
70.250107 134.596039 0.000008 0.648783
70.098152 133.975006 0.000008 0.659449
69.965591 133.433212 0.000009 0.655558
69.848885 132.956253 0.000010 0.677989
69.745323 132.533005 0.000010 0.680247
69.652771 132.154739 0.000010 0.667826
69.569542 131.814575 0.000009 0.617319
81.423141 178.032913 15.690751 0.678431
81.402725 177.952911 14.918979 0.400381
81.402725 177.952911 14.173589 0.398840
81.423141 178.032928 13.450854 0.678431
81.402725 177.952911 12.696128 0.400992
81.402725 177.952911 11.963476 0.409628
81.423134 178.032898 11.249238 0.678431
81.402725 177.952896 10.508920 0.412116
81.402725 177.952896 9.786475 0.414862
81.402725 177.952911 9.066893 0.422232
81.423141 178.032928 8.360229 0.678431
81.402725 177.952911 7.635269 0.430930
81.402725 177.952896 6.922719 0.413397
81.423141 178.032913 6.219045 0.678431
81.402725 177.952911 5.502870 0.388922
81.402725 177.952911 4.795074 0.397925
81.402725 177.952911 4.088375 0.415824
81.423134 178.032913 3.385222 0.678431
81.402725 177.952911 2.677270 0.399023
81.402725 177.952896 1.972382 0.412512
81.402725 177.952896 1.267616 0.399420
81.402725 177.952896 0.562730 0.402289
80.326302 173.733414 0.000036 0.656687
76.828697 160.023163 -0.000022 0.445075
74.884537 152.402252 -0.000016 0.457404
73.646713 147.550110 -0.000013 0.440848
72.789230 144.188858 -0.000011 0.652842
72.159943 141.722107 -0.000010 0.658839
71.678284 139.834091 -0.000001 0.656886
71.297676 138.342148 0.000001 0.659403
70.989235 137.133072 0.000003 0.651896
70.734123 136.133072 0.000005 0.647700
70.519554 135.291977 0.000006 0.663066
70.336510 134.574448 0.000007 0.659342
70.178467 133.954941 0.000008 0.654078
70.040588 133.414474 0.000009 0.676280
69.919212 132.938675 0.000010 0.669795
69.811501 132.516464 0.000010 0.691493
69.715240 132.139130 0.000010 0.633326
69.628670 131.799789 0.000009 0.644953
81.970856 178.032913 15.726758 0.678431
81.949615 177.952911 14.953012 0.403143
81.949608 177.952911 14.205713 0.437537
81.970863 178.032913 13.481130 0.678431
81.949608 177.952911 12.724475 0.394583
81.949608 177.952911 11.989944 0.412604
81.970856 178.032898 11.273882 0.678431
81.949608 177.952911 10.531671 0.416190
81.949608 177.952911 9.807376 0.394537
81.949615 177.952911 9.085953 0.390631
81.970856 178.032913 8.377481 0.678431
81.949608 177.952911 7.650663 0.403174
81.949608 177.952911 6.936291 0.404791
81.970856 178.032913 6.230813 0.678431
81.949608 177.952911 5.512806 0.392828
81.949608 177.952896 4.803201 0.394568
81.949608 177.952896 4.094692 0.443870
81.970856 178.032898 3.389739 0.678431
81.949608 177.952911 2.679976 0.413626
81.949608 177.952911 1.973284 0.383520
81.949608 177.952911 1.266714 0.403586
81.949608 177.952911 0.560023 0.373861
80.796524 173.611343 0.000025 0.655589
77.164406 159.935760 -0.000023 0.437232
75.145523 152.334290 -0.000016 0.432822
73.860123 147.494553 -0.000012 0.456153
72.969681 144.141861 -0.000010 0.654459
72.316208 141.681427 -0.000010 0.656687
71.816048 139.798218 -0.000001 0.656504
71.420815 138.310089 0.000001 0.655467
71.100510 137.104095 0.000003 0.666987
70.835594 136.106659 0.000004 0.643305
70.612778 135.267700 0.000006 0.640879
70.422699 134.552017 0.000007 0.663569
70.258583 133.934082 0.000008 0.653925
70.115402 133.395004 0.000008 0.661799
69.989357 132.920410 0.000010 0.656077
69.877510 132.499283 0.000010 0.670832
69.777550 132.122910 0.000010 0.679637
69.687653 131.784439 0.000009 0.658900
82.521439 178.032898 15.764321 0.678431
82.499344 177.952911 14.988512 0.403967
82.499352 177.952911 14.239227 0.387717
82.521439 178.032928 13.512712 0.678431
82.499344 177.952911 12.754041 0.412497
82.499344 177.952911 12.017558 0.390158
82.521439 178.032898 11.299589 0.678431
82.499344 177.952896 10.555397 0.410239
82.499344 177.952911 9.829175 0.401114
82.499352 177.952911 9.105829 0.387472
82.521439 178.032913 8.395472 0.678431
82.499344 177.952911 7.666722 0.404166
82.499344 177.952896 6.950444 0.395575
82.521439 178.032913 6.243093 0.678431
82.499352 177.952911 5.523171 0.381903
82.499344 177.952911 4.811678 0.401740
82.499344 177.952896 4.101281 0.409476
82.521439 178.032898 3.394452 0.678431
82.499352 177.952911 2.682798 0.399832
82.499352 177.952911 1.974225 0.392309
82.499352 177.952911 1.265774 0.399405
82.499352 177.952911 0.557201 0.408774
81.265526 173.484634 0.000014 0.656672
77.499237 159.845047 -0.000022 0.443442
75.405830 152.263794 -0.000016 0.427893
74.072983 147.436890 -0.000012 0.432197
73.149666 144.093094 -0.000009 0.653681
72.472076 141.639221 -0.000011 0.647745
71.953445 139.761017 -0.000001 0.647883
71.543617 138.276825 0.000000 0.656184
71.211494 137.074051 0.000002 0.663111
70.936806 136.079254 0.000004 0.662089
70.705757 135.242523 0.000005 0.666789
70.508659 134.528732 0.000007 0.641123
70.338486 133.912445 0.000008 0.657237
70.190025 133.374786 0.000008 0.648554
70.059326 132.901474 0.000009 0.660426
69.943344 132.481445 0.000010 0.664256
69.839691 132.106079 0.000010 0.668528
69.746483 131.768509 0.000009 0.674846
83.060135 177.980988 15.789360 0.271489
83.052086 177.952911 15.025504 0.427390
83.052086 177.952911 14.274143 0.427222
83.060135 177.981003 13.533767 0.272602
83.052078 177.952896 12.784842 0.416526
83.052078 177.952911 12.046323 0.392737
83.060135 177.981003 11.316726 0.273716
83.052078 177.952896 10.580120 0.409720
83.052078 177.952911 9.851888 0.429923
83.052086 177.952911 9.126539 0.393423
83.060135 177.981003 8.407468 0.274815
83.052078 177.952911 7.683451 0.404898
83.052078 177.952896 6.965191 0.440223
83.060143 177.981018 6.251275 0.275746
83.052078 177.952911 5.533970 0.424018
83.052078 177.952896 4.820508 0.399222
83.052078 177.952911 4.108146 0.406897
83.060135 177.981003 3.397593 0.277623
83.052078 177.952911 2.685737 0.432303
83.052086 177.952911 1.975205 0.447501
83.052086 177.952911 1.264794 0.419379
83.052078 177.952911 0.554260 0.392920
81.732956 173.352249 0.000042 0.655573
77.833168 159.751068 -0.000021 0.442466
75.665436 152.190735 -0.000016 0.448676
74.285263 147.377151 -0.000012 0.412436
73.296776 143.929642 0.010012 1.000000
72.627518 141.595474 -0.000011 0.649454
72.090477 139.722458 -0.000002 0.661051
71.666100 138.242371 0.000000 0.648005
71.322182 137.042908 0.000002 0.649653
71.037735 136.050842 0.000004 0.663066
70.798485 135.216431 0.000005 0.662501
70.594391 134.504608 0.000007 0.657786
70.418175 133.890030 0.000007 0.640940
70.264442 133.353851 0.000008 0.639582
70.129105 132.881836 0.000009 0.658808
70.009003 132.462967 0.000010 0.660014
69.901672 132.088638 0.000010 0.655436
69.805153 131.751999 0.000009 0.641382
83.631721 178.032913 15.844176 0.678431
83.607933 177.952911 15.063991 0.405905
83.607933 177.952911 14.310472 0.365408
83.631729 178.032928 13.579859 0.678431
83.607925 177.952911 12.816902 0.394934
83.607925 177.952896 12.076260 0.380514
83.631721 178.032898 11.354237 0.656397
83.631721 178.032913 10.619626 0.672465
83.607933 177.952911 9.875524 0.367193
83.607933 177.952911 9.148092 0.393393
83.631721 178.032913 8.433724 0.678431
83.607925 177.952896 7.700859 0.381506
83.607933 177.952911 6.980540 0.372747
83.631721 178.032913 6.269191 0.678431
83.607925 177.952911 5.545208 0.347570
83.607933 177.952911 4.829698 0.369711
83.607925 177.952896 4.115288 0.370947
83.631721 178.032898 3.404469 0.678431
83.607933 177.952911 2.688798 0.346212
83.607933 177.952911 1.976225 0.350744
83.607933 177.952911 1.263774 0.368734
83.607933 177.952911 0.551201 0.357122
82.199646 173.217239 0.000001 0.656657
78.166161 159.653809 -0.000021 0.444160
75.924309 152.115112 -0.000015 0.446723
74.496948 147.315323 -0.000011 0.457237
73.508148 143.990295 -0.000007 0.653834
72.782524 141.550217 -0.000012 0.660792
72.227119 139.682556 -0.000003 0.653208
71.788231 138.206696 -0.000000 0.656260
71.432556 137.010666 0.000002 0.645975
71.138382 136.021454 0.000004 0.647150
70.890953 135.189423 0.000005 0.656031
70.679878 134.479645 0.000006 0.649241
70.497643 133.866821 0.000007 0.675898
70.338646 133.332184 0.000008 0.643000
70.198685 132.861511 0.000009 0.659556
70.074478 132.443848 0.000010 0.642252
69.963478 132.070587 0.000010 0.687678
69.863655 131.734909 0.000009 0.610193
84.191689 178.032913 15.886513 0.678431
84.167038 177.952911 15.104009 0.398947
84.167038 177.952911 14.348247 0.417288
84.191696 178.032928 13.615459 0.678431
84.167038 177.952911 12.850229 0.408835
84.167038 177.952896 12.107381 0.403433
84.167038 177.952911 11.368263 0.397528
84.191689 178.032898 10.646412 0.678431
84.167038 177.952896 9.900098 0.399558
84.167038 177.952911 9.170501 0.401205
84.191696 178.032913 8.454009 0.678431
84.167038 177.952911 7.718961 0.393957
84.167038 177.952896 6.996495 0.396536
84.191689 178.032913 6.283031 0.678431
84.167038 177.952911 5.556890 0.414588
84.167038 177.952911 4.839250 0.441947
84.167038 177.952896 4.122717 0.448478
84.191689 178.032913 3.409782 0.678431
84.167046 177.952911 2.691979 0.415854
84.167038 177.952911 1.977286 0.387381
84.167038 177.952911 1.262714 0.406119
84.167046 177.952911 0.548019 0.390616
82.664429 173.075821 0.000023 0.655604
78.498184 159.553299 -0.000021 0.439963
76.182426 152.036972 -0.000015 0.459571
74.708015 147.251434 -0.000011 0.432059
73.686630 143.936279 -0.000008 0.458839
72.937073 141.503418 -0.000011 0.653071
72.363365 139.641312 -0.000004 0.662791
71.910011 138.169830 -0.000000 0.653483
71.542610 136.977356 0.000001 0.648051
71.238739 135.991074 0.000003 0.658671
70.983154 135.161514 0.000005 0.669230
70.765121 134.453842 0.000006 0.652232
70.576874 133.842834 0.000007 0.644739
70.412643 133.309784 0.000008 0.647974
70.268059 132.840515 0.000009 0.655970
70.139763 132.424088 0.000009 0.639811
70.025101 132.051941 0.000010 0.654994
69.921989 131.717255 0.000009 0.651514
84.738495 177.980988 15.916268 0.335241
84.729546 177.952911 15.145572 0.361242
84.729546 177.952911 14.387483 0.352361
84.738495 177.980988 13.640471 0.336339
84.729538 177.952896 12.884846 0.397757
84.729538 177.952911 12.139709 0.371023
84.729546 177.952911 11.398311 0.407187
84.738495 177.980988 10.665240 0.338598
84.729538 177.952911 9.925620 0.361501
84.729538 177.952896 9.193772 0.381033
84.738495 177.980988 8.468259 0.339635
84.729546 177.952911 7.737759 0.397620
84.729538 177.952896 7.013068 0.418570
84.738495 177.980988 6.292756 0.341192
84.729538 177.952896 5.569025 0.377340
84.729538 177.952896 4.849173 0.426123
84.729546 177.952911 4.130431 0.385885
84.738495 177.981003 3.413515 0.342245
84.729546 177.952911 2.695283 0.443244
84.729546 177.952911 1.978387 0.416632
84.729546 177.952911 1.261613 0.410300
84.729546 177.952911 0.544715 0.365698
83.035553 172.640594 0.009985 1.000000
78.829201 159.449524 -0.000021 0.433967
76.439766 151.956299 -0.000014 0.450553
74.918442 147.185440 -0.000010 0.431983
73.864563 143.880493 -0.000008 0.447852
73.091156 141.455109 -0.000010 0.652049
72.499199 139.598740 -0.000004 0.647410
72.031418 138.131790 -0.000001 0.649256
71.652328 136.942963 0.000001 0.639109
71.338791 135.959717 0.000003 0.636240
71.075073 135.132706 0.000004 0.655253
70.850105 134.427200 0.000005 0.657389
70.655869 133.818069 0.000007 0.665232
70.486412 133.286652 0.000008 0.651164
70.337227 132.818832 0.000008 0.655818
70.204849 132.403687 0.000009 0.649454
70.086540 132.032669 0.000010 0.650233
69.980141 131.699020 0.000009 0.657191
85.321953 178.032913 15.976124 0.678431
85.295578 177.952911 15.188703 0.390082
85.295578 177.952911 14.428194 0.401160
85.321960 178.032928 13.690801 0.678431
85.295570 177.952896 12.920765 0.405127
81.214577 165.576096 9.669532 0.897292
81.214584 165.576111 9.102228 0.894118
81.214577 165.576096 8.537565 0.908156
81.214577 165.576080 7.975342 0.914717
80.932945 164.721954 7.290945 0.739330
80.932938 164.721939 6.744950 0.722927
80.932945 164.721954 6.200740 0.731502
80.932938 164.721939 5.658118 0.721508
80.932938 164.721939 5.116894 0.736202
80.932938 164.721939 4.576877 0.705547
80.932938 164.721954 4.037879 0.718685
80.932945 164.721954 3.499713 0.714458
80.932938 164.721939 2.962192 0.721752
80.932938 164.721939 2.425129 0.725536
80.932938 164.721939 1.888346 0.724849
80.932938 164.721939 1.351653 0.711147
80.932938 164.721939 0.814869 0.740658
80.932938 164.721939 0.277809 0.710155
79.159180 159.342499 -0.000020 0.440925
76.696304 151.873093 -0.000014 0.449943
75.128212 147.117416 -0.000010 0.476463
74.041939 143.822968 -0.000008 0.469825
73.244766 141.405289 -0.000010 0.661784
72.634613 139.554825 -0.000005 0.650217
72.152451 138.092529 -0.000002 0.652613
71.761703 136.907501 0.000001 0.661875
71.438530 135.927368 0.000002 0.637629
71.166710 135.102982 0.000004 0.638041
70.934822 134.399734 0.000005 0.644358
70.734612 133.792542 0.000007 0.633936
70.559952 133.262817 0.000007 0.655695
70.406181 132.796478 0.000008 0.629831
70.269730 132.382645 0.000009 0.645411
70.147789 132.012817 0.000010 0.646510
70.038116 131.680222 0.000009 0.670024
85.892525 178.032898 16.023439 0.678431
85.865280 177.952911 15.233428 0.404425
85.865280 177.952911 14.470412 0.416602
81.214584 164.300476 10.547576 0.921126
81.214584 164.300476 9.990877 0.914549
81.214577 164.300461 9.437166 0.925490
81.214577 164.300476 8.886236 0.925490
81.214577 164.300476 8.337876 0.917128
80.932938 163.473679 7.659397 0.747112
80.932938 163.473679 7.127238 0.716167
80.932945 163.473709 6.597008 0.743786
80.932945 163.473709 6.068506 0.721813
80.932938 163.473694 5.541549 0.703395
80.932945 163.473709 5.015950 0.704952
80.932945 163.473709 4.491519 0.714641
80.932945 163.473709 3.968081 0.721126
80.932945 163.473709 3.445451 0.728344
80.932945 163.473709 2.923446 0.711406
80.932945 163.473709 2.401888 0.732296
80.932945 163.473709 1.880600 0.714611
80.932945 163.473709 1.359400 0.715587
80.932945 163.473709 0.838111 0.722744
80.932945 163.473709 0.316554 0.708965
79.488098 159.232269 -0.000020 0.446540
76.952003 151.787384 -0.000014 0.442023
75.337303 147.047333 -0.000010 0.450797
74.218742 143.763702 -0.000008 0.430426
73.365120 141.257843 0.009992 1.000000
72.769577 139.509598 -0.000005 0.659449
72.273087 138.052109 -0.000002 0.655299
71.870728 136.870956 0.000000 0.651316
71.537949 135.894058 0.000002 0.654734
71.258041 135.072372 0.000003 0.667826
71.019264 134.371429 0.000005 0.657954
70.813103 133.766235 0.000006 0.645274
70.633247 133.238251 0.000007 0.650614
70.474907 132.773438 0.000008 0.647791
70.334404 132.360962 0.000009 0.653605
70.208832 131.992355 0.000009 0.651865
70.095909 131.660843 0.000009 0.658976
86.466942 178.032898 16.072470 0.678431
86.438812 177.952911 15.279767 0.397238
86.438812 177.952911 14.514156 0.402808
81.210983 163.086075 10.295522 0.910094
81.270638 163.255707 9.791535 0.914687
81.270630 163.255707 9.251010 0.912154
81.214577 163.096283 8.683022 0.901991
81.214577 163.096283 8.149999 0.918776
80.932930 162.295334 7.490492 0.726116
80.932930 162.295349 6.973218 0.732998
80.932938 162.295364 6.457817 0.726345
80.932945 162.295380 5.944097 0.712139
80.932945 162.295380 5.431878 0.711620
80.932945 162.295380 4.920976 0.738842
80.932945 162.295380 4.411214 0.727230
80.932945 162.295380 3.902415 0.711116
80.932945 162.295380 3.394400 0.727779
80.932945 162.295380 2.886994 0.725719
80.932945 162.295380 2.380021 0.706035
80.932945 162.295380 1.873312 0.728298
80.932938 162.295380 1.366688 0.729015
80.932945 162.295380 0.859977 0.709209
80.932945 162.295380 0.353006 0.723918
79.815910 159.118759 -0.000019 0.445716
77.206856 151.699158 -0.000014 0.448997
75.545700 146.975189 -0.000010 0.460945
74.394958 143.702713 -0.000008 0.421881
73.550461 141.301132 -0.000008 0.656886
72.904099 139.463043 -0.000006 0.656901
72.393326 138.010483 -0.000003 0.652140
71.979385 136.833344 -0.000000 0.639048
71.637032 135.859756 0.000002 0.664195
71.349075 135.040863 0.000003 0.650752
71.103424 134.342300 0.000005 0.642618
70.891335 133.739151 0.000006 0.639094
70.706306 133.212967 0.000006 0.651911
70.543411 132.749725 0.000008 0.675013
70.398857 132.338654 0.000009 0.682689
70.269676 131.971298 0.000009 0.693935
70.153503 131.640915 0.000009 0.636698
87.026520 177.981033 16.108839 0.263828
87.016327 177.952927 15.327748 0.367697
81.214577 161.957520 10.592085 0.909483
81.214577 161.957520 10.062598 0.910399
81.214577 161.957504 9.536139 0.906172
81.214584 161.957520 9.012513 0.915740
81.214577 161.957520 8.491509 0.910277
81.214577 161.957504 7.972938 0.923690
80.932922 161.181000 7.331313 0.688655
80.932922 161.181000 6.828063 0.722850
80.932930 161.181015 6.326636 0.692226
80.932938 161.181030 5.826848 0.716716
80.932945 161.181061 5.328519 0.708659
80.932945 161.181061 4.831470 0.728054
80.932945 161.181061 4.335531 0.703166
80.932945 161.181061 3.840527 0.726375
80.932945 161.181061 3.346287 0.721462
80.932945 161.181061 2.852639 0.727382
80.932945 161.181061 2.359414 0.711192
80.932945 161.181061 1.866443 0.701350
80.932945 161.181061 1.373556 0.719371
80.932945 161.181061 0.880585 0.717906
80.932945 161.181061 0.387360 0.720562
80.142601 159.002075 -0.000019 0.436454
77.460831 151.608444 -0.000013 0.449195
75.753380 146.901001 -0.000009 0.428779
74.570564 143.639984 -0.000007 0.449165
73.702522 141.246796 -0.000005 0.458640
73.038162 139.415161 -0.000006 0.652659
72.513145 137.967697 -0.000003 0.663401
72.087677 136.794678 -0.000001 0.646403
71.735779 135.824493 0.000001 0.671595
71.439796 135.008469 0.000003 0.638071
71.187302 134.312347 0.000004 0.650309
70.969299 133.711304 0.000005 0.661082
70.779106 133.186951 0.000007 0.652750
70.611671 132.725342 0.000008 0.645502
70.463097 132.315720 0.000008 0.665644
70.330315 131.949631 0.000009 0.645701
70.210899 131.620407 0.000009 0.652277
87.627861 178.032898 16.175768 0.678431
87.597954 177.952911 15.377400 0.435859
81.214577 160.878784 10.356054 0.925460
81.214577 160.878784 9.840495 0.895369
81.214569 160.878769 9.327888 0.916274
81.214577 160.878784 8.818035 0.894636
81.214577 160.878784 8.310738 0.897322
80.932915 160.125397 7.673019 0.739910
80.932915 160.125412 7.181061 0.705730
80.932922 160.125412 6.691051 0.712047
80.932930 160.125427 6.202817 0.735821
80.767685 159.683441 5.663454 0.651347
80.767281 159.682358 5.184365 0.691127
80.932938 160.125473 4.746985 0.714305
80.932938 160.125473 4.264091 0.694682
80.932945 160.125473 3.782110 0.718807
80.932938 160.125458 3.300872 0.725048
80.932938 160.125473 2.820212 0.725307
80.932938 160.125473 2.339962 0.723735
80.932945 160.125473 1.859960 0.712352
80.932945 160.125473 1.380040 0.705592
80.932945 160.125473 0.900038 0.709239
80.932938 160.125473 0.419788 0.748501
80.468124 158.882202 -0.000019 0.438346
77.713898 151.515244 -0.000013 0.447883
75.960320 146.824799 -0.000009 0.434333
74.745544 143.575546 -0.000007 0.437995
73.854050 141.190979 -0.000005 0.459037
73.171745 139.365967 -0.000007 0.653101
72.632545 137.923737 -0.000004 0.643381
72.195572 136.754944 -0.000001 0.652232
71.834167 135.788254 0.000001 0.655207
71.530190 134.975174 0.000002 0.632486
71.270874 134.281570 0.000004 0.650324
71.046982 133.682693 0.000005 0.662791
70.851654 133.160248 0.000006 0.639796
70.679695 132.700302 0.000007 0.645823
70.527107 132.292145 0.000008 0.664012
70.390732 131.927383 0.000009 0.659266
70.268089 131.599350 0.000009 0.696849
88.214676 178.032898 16.230099 0.460349
88.183884 177.952911 15.428749 0.360113
81.214577 159.855255 10.132923 0.906188
81.214569 159.855240 9.630529 0.917250
81.214577 159.855255 9.131018 0.924849
81.214577 159.855240 8.634184 0.899306
81.214569 159.855240 8.139844 0.895857
80.932915 159.123840 7.518414 0.723949
80.932915 159.123840 7.039021 0.741833
80.932922 159.123856 6.561529 0.730251
80.932922 159.123856 6.085763 0.703227
80.932922 159.123871 5.611551 0.714397
80.932930 159.123886 5.138725 0.721172
80.932938 159.123886 4.667115 0.705821
80.932938 159.123901 4.196558 0.699199
80.932945 159.123917 3.726888 0.714168
80.932945 159.123901 3.257941 0.733837
80.932945 159.123901 2.789555 0.734737
80.932945 159.123917 2.321573 0.733623
80.932945 159.123917 1.853831 0.728389
80.932945 159.123917 1.386168 0.735348
80.932945 159.123917 0.918426 0.721996
80.932945 159.123901 0.450443 0.693965
80.792465 158.759109 -0.000019 0.441794
77.966042 151.419556 -0.000013 0.449912
76.166504 146.746567 -0.000009 0.439933
74.919884 143.509384 -0.000007 0.419745
74.005020 141.133698 -0.000005 0.463157
73.304832 139.315460 -0.000007 0.649363
72.751503 137.878601 -0.000004 0.660792
72.303085 136.714142 -0.000002 0.652903
71.932205 135.751068 0.000000 0.654490
71.620255 134.941010 0.000002 0.651637
71.354141 134.249969 0.000004 0.641871
71.124382 133.653336 0.000005 0.646616
70.923935 133.132813 0.000006 0.668070
70.747467 132.674576 0.000007 0.666636
70.590874 132.267944 0.000008 0.627405
70.450935 131.904541 0.000008 0.641550
70.325073 131.577728 0.000009 0.645899
88.774231 177.952881 16.263792 0.413016
81.214569 158.882599 10.414608 0.905348
81.214577 158.882599 9.921684 0.896010
81.214577 158.882599 9.431760 0.899748
81.214577 158.882614 8.944642 0.894545
81.214577 158.882614 8.460138 0.895903
81.214569 158.882599 7.978065 0.922927
80.932915 158.172073 7.372052 0.722652
80.932915 158.172073 6.904556 0.741711
80.932915 158.172089 6.438911 0.733410
80.932922 158.172089 5.974951 0.729778
80.932922 158.172104 5.512507 0.734035
80.932930 158.172119 5.051413 0.723217
80.932938 158.172119 4.591506 0.729824
80.932938 158.172134 4.132624 0.740246
80.932945 158.172150 3.674607 0.719417
80.932945 158.172165 3.217299 0.720348
80.932945 158.172150 2.760536 0.732403
80.932945 158.172150 2.304163 0.722286
80.932945 158.172150 1.848028 0.728237
80.932945 158.172150 1.391971 0.738552
80.932945 158.172150 0.935835 0.725505
80.932945 158.172150 0.479464 0.731594
80.932945 158.172165 0.022702 0.743038
78.217239 151.321396 -0.000013 0.445563
76.371902 146.666290 -0.000009 0.447349
75.093567 143.441513 -0.000006 0.425116
74.155426 141.074921 -0.000004 0.411063
73.437424 139.263672 -0.000008 0.652277
72.870010 137.832291 -0.000004 0.652338
72.410179 136.672302 -0.000002 0.659785
72.029861 135.712906 0.000000 0.642023
71.709976 134.905945 0.000002 0.659266
71.437096 134.217560 0.000004 0.662684
71.201485 133.623199 0.000005 0.648417
70.995941 133.104675 0.000006 0.652537
70.814987 132.648193 0.000007 0.667933
70.654411 132.243118 0.000007 0.625391
70.510902 131.881119 0.000008 0.663447
