# This PCD file was generated using the MATLAB® pcwrite function
# from Computer Vision System Toolbox®.
# .PCD v.7 - Point Cloud Data file format
VERSION .7
FIELDS x y z intensity
SIZE 4 4 4 4
TYPE F F F F
COUNT 1 1 1 1
WIDTH 1222
HEIGHT 1
VIEWPOINT 0 0 0 1 0 0 0
POINTS 1222
DATA ascii
77.694664 185.299194 3.946932 0.678431
77.694664 185.299179 3.757811 0.678431
77.694664 185.299194 3.569439 0.678431
77.694664 185.299194 3.381748 0.678431
77.614677 185.199493 3.180390 0.403677
77.614677 185.199493 2.995551 0.400031
77.614677 185.199493 2.811188 0.409628
77.614677 185.199493 2.627234 0.427924
77.614677 185.199493 2.443630 0.425330
77.614677 185.199493 2.260308 0.435096
77.614677 185.199478 2.077206 0.411048
77.614677 185.199478 1.894261 0.411032
77.614677 185.199478 1.711410 0.427359
77.614677 185.199478 1.528590 0.424475
77.614677 185.199478 1.345739 0.431373
77.614677 185.199478 1.162794 0.426825
77.614677 185.199493 0.979692 0.398291
77.614677 185.199478 0.796370 0.380026
77.614677 185.199478 0.612765 0.407843
77.614677 185.199478 0.428813 0.416846
77.614677 185.199478 0.244449 0.386145
77.614677 185.199478 0.059610 0.436088
76.984497 184.413956 0.000112 0.423911
76.203743 183.440750 0.000110 0.413413
75.557999 182.635818 0.000109 0.476036
75.014862 181.958786 0.000107 0.448524
74.551521 181.381241 0.000106 0.456519
74.151474 180.882568 0.000105 0.473960
73.802467 180.447525 0.000104 0.407568
73.495544 180.064957 -0.000012 0.651270
73.222870 179.725067 -0.000011 0.677531
72.979187 179.421310 -0.000011 0.691264
72.760033 179.148132 -0.000010 0.639887
77.614677 184.983017 5.220543 0.432288
77.614677 184.983017 5.028274 0.439490
77.614677 184.983017 4.837245 0.417304
77.614677 184.983017 4.647378 0.431373
77.614677 184.983017 4.458600 0.426459
77.614677 184.983017 4.270836 0.437873
77.614677 184.983017 4.084012 0.413260
77.636383 185.009537 3.903719 0.469856
77.636383 185.009537 3.718111 0.466453
77.636383 185.009537 3.533236 0.438483
77.636383 185.009537 3.349031 0.458137
77.614677 184.983017 3.161599 0.407797
77.614677 184.983017 2.978986 0.416114
77.614677 184.983017 2.796842 0.405173
77.614677 184.983017 2.615105 0.412863
77.614677 184.983017 2.433712 0.428260
77.614677 184.983017 2.252597 0.436271
77.614677 184.983017 2.071700 0.424704
77.614677 184.983017 1.890958 0.399619
77.614677 184.983017 1.710309 0.434546
77.614677 184.983017 1.529691 0.400443
77.614677 184.983017 1.349042 0.407843
77.614677 184.983017 1.168300 0.431937
77.614677 184.983017 0.987403 0.426230
77.614677 184.983017 0.806288 0.437507
77.614677 184.983017 0.624894 0.441550
77.614677 184.983017 0.443157 0.410864
77.614677 184.983017 0.261014 0.404059
77.614677 184.983017 0.078401 0.430060
77.083359 184.333878 0.000108 0.470283
76.293091 183.368378 0.000107 0.366537
75.639465 182.569824 0.000106 0.478676
75.089706 181.898163 0.000104 0.402136
74.620720 181.325180 0.000103 0.392630
74.215797 180.830475 0.000102 0.505653
73.862534 180.398880 0.000101 0.344244
73.551865 180.019318 -0.000012 0.630686
73.248672 179.648895 0.010000 1.000000
73.029213 179.380768 -0.000011 0.648692
72.807388 179.109756 -0.000010 0.615244
77.614677 184.771667 5.178038 0.379065
77.614677 184.771667 4.988040 0.386908
77.614677 184.771667 4.799265 0.392706
77.614677 184.771667 4.611640 0.440162
77.614677 184.771667 4.425090 0.439246
77.614677 184.771667 4.239542 0.413733
77.614677 184.771667 4.054924 0.412070
77.694664 184.867462 3.891772 0.678431
77.694664 184.867462 3.707134 0.678431
77.694664 184.867462 3.523227 0.656001
77.694664 184.867462 3.339986 0.678431
77.614677 184.771667 3.143400 0.399741
77.614677 184.771667 2.962943 0.401679
77.614677 184.771667 2.782949 0.401328
77.614677 184.771667 2.603358 0.404944
77.614677 184.771667 2.424105 0.409171
77.614677 184.771667 2.245130 0.395758
77.614677 184.771667 2.066367 0.416480
77.614677 184.771667 1.887759 0.362127
77.614677 184.771667 1.709243 0.384512
77.614677 184.771667 1.530757 0.393561
77.614677 184.771667 1.352240 0.378073
77.614677 184.771667 1.173632 0.391180
77.614677 184.771667 0.994871 0.392035
77.614677 184.771667 0.815895 0.395254
77.614677 184.771667 0.636642 0.404852
77.614677 184.771667 0.457050 0.441184
77.614677 184.771667 0.277057 0.395666
77.614677 184.771667 0.096599 0.409216
77.181427 184.252838 0.000105 0.392370
76.381714 183.295135 0.000104 0.459571
75.720291 182.503036 0.000103 0.465293
75.163956 181.836792 0.000102 0.407584
74.689369 181.268448 0.000100 0.463813
74.279602 180.777740 0.000099 0.433082
73.922119 180.349625 0.000098 0.428183
73.607414 179.972748 0.000098 0.501732
73.300926 179.605713 0.009996 1.000000
73.078835 179.339752 -0.000011 0.665171
72.854362 179.070923 -0.000010 0.625727
77.614677 184.565247 5.136860 0.365316
77.614677 184.565247 4.949060 0.346639
77.614677 184.565247 4.762470 0.402716
77.614677 184.565247 4.577018 0.445548
77.614677 184.565247 4.392627 0.406027
77.614677 184.565247 4.209226 0.401831
77.676025 184.637268 4.043641 0.446998
77.694664 184.659149 3.865480 0.678431
77.694664 184.659149 3.682979 0.678431
77.694664 184.659149 3.501201 0.678431
77.694664 184.659149 3.320080 0.678431
77.614677 184.565247 3.125770 0.403540
77.614677 184.565247 2.947401 0.416144
77.614677 184.565247 2.769491 0.398703
77.614677 184.565247 2.591978 0.410605
77.614677 184.565247 2.414800 0.407980
77.614677 184.565247 2.237895 0.399207
77.614677 184.565247 2.061202 0.394400
77.614677 184.565247 1.884661 0.333410
77.614677 184.565247 1.708210 0.405539
77.614677 184.565247 1.531790 0.397269
77.614677 184.565247 1.355339 0.431647
77.614677 184.565247 1.178798 0.426963
77.614677 184.565247 1.002105 0.431189
77.614677 184.565247 0.825200 0.405859
77.614677 184.565247 0.648022 0.442176
77.614677 184.565247 0.470509 0.425208
77.614677 184.565247 0.292599 0.405035
77.614677 184.565247 0.114230 0.420432
77.278702 184.170837 0.000102 0.427466
76.469620 183.221024 0.000101 0.388724
75.800446 182.435455 0.000100 0.397101
75.237602 181.774704 0.000098 0.496468
74.757454 181.211044 0.000098 0.426154
74.342896 180.724380 0.000097 0.422370
73.981224 180.299805 0.000095 0.396887
73.662827 179.926025 0.000095 0.496498
73.352730 179.561996 0.010002 1.000000
73.128059 179.298233 -0.000011 0.671092
72.900948 179.031631 -0.000010 0.650462
77.614677 184.363525 5.096956 0.414832
77.614670 184.363510 4.911286 0.392782
77.614677 184.363525 4.726815 0.396628
77.614677 184.363525 4.543465 0.412421
77.614677 184.363525 4.361167 0.399115
77.614677 184.363525 4.179846 0.418875
77.694664 184.455566 4.021214 0.678431
77.694664 184.455566 3.840003 0.678431
77.694664 184.455566 3.659572 0.678431
77.694664 184.455566 3.479856 0.678431
77.694664 184.455566 3.300790 0.678431
77.614677 184.363525 3.108685 0.410712
77.614677 184.363525 2.932340 0.384741
77.614677 184.363525 2.756448 0.390997
77.614677 184.363525 2.580949 0.406470
77.614677 184.363525 2.405781 0.388388
77.614677 184.363525 2.230884 0.425238
77.614677 184.363525 2.056195 0.400275
77.614677 184.363525 1.881658 0.324102
77.614677 184.363525 1.707209 0.397635
77.614677 184.363525 1.532791 0.401816
77.614677 184.363525 1.358342 0.429358
77.614677 184.363510 1.183804 0.450340
77.614677 184.363525 1.009116 0.395315
77.614677 184.363510 0.834219 0.400717
77.614677 184.363510 0.659051 0.435416
77.614677 184.363525 0.483552 0.391043
77.614677 184.363525 0.307661 0.410742
77.614677 184.363510 0.131315 0.395758
77.375160 184.087875 0.000099 0.426719
76.556793 183.146057 0.000098 0.427024
75.879944 182.367096 0.000096 0.440223
75.310638 181.711899 0.000095 0.426978
74.824974 181.152985 0.000094 0.470787
74.405655 180.670410 0.000093 0.358557
74.039833 180.249405 0.000092 0.482979
73.717781 179.878769 0.000091 0.401923
73.404144 179.517807 0.009993 1.000000
73.176865 179.256241 -0.000011 0.659358
72.947151 178.991882 -0.000010 0.666377
77.614677 184.166306 5.058276 0.383307
77.614677 184.166306 4.874672 0.391730
77.614677 184.166306 4.692252 0.376425
77.614677 184.166306 4.510943 0.343603
77.614677 184.166306 4.330673 0.395743
77.614677 184.166306 4.151369 0.433845
77.694664 184.256546 3.994501 0.678431
77.694664 184.256546 3.815304 0.678431
77.694664 184.256546 3.636882 0.678431
77.694664 184.256546 3.459166 0.678431
77.614677 184.166306 3.267017 0.365438
77.614677 184.166306 3.092124 0.373068
77.614677 184.166306 2.917740 0.406470
77.614677 184.166306 2.743805 0.388785
77.614677 184.166306 2.570259 0.388571
77.614677 184.166306 2.397039 0.404669
77.614677 184.166306 2.224088 0.341283
77.614677 184.166306 2.051343 0.398047
77.614677 184.166306 1.878747 0.322271
77.614677 184.166306 1.706239 0.407614
77.614677 184.166306 1.533761 0.371328
77.614677 184.166306 1.361253 0.401328
77.614677 184.166306 1.188657 0.403876
77.614677 184.166306 1.015912 0.411444
77.614677 184.166306 0.842960 0.407477
77.614677 184.166306 0.669741 0.415442
77.614677 184.166306 0.496195 0.403800
77.614677 184.166306 0.322260 0.395499
77.614677 184.166306 0.147877 0.407065
77.470802 184.003967 0.000096 0.400595
76.643234 183.070236 0.000094 0.394949
75.958755 182.297943 0.000093 0.378698
75.383049 181.648376 0.000092 0.426230
74.891922 181.094254 0.000091 0.440818
74.467888 180.615814 0.000090 0.450263
74.097946 180.198425 0.000089 0.383841
73.772270 179.830963 0.000088 0.342275
73.483551 179.505203 -0.000011 0.661524
73.225258 179.213776 -0.000011 0.630274
72.992966 178.951675 -0.000010 0.655695
77.614677 183.973404 5.020770 0.371145
77.614677 183.973404 4.839170 0.385733
77.614677 183.973404 4.658739 0.431373
77.614677 183.973404 4.479408 0.369787
77.614677 183.973404 4.301103 0.423407
77.614677 183.973404 4.123757 0.377111
77.643700 184.005524 3.955029 0.180835
77.643700 184.005524 3.778811 0.178500
77.643707 184.005524 3.603355 0.178500
77.643707 184.005524 3.428593 0.178500
77.614677 183.973404 3.249052 0.395148
77.614677 183.973404 3.076065 0.403662
77.614677 183.973404 2.903584 0.374701
77.614677 183.973404 2.731546 0.407843
77.614677 183.973404 2.559893 0.404318
77.614677 183.973404 2.388563 0.404303
77.614677 183.973404 2.217498 0.409979
77.614677 183.973404 2.046638 0.407858
77.614677 183.973404 1.875924 0.364157
77.614677 183.973404 1.705298 0.417533
77.614677 183.973404 1.534701 0.396292
77.614677 183.973404 1.364076 0.384131
77.614677 183.973404 1.193362 0.426093
77.614677 183.973404 1.022502 0.426902
77.614677 183.973404 0.851437 0.370703
77.614677 183.973404 0.680107 0.388235
77.614677 183.973404 0.508454 0.403983
77.614677 183.973404 0.336416 0.407340
77.614677 183.973404 0.163935 0.393164
77.565613 183.919144 0.000093 0.450080
76.728920 182.993561 0.000091 0.385550
76.036896 182.228043 0.000090 0.466163
75.454834 181.584152 0.000089 0.439231
74.958290 181.034866 0.000088 0.530907
74.529572 180.560623 0.000087 0.422354
74.155556 180.146866 0.000086 0.459236
73.826294 179.782639 0.000085 0.436118
73.534378 179.459717 -0.000011 0.645350
73.246056 179.140762 0.010000 1.000000
73.038376 178.911026 -0.000010 0.641291
77.614677 183.784653 4.984394 0.382437
77.614677 183.784653 4.804737 0.425437
77.614677 183.784653 4.626235 0.399954
77.614677 183.784653 4.448822 0.398108
77.614677 183.784653 4.272426 0.391943
77.614677 183.784653 4.096975 0.420676
77.694664 183.871414 3.943478 0.678431
77.694664 183.871414 3.768133 0.678431
77.694664 183.871414 3.593544 0.678431
77.694664 183.871414 3.419645 0.678431
77.614677 183.784653 3.231627 0.407660
77.614677 183.784653 3.060491 0.405219
77.614677 183.784653 2.889854 0.390982
77.614677 183.784653 2.719657 0.419715
77.614677 183.784653 2.549839 0.398611
77.614677 183.784653 2.380342 0.389151
77.614677 183.784653 2.211107 0.431373
77.614677 183.784653 2.042074 0.439216
77.614677 183.784653 1.873187 0.328328
77.614677 183.784653 1.704386 0.398642
77.614677 183.784653 1.535614 0.396078
77.614677 183.784653 1.366813 0.372122
77.614677 183.784653 1.197925 0.431449
77.614677 183.784653 1.028893 0.407294
77.614677 183.784653 0.859658 0.404135
77.614677 183.784653 0.690160 0.385580
77.614677 183.784653 0.520343 0.369985
77.614677 183.784653 0.350146 0.393744
77.614677 183.784653 0.179510 0.400565
77.614677 183.784653 0.008373 0.418051
76.813843 182.916061 0.000088 0.493675
76.114342 182.157364 0.000087 0.440101
75.525986 181.519226 0.000085 0.379034
75.024071 180.974838 0.000085 0.492378
74.590721 180.504822 0.000083 0.408225
74.212662 180.094757 0.000083 0.465904
73.879829 179.733765 0.000082 0.495460
73.584755 179.413727 -0.000011 0.658320
73.293335 179.097641 0.009994 1.000000
73.083389 178.869934 -0.000010 0.651041
77.614670 183.599884 4.949106 0.377462
77.614677 183.599884 4.771333 0.405417
77.614677 183.599884 4.594705 0.427329
77.614677 183.599884 4.419152 0.400427
77.614677 183.599884 4.244605 0.407843
77.614677 183.599884 4.070995 0.415869
77.694664 183.684952 3.919107 0.678431
77.694664 183.684952 3.745601 0.678431
77.694664 183.684952 3.572843 0.678431
77.694664 183.684952 3.400770 0.678431
77.614677 183.599884 3.214723 0.427893
77.614677 183.599884 3.045382 0.407843
77.614677 183.599884 2.876535 0.409674
77.614677 183.599884 2.708123 0.419196
77.614677 183.599884 2.540087 0.414984
77.614677 183.599884 2.372368 0.431373
77.614677 183.599884 2.204907 0.422751
77.614677 183.599884 2.037647 0.403952
77.614677 183.599884 1.870531 0.408988
77.614677 183.599884 1.703501 0.422187
77.614677 183.599884 1.536499 0.413626
77.614677 183.599884 1.369468 0.411200
77.614677 183.599884 1.202352 0.392630
77.614677 183.599884 1.035093 0.440513
77.614677 183.599884 0.867632 0.446479
77.614677 183.599884 0.699913 0.386313
77.614677 183.599884 0.531877 0.412787
77.614677 183.599884 0.363465 0.393378
77.614677 183.599884 0.194618 0.396078
77.614677 183.599884 0.025277 0.409216
76.898010 182.837723 0.000085 0.452399
76.191093 182.085938 0.000083 0.448371
75.596497 181.453598 0.000082 0.413031
75.089264 180.914169 0.000081 0.360174
74.651314 180.448425 0.000080 0.447150
74.269249 180.042099 0.000079 0.565286
73.932892 179.684387 0.000079 0.444617
73.634415 179.366959 0.000078 0.469841
73.340157 179.054031 0.009996 1.000000
73.127998 178.828400 -0.000010 0.663340
77.614677 183.418930 4.914865 0.432410
77.614677 183.418930 4.738919 0.410361
77.614677 183.418930 4.564108 0.402716
77.614677 183.418930 4.390361 0.431495
77.614677 183.418930 4.217610 0.389181
77.614677 183.418930 4.045785 0.407843
77.694664 183.502335 3.895461 0.678431
77.694664 183.502335 3.723739 0.678431
77.694664 183.502335 3.552758 0.678431
77.694664 183.502335 3.382454 0.678431
77.614677 183.418930 3.198320 0.408026
77.614677 183.418930 3.030721 0.398596
77.614677 183.418930 2.863611 0.401450
77.614677 183.418930 2.696931 0.418006
77.614677 183.418930 2.530623 0.412711
77.614677 183.418930 2.364629 0.393576
77.614677 183.418930 2.198891 0.400946
77.614677 183.418930 2.033352 0.405936
77.614677 183.418930 1.867954 0.421302
77.614677 183.418930 1.702642 0.407843
77.614677 183.418930 1.537358 0.398062
77.614677 183.418930 1.372045 0.397864
77.614677 183.418930 1.206648 0.450980
77.614677 183.418930 1.041109 0.435660
77.614677 183.418930 0.875371 0.446113
77.614677 183.418930 0.709377 0.383917
77.614677 183.418930 0.543069 0.400259
77.614677 183.418930 0.376389 0.406653
77.614677 183.418930 0.209279 0.404257
77.614677 183.418930 0.041680 0.386038
76.981400 182.758575 0.000081 0.382757
76.267136 182.013748 0.000080 0.390921
75.666359 181.387283 0.000079 0.439185
75.153854 180.852859 0.000078 0.428458
74.711357 180.391434 0.000077 0.462745
74.325317 179.988876 0.000076 0.486259
73.985458 179.634491 0.000075 0.483513
73.683884 179.320007 0.000074 0.454749
73.386559 179.009964 0.009997 1.000000
73.172195 178.786438 -0.000010 0.667750
77.614677 183.241638 4.881632 0.396323
77.614677 183.241638 4.707461 0.442100
77.614677 183.241638 4.534413 0.413352
77.614677 183.241638 4.362419 0.395499
77.614677 183.241638 4.191410 0.429160
77.694664 183.323425 4.043297 0.601068
77.694664 183.323425 3.872510 0.678431
77.694664 183.323425 3.702520 0.678431
77.694664 183.323425 3.533263 0.661891
77.694664 183.323425 3.364677 0.678431
77.614677 183.241638 3.182401 0.417212
77.614677 183.241638 3.016492 0.416297
77.614677 183.241638 2.851068 0.408759
77.614677 183.241638 2.686069 0.407843
77.614677 183.241638 2.521438 0.392157
77.614677 183.241638 2.357119 0.400366
77.614677 183.241638 2.193053 0.388235
77.614677 183.241638 2.029183 0.405417
77.614677 183.241638 1.865453 0.392889
77.614677 183.241638 1.701809 0.407614
77.614677 183.241638 1.538191 0.433371
77.614677 183.241638 1.374546 0.431373
77.614677 183.241638 1.210817 0.437842
77.614677 183.241638 1.046947 0.432151
77.614677 183.241638 0.882881 0.415457
77.614677 183.241638 0.718561 0.439765
77.614670 183.241638 0.553931 0.436240
77.614677 183.241638 0.388932 0.414023
77.614677 183.241638 0.223508 0.389838
77.614677 183.241638 0.057599 0.420066
77.064011 182.678604 0.000078 0.513375
76.342468 181.940826 0.000077 0.445975
75.735565 181.320282 0.000076 0.436881
75.217842 180.790909 0.000075 0.371435
74.770836 180.333847 0.000074 0.467872
74.380859 179.935104 0.000073 0.430503
74.037537 179.584076 0.000072 0.473884
73.732887 179.272568 0.000072 0.452705
73.432518 178.965454 0.009998 1.000000
73.215973 178.744034 -0.000010 0.635203
77.614670 183.067871 4.849371 0.402914
77.614677 183.067886 4.676923 0.422004
77.614677 183.067886 4.505587 0.390204
77.614670 183.067871 4.335293 0.440528
77.614677 183.067886 4.165976 0.412390
77.636368 183.089630 4.003468 0.494118
77.636368 183.089630 3.835488 0.503670
77.636368 183.089630 3.668293 0.488518
77.636368 183.089630 3.501819 0.477119
77.636368 183.089630 3.336003 0.465003
77.614677 183.067886 3.166947 0.395041
77.614677 183.067886 3.002679 0.409934
77.614677 183.067886 2.838892 0.388357
77.614677 183.067886 2.675525 0.400717
77.614677 183.067886 2.512522 0.403891
77.614677 183.067886 2.349828 0.406882
77.614677 183.067886 2.187384 0.394430
77.614677 183.067886 2.025136 0.396078
77.614677 183.067886 1.863025 0.406516
77.614677 183.067886 1.700999 0.431373
77.614677 183.067886 1.539001 0.404837
77.614677 183.067886 1.376974 0.400763
77.614670 183.067871 1.214864 0.427634
77.614677 183.067886 1.052616 0.416999
77.614677 183.067886 0.890172 0.406165
77.614677 183.067886 0.727478 0.448875
77.614677 183.067886 0.564476 0.450370
77.614677 183.067886 0.401109 0.369970
77.614677 183.067886 0.237321 0.396078
77.614677 183.067886 0.073053 0.398932
77.145836 182.597824 0.000075 0.482551
76.417076 181.867172 0.000074 0.540566
75.804115 181.252609 0.000072 0.483085
75.281212 180.728348 0.000072 0.427420
74.829742 180.275696 0.000071 0.462303
74.435867 179.880798 0.000070 0.469474
74.089127 179.533142 0.000069 0.366659
73.781425 179.224640 0.000068 0.431220
73.506660 178.949173 -0.000011 0.657694
73.259338 178.701202 -0.000010 0.662135
77.614670 182.897507 4.818047 0.319509
77.614677 182.897507 4.647272 0.339361
77.614677 182.897507 4.477597 0.335897
77.614677 182.897507 4.308955 0.347860
77.614677 182.897507 4.141281 0.336034
77.694672 182.976151 3.996055 0.678431
77.694664 182.976151 3.828598 0.678431
77.694664 182.976135 3.661921 0.678431
77.694664 182.976135 3.495965 0.678431
77.694664 182.976135 3.330665 0.678431
77.614677 182.897507 3.151942 0.341482
77.614677 182.897507 2.989268 0.318761
77.614677 182.897507 2.827068 0.353964
77.614677 182.897507 2.665286 0.378637
77.614677 182.897507 2.503865 0.390890
77.614677 182.897507 2.342748 0.423346
77.614677 182.897507 2.181881 0.414557
77.614677 182.897507 2.021206 0.437598
77.614677 182.897507 1.860668 0.398932
77.614677 182.897507 1.700213 0.381384
77.614677 182.897507 1.539786 0.398718
77.614677 182.897507 1.379331 0.412161
77.614670 182.897507 1.218794 0.448905
77.614677 182.897507 1.058119 0.435050
77.614677 182.897507 0.897251 0.448371
77.614677 182.897507 0.736135 0.420096
77.614677 182.897507 0.574714 0.380652
77.614677 182.897507 0.412932 0.409766
77.614677 182.897507 0.250733 0.373037
77.614677 182.897507 0.088058 0.389761
77.226860 182.516235 0.000072 0.515084
76.490967 181.792770 0.000070 0.438560
75.872002 181.184265 0.000069 0.461631
75.343971 180.665161 0.000068 0.461524
74.888077 180.216965 0.000067 0.458686
74.490341 179.825943 0.000067 0.482170
74.140205 179.481720 0.000066 0.480232
73.829491 179.176254 0.000065 0.525063
73.552025 178.903473 -0.000011 0.661097
73.274933 178.631073 0.009997 1.000000
77.614677 182.730392 4.787627 0.396078
77.614677 182.730392 4.618476 0.406394
77.614677 182.730392 4.450417 0.403525
77.614677 182.730392 4.283379 0.364157
77.614677 182.730392 4.117299 0.400443
77.694664 182.807495 3.973454 0.678431
77.694664 182.807495 3.807590 0.678431
77.694664 182.807495 3.642498 0.678431
77.694664 182.807495 3.478121 0.678431
77.694664 182.807495 3.314393 0.678431
77.614677 182.730392 3.137371 0.380850
77.614677 182.730392 2.976243 0.413397
77.614677 182.730392 2.815587 0.408072
77.614677 182.730392 2.655343 0.390463
77.614677 182.730392 2.495458 0.415946
77.614677 182.730392 2.335874 0.397925
77.614677 182.730392 2.176536 0.395773
77.614677 182.730392 2.017389 0.399741
77.614677 182.730392 1.858379 0.396078
77.614677 182.730392 1.699450 0.407980
77.614677 182.730392 1.540549 0.403204
77.614677 182.730392 1.381621 0.367910
77.614677 182.730392 1.222610 0.384894
77.614677 182.730392 1.063464 0.402518
77.614677 182.730392 0.904126 0.400671
77.614670 182.730377 0.744542 0.398276
77.614677 182.730377 0.584656 0.403006
77.614677 182.730392 0.424413 0.396078
77.614677 182.730392 0.263757 0.403616
77.614677 182.730392 0.102629 0.421912
77.307083 182.433868 0.000068 0.402350
76.564117 181.717667 0.000067 0.448051
75.939201 181.115250 0.000066 0.445014
75.406113 180.601364 0.000065 0.421942
74.945831 180.157654 0.000064 0.433616
74.544281 179.770569 0.000063 0.488975
74.190773 179.429794 0.000062 0.447776
73.877075 179.127396 0.000062 0.457282
73.596725 178.857132 0.000061 0.506020
73.317169 178.587646 0.010004 1.000000
77.614677 182.566406 4.758080 0.463966
77.614677 182.566406 4.590508 0.383688
77.614677 182.566406 4.424015 0.399619
77.614677 182.566406 4.258535 0.383307
77.614677 182.566406 4.094005 0.458686
77.694664 182.642014 3.951502 0.678431
77.694664 182.642014 3.787184 0.678431
77.694664 182.642014 3.623633 0.678431
77.694664 182.642014 3.460789 0.678431
77.694664 182.642014 3.298588 0.678431
77.614677 182.566406 3.123217 0.394339
77.614677 182.566406 2.963593 0.408164
77.614677 182.566406 2.804434 0.403693
77.614677 182.566406 2.645686 0.394186
77.614677 182.566406 2.487291 0.398154
77.614677 182.566406 2.329196 0.429389
77.614677 182.566406 2.171345 0.419715
77.614677 182.566406 2.013683 0.421210
77.614677 182.566406 1.856155 0.396002
77.614677 182.566406 1.698709 0.419608
77.614677 182.566406 1.541290 0.387884
77.614670 182.566406 1.383844 0.406683
77.614670 182.566406 1.226317 0.411154
77.614677 182.566406 1.068655 0.394858
77.614677 182.566406 0.910803 0.414557
77.614677 182.566406 0.752708 0.363058
77.614677 182.566406 0.594314 0.416114
77.614677 182.566406 0.435565 0.426490
77.614677 182.566406 0.276407 0.402060
77.614677 182.566406 0.116783 0.399237
77.386490 182.350723 0.000065 0.446082
76.636528 181.641830 0.000064 0.353506
76.005730 181.045593 0.000063 0.447562
75.467613 180.536957 0.000062 0.479942
75.003006 180.097794 0.000061 0.409964
74.597672 179.714661 0.000060 0.440787
74.240837 179.377365 0.000059 0.456153
73.924179 179.078064 0.000058 0.489281
73.641197 178.810577 0.000058 0.404654
73.359009 178.543854 0.009998 1.000000
77.614670 182.405426 4.729376 0.404883
77.614677 182.405426 4.563336 0.391913
77.614677 182.405426 4.398366 0.414710
77.614670 182.405426 4.234400 0.418143
77.614677 182.405426 4.071374 0.388235
77.694664 182.479568 3.930176 0.678431
77.694664 182.479568 3.767362 0.678431
77.694664 182.479568 3.605307 0.678431
77.694664 182.479568 3.443951 0.678431
77.614677 182.405426 3.268150 0.386770
77.614677 182.405426 3.109467 0.392187
77.614677 182.405426 2.951303 0.415015
77.614677 182.405426 2.793600 0.417731
77.614677 182.405426 2.636304 0.404990
77.614677 182.405426 2.479358 0.368338
77.614677 182.405426 2.322709 0.394797
77.614677 182.405426 2.166302 0.418967
77.614670 182.405426 2.010082 0.398047
77.614677 182.405426 1.853995 0.381811
77.614670 182.405426 1.697989 0.388296
77.614670 182.405426 1.542010 0.390829
77.614677 182.405426 1.386004 0.470466
77.614670 182.405426 1.229918 0.376120
77.614670 182.405426 1.073698 0.405585
77.614670 182.405426 0.917290 0.407599
77.614670 182.405426 0.760641 0.388235
77.614670 182.405426 0.603696 0.382986
77.614677 182.405426 0.446400 0.377691
77.614670 182.405426 0.288697 0.398428
77.614670 182.405426 0.130533 0.433494
77.465080 182.266785 0.000062 0.466804
76.708191 181.565308 0.000060 0.510491
76.071571 180.975281 0.000059 0.451179
75.528488 180.471939 0.000058 0.450156
75.059586 180.037369 0.000057 0.436286
74.650513 179.658234 0.000056 0.470237
74.290375 179.324463 0.000056 0.611399
73.970802 179.028275 0.000055 0.414984
73.685204 178.763580 0.000055 0.505058
73.400406 178.499634 0.009995 1.000000
77.614677 182.247360 4.701488 0.410666
77.614677 182.247360 4.536936 0.383749
77.614677 182.247375 4.373446 0.439948
77.614677 182.247360 4.210951 0.412024
77.614677 182.247360 4.049387 0.379507
77.694664 182.320053 3.909455 0.678431
77.694664 182.320053 3.748101 0.678431
77.694664 182.320053 3.587500 0.678431
77.694664 182.320053 3.427591 0.678431
77.614677 182.247375 3.253367 0.443748
77.614677 182.247375 3.096107 0.430121
77.614677 182.247375 2.939362 0.412894
77.614677 182.247375 2.783074 0.412711
77.614677 182.247375 2.627189 0.405539
77.614677 182.247360 2.471651 0.389258
77.614677 182.247360 2.316407 0.399222
77.614677 182.247360 2.161402 0.420890
77.614670 182.247360 2.006583 0.405539
77.614677 182.247360 1.851896 0.414176
77.614677 182.247360 1.697290 0.399939
77.614677 182.247360 1.542710 0.372610
77.614677 182.247360 1.388103 0.396002
77.614670 182.247360 1.233417 0.396124
77.614677 182.247360 1.078598 0.393606
77.614677 182.247360 0.923593 0.395697
77.614670 182.247360 0.768349 0.412375
77.614677 182.247360 0.612812 0.395453
77.614677 182.247360 0.456926 0.419608
77.614677 182.247360 0.300638 0.372610
77.614677 182.247360 0.143892 0.401022
77.542847 182.182098 0.000058 0.450401
76.779106 181.488068 0.000057 0.474357
76.136719 180.904327 0.000056 0.453681
75.588715 180.406342 0.000055 0.398184
75.115570 179.976379 0.000054 0.407446
74.702789 179.601288 0.000053 0.411551
74.339401 179.271057 0.000053 0.358297
74.016930 178.978027 0.000051 0.471870
73.728745 178.716156 0.000051 0.570871
73.469742 178.480789 -0.000010 0.628733
77.614677 182.092102 4.674386 0.404791
77.614677 182.092102 4.511282 0.407095
77.614677 182.092102 4.349230 0.419608
77.614677 182.092102 4.188165 0.413230
77.636368 182.111420 4.033998 0.515984
77.636368 182.111420 3.874319 0.483085
77.636368 182.111420 3.715441 0.503212
77.636368 182.111420 3.557305 0.575677
77.636368 182.111420 3.399851 0.546151
77.614677 182.092102 3.239002 0.391699
77.614677 182.092102 3.083125 0.434989
77.614677 182.092102 2.927758 0.407477
77.614677 182.092102 2.772845 0.440833
77.614677 182.092102 2.618331 0.396857
77.614677 182.092102 2.464161 0.387915
77.614677 182.092102 2.310282 0.405447
77.614677 182.092102 2.156641 0.393378
77.614677 182.092102 2.003183 0.407568
77.614677 182.092102 1.849857 0.345296
77.614677 182.092102 1.696610 0.399573
77.614677 182.092102 1.543390 0.407294
77.614677 182.092102 1.390142 0.376013
77.614677 182.092102 1.236817 0.378317
77.614677 182.092102 1.083360 0.372656
77.614677 182.092102 0.929718 0.406317
77.614677 182.092102 0.775839 0.374304
77.614677 182.092102 0.621670 0.386633
77.614677 182.092102 0.467155 0.385733
77.614677 182.092102 0.312242 0.410239
77.614677 182.092102 0.156875 0.403754
77.619766 182.096634 0.000055 0.440726
76.849251 181.410141 0.000053 0.446296
76.201164 180.832733 0.000052 0.412268
75.648300 180.340149 0.000052 0.541894
75.170959 179.914856 0.000050 0.427054
74.754509 179.543823 0.000050 0.456809
74.387894 179.217194 0.000049 0.424506
74.062561 178.927338 0.000049 0.450996
73.771820 178.668304 0.000048 0.560830
73.510506 178.435486 -0.000010 0.649516
77.614677 181.939514 4.648046 0.402060
77.614677 181.939514 4.486349 0.407462
77.614677 181.939514 4.325695 0.421836
77.614677 181.939514 4.166017 0.400595
77.663788 181.982422 4.020670 0.232425
77.663788 181.982422 3.861873 0.231144
77.663788 181.982422 3.703872 0.231144
77.663788 181.982422 3.546609 0.230015
77.663788 181.982422 3.390024 0.230015
77.614677 181.939514 3.225040 0.403983
77.614677 181.939514 3.070508 0.408164
77.614677 181.939514 2.916481 0.418051
77.614677 181.939514 2.762903 0.418601
77.614677 181.939514 2.609721 0.396078
77.614677 181.939514 2.456880 0.414832
77.614677 181.939514 2.304329 0.413153
77.614677 181.939514 2.152012 0.402808
77.614670 181.939514 1.999879 0.402152
77.614670 181.939514 1.847875 0.366033
77.614670 181.939514 1.695950 0.396078
77.614670 181.939514 1.544050 0.408164
77.614670 181.939514 1.392125 0.406561
77.614670 181.939514 1.240121 0.404257
77.614670 181.939514 1.087988 0.399191
77.614677 181.939514 0.935671 0.393759
77.614677 181.939514 0.783119 0.404257
77.614677 181.939514 0.630279 0.404715
77.614670 181.939514 0.477097 0.410010
77.614677 181.939514 0.323519 0.412665
77.614670 181.939514 0.169492 0.392172
77.614670 181.939514 0.014960 0.353216
76.918633 181.331528 0.000050 0.360479
76.264908 180.760498 0.000049 0.463310
75.707230 180.273376 0.000048 0.422568
75.225731 179.852798 0.000047 0.510735
74.805664 179.485870 0.000046 0.439429
74.435860 179.162842 0.000046 0.469490
74.107697 178.876205 0.000045 0.497993
73.814423 178.620026 0.000044 0.517433
73.550827 178.389771 -0.000010 0.652247
77.614677 181.789536 4.622445 0.397299
77.614677 181.789536 4.462113 0.400458
77.614677 181.789536 4.302818 0.396078
77.614677 181.789536 4.144490 0.390570
77.694664 181.858032 4.008736 0.678431
77.694664 181.858032 3.850728 0.678431
77.694664 181.858032 3.693513 0.678431
77.694664 181.858032 3.537031 0.665568
77.694664 181.858032 3.381225 0.678431
77.614677 181.789536 3.211469 0.394842
77.614677 181.789536 3.058244 0.396582
77.614677 181.789536 2.905519 0.411521
77.614677 181.789536 2.753240 0.385229
77.614677 181.789536 2.601353 0.399298
77.614677 181.789536 2.449805 0.400671
77.614677 181.789536 2.298543 0.405859
77.614677 181.789536 2.147514 0.404074
77.614677 181.789536 1.996667 0.415839
77.614677 181.789536 1.845948 0.376974
77.614677 181.789536 1.695308 0.406882
77.614677 181.789536 1.544692 0.371878
77.614670 181.789536 1.394052 0.366079
77.614677 181.789536 1.243333 0.401785
77.614677 181.789536 1.092486 0.397253
77.614677 181.789536 0.941457 0.403067
77.614677 181.789536 0.790195 0.435462
77.614677 181.789536 0.638647 0.407019
77.614677 181.789536 0.486760 0.407843
77.614677 181.789536 0.334481 0.434653
77.614670 181.789536 0.181756 0.408118
77.614677 181.789536 0.028530 0.410605
76.987236 181.252243 0.000046 0.426749
76.327934 180.687653 0.000046 0.433173
75.765503 180.206024 0.000045 0.433600
75.279892 179.790192 0.000044 0.441169
74.856247 179.427414 0.000043 0.498497
74.483292 179.108032 0.000042 0.418631
74.152328 178.824615 0.000042 0.454383
73.856552 178.571335 0.000041 0.461860
73.590683 178.343658 -0.000005 0.680720
77.614677 181.642059 4.597555 0.407843
77.614677 181.642059 4.438555 0.391424
77.614677 181.642059 4.280578 0.400061
77.614677 181.642059 4.123563 0.388983
77.694664 181.709198 3.988935 0.678431
77.694664 181.709198 3.832236 0.678431
77.694664 181.709198 3.676325 0.678431
77.694664 181.709198 3.521140 0.673289
77.694664 181.709198 3.366625 0.678431
77.614677 181.642059 3.198277 0.450980
77.614677 181.642059 3.046322 0.392645
77.614677 181.642059 2.894863 0.407843
77.614677 181.642059 2.743846 0.407843
77.614677 181.642059 2.593218 0.402258
77.614677 181.642059 2.442926 0.419608
77.614677 181.642059 2.292918 0.406180
77.614670 181.642059 2.143142 0.419608
77.614677 181.642059 1.993544 0.419608
77.614677 181.642059 1.844075 0.450980
77.614670 181.642059 1.694683 0.385397
77.614670 181.642059 1.545317 0.376471
77.614677 181.642059 1.395924 0.394339
77.614677 181.642059 1.246456 0.417090
77.614670 181.642059 1.096859 0.450980
77.614677 181.642059 0.947082 0.416175
77.614677 181.642059 0.797074 0.384604
77.614677 181.642059 0.646782 0.393652
77.614677 181.642059 0.496154 0.405081
77.614670 181.642059 0.345138 0.407858
77.614677 181.642059 0.193679 0.419242
77.614677 181.642059 0.041723 0.419120
77.055061 181.172287 0.000043 0.474037
76.390244 180.614197 0.000043 0.440940
75.823112 180.138123 0.000041 0.394476
75.333443 179.727066 0.000041 0.391012
74.906250 179.368454 0.000040 0.490089
74.530174 179.052750 0.000039 0.389639
74.196449 178.772598 0.000038 0.411521
73.898201 178.522232 0.000038 0.351186
73.630074 178.297165 0.000002 0.631128
77.614677 181.496979 4.573358 0.406210
77.614677 181.496979 4.415650 0.402838
77.614677 181.496979 4.258957 0.416617
77.614677 181.496979 4.103219 0.417304
77.694672 181.562805 3.969684 0.678431
77.694664 181.562805 3.814260 0.678431
77.694664 181.562805 3.659614 0.678431
77.694664 181.562805 3.505691 0.678431
77.694664 181.562805 3.352431 0.678431
77.614677 181.496979 3.185452 0.366003
77.614677 181.496979 3.034730 0.404883
77.614677 181.496979 2.884503 0.433051
77.614677 181.496979 2.734713 0.438453
77.614677 181.496979 2.585310 0.431373
77.614677 181.496979 2.436239 0.415427
77.614670 181.496979 2.287450 0.437354
77.614677 181.496979 2.138890 0.428016
77.614670 181.496979 1.990509 0.416205
77.614670 181.496979 1.842254 0.419989
77.614677 181.496979 1.694076 0.389761
77.614677 181.496979 1.545924 0.449104
77.614670 181.496979 1.397746 0.434821
77.614670 181.496979 1.249491 0.398062
77.614677 181.496979 1.101110 0.409308
77.614670 181.496979 0.952550 0.396307
77.614670 181.496979 0.803761 0.352941
77.614677 181.496979 0.654691 0.448035
77.614670 181.496979 0.505287 0.388602
77.614677 181.496979 0.355498 0.373816
77.614677 181.496979 0.205269 0.392386
77.614677 181.496979 0.054549 0.428428
77.122101 181.091660 0.000039 0.398840
76.451836 180.540131 0.000039 0.411749
75.880051 180.069641 0.000038 0.379980
75.386368 179.663406 0.000037 0.388190
74.955681 179.309006 0.000036 0.405814
74.576523 178.997009 0.000036 0.506264
74.240059 178.720154 0.000035 0.530755
73.939362 178.472733 0.000034 0.482185
73.668938 178.250214 0.000034 0.436866
77.614677 181.354233 4.549832 0.397360
77.614677 181.354233 4.393380 0.383398
77.614677 181.354233 4.237936 0.416938
77.614677 181.354233 4.083437 0.388876
77.694664 181.418747 3.950966 0.678431
77.694664 181.418747 3.796779 0.678431
77.694664 181.418747 3.643366 0.678431
77.694664 181.418747 3.490669 0.678431
77.694664 181.418747 3.338631 0.678431
77.614677 181.354233 3.172981 0.404898
77.614677 181.354233 3.023461 0.408530
77.614677 181.354233 2.874430 0.409186
77.614677 181.354233 2.725834 0.429511
77.614677 181.354233 2.577620 0.428275
77.614677 181.354233 2.429737 0.440314
77.614677 181.354233 2.282133 0.420157
77.614677 181.354233 2.134757 0.431098
77.614677 181.354233 1.987557 0.474266
77.614677 181.354233 1.840484 0.431373
77.614677 181.354233 1.693486 0.407843
77.614677 181.354233 1.546514 0.397086
77.614677 181.354233 1.399516 0.413184
77.614677 181.354233 1.252443 0.438666
77.614677 181.354233 1.105243 0.419150
77.614677 181.354233 0.957867 0.406790
77.614670 181.354233 0.810263 0.369284
77.614677 181.354233 0.662380 0.421836
77.614677 181.354233 0.514167 0.418143
77.614677 181.354233 0.365571 0.420218
77.614670 181.354233 0.216539 0.397223
77.614670 181.354233 0.067019 0.449195
77.188332 181.010376 0.000036 0.326268
76.512688 180.465454 0.000035 0.425086
75.936310 180.000595 0.000035 0.479072
75.438675 179.599243 0.000034 0.408515
75.004517 179.249084 0.000033 0.457786
74.622314 178.940826 0.000033 0.417639
74.283150 178.667282 0.000032 0.386282
73.980042 178.422821 0.000031 0.393606
73.707443 178.202957 0.000031 0.463645
77.614677 181.213730 4.526955 0.393973
77.614677 181.213730 4.371724 0.404166
77.614677 181.213730 4.217494 0.385687
77.614677 181.213745 4.064202 0.388846
77.694664 181.276962 3.932765 0.678431
77.694664 181.276962 3.779783 0.678431
77.694664 181.276962 3.627567 0.678431
77.694664 181.276962 3.476063 0.678431
77.694664 181.276962 3.325212 0.678431
77.614677 181.213730 3.160854 0.429755
77.614677 181.213745 3.012502 0.408118
77.614677 181.213730 2.864635 0.436179
77.614677 181.213745 2.717199 0.404364
77.614677 181.213730 2.570142 0.413626
77.614677 181.213730 2.423414 0.426062
77.614670 181.213730 2.276963 0.416785
77.614677 181.213730 2.130737 0.452903
77.614677 181.213730 1.984687 0.455192
77.614677 181.213730 1.838762 0.422324
77.614677 181.213730 1.692912 0.420569
77.614677 181.213730 1.547087 0.411673
77.614677 181.213730 1.401237 0.431373
77.614670 181.213730 1.255313 0.406195
77.614677 181.213730 1.109263 0.400580
77.614670 181.213730 0.963037 0.404150
77.614670 181.213730 0.816586 0.363699
77.614677 181.213730 0.669857 0.403357
77.614677 181.213730 0.522801 0.438041
77.614677 181.213730 0.375365 0.405356
77.614677 181.213730 0.227498 0.415564
77.614677 181.213730 0.079145 0.419608
77.253777 180.928467 0.000033 0.375067
76.572807 180.390198 0.000032 0.423178
75.991898 179.931015 0.000031 0.439460
75.490341 179.534561 0.000030 0.385138
75.052765 179.188690 0.000030 0.443412
74.667557 178.884186 0.000029 0.431540
74.325714 178.613983 0.000028 0.522560
74.020226 178.372513 0.000028 0.385336
73.745483 178.155350 0.000028 0.352438
77.614677 181.075394 4.504708 0.411887
77.614677 181.075394 4.350666 0.408850
77.614677 181.075394 4.197616 0.427283
77.614677 181.075394 4.045497 0.423774
77.636368 181.092194 3.899895 0.486625
77.636368 181.092194 3.749087 0.483452
77.636368 181.092194 3.599035 0.529534
77.636368 181.092194 3.449684 0.524804
77.636368 181.092194 3.300976 0.482353
77.614677 181.075394 3.149063 0.412528
77.614677 181.075394 3.001845 0.408011
77.614677 181.075394 2.855110 0.435950
77.614677 181.075394 2.708802 0.399115
77.614677 181.075394 2.562871 0.395346
77.614677 181.075394 2.417265 0.422400
77.614670 181.075394 2.271935 0.416938
77.614677 181.075394 2.126829 0.428672
77.614677 181.075394 1.981896 0.394446
77.614677 181.075394 1.837088 0.392660
77.614670 181.075394 1.692354 0.419608
77.614670 181.075394 1.547645 0.403388
77.614677 181.075394 1.402912 0.385153
77.614677 181.075394 1.258103 0.414191
77.614670 181.075394 1.113171 0.396078
77.614670 181.075394 0.968065 0.410559
77.614670 181.075394 0.822734 0.377005
77.614670 181.075394 0.677129 0.415656
77.614677 181.075394 0.531198 0.390509
77.614677 181.075394 0.384891 0.437507
77.614670 181.075394 0.238155 0.427939
77.614670 181.075394 0.090938 0.431373
77.318405 180.845901 0.000029 0.395636
76.632195 180.314346 0.000028 0.410208
76.046799 179.860886 0.000028 0.468544
75.541367 179.469376 0.000027 0.385946
75.100426 179.127808 0.000026 0.393454
74.712234 178.827118 0.000025 0.377935
74.367760 178.560287 0.000025 0.394232
74.059914 178.321823 0.000024 0.419364
73.783051 178.107361 0.000024 0.474861
77.614677 180.939148 4.483074 0.409110
77.614677 180.939148 4.330186 0.383276
77.614677 180.939148 4.178284 0.379156
77.648102 180.964523 4.036513 0.178424
77.648102 180.964523 3.885827 0.176394
77.648102 180.964523 3.735949 0.176394
77.648102 180.964523 3.586823 0.176394
77.648102 180.964523 3.438393 0.178286
77.648102 180.964523 3.290604 0.176120
77.614677 180.939148 3.137595 0.400717
77.614677 180.939148 2.991482 0.366476
77.614677 180.939148 2.845847 0.435126
77.614677 180.939148 2.700636 0.431373
77.614677 180.939148 2.555800 0.360662
77.614677 180.939148 2.411286 0.400717
77.614677 180.939148 2.267045 0.379843
77.614677 180.939148 2.123027 0.396292
77.614677 180.939148 1.979182 0.405768
77.614677 180.939148 1.835460 0.412314
77.614670 180.939148 1.691812 0.391043
77.614670 180.939148 1.548188 0.390478
77.614670 180.939148 1.404540 0.393805
77.614677 180.939148 1.260818 0.422827
77.614677 180.939148 1.116972 0.411063
77.614677 180.939148 0.972954 0.396536
77.614670 180.939148 0.828714 0.398840
77.614670 180.939148 0.684200 0.391424
77.614670 180.939148 0.539364 0.415015
77.614677 180.939148 0.394154 0.361761
77.614677 180.939148 0.248518 0.409964
77.614677 180.939148 0.102405 0.426596
77.382225 180.762711 0.000026 0.473808
76.690819 180.237915 0.000025 0.517800
76.101006 179.790222 0.000024 0.440101
75.591751 179.403687 0.000023 0.394080
75.147476 179.066467 0.000023 0.439246
74.756355 178.769608 0.000022 0.449699
74.409279 178.506165 0.000022 0.472358
74.099098 178.270737 0.000021 0.385626
73.820145 178.058990 0.000021 0.400488
77.614677 180.804916 4.462033 0.399039
77.614677 180.804916 4.310269 0.388449
77.614677 180.804916 4.159483 0.418143
77.694672 180.864395 4.031487 0.678431
77.694672 180.864395 3.881114 0.678431
77.694664 180.864395 3.731547 0.678431
77.694664 180.864395 3.582732 0.678431
77.694664 180.864395 3.434610 0.678431
77.614677 180.804916 3.272008 0.399161
77.614677 180.804916 3.126442 0.417960
77.614677 180.804916 2.981403 0.388235
77.614677 180.804916 2.836838 0.395636
77.614677 180.804916 2.692694 0.434012
77.614677 180.804916 2.548923 0.442817
77.614677 180.804916 2.405471 0.407477
77.614677 180.804916 2.262290 0.412482
77.614677 180.804916 2.119331 0.440940
77.614677 180.804916 1.976542 0.394644
77.614677 180.804916 1.833876 0.424353
77.614670 180.804916 1.691284 0.446571
77.614670 180.804916 1.548716 0.397299
77.614677 180.804916 1.406123 0.395758
77.614677 180.804916 1.263457 0.397269
77.614677 180.804916 1.120669 0.387823
77.614677 180.804916 0.977709 0.445869
77.614677 180.804916 0.834529 0.410193
77.614670 180.804916 0.691078 0.400946
77.614670 180.804916 0.547306 0.404898
77.614670 180.804916 0.403163 0.409445
77.614677 180.804916 0.258597 0.409445
77.614677 180.804916 0.113558 0.401404
77.445229 180.678894 0.000023 0.508721
76.748703 180.160919 0.000022 0.440665
76.154518 179.719040 0.000021 0.469490
75.641495 179.337524 0.000020 0.525719
75.193924 179.004684 0.000019 0.389792
74.799911 178.711655 0.000019 0.398978
74.450256 178.451645 0.000018 0.367941
74.137787 178.219269 0.000018 0.286656
73.856766 178.010269 0.000017 0.434806
77.614677 180.672623 4.441570 0.415290
77.614677 180.672623 4.290898 0.396109
77.614677 180.672623 4.141198 0.419287
77.694664 180.730896 4.014123 0.678431
77.694672 180.730896 3.864833 0.678431
77.694672 180.730896 3.716344 0.678431
77.694664 180.730896 3.568599 0.678431
77.694664 180.730896 3.421545 0.678431
77.614677 180.672623 3.260113 0.418875
77.614670 180.672623 3.115595 0.400763
77.614677 180.672623 2.971601 0.398062
77.614677 180.672623 2.828076 0.396048
77.614677 180.672623 2.684971 0.405310
77.614677 180.672623 2.542233 0.418463
77.614670 180.672623 2.399815 0.396307
77.614677 180.672623 2.257665 0.396078
77.614677 180.672623 2.115736 0.395102
77.614670 180.672623 1.973975 0.421210
77.614677 180.672623 1.832336 0.444602
77.614677 180.672623 1.690771 0.412253
77.614677 180.672623 1.549229 0.408484
77.614677 180.672623 1.407663 0.402106
77.614670 180.672623 1.266025 0.426825
77.614677 180.672623 1.124264 0.390097
77.614670 180.672623 0.982334 0.415763
77.614670 180.672623 0.840185 0.416663
77.614670 180.672623 0.697766 0.403708
77.614670 180.672623 0.555029 0.410422
77.614670 180.672623 0.411924 0.399390
77.614677 180.672623 0.268400 0.404318
77.614670 180.672623 0.124405 0.380331
77.507401 180.594467 0.000019 0.424949
76.805817 180.083344 0.000018 0.435782
76.207321 179.647324 0.000018 0.449180
75.690582 179.270859 0.000017 0.462821
75.239761 178.942429 0.000016 0.402747
74.842888 178.653290 0.000015 0.518776
74.490707 178.396713 0.000015 0.518547
74.175964 178.167419 0.000015 0.429847
73.892906 177.961197 0.000014 0.468025
77.614677 180.542206 4.421666 0.398169
77.614670 180.542206 4.272057 0.414527
77.614670 180.542206 4.123413 0.415839
77.694672 180.599289 3.997236 0.678431
77.694672 180.599289 3.848998 0.678431
77.694664 180.599289 3.701556 0.678431
77.694664 180.599289 3.554853 0.678431
77.694664 180.599289 3.408836 0.678431
77.614677 180.542206 3.248544 0.441291
77.614677 180.542206 3.105046 0.415198
77.614670 180.542206 2.962066 0.425772
77.614677 180.542206 2.819554 0.411246
77.614670 180.542206 2.677458 0.409827
77.614670 180.542206 2.535728 0.419562
77.614670 180.542206 2.394314 0.410330
77.614670 180.542206 2.253168 0.385962
77.614670 180.542206 2.112238 0.405631
77.614670 180.542206 1.971478 0.407172
77.614670 180.542206 1.830838 0.417029
77.614670 180.542206 1.690271 0.407935
77.614670 180.542206 1.549728 0.395743
77.614670 180.542206 1.409161 0.407980
77.614670 180.542206 1.268522 0.389792
77.614670 180.542206 1.127762 0.404257
77.614670 180.542206 0.986832 0.406226
77.614670 180.542206 0.845685 0.399222
77.614670 180.542206 0.704272 0.400122
77.614670 180.542206 0.562542 0.417258
77.614670 180.542206 0.420446 0.433585
77.614670 180.542206 0.277934 0.426215
77.614670 180.542206 0.134955 0.409079
77.568741 180.509430 0.000015 0.486625
76.862175 180.005219 0.000015 0.438102
76.259430 179.575104 0.000014 0.494713
75.739014 179.203720 0.000013 0.428931
75.284996 178.879730 0.000013 0.379065
74.885300 178.594498 0.000012 0.483986
74.530609 178.341400 0.000011 0.495644
74.213631 178.115204 0.000011 0.429007
73.928566 177.911774 0.000010 0.509483
77.614677 180.413620 4.402308 0.398444
77.614677 180.413620 4.253733 0.417029
77.614677 180.413620 4.106116 0.431373
77.694672 180.469528 3.980810 0.678431
77.694672 180.469528 3.833597 0.678431
77.694664 180.469528 3.687173 0.678431
77.694664 180.469528 3.541485 0.678431
77.694664 180.469528 3.396477 0.678431
77.614677 180.413620 3.237291 0.434165
77.614677 180.413620 3.094785 0.431769
77.614677 180.413620 2.952793 0.412345
77.614677 180.413620 2.811266 0.396170
77.614677 180.413620 2.670152 0.413733
77.614677 180.413620 2.529401 0.402701
77.614670 180.413620 2.388964 0.402991
77.614670 180.413620 2.248793 0.377737
77.614670 180.413620 2.108837 0.408026
77.614670 180.413620 1.969050 0.380865
77.614670 180.413620 1.829382 0.406928
77.614670 180.413620 1.689786 0.410788
77.614670 180.413620 1.550214 0.414008
77.614670 180.413620 1.410618 0.406287
77.614670 180.413620 1.270950 0.398138
77.614670 180.413620 1.131163 0.383566
77.614670 180.413620 0.991207 0.407843
77.614670 180.413620 0.851035 0.393378
77.614670 180.413620 0.710599 0.402411
77.614670 180.413620 0.569848 0.398978
77.614670 180.413620 0.428734 0.407843
77.614670 180.413620 0.287207 0.381445
77.614670 180.413620 0.145216 0.401541
77.614670 180.413620 0.002709 0.411154
76.917763 179.926544 0.000011 0.397299
76.310822 179.502365 0.000010 0.382712
75.786781 179.136108 0.000010 0.391638
75.329605 178.816589 0.000009 0.524224
74.927124 178.535309 0.000009 0.381094
74.569969 178.285690 0.000008 0.403296
74.250786 178.062607 0.000008 0.384955
73.963737 177.862000 0.000007 0.325551
77.614677 180.286774 4.383480 0.402838
77.614677 180.286774 4.235911 0.409873
77.614677 180.286774 4.089293 0.462745
77.694672 180.341522 3.964835 0.678431
77.694672 180.341522 3.818617 0.678431
77.694672 180.341522 3.673185 0.678431
77.694672 180.341522 3.528483 0.659312
77.694664 180.341522 3.384455 0.678431
77.614677 180.286774 3.226347 0.371939
77.614677 180.286774 3.084805 0.382605
77.614677 180.286774 2.943774 0.431800
77.614677 180.286774 2.803205 0.431205
77.614677 180.286774 2.663045 0.447166
77.614677 180.286774 2.523247 0.395850
77.614677 180.286774 2.383761 0.381460
77.614677 180.286774 2.244538 0.381857
77.614677 180.286774 2.105529 0.442283
77.614677 180.286774 1.966688 0.410376
77.614677 180.286774 1.827965 0.407111
77.614677 180.286774 1.689314 0.398154
77.614677 180.286774 1.550686 0.381445
77.614677 180.286774 1.412035 0.436118
77.614670 180.286774 1.273312 0.430137
77.614677 180.286774 1.134470 0.394781
77.614677 180.286774 0.995462 0.400854
77.614677 180.286774 0.856239 0.409216
77.614670 180.286774 0.716753 0.407019
77.614670 180.286774 0.576955 0.396078
77.614670 180.286774 0.436796 0.395636
