# This PCD file was generated using the MATLABÂ® pcwrite function
# from Computer Vision ToolboxÂ®.
# .PCD v.7 - Point Cloud Data file format
VERSION .7
FIELDS x y z intensity
SIZE 4 4 4 4
TYPE F F F F
COUNT 1 1 1 1
WIDTH 1290
HEIGHT 1
VIEWPOINT 0 0 0 1 0 0 0
POINTS 1290
DATA ascii
nan nan nan 0.000000
5.879611 -81.186859 -0.000014 0.540441
-8.271801 -73.058716 0.000001 0.531495
-14.347364 -69.569092 -0.000006 0.533578
-17.731422 -67.625389 0.000037 0.560784
-19.891272 -66.384834 -0.000041 0.534804
-21.392965 -65.522301 0.000007 0.541176
-22.499146 -64.886948 -0.000001 0.352328
nan nan nan 0.000000
nan nan nan 0.000000
nan nan nan 0.000000
nan nan nan 0.000000
nan nan nan 0.000000
nan nan nan 0.000000
nan nan nan 0.000000
nan nan nan 0.000000
nan nan nan 0.000000
5.737031 -81.432724 -0.000005 0.540686
-8.357224 -73.206024 0.000010 0.532108
-14.408396 -69.673996 0.000023 0.540931
-17.778629 -67.706818 0.000044 0.547426
-19.929792 -66.451202 -0.000027 0.535172
-21.425400 -65.578232 0.000017 0.551225
-22.561548 -64.915062 0.009997 1.000000
nan nan nan 0.000000
nan nan nan 0.000000
nan nan nan 0.000000
nan nan nan 0.000000
nan nan nan 0.000000
nan nan nan 0.000000
nan nan nan 0.000000
nan nan nan 0.000000
nan nan nan 0.000000
5.593473 -81.678032 -0.000038 0.541299
-8.443448 -73.352859 -0.000002 0.537745
-14.469714 -69.778740 -0.000008 0.549142
-17.826056 -67.788124 -0.000009 0.553431
-19.968647 -66.517380 -0.000040 0.537990
-21.457972 -65.634071 -0.000036 0.566054
-22.589672 -64.962868 0.009996 1.000000
nan nan nan 0.000000
nan nan nan 0.000000
nan nan nan 0.000000
nan nan nan 0.000000
nan nan nan 0.000000
nan nan nan 0.000000
nan nan nan 0.000000
nan nan nan 0.000000
nan nan nan 0.000000
5.447454 -81.921875 -0.000027 0.533824
-8.530914 -73.498970 0.000006 0.544485
-14.531894 -69.882980 -0.000021 0.545343
-17.874397 -67.868889 -0.000001 0.568750
-20.007957 -66.583282 -0.000053 0.547304
-21.491261 -65.689491 -0.000006 0.528676
-22.618132 -65.010475 0.009997 1.000000
nan nan nan 0.000000
nan nan nan 0.000000
nan nan nan 0.000000
nan nan nan 0.000000
nan nan nan 0.000000
nan nan nan 0.000000
nan nan nan 0.000000
nan nan nan 0.000000
nan nan nan 0.000000
5.299399 -82.164490 0.000003 0.540809
-8.619408 -73.644455 0.000015 0.527819
-14.594961 -69.986671 -0.000013 0.546078
-17.923424 -67.949249 0.000027 0.525613
-20.047846 -66.648842 -0.000043 0.534191
-21.524776 -65.744774 -0.000018 0.568873
-22.646927 -65.057877 0.009997 1.000000
nan nan nan 0.000000
nan nan nan 0.000000
nan nan nan 0.000000
nan nan nan 0.000000
nan nan nan 0.000000
nan nan nan 0.000000
nan nan nan 0.000000
nan nan nan 0.000000
nan nan nan 0.000000
5.150429 -82.406525 -0.000012 0.537255
-8.708454 -73.789597 -0.000020 0.528554
-14.658585 -70.090034 -0.000027 0.547794
-17.972652 -68.029472 -0.000007 0.536765
-20.088161 -66.714127 -0.000037 0.571936
-21.558748 -65.799774 -0.000010 0.583088
-22.676048 -65.105080 0.009998 1.000000
nan nan nan 0.000000
nan nan nan 0.000000
nan nan nan 0.000000
nan nan nan 0.000000
nan nan nan 0.000000
nan nan nan 0.000000
nan nan nan 0.000000
nan nan nan 0.000000
nan nan nan 0.000000
4.999372 -82.647278 -0.000004 0.536152
-8.798964 -73.933838 -0.000010 0.533088
-14.723231 -70.192757 0.000000 0.498162
-18.022686 -68.109207 0.000003 0.537500
-20.128862 -66.779182 -0.000046 0.557108
-21.593096 -65.854546 -0.000005 0.517279
-22.671747 -65.173393 -0.000001 0.340931
nan nan nan 0.000000
nan nan nan 0.000000
nan nan nan 0.000000
nan nan nan 0.000000
nan nan nan 0.000000
nan nan nan 0.000000
nan nan nan 0.000000
nan nan nan 0.000000
nan nan nan 0.000000
4.846810 -82.887077 -0.000006 0.533456
-8.890369 -74.077515 -0.000012 0.540809
-14.788380 -70.295158 -0.000001 0.534191
-18.073303 -68.188568 0.000018 0.516667
-20.170063 -66.843925 -0.000046 0.533824
-21.627865 -65.909050 0.000010 0.542647
-22.701672 -65.220421 -0.000001 0.345466
nan nan nan 0.000000
nan nan nan 0.000000
nan nan nan 0.000000
nan nan nan 0.000000
nan nan nan 0.000000
nan nan nan 0.000000
nan nan nan 0.000000
nan nan nan 0.000000
nan nan nan 0.000000
4.692607 -83.125824 -0.000009 0.536642
-8.982954 -74.220436 0.000003 0.536887
-14.854108 -70.397202 -0.000021 0.528309
-18.124369 -68.267632 0.000013 0.525368
-20.211794 -66.908325 -0.000029 0.626593
-21.662878 -65.963394 -0.000009 0.544118
-22.731928 -65.267235 -0.000001 0.341667
nan nan nan 0.000000
nan nan nan 0.000000
nan nan nan 0.000000
nan nan nan 0.000000
nan nan nan 0.000000
nan nan nan 0.000000
nan nan nan 0.000000
nan nan nan 0.000000
nan nan nan 0.000000
4.536994 -83.363655 -0.000027 0.537255
-9.076344 -74.362823 0.000001 0.535907
-14.920690 -70.498672 -0.000022 0.547794
-18.175690 -68.346542 -0.000043 0.504167
-20.253944 -66.972443 -0.000018 0.550245
-21.698400 -66.017403 0.000005 0.539338
-22.762352 -65.313942 -0.000048 0.515564
nan nan nan 0.000000
nan nan nan 0.000000
nan nan nan 0.000000
nan nan nan 0.000000
nan nan nan 0.000000
nan nan nan 0.000000
nan nan nan 0.000000
nan nan nan 0.000000
nan nan nan 0.000000
4.379040 -83.599945 -0.000005 0.537255
-9.170977 -74.504395 0.000022 0.536765
-14.988241 -70.599510 0.000014 0.550000
-18.228079 -68.424744 -0.000007 0.533701
-20.296524 -67.036285 -0.000010 0.539951
-21.734262 -66.071198 0.000010 0.561275
-22.793367 -65.360260 -0.000015 0.539216
nan nan nan 0.000000
nan nan nan 0.000000
nan nan nan 0.000000
nan nan nan 0.000000
nan nan nan 0.000000
nan nan nan 0.000000
nan nan nan 0.000000
nan nan nan 0.000000
nan nan nan 0.000000
4.220208 -83.835632 -0.000028 0.537132
-9.265963 -74.645721 -0.000018 0.534559
-15.056051 -70.700172 -0.000012 0.546569
-18.280680 -68.502808 -0.000031 0.550000
-20.339403 -67.099922 -0.000035 0.552083
-21.770443 -66.124771 0.000001 0.526103
-22.824472 -65.406517 -0.000053 0.492892
nan nan nan 0.000000
nan nan nan 0.000000
nan nan nan 0.000000
nan nan nan 0.000000
nan nan nan 0.000000
nan nan nan 0.000000
nan nan nan 0.000000
nan nan nan 0.000000
nan nan nan 0.000000
4.058997 -84.069717 -0.000008 0.536029
-9.362562 -74.785965 0.000003 0.541299
-15.124800 -70.800201 -0.000005 0.538603
-18.334164 -68.580269 0.000006 0.538971
-20.382999 -67.163078 0.000001 0.554167
-21.807055 -66.178047 0.000007 0.542525
-22.856123 -65.452408 -0.000022 0.524510
nan nan nan 0.000000
nan nan nan 0.000000
nan nan nan 0.000000
nan nan nan 0.000000
nan nan nan 0.000000
nan nan nan 0.000000
nan nan nan 0.000000
nan nan nan 0.000000
nan nan nan 0.000000
3.896640 -84.302994 -0.000017 0.539461
-9.459826 -74.925735 -0.000007 0.532721
-15.194130 -70.899818 -0.000014 0.530637
-18.387844 -68.657585 -0.000019 0.513480
-20.426779 -67.226097 -0.000020 0.550858
-21.844032 -66.231079 0.000010 0.526961
-22.888020 -65.498116 -0.000014 0.592279
nan nan nan 0.000000
nan nan nan 0.000000
nan nan nan 0.000000
nan nan nan 0.000000
nan nan nan 0.000000
nan nan nan 0.000000
nan nan nan 0.000000
nan nan nan 0.000000
nan nan nan 0.000000
3.732343 -84.534912 -0.000006 0.536765
-9.558265 -75.064690 0.000004 0.545711
-15.264283 -70.998863 -0.000005 0.516789
-18.442194 -68.734436 -0.000020 0.540196
-20.471115 -67.288727 -0.000014 0.539706
-21.881294 -66.283905 -0.000007 0.552574
-22.920168 -65.543655 -0.000027 0.534681
nan nan nan 0.000000
nan nan nan 0.000000
nan nan nan 0.000000
nan nan nan 0.000000
nan nan nan 0.000000
nan nan nan 0.000000
nan nan nan 0.000000
nan nan nan 0.000000
nan nan nan 0.000000
3.566310 -84.765587 0.000012 0.543873
-9.657743 -75.202888 0.000022 0.531618
-15.335204 -71.097351 0.000016 0.522917
-18.497242 -68.810791 0.000009 0.541299
-20.515894 -67.351051 -0.000007 0.532721
-21.919033 -66.336395 0.000003 0.544608
-22.952768 -65.588875 0.000003 0.536520
nan nan nan 0.000000
nan nan nan 0.000000
nan nan nan 0.000000
nan nan nan 0.000000
nan nan nan 0.000000
nan nan nan 0.000000
nan nan nan 0.000000
nan nan nan 0.000000
nan nan nan 0.000000
3.399090 -84.995407 0.000004 0.535172
-9.757810 -75.340668 0.000002 0.540809
-15.406677 -71.195450 0.000018 0.534191
-18.552570 -68.886948 -0.000008 0.530147
-20.561100 -67.413055 -0.000002 0.551471
-21.957001 -66.388718 -0.000023 0.503186
-22.985523 -65.633980 -0.000018 0.590074
nan nan nan 0.000000
nan nan nan 0.000000
nan nan nan 0.000000
nan nan nan 0.000000
nan nan nan 0.000000
nan nan nan 0.000000
nan nan nan 0.000000
nan nan nan 0.000000
nan nan nan 0.000000
3.230415 -85.224167 -0.000013 0.542647
-9.858876 -75.477722 -0.000014 0.531863
-15.478640 -71.293190 -0.000009 0.567892
-18.608421 -68.962708 -0.000027 0.559681
-20.606590 -67.474854 -0.000030 0.503799
-21.995331 -66.440781 -0.000050 0.541176
-23.018606 -65.678841 -0.000034 0.579534
nan nan nan 0.000000
nan nan nan 0.000000
nan nan nan 0.000000
nan nan nan 0.000000
nan nan nan 0.000000
nan nan nan 0.000000
nan nan nan 0.000000
nan nan nan 0.000000
nan nan nan 0.000000
3.059766 -85.451447 -0.000005 0.534681
-9.961213 -75.613823 0.000003 0.528554
-15.551577 -71.390198 0.000008 0.553064
-18.665060 -69.037895 0.000002 0.537377
-20.652706 -67.536194 -0.000014 0.536765
-22.034222 -66.492424 -0.000023 0.492402
-23.052151 -65.723358 -0.000003 0.578922
nan nan nan 0.000000
nan nan nan 0.000000
nan nan nan 0.000000
nan nan nan 0.000000
nan nan nan 0.000000
nan nan nan 0.000000
nan nan nan 0.000000
nan nan nan 0.000000
nan nan nan 0.000000
2.887890 -85.677803 -0.000021 0.529412
-10.064301 -75.749367 -0.000001 0.527574
-15.624822 -71.486977 -0.000030 0.521324
-18.721935 -69.112900 -0.000022 0.539706
-20.699175 -67.597260 -0.000014 0.516667
-22.073278 -66.543945 -0.000048 0.538603
-23.085888 -65.767738 -0.000010 0.518137
nan nan nan 0.000000
nan nan nan 0.000000
nan nan nan 0.000000
nan nan nan 0.000000
nan nan nan 0.000000
nan nan nan 0.000000
nan nan nan 0.000000
nan nan nan 0.000000
nan nan nan 0.000000
2.713928 -85.902557 -0.000004 0.538971
-10.168521 -75.884033 0.000015 0.559681
-15.699101 -71.582962 -0.000014 0.559314
-18.779600 -69.187294 0.000004 0.532598
-20.746172 -67.657913 0.000009 0.525858
-22.112888 -66.595039 -0.000021 0.535784
-23.120008 -65.811813 0.000007 0.552206
nan nan nan 0.000000
nan nan nan 0.000000
nan nan nan 0.000000
nan nan nan 0.000000
nan nan nan 0.000000
nan nan nan 0.000000
nan nan nan 0.000000
nan nan nan 0.000000
nan nan nan 0.000000
2.538542 -86.126205 0.000003 0.535907
-10.273682 -76.017960 0.000031 0.530882
-15.773933 -71.678520 -0.000016 0.544240
-18.837671 -69.261375 0.000010 0.550980
-20.793480 -67.718330 0.000006 0.526593
-22.152760 -66.645927 -0.000020 0.524265
-23.154369 -65.855705 0.000003 0.586520
nan nan nan 0.000000
nan nan nan 0.000000
nan nan nan 0.000000
nan nan nan 0.000000
nan nan nan 0.000000
nan nan nan 0.000000
nan nan nan 0.000000
nan nan nan 0.000000
nan nan nan 0.000000
2.361547 -86.348579 0.000015 0.531495
-10.379636 -76.151268 0.000033 0.535294
-15.849531 -71.773476 -0.000003 0.550000
-18.896212 -69.335083 0.000006 0.560172
-20.841272 -67.778366 0.000018 0.529779
-22.193047 -66.696487 -0.000000 0.553186
-23.189083 -65.899315 0.000015 0.519240
nan nan nan 0.000000
nan nan nan 0.000000
nan nan nan 0.000000
nan nan nan 0.000000
nan nan nan 0.000000
nan nan nan 0.000000
nan nan nan 0.000000
nan nan nan 0.000000
nan nan nan 0.000000
2.183374 -86.570007 0.000002 0.532721
-10.486367 -76.283951 0.000019 0.538358
-15.925610 -71.868042 -0.000016 0.547304
-18.955160 -69.408470 -0.000018 0.551716
-20.889339 -67.838188 -0.000003 0.499265
-22.233547 -66.746880 -0.000021 0.463603
-23.224028 -65.942749 0.000002 0.561520
-35.987923 -55.503765 4.130324 1.000000
-35.987923 -55.503765 3.836846 1.000000
-35.987923 -55.503765 3.547488 1.000000
-35.987926 -55.503761 3.261558 1.000000
-35.987923 -55.503765 2.978390 1.000000
-35.987926 -55.503765 2.697348 1.000000
-35.987923 -55.503765 2.417810 1.000000
-35.987923 -55.503765 2.139171 1.000000
-35.987923 -55.503765 1.860829 1.000000
-35.987923 -55.503765 1.582189 1.000000
-35.987923 -55.503765 1.302652 1.000000
-35.987923 -55.503765 1.021610 1.000000
-35.987926 -55.503765 0.738442 1.000000
-35.987923 -55.503765 0.452512 1.000000
-35.987923 -55.503765 0.163154 1.000000
-35.586189 -55.834595 0.000035 0.526103
-35.873066 -55.522343 4.105208 1.000000
-35.873066 -55.522343 3.815189 1.000000
-35.873066 -55.522343 3.529243 1.000000
-35.873066 -55.522343 3.246684 1.000000
-35.873062 -55.522343 2.966855 1.000000
-35.873066 -55.522343 2.689126 1.000000
-35.873066 -55.522343 2.412885 1.000000
-35.873066 -55.522343 2.137530 1.000000
-35.873066 -55.522343 1.862470 1.000000
-35.873066 -55.522343 1.587115 1.000000
-35.873066 -55.522343 1.310873 1.000000
-35.873062 -55.522343 1.033145 1.000000
-35.873062 -55.522343 0.753316 1.000000
-35.873062 -55.522343 0.470757 1.000000
-35.873062 -55.522343 0.184811 1.000000
-35.550694 -55.791618 0.000006 0.628676
-35.760876 -55.540493 4.080777 1.000000
-35.760872 -55.540493 3.794124 1.000000
-35.760872 -55.540493 3.511496 1.000000
-35.760876 -55.540493 3.232216 1.000000
-35.760876 -55.540493 2.955635 1.000000
-35.760872 -55.540493 2.681129 1.000000
-35.760876 -55.540493 2.408093 1.000000
-35.760876 -55.540493 2.135934 1.000000
-35.760876 -55.540493 1.864066 1.000000
-35.760876 -55.540493 1.591907 1.000000
-35.760872 -55.540497 1.318871 1.000000
-35.760872 -55.540493 1.044365 1.000000
-35.760876 -55.540493 0.767784 1.000000
-35.760872 -55.540493 0.488504 1.000000
-35.760872 -55.540497 0.205877 1.000000
-35.514877 -55.748905 -0.000016 0.559069
-35.651257 -55.558224 4.057005 1.000000
-35.651257 -55.558224 3.773627 1.000000
-35.651257 -55.558224 3.494228 1.000000
-35.651253 -55.558224 3.218138 1.000000
-35.651253 -55.558224 2.944717 1.000000
-35.651253 -55.558224 2.673347 1.000000
-35.651253 -55.558224 2.403431 1.000000
-35.651253 -55.558224 2.134381 1.000000
-35.651253 -55.558224 1.865619 1.000000
-35.651253 -55.558224 1.596569 1.000000
-35.651253 -55.558224 1.326652 1.000000
-35.651253 -55.558224 1.055283 1.000000
-35.651253 -55.558224 0.781861 1.000000
-35.651253 -55.558224 0.505772 1.000000
-35.651253 -55.558224 0.226373 1.000000
-35.478504 -55.706669 0.000048 0.566054
-35.544106 -55.575558 4.033868 1.000000
-35.544106 -55.575558 3.753678 1.000000
-35.544106 -55.575558 3.477422 1.000000
-35.544106 -55.575558 3.204437 1.000000
-35.544106 -55.575558 2.934091 1.000000
-35.544106 -55.575558 2.665774 1.000000
-35.544106 -55.575558 2.398893 1.000000
-35.544106 -55.575558 2.132869 1.000000
-35.544106 -55.575558 1.867131 1.000000
-35.544106 -55.575558 1.601107 1.000000
-35.544106 -55.575558 1.334226 1.000000
-35.544106 -55.575558 1.065909 1.000000
-35.544106 -55.575558 0.795563 1.000000
-35.544106 -55.575558 0.522578 1.000000
-35.544106 -55.575558 0.246322 1.000000
-35.442242 -55.664333 -0.000023 0.533456
-35.439335 -55.592510 4.011343 1.000000
-35.439331 -55.592510 3.734256 1.000000
-35.439335 -55.592510 3.461059 1.000000
-35.439335 -55.592510 3.191098 1.000000
-35.439331 -55.592510 2.923746 1.000000
-35.439331 -55.592510 2.658400 1.000000
-35.439335 -55.592510 2.394475 1.000000
-35.439335 -55.592510 2.131398 1.000000
-35.439335 -55.592510 1.868602 1.000000
-35.439335 -55.592510 1.605525 1.000000
-35.439331 -55.592510 1.341599 1.000000
-35.439331 -55.592510 1.076254 1.000000
-35.439335 -55.592510 0.808902 1.000000
-35.439331 -55.592510 0.538941 1.000000
-35.439331 -55.592510 0.265745 1.000000
-35.405331 -55.622562 0.000024 0.509926
-35.336853 -55.609085 3.989408 1.000000
-35.336853 -55.609085 3.715343 1.000000
-35.336853 -55.609085 3.445125 1.000000
-35.336853 -55.609085 3.178108 1.000000
-35.336853 -55.609085 2.913672 1.000000
-35.336853 -55.609085 2.651220 1.000000
-35.336853 -55.609085 2.390173 1.000000
-35.336853 -55.609085 2.129965 1.000000
-35.336853 -55.609085 1.870035 1.000000
-35.336853 -55.609085 1.609827 1.000000
-35.336853 -55.609085 1.348780 1.000000
-35.336853 -55.609085 1.086328 1.000000
-35.336853 -55.609085 0.821892 1.000000
-35.336853 -55.609085 0.554875 1.000000
-35.336853 -55.609085 0.284658 1.000000
-35.336853 -55.609085 0.010593 1.000000
-35.236580 -55.625305 3.968040 1.000000
-35.236576 -55.625309 3.696918 1.000000
-35.236576 -55.625305 3.429603 1.000000
-35.236576 -55.625305 3.165454 1.000000
-35.236576 -55.625309 2.903858 1.000000
-35.236576 -55.625309 2.644225 1.000000
-35.236576 -55.625309 2.385982 1.000000
-35.236576 -55.625309 2.128569 1.000000
-35.236576 -55.625309 1.871431 1.000000
-35.236576 -55.625309 1.614017 1.000000
-35.236576 -55.625309 1.355775 1.000000
-35.236576 -55.625309 1.096142 1.000000
-35.236576 -55.625309 0.834546 1.000000
-35.236576 -55.625309 0.570397 1.000000
-35.236576 -55.625309 0.303082 1.000000
-35.236576 -55.625309 0.031961 1.000000
-35.138432 -55.641182 3.947220 1.000000
-35.138432 -55.641182 3.678967 1.000000
-35.138428 -55.641182 3.414479 1.000000
-35.138432 -55.641182 3.153125 1.000000
-35.138428 -55.641182 2.894297 1.000000
-35.138432 -55.641182 2.637410 1.000000
-35.138432 -55.641182 2.381899 1.000000
-35.138428 -55.641182 2.127209 1.000000
-35.138428 -55.641182 1.872791 1.000000
-35.138432 -55.641182 1.618101 1.000000
-35.138432 -55.641182 1.362590 1.000000
-35.138428 -55.641182 1.105704 1.000000
-35.138428 -55.641182 0.846875 1.000000
-35.138428 -55.641186 0.585521 1.000000
-35.138432 -55.641182 0.321033 1.000000
-35.138428 -55.641182 0.052780 1.000000
-35.042332 -55.656731 3.926930 1.000000
-35.042332 -55.656731 3.661471 1.000000
-35.042332 -55.656731 3.399740 1.000000
-35.042332 -55.656731 3.141109 1.000000
-35.042332 -55.656731 2.884978 1.000000
-35.042332 -55.656731 2.630768 1.000000
-35.042332 -55.656731 2.377920 1.000000
-35.042332 -55.656731 2.125883 1.000000
-35.042332 -55.656731 1.874117 1.000000
-35.042332 -55.656731 1.622080 1.000000
-35.042332 -55.656731 1.369232 1.000000
-35.042332 -55.656731 1.115022 1.000000
-35.042332 -55.656731 0.858891 1.000000
-35.042332 -55.656731 0.600260 1.000000
-35.042332 -55.656731 0.338529 1.000000
-35.042332 -55.656731 0.073071 1.000000
-34.948212 -55.671951 3.907149 1.000000
-34.948212 -55.671951 3.644416 1.000000
-34.948212 -55.671951 3.385372 1.000000
-34.948212 -55.671955 3.129396 1.000000
-34.948212 -55.671951 2.875893 1.000000
-34.948212 -55.671951 2.624293 1.000000
-34.948212 -55.671951 2.374040 1.000000
-34.948212 -55.671951 2.124591 1.000000
-34.948212 -55.671951 1.875409 1.000000
-34.948212 -55.671951 1.625960 1.000000
-34.948212 -55.671951 1.375707 1.000000
-34.948212 -55.671951 1.124107 1.000000
-34.948212 -55.671951 0.870604 1.000000
-34.948212 -55.671955 0.614628 1.000000
-34.948212 -55.671951 0.355584 1.000000
-34.948212 -55.671955 0.092851 1.000000
-34.855999 -55.686871 3.887862 1.000000
-34.855999 -55.686874 3.627786 1.000000
-34.855999 -55.686871 3.371362 1.000000
-34.856003 -55.686871 3.117974 1.000000
-34.855999 -55.686874 2.867035 1.000000
-34.855999 -55.686871 2.617980 1.000000
-34.855999 -55.686874 2.370258 1.000000
-34.855999 -55.686874 2.123331 1.000000
-34.855999 -55.686874 1.876669 1.000000
-34.855999 -55.686874 1.629742 1.000000
-34.855999 -55.686874 1.382020 1.000000
-34.855999 -55.686874 1.132965 1.000000
-34.855999 -55.686871 0.882026 1.000000
-34.855999 -55.686874 0.628639 1.000000
-34.855999 -55.686874 0.372214 1.000000
-34.855999 -55.686874 0.112138 1.000000
-34.765633 -55.701488 3.869052 1.000000
-34.765629 -55.701492 3.611567 1.000000
-34.765633 -55.701488 3.357697 1.000000
-34.765633 -55.701488 3.106834 1.000000
-34.765633 -55.701488 2.858396 1.000000
-34.765633 -55.701488 2.611822 1.000000
-34.765633 -55.701488 2.366569 1.000000
-34.765633 -55.701488 2.122102 1.000000
-34.765633 -55.701488 1.877898 1.000000
-34.765633 -55.701488 1.633432 1.000000
-34.765633 -55.701488 1.388178 1.000000
-34.765633 -55.701492 1.141604 1.000000
-34.765633 -55.701492 0.893166 1.000000
-34.765633 -55.701488 0.642303 1.000000
-34.765629 -55.701492 0.388434 1.000000
-34.765633 -55.701488 0.130949 1.000000
-34.677040 -55.715816 3.850702 1.000000
-34.677040 -55.715816 3.595745 1.000000
-34.677040 -55.715816 3.344368 1.000000
-34.677040 -55.715816 3.095968 1.000000
-34.677040 -55.715816 2.849969 1.000000
-34.677044 -55.715816 2.605816 1.000000
-34.677040 -55.715820 2.362969 1.000000
-34.677040 -55.715816 2.120903 1.000000
-34.677040 -55.715816 1.879097 1.000000
-34.677040 -55.715820 1.637030 1.000000
-34.677040 -55.715816 1.394184 1.000000
-34.677040 -55.715820 1.150031 1.000000
-34.677040 -55.715816 0.904032 1.000000
-34.677040 -55.715820 0.655632 1.000000
-34.677040 -55.715820 0.404255 1.000000
-34.677040 -55.715820 0.149298 1.000000
-34.590168 -55.729874 3.832796 1.000000
-34.590168 -55.729874 3.580307 1.000000
-34.590172 -55.729874 3.331362 1.000000
-34.590172 -55.729874 3.085365 1.000000
-34.590168 -55.729874 2.841745 1.000000
-34.590172 -55.729874 2.599954 1.000000
-34.590172 -55.729870 2.359458 1.000000
-34.590172 -55.729870 2.119734 1.000000
-34.590172 -55.729870 1.880266 1.000000
-34.590172 -55.729870 1.640542 1.000000
-34.590168 -55.729874 1.400045 1.000000
-34.590168 -55.729874 1.158255 1.000000
-34.590168 -55.729874 0.914635 1.000000
-34.590168 -55.729874 0.668638 1.000000
-34.590168 -55.729874 0.419694 1.000000
-34.590164 -55.729874 0.167204 1.000000
-34.504959 -55.743660 3.815323 1.000000
-34.504955 -55.743660 3.565239 1.000000
-34.504955 -55.743660 3.318667 1.000000
-34.504955 -55.743660 3.075016 1.000000
-34.504955 -55.743660 2.833720 1.000000
-34.504959 -55.743660 2.594234 1.000000
-34.504955 -55.743660 2.356031 1.000000
-34.504959 -55.743660 2.118592 1.000000
-34.504959 -55.743660 1.881408 1.000000
-34.504955 -55.743660 1.643969 1.000000
-34.504959 -55.743660 1.405766 1.000000
-34.504955 -55.743660 1.166280 1.000000
-34.504955 -55.743660 0.924984 1.000000
-34.504955 -55.743660 0.681332 1.000000
-34.504955 -55.743660 0.434761 1.000000
-34.504955 -55.743660 0.184678 1.000000
-34.421352 -55.757183 3.798265 1.000000
-34.421352 -55.757183 3.550532 1.000000
-34.421349 -55.757183 3.306277 1.000000
-34.421352 -55.757183 3.064915 1.000000
-34.421352 -55.757183 2.825886 1.000000
-34.421352 -55.757183 2.588651 1.000000
-34.421352 -55.757183 2.352685 1.000000
-34.421349 -55.757183 2.117478 1.000000
-34.421349 -55.757183 1.882522 1.000000
-34.421352 -55.757183 1.647314 1.000000
-34.421352 -55.757183 1.411349 1.000000
-34.421352 -55.757183 1.174114 1.000000
-34.421349 -55.757183 0.935085 1.000000
-34.421349 -55.757183 0.693723 1.000000
-34.421352 -55.757183 0.449468 1.000000
-34.421349 -55.757183 0.201735 1.000000
-34.339298 -55.770454 3.781612 1.000000
-34.339294 -55.770458 3.536172 1.000000
-34.339294 -55.770454 3.294180 1.000000
-34.339294 -55.770458 3.055053 1.000000
-34.339294 -55.770458 2.818238 1.000000
-34.339298 -55.770454 2.583199 1.000000
-34.339294 -55.770458 2.349419 1.000000
-34.339294 -55.770458 2.116390 1.000000
-34.339294 -55.770458 1.883610 1.000000
-34.339294 -55.770458 1.650581 1.000000
-34.339294 -55.770454 1.416800 1.000000
-34.339294 -55.770458 1.181762 1.000000
-34.339294 -55.770458 0.944947 1.000000
-34.339294 -55.770458 0.705820 1.000000
-34.339294 -55.770458 0.463828 1.000000
-34.339294 -55.770458 0.218389 1.000000
-34.258743 -55.783485 3.765348 1.000000
-34.258747 -55.783485 3.522150 1.000000
-34.258743 -55.783485 3.282367 1.000000
-34.258743 -55.783485 3.045423 1.000000
-34.258743 -55.783485 2.810769 1.000000
-34.258743 -55.783485 2.577876 1.000000
-34.258743 -55.783485 2.346230 1.000000
-34.258743 -55.783485 2.115328 1.000000
-34.258743 -55.783485 1.884673 1.000000
-34.258743 -55.783485 1.653770 1.000000
-34.258743 -55.783489 1.422124 1.000000
-34.258743 -55.783489 1.189231 1.000000
-34.258743 -55.783489 0.954578 1.000000
-34.258743 -55.783485 0.717634 1.000000
-34.258743 -55.783485 0.477850 1.000000
-34.258743 -55.783489 0.234652 1.000000
-34.179646 -55.796284 3.749464 1.000000
-34.179646 -55.796284 3.508453 1.000000
-34.179646 -55.796284 3.270828 1.000000
-34.179646 -55.796284 3.036016 1.000000
-34.179646 -55.796284 2.803473 1.000000
-34.179646 -55.796284 2.572676 1.000000
-34.179646 -55.796284 2.343114 1.000000
-34.179642 -55.796284 2.114290 1.000000
-34.179642 -55.796284 1.885710 1.000000
-34.179646 -55.796284 1.656886 1.000000
-34.179646 -55.796284 1.427324 1.000000
-34.179646 -55.796284 1.196527 1.000000
-34.179642 -55.796284 0.963984 1.000000
-34.179646 -55.796284 0.729172 1.000000
-34.179642 -55.796284 0.491547 1.000000
-34.179642 -55.796284 0.250536 1.000000
-34.101955 -55.808853 3.733947 1.000000
-34.101955 -55.808853 3.495075 1.000000
-34.101955 -55.808853 3.259556 1.000000
-34.101955 -55.808853 3.026827 1.000000
-34.101955 -55.808853 2.796347 1.000000
-34.101955 -55.808853 2.567597 1.000000
-34.101955 -55.808853 2.340071 1.000000
-34.101955 -55.808853 2.113276 1.000000
-34.101955 -55.808853 1.886724 1.000000
-34.101955 -55.808853 1.659929 1.000000
-34.101955 -55.808853 1.432403 1.000000
-34.101952 -55.808853 1.203653 1.000000
-34.101952 -55.808853 0.973173 1.000000
-34.101952 -55.808853 0.740444 1.000000
-34.101955 -55.808853 0.504925 1.000000
-34.101952 -55.808853 0.266053 1.000000
-34.025627 -55.821198 3.718786 1.000000
-34.025627 -55.821198 3.482002 1.000000
-34.025627 -55.821198 3.248543 1.000000
-34.025627 -55.821198 3.017849 1.000000
-34.025627 -55.821198 2.789384 1.000000
-34.025627 -55.821198 2.562634 1.000000
-34.025627 -55.821198 2.337097 1.000000
-34.025627 -55.821201 2.112286 1.000000
-34.025627 -55.821201 1.887714 1.000000
-34.025627 -55.821201 1.662902 1.000000
-34.025627 -55.821201 1.437366 1.000000
-34.025627 -55.821198 1.210616 1.000000
-34.025627 -55.821201 0.982151 1.000000
-34.025627 -55.821198 0.751457 1.000000
-34.025627 -55.821201 0.517998 1.000000
-34.025627 -55.821198 0.281214 1.000000
-33.950619 -55.833332 3.703970 1.000000
-33.950615 -55.833332 3.469227 1.000000
-33.950615 -55.833336 3.237780 1.000000
-33.950619 -55.833332 3.009075 1.000000
-33.950615 -55.833332 2.782579 1.000000
-33.950619 -55.833332 2.557784 1.000000
-33.950615 -55.833332 2.334192 1.000000
-33.950615 -55.833336 2.111318 1.000000
-33.950615 -55.833336 1.888682 1.000000
-33.950615 -55.833332 1.665808 1.000000
-33.950619 -55.833332 1.442216 1.000000
-33.950615 -55.833336 1.217421 1.000000
-33.950619 -55.833332 0.990925 1.000000
-33.950615 -55.833336 0.762220 1.000000
-33.950615 -55.833336 0.530773 1.000000
-33.950615 -55.833336 0.296030 1.000000
-33.876884 -55.845257 3.689489 1.000000
-33.876888 -55.845257 3.456741 1.000000
-33.876884 -55.845257 3.227262 1.000000
-33.876884 -55.845257 3.000499 1.000000
-33.876884 -55.845257 2.775929 1.000000
-33.876884 -55.845257 2.553044 1.000000
-33.876884 -55.845257 2.331352 1.000000
-33.876888 -55.845257 2.110372 1.000000
-33.876888 -55.845257 1.889628 1.000000
-33.876884 -55.845261 1.668648 1.000000
-33.876884 -55.845257 1.446956 1.000000
-33.876884 -55.845257 1.224071 1.000000
-33.876884 -55.845257 0.999501 1.000000
-33.876884 -55.845257 0.772739 1.000000
-33.876884 -55.845257 0.543259 1.000000
-33.876884 -55.845257 0.310511 1.000000
-33.804394 -55.856987 3.675333 1.000000
-33.804394 -55.856987 3.444535 1.000000
-33.804394 -55.856987 3.216978 1.000000
-33.804394 -55.856987 2.992116 1.000000
-33.804394 -55.856987 2.769428 1.000000
-33.804394 -55.856987 2.548409 1.000000
-33.804394 -55.856987 2.328575 1.000000
-33.804394 -55.856987 2.109447 1.000000
-33.804394 -55.856987 1.890553 1.000000
-33.804394 -55.856987 1.671425 1.000000
-33.804394 -55.856987 1.451590 1.000000
-33.804394 -55.856987 1.230573 1.000000
-33.804394 -55.856987 1.007884 1.000000
-33.804394 -55.856987 0.783022 1.000000
-33.804394 -55.856987 0.555465 1.000000
-33.804394 -55.856987 0.324668 1.000000
-33.733105 -55.868519 3.661492 1.000000
-33.733105 -55.868519 3.432601 1.000000
-33.733105 -55.868519 3.206924 1.000000
-33.733105 -55.868519 2.983920 1.000000
-33.733105 -55.868519 2.763071 1.000000
-33.733105 -55.868519 2.543879 1.000000
-33.733105 -55.868519 2.325861 1.000000
-33.733105 -55.868519 2.108542 1.000000
-33.733105 -55.868519 1.891457 1.000000
-33.733105 -55.868519 1.674139 1.000000
-33.733105 -55.868523 1.456121 1.000000
-33.733105 -55.868519 1.236929 1.000000
-33.733105 -55.868523 1.016080 1.000000
-33.733105 -55.868519 0.793076 1.000000
-33.733105 -55.868519 0.567399 1.000000
-33.733101 -55.868523 0.338509 1.000000
-33.662979 -55.879864 3.647957 1.000000
-33.662979 -55.879864 3.420932 1.000000
-33.662979 -55.879864 3.197093 1.000000
-33.662979 -55.879864 2.975905 1.000000
-33.662979 -55.879864 2.756855 1.000000
-33.662979 -55.879864 2.539448 1.000000
-33.662979 -55.879864 2.323206 1.000000
-33.662979 -55.879864 2.107659 1.000000
-33.662979 -55.879864 1.892341 1.000000
-33.662979 -55.879864 1.676794 1.000000
-33.662979 -55.879864 1.460551 1.000000
-33.662979 -55.879864 1.243145 1.000000
-33.662979 -55.879864 1.024095 1.000000
-33.662979 -55.879864 0.802907 1.000000
-33.662979 -55.879864 0.579069 1.000000
-33.662979 -55.879864 0.352043 1.000000
-33.593983 -55.891026 3.634722 1.000000
-33.593983 -55.891026 3.409519 1.000000
-33.593983 -55.891026 3.187478 1.000000
-33.593983 -55.891026 2.968067 1.000000
-33.593983 -55.891026 2.750776 1.000000
-33.593983 -55.891026 2.535116 1.000000
-33.593983 -55.891026 2.320610 1.000000
-33.593983 -55.891026 2.106794 1.000000
-33.593983 -55.891026 1.893206 1.000000
-33.593983 -55.891026 1.679390 1.000000
-33.593983 -55.891026 1.464884 1.000000
-33.593983 -55.891026 1.249224 1.000000
-33.593983 -55.891026 1.031933 1.000000
-33.593983 -55.891026 0.812522 1.000000
-33.593983 -55.891026 0.590482 1.000000
-33.593983 -55.891026 0.365278 1.000000
-33.526081 -55.902008 3.621774 1.000000
-33.526081 -55.902008 3.398355 1.000000
-33.526081 -55.902008 3.178073 1.000000
-33.526081 -55.902008 2.960399 1.000000
-33.526081 -55.902008 2.744830 1.000000
-33.526081 -55.902012 2.530877 1.000000
-33.526081 -55.902008 2.318071 1.000000
-33.526081 -55.902008 2.105948 1.000000
-33.526081 -55.902008 1.894052 1.000000
-33.526081 -55.902008 1.681929 1.000000
-33.526081 -55.902012 1.469123 1.000000
-33.526081 -55.902008 1.255170 1.000000
-33.526081 -55.902008 1.039601 1.000000
-33.526081 -55.902008 0.821928 1.000000
-33.526081 -55.902008 0.601645 1.000000
-33.526081 -55.902012 0.378226 1.000000
-33.459248 -55.912823 3.609108 1.000000
-33.459248 -55.912819 3.387434 1.000000
-33.459248 -55.912819 3.168872 1.000000
-33.459248 -55.912819 2.952899 1.000000
-33.459248 -55.912819 2.739013 1.000000
-33.459248 -55.912819 2.526731 1.000000
-33.459248 -55.912819 2.315587 1.000000
-33.459248 -55.912819 2.105121 1.000000
-33.459248 -55.912823 1.894879 1.000000
-33.459248 -55.912819 1.684413 1.000000
-33.459248 -55.912819 1.473268 1.000000
-33.459248 -55.912819 1.260987 1.000000
-33.459248 -55.912823 1.047102 1.000000
-33.459248 -55.912823 0.831128 1.000000
-33.459248 -55.912823 0.612566 1.000000
-33.459248 -55.912823 0.390892 1.000000
-33.393444 -55.923466 3.596717 1.000000
-33.393448 -55.923466 3.376750 1.000000
-33.393444 -55.923466 3.159871 1.000000
-33.393444 -55.923466 2.945560 1.000000
-33.393444 -55.923466 2.733321 1.000000
-33.393444 -55.923466 2.522675 1.000000
-33.393444 -55.923466 2.313157 1.000000
-33.393444 -55.923466 2.104311 1.000000
-33.393444 -55.923466 1.895689 1.000000
-33.393444 -55.923466 1.686843 1.000000
-33.393444 -55.923466 1.477325 1.000000
-33.393444 -55.923466 1.266679 1.000000
-33.393444 -55.923466 1.054440 1.000000
-33.393444 -55.923466 0.840130 1.000000
-33.393444 -55.923466 0.623251 1.000000
-33.393444 -55.923466 0.403284 1.000000
-33.328644 -55.933949 3.584590 1.000000
-33.328644 -55.933949 3.366293 1.000000
-33.328644 -55.933949 3.151062 1.000000
-33.328644 -55.933949 2.938379 1.000000
-33.328644 -55.933949 2.727752 1.000000
-33.328644 -55.933949 2.518705 1.000000
-33.328644 -55.933949 2.310778 1.000000
-33.328644 -55.933949 2.103519 1.000000
-33.328644 -55.933949 1.896481 1.000000
-33.328644 -55.933949 1.689222 1.000000
-33.328644 -55.933949 1.481294 1.000000
-33.328644 -55.933949 1.272248 1.000000
-33.328644 -55.933949 1.061621 1.000000
-33.328644 -55.933949 0.848938 1.000000
-33.328644 -55.933949 0.633707 1.000000
-33.328644 -55.933949 0.415410 1.000000
-33.264820 -55.944271 3.572723 1.000000
-33.264820 -55.944271 3.356061 1.000000
-33.264820 -55.944271 3.142441 1.000000
-33.264820 -55.944271 2.931352 1.000000
-33.264820 -55.944271 2.722302 1.000000
-33.264820 -55.944271 2.514821 1.000000
-33.264820 -55.944267 2.308451 1.000000
-33.264820 -55.944271 2.102744 1.000000
-33.264820 -55.944271 1.897256 1.000000
-33.264820 -55.944271 1.691549 1.000000
-33.264820 -55.944271 1.485179 1.000000
-33.264816 -55.944271 1.277698 1.000000
-33.264820 -55.944271 1.068648 1.000000
-33.264816 -55.944271 0.857559 1.000000
-33.264820 -55.944271 0.643939 1.000000
-33.264816 -55.944271 0.427277 1.000000
-33.201939 -55.954445 3.561108 1.000000
-33.201939 -55.954445 3.346046 1.000000
-33.201939 -55.954445 3.134004 1.000000
-33.201939 -55.954445 2.924473 1.000000
-33.201939 -55.954445 2.716967 1.000000
-33.201939 -55.954445 2.511019 1.000000
-33.201939 -55.954445 2.306173 1.000000
-33.201939 -55.954445 2.101985 1.000000
-33.201939 -55.954445 1.898015 1.000000
-33.201939 -55.954445 1.693827 1.000000
-33.201939 -55.954445 1.488981 1.000000
-33.201939 -55.954445 1.283033 1.000000
-33.201939 -55.954445 1.075527 1.000000
-33.201939 -55.954445 0.865996 1.000000
-33.201939 -55.954445 0.653954 1.000000
-33.201939 -55.954445 0.438893 1.000000
-33.139977 -55.964466 3.549738 1.000000
-33.139977 -55.964466 3.336243 1.000000
-33.139977 -55.964466 3.125745 1.000000
-33.139977 -55.964466 2.917740 1.000000
-33.139977 -55.964466 2.711746 1.000000
-33.139977 -55.964466 2.507297 1.000000
-33.139977 -55.964466 2.303943 1.000000
-33.139977 -55.964466 2.101242 1.000000
-33.139977 -55.964470 1.898758 1.000000
-33.139977 -55.964466 1.696057 1.000000
-33.139977 -55.964470 1.492703 1.000000
-33.139977 -55.964466 1.288254 1.000000
-33.139977 -55.964470 1.082260 1.000000
-33.139977 -55.964470 0.874255 1.000000
-33.139977 -55.964466 0.663758 1.000000
-33.139977 -55.964470 0.450263 1.000000
-33.078907 -55.974346 3.538606 1.000000
-33.078907 -55.974346 3.326645 1.000000
-33.078907 -55.974346 3.117659 1.000000
-33.078907 -55.974346 2.911148 1.000000
-33.078907 -55.974346 2.706633 1.000000
-33.078907 -55.974346 2.503653 1.000000
-33.078907 -55.974346 2.301760 1.000000
-33.078907 -55.974346 2.100515 1.000000
-33.078907 -55.974346 1.899485 1.000000
-33.078907 -55.974346 1.698240 1.000000
-33.078907 -55.974346 1.496347 1.000000
-33.078907 -55.974346 1.293367 1.000000
-33.078907 -55.974346 1.088852 1.000000
-33.078907 -55.974346 0.882341 1.000000
-33.078907 -55.974346 0.673356 1.000000
-33.078907 -55.974346 0.461394 1.000000
-33.018707 -55.984085 3.527708 1.000000
-33.018707 -55.984085 3.317247 1.000000
-33.018707 -55.984085 3.109742 1.000000
-33.018707 -55.984085 2.904694 1.000000
-33.018707 -55.984085 2.701628 1.000000
-33.018707 -55.984085 2.500086 1.000000
-33.018707 -55.984085 2.299622 1.000000
-33.018707 -55.984085 2.099803 1.000000
-33.018707 -55.984085 1.900197 1.000000
-33.018707 -55.984085 1.700378 1.000000
-33.018707 -55.984085 1.499914 1.000000
-33.018707 -55.984085 1.298372 1.000000
-33.018707 -55.984085 1.095306 1.000000
-33.018707 -55.984085 0.890258 1.000000
-33.018707 -55.984085 0.682753 1.000000
-33.018707 -55.984085 0.472292 1.000000
-32.959351 -55.993687 3.517036 1.000000
-32.959351 -55.993687 3.308046 1.000000
-32.959351 -55.993687 3.101990 1.000000
-32.959351 -55.993687 2.898374 1.000000
-32.959351 -55.993687 2.696727 1.000000
-32.959351 -55.993687 2.496592 1.000000
-32.959351 -55.993687 2.297529 1.000000
-32.959351 -55.993687 2.099106 1.000000
-32.959351 -55.993687 1.900894 1.000000
-32.959351 -55.993687 1.702471 1.000000
-32.959351 -55.993687 1.503408 1.000000
-32.959351 -55.993687 1.303273 1.000000
-32.959351 -55.993687 1.101626 1.000000
-32.959351 -55.993687 0.898010 1.000000
-32.959351 -55.993687 0.691954 1.000000
-32.959351 -55.993687 0.482964 1.000000
-32.900814 -56.003159 3.506586 1.000000
-32.900814 -56.003159 3.299035 1.000000
-32.900814 -56.003155 3.094398 1.000000
-32.900814 -56.003159 2.892185 1.000000
-32.900814 -56.003159 2.691927 1.000000
-32.900814 -56.003159 2.493171 1.000000
-32.900814 -56.003159 2.295480 1.000000
-32.900814 -56.003159 2.098423 1.000000
-32.900814 -56.003159 1.901577 1.000000
-32.900814 -56.003159 1.704520 1.000000
-32.900814 -56.003159 1.506829 1.000000
-32.900814 -56.003159 1.308073 1.000000
-32.900814 -56.003159 1.107815 1.000000
-32.900814 -56.003159 0.905602 1.000000
-32.900814 -56.003159 0.700966 1.000000
-32.900814 -56.003159 0.493415 1.000000
-32.843079 -56.012497 3.496350 1.000000
-32.843079 -56.012497 3.290209 1.000000
-32.843079 -56.012497 3.086963 1.000000
-32.843079 -56.012497 2.886124 1.000000
-32.843079 -56.012497 2.687226 1.000000
-32.843079 -56.012497 2.489821 1.000000
-32.843079 -56.012497 2.293472 1.000000
-32.843079 -56.012497 2.097754 1.000000
-32.843079 -56.012497 1.902246 1.000000
-32.843079 -56.012497 1.706528 1.000000
-32.843079 -56.012497 1.510179 1.000000
-32.843079 -56.012497 1.312774 1.000000
-32.843079 -56.012497 1.113876 1.000000
-32.843079 -56.012497 0.913037 1.000000
-32.843079 -56.012497 0.709791 1.000000
-32.843079 -56.012497 0.503650 1.000000
-32.786118 -56.021709 3.486325 1.000000
-32.786118 -56.021709 3.281566 1.000000
-32.786118 -56.021709 3.079681 1.000000
-32.786118 -56.021709 2.880188 1.000000
-32.786118 -56.021709 2.682622 1.000000
-32.786118 -56.021709 2.486539 1.000000
-32.786118 -56.021709 2.291506 1.000000
-32.786118 -56.021709 2.097099 1.000000
-32.786118 -56.021709 1.902901 1.000000
-32.786118 -56.021709 1.708494 1.000000
-32.786118 -56.021709 1.513461 1.000000
-32.786118 -56.021709 1.317378 1.000000
-32.786118 -56.021709 1.119813 1.000000
-32.786118 -56.021713 0.920319 1.000000
-32.786118 -56.021709 0.718435 1.000000
-32.786118 -56.021709 0.513675 1.000000
-32.729912 -56.030804 3.476504 1.000000
-32.729912 -56.030804 3.273098 1.000000
-32.729912 -56.030804 3.072547 1.000000
-32.729912 -56.030804 2.874372 1.000000
-32.729912 -56.030804 2.678112 1.000000
-32.729912 -56.030804 2.483324 1.000000
-32.729912 -56.030804 2.289580 1.000000
-32.729912 -56.030804 2.096458 1.000000
-32.729912 -56.030804 1.903542 1.000000
-32.729912 -56.030804 1.710420 1.000000
-32.729912 -56.030804 1.516676 1.000000
-32.729912 -56.030804 1.321888 1.000000
-32.729912 -56.030804 1.125628 1.000000
-32.729912 -56.030804 0.927453 1.000000
-32.729912 -56.030807 0.726903 1.000000
-32.729912 -56.030807 0.523496 1.000000
-32.674438 -56.039776 3.466884 1.000000
-32.674438 -56.039780 3.264802 1.000000
-32.674438 -56.039776 3.065559 1.000000
-32.674438 -56.039776 2.868675 1.000000
-32.674438 -56.039780 2.673693 1.000000
-32.674438 -56.039776 2.480175 1.000000
-32.674438 -56.039776 2.287693 1.000000
-32.674438 -56.039780 2.095829 1.000000
-32.674438 -56.039780 1.904171 1.000000
-32.674438 -56.039780 1.712307 1.000000
-32.674438 -56.039780 1.519825 1.000000
-32.674438 -56.039780 1.326307 1.000000
-32.674438 -56.039780 1.131325 1.000000
-32.674438 -56.039780 0.934442 1.000000
-32.674438 -56.039780 0.735198 1.000000
-32.674438 -56.039780 0.533117 1.000000
-32.619686 -56.048637 3.457458 1.000000
-32.619686 -56.048637 3.256676 1.000000
-32.619686 -56.048634 3.058712 1.000000
-32.619686 -56.048637 2.863093 1.000000
-32.619686 -56.048637 2.669365 1.000000
-32.619686 -56.048634 2.477090 1.000000
-32.619686 -56.048634 2.285845 1.000000
-32.619686 -56.048634 2.095213 1.000000
-32.619686 -56.048634 1.904786 1.000000
-32.619686 -56.048634 1.714155 1.000000
-32.619686 -56.048634 1.522910 1.000000
-32.619686 -56.048634 1.330635 1.000000
-32.619686 -56.048634 1.136907 1.000000
-32.619686 -56.048637 0.941288 1.000000
-32.619686 -56.048634 0.743325 1.000000
-32.619686 -56.048634 0.542542 1.000000
-32.565628 -56.057377 3.448225 1.000000
-32.565628 -56.057377 3.248713 1.000000
-32.565628 -56.057377 3.052004 1.000000
-32.565628 -56.057377 2.857625 1.000000
-32.565628 -56.057377 2.665123 1.000000
-32.565628 -56.057377 2.474067 1.000000
-32.565628 -56.057377 2.284034 1.000000
-32.565628 -56.057377 2.094610 1.000000
-32.565628 -56.057377 1.905390 1.000000
-32.565628 -56.057377 1.715966 1.000000
-32.565628 -56.057377 1.525933 1.000000
-32.565628 -56.057377 1.334877 1.000000
-32.565628 -56.057377 1.142376 1.000000
-32.565628 -56.057377 0.947996 1.000000
-32.565624 -56.057381 0.751287 1.000000
-32.565628 -56.057377 0.551776 1.000000
-32.512249 -56.066013 3.439175 1.000000
-32.512245 -56.066013 3.240911 1.000000
-32.512245 -56.066013 3.045431 1.000000
-32.512245 -56.066013 2.852266 1.000000
-32.512245 -56.066013 2.660968 1.000000
-32.512245 -56.066013 2.471105 1.000000
-32.512245 -56.066013 2.282259 1.000000
-32.512245 -56.066013 2.094019 1.000000
-32.512245 -56.066013 1.905981 1.000000
-32.512245 -56.066013 1.717741 1.000000
-32.512245 -56.066013 1.528895 1.000000
-32.512245 -56.066013 1.339032 1.000000
-32.512245 -56.066013 1.147734 1.000000
-32.512245 -56.066017 0.954569 1.000000
-32.512245 -56.066017 0.759089 1.000000
-32.512245 -56.066017 0.560825 1.000000
-32.459526 -56.074543 3.430308 1.000000
-32.459526 -56.074543 3.233266 1.000000
-32.459526 -56.074543 3.038990 1.000000
-32.459526 -56.074543 2.847015 1.000000
-32.459526 -56.074543 2.656895 1.000000
-32.459526 -56.074543 2.468202 1.000000
-32.459526 -56.074543 2.280520 1.000000
-32.459526 -56.074543 2.093440 1.000000
-32.459526 -56.074543 1.906560 1.000000
-32.459526 -56.074543 1.719480 1.000000
-32.459526 -56.074543 1.531798 1.000000
-32.459526 -56.074543 1.343105 1.000000
-32.459526 -56.074543 1.152985 1.000000
-32.459526 -56.074543 0.961010 1.000000
-32.459526 -56.074543 0.766735 1.000000
-32.459526 -56.074547 0.569692 1.000000
-32.407452 -56.082966 3.421618 1.000000
-32.407452 -56.082966 3.225773 1.000000
-32.407452 -56.082966 3.032677 1.000000
-32.407452 -56.082966 2.841869 1.000000
-32.407452 -56.082970 2.652904 1.000000
-32.407452 -56.082966 2.465358 1.000000
-32.407452 -56.082966 2.278815 1.000000
-32.407452 -56.082966 2.092872 1.000000
-32.407452 -56.082966 1.907128 1.000000
-32.407452 -56.082966 1.721184 1.000000
-32.407452 -56.082970 1.534642 1.000000
-32.407448 -56.082970 1.347096 1.000000
-32.407452 -56.082970 1.158131 1.000000
-32.407452 -56.082970 0.967323 1.000000
-32.407448 -56.082970 0.774227 1.000000
-32.407448 -56.082970 0.578382 1.000000
-32.355999 -56.091290 3.413102 1.000000
-32.355999 -56.091290 3.218430 1.000000
-32.355999 -56.091290 3.026491 1.000000
-32.355999 -56.091290 2.836825 1.000000
-32.355999 -56.091290 2.648993 1.000000
-32.355999 -56.091290 2.462570 1.000000
-32.355999 -56.091290 2.277145 1.000000
-32.355999 -56.091290 2.092316 1.000000
-32.355999 -56.091290 1.907684 1.000000
-32.355999 -56.091290 1.722855 1.000000
-32.355999 -56.091290 1.537430 1.000000
-32.355999 -56.091290 1.351007 1.000000
-32.355999 -56.091290 1.163175 1.000000
-32.355999 -56.091290 0.973509 1.000000
-32.355999 -56.091290 0.781571 1.000000
-32.355995 -56.091293 0.586899 1.000000
-32.305161 -56.099514 3.404755 1.000000
-32.305161 -56.099514 3.211233 1.000000
-32.305161 -56.099514 3.020428 1.000000
-32.305161 -56.099514 2.831883 1.000000
-32.305161 -56.099514 2.645159 1.000000
-32.305161 -56.099514 2.459838 1.000000
-32.305161 -56.099514 2.275508 1.000000
-32.305161 -56.099514 2.091770 1.000000
-32.305161 -56.099514 1.908230 1.000000
-32.305161 -56.099514 1.724492 1.000000
-32.305161 -56.099514 1.540162 1.000000
-32.305161 -56.099514 1.354841 1.000000
-32.305161 -56.099514 1.168118 1.000000
-32.305161 -56.099514 0.979572 1.000000
-32.305161 -56.099514 0.788767 1.000000
-32.305161 -56.099514 0.595245 1.000000
-32.254913 -56.107643 3.396574 1.000000
-32.254913 -56.107639 3.204179 1.000000
-32.254913 -56.107643 3.014485 1.000000
-32.254913 -56.107639 2.827038 1.000000
-32.254913 -56.107643 2.641402 1.000000
-32.254913 -56.107643 2.457160 1.000000
-32.254913 -56.107639 2.273904 1.000000
-32.254913 -56.107639 2.091236 1.000000
-32.254913 -56.107639 1.908764 1.000000
-32.254913 -56.107639 1.726096 1.000000
-32.254913 -56.107643 1.542840 1.000000
-32.254913 -56.107643 1.358598 1.000000
-32.254913 -56.107643 1.172962 1.000000
-32.254913 -56.107643 0.985515 1.000000
-32.254913 -56.107643 0.795821 1.000000
-32.254913 -56.107643 0.603426 1.000000
-32.205246 -56.115677 3.388555 1.000000
-32.205246 -56.115677 3.197264 1.000000
-32.205246 -56.115673 3.008660 1.000000
-32.205246 -56.115677 2.822289 1.000000
-32.205246 -56.115677 2.637719 1.000000
-32.205246 -56.115673 2.454535 1.000000
-32.205246 -56.115677 2.272331 1.000000
-32.205246 -56.115677 2.090712 1.000000
-32.205246 -56.115677 1.909288 1.000000
-32.205246 -56.115677 1.727669 1.000000
-32.205246 -56.115677 1.545465 1.000000
-32.205246 -56.115677 1.362281 1.000000
-32.205246 -56.115677 1.177711 1.000000
-32.205246 -56.115677 0.991340 1.000000
-32.205246 -56.115677 0.802736 1.000000
-32.205246 -56.115677 0.611445 1.000000
-32.156147 -56.123619 3.380694 1.000000
-32.156147 -56.123619 3.190487 1.000000
-32.156147 -56.123619 3.002950 1.000000
-32.156147 -56.123619 2.817634 1.000000
-32.156147 -56.123619 2.634109 1.000000
-32.156147 -56.123619 2.451962 1.000000
-32.156147 -56.123619 2.270789 1.000000
-32.156147 -56.123619 2.090199 1.000000
-32.156147 -56.123619 1.909801 1.000000
-32.156147 -56.123619 1.729211 1.000000
-32.156147 -56.123619 1.548038 1.000000
-32.156147 -56.123619 1.365891 1.000000
-32.156147 -56.123619 1.182366 1.000000
-32.156147 -56.123623 0.997050 1.000000
-32.156147 -56.123619 0.809513 1.000000
-32.156147 -56.123623 0.619306 1.000000
-32.107597 -56.131474 3.372989 1.000000
-32.107597 -56.131470 3.183843 1.000000
-32.107597 -56.131474 2.997352 1.000000
-32.107597 -56.131470 2.813071 1.000000
-32.107597 -56.131474 2.630570 1.000000
-32.107597 -56.131474 2.449439 1.000000
-32.107597 -56.131470 2.269278 1.000000
-32.107597 -56.131474 2.089695 1.000000
-32.107597 -56.131474 1.910305 1.000000
-32.107597 -56.131470 1.730722 1.000000
-32.107597 -56.131474 1.550561 1.000000
-32.107597 -56.131474 1.369430 1.000000
-32.107597 -56.131474 1.186929 1.000000
-32.107597 -56.131474 1.002648 1.000000
-32.107597 -56.131470 0.816157 1.000000
-32.107597 -56.131474 0.627012 1.000000
-32.059582 -56.139240 3.365435 1.000000
-32.059582 -56.139240 3.177330 1.000000
-32.059582 -56.139240 2.991865 1.000000
-32.059582 -56.139240 2.808598 1.000000
-32.059582 -56.139240 2.627101 1.000000
-32.059582 -56.139236 2.446966 1.000000
-32.059582 -56.139240 2.267796 1.000000
-32.059582 -56.139240 2.089202 1.000000
-32.059582 -56.139240 1.910798 1.000000
-32.059582 -56.139240 1.732204 1.000000
-32.059582 -56.139240 1.553033 1.000000
-32.059582 -56.139240 1.372899 1.000000
-32.059578 -56.139240 1.191403 1.000000
-32.059578 -56.139240 1.008135 1.000000
-32.059578 -56.139240 0.822671 1.000000
-32.059582 -56.139240 0.634565 1.000000
-32.012093 -56.146923 3.358030 1.000000
-32.012093 -56.146923 3.170944 1.000000
-32.012089 -56.146923 2.986486 1.000000
-32.012089 -56.146923 2.804212 1.000000
-32.012089 -56.146923 2.623700 1.000000
-32.012089 -56.146923 2.444542 1.000000
-32.012089 -56.146923 2.266344 1.000000
-32.012089 -56.146923 2.088718 1.000000
-32.012089 -56.146923 1.911282 1.000000
-32.012089 -56.146923 1.733656 1.000000
-32.012089 -56.146923 1.555458 1.000000
-32.012089 -56.146923 1.376300 1.000000
-32.012089 -56.146923 1.195788 1.000000
-32.012089 -56.146923 1.013514 1.000000
-32.012089 -56.146923 0.829056 1.000000
-32.012089 -56.146923 0.641971 1.000000
-31.965109 -56.154522 3.350770 1.000000
-31.965109 -56.154522 3.164685 1.000000
-31.965109 -56.154522 2.981212 1.000000
-31.965109 -56.154522 2.799913 1.000000
-31.965109 -56.154522 2.620366 1.000000
-31.965109 -56.154522 2.442166 1.000000
-31.965109 -56.154522 2.264920 1.000000
-31.965109 -56.154522 2.088244 1.000000
-31.965109 -56.154522 1.911756 1.000000
-31.965109 -56.154522 1.735080 1.000000
-31.965109 -56.154522 1.557834 1.000000
-31.965109 -56.154522 1.379634 1.000000
-31.965109 -56.154522 1.200087 1.000000
-31.965109 -56.154522 1.018788 1.000000
-31.965109 -56.154526 0.835316 1.000000
-31.965109 -56.154522 0.649230 1.000000
-31.918625 -56.162041 3.343652 1.000000
-31.918625 -56.162041 3.158547 1.000000
