# This PCD file was generated using the MATLAB® pcwrite function
# from Computer Vision Toolbox®.
# .PCD v.7 - Point Cloud Data file format
VERSION .7
FIELDS x y z intensity
SIZE 4 4 4 4
TYPE F F F F
COUNT 1 1 1 1
WIDTH 1155
HEIGHT 1
VIEWPOINT 0 0 0 1 0 0 0
POINTS 1155
DATA ascii
337.568909 -539.213440 0.410058 0.629044
339.281494 -538.171326 -0.000090 0.529657
342.615356 -536.142639 -0.000062 0.531127
344.743652 -534.847534 -0.000051 0.526838
346.222717 -533.947510 -0.000094 0.526593
347.312775 -533.284180 -0.000021 0.534191
337.526794 -539.080872 6.848976 0.435172
337.527832 -539.080261 6.180706 0.711520
337.528900 -539.079651 5.521899 0.182108
337.529907 -539.078979 4.870977 0.294118
337.530945 -539.078430 4.226424 0.589338
337.531952 -539.077759 3.586786 0.503676
337.532959 -539.077209 2.950653 0.592892
337.533936 -539.076599 2.316639 0.724387
337.534973 -539.075989 1.683380 0.185417
337.535980 -539.075378 1.049518 0.242157
337.536957 -539.074768 0.413691 0.609559
339.218781 -538.067383 -0.000086 0.550245
342.566711 -536.062012 -0.000062 0.525368
344.703766 -534.781982 -0.000103 0.505270
346.189301 -533.892151 -0.000089 0.516912
347.283783 -533.236572 -0.000077 0.506985
337.494965 -538.942749 6.838151 0.473039
337.496033 -538.942139 6.171373 0.528922
337.497070 -538.941467 5.514038 0.192279
337.498108 -538.940918 4.864570 0.250000
337.499115 -538.940247 4.221456 0.458088
337.500153 -538.939697 3.583245 0.541054
337.501160 -538.939087 2.948531 0.610539
337.502136 -538.938538 2.315932 0.704779
337.503143 -538.937988 1.684086 0.229167
337.504120 -538.937317 1.051638 0.266054
337.505157 -538.936768 0.417230 0.574142
339.156921 -537.962952 -0.000066 0.528676
342.518646 -535.981079 -0.000056 0.550123
344.664612 -534.716003 -0.000096 0.530147
346.156281 -533.836548 -0.000085 0.567279
347.255402 -533.188599 -0.000057 0.536152
337.463287 -538.805237 6.827610 0.504779
337.464355 -538.804626 6.162285 0.385417
337.465393 -538.804016 5.506382 0.466176
337.466431 -538.803406 4.858330 0.477819
337.467468 -538.802795 4.216616 0.471324
337.468475 -538.802246 3.579796 0.540931
337.469482 -538.801636 2.946465 0.455025
337.470490 -538.801086 2.315244 0.694485
337.471466 -538.800476 1.684774 0.515319
337.472473 -538.799927 1.053704 0.497672
337.473450 -538.799316 0.420676 0.696446
339.095703 -537.858154 -0.000059 0.517402
342.470856 -535.899963 -0.000104 0.556985
344.625885 -534.649719 -0.000088 0.546814
346.123749 -533.780701 -0.000063 0.559436
347.227264 -533.140442 -0.000051 0.530760
337.431763 -538.668274 6.817349 0.549020
337.432831 -538.667664 6.153439 0.625613
337.433868 -538.667114 5.498930 0.714093
337.434875 -538.666504 4.852254 0.723529
337.435913 -538.665955 4.211905 0.468750
337.436951 -538.665344 3.576439 0.537623
337.437958 -538.664795 2.944455 0.517034
337.438965 -538.664185 2.314575 0.500980
337.439941 -538.663635 1.685444 0.618627
337.440948 -538.663086 1.055714 0.525980
337.441956 -538.662476 0.424032 0.535907
339.035156 -537.752930 -0.000056 0.515809
342.423920 -535.818420 -0.000101 0.544363
344.587677 -534.583130 -0.000074 0.569608
346.091492 -533.724670 -0.000060 0.548162
347.199493 -533.092102 -0.000038 0.510907
337.400360 -538.531982 6.807365 0.600368
337.401428 -538.531372 6.144830 0.592157
337.402435 -538.530762 5.491679 0.520833
337.403503 -538.530212 4.846344 0.563848
337.404510 -538.529602 4.207322 0.454902
337.405548 -538.529053 3.573172 0.543137
337.406555 -538.528442 2.942498 0.550000
337.407532 -538.527893 2.313922 0.517402
337.408539 -538.527405 1.686096 0.659314
337.409546 -538.526794 1.057671 0.578554
337.410522 -538.526245 0.427296 0.512255
338.975403 -537.647278 -0.000052 0.547794
342.377563 -535.736450 -0.000095 0.533824
344.549866 -534.516357 -0.000070 0.568995
346.059723 -533.668396 -0.000045 0.533701
347.172058 -533.043640 -0.000033 0.514461
337.369080 -538.396179 6.797655 0.546814
337.370148 -538.395569 6.136458 0.597794
337.371155 -538.395020 5.484627 0.611152
337.372192 -538.394409 4.840596 0.612623
337.373260 -538.393860 4.202864 0.556495
337.374268 -538.393250 3.569996 0.572549
337.375275 -538.392761 2.940595 0.554902
337.376282 -538.392151 2.313289 0.517892
337.377258 -538.391663 1.686730 0.536029
337.378235 -538.391113 1.059573 0.535172
337.379272 -538.390564 0.430470 0.496078
338.915833 -537.541565 -0.000118 0.534069
342.331787 -535.654236 -0.000092 0.533701
344.512543 -534.449341 -0.000069 0.553799
346.028198 -533.611938 -0.000057 0.530760
347.144928 -532.994934 -0.000031 0.584804
337.337952 -538.260864 6.788217 0.697426
337.338989 -538.260315 6.128322 0.580270
337.340027 -538.259766 5.477772 0.665564
337.341064 -538.259216 4.835008 0.558824
337.342072 -538.258606 4.198532 0.587500
337.343109 -538.258118 3.566909 0.586887
337.344116 -538.257507 2.938745 0.698529
337.345123 -538.257019 2.312673 0.634559
337.346100 -538.256409 1.687346 0.608701
337.347107 -538.255920 1.061422 0.583211
337.348114 -538.255371 0.433556 0.579044
338.857544 -537.435120 -0.000114 0.544730
342.286560 -535.571716 -0.000087 0.551103
344.475677 -534.382019 -0.000066 0.555760
345.997223 -533.555176 -0.000039 0.529289
347.118164 -532.945984 -0.000026 0.534926
337.306885 -538.126160 6.779050 0.592157
337.307983 -538.125610 6.120417 0.515809
337.308990 -538.125000 5.471114 0.664583
337.310028 -538.124512 4.829580 0.737990
337.311066 -538.123901 4.194324 0.555515
337.312073 -538.123413 3.563909 0.620833
337.313080 -538.122864 2.936948 0.645711
337.314087 -538.122314 2.312075 0.581373
337.315094 -538.121826 1.687944 0.577941
337.316071 -538.121277 1.063218 0.866912
337.317078 -538.120789 0.436554 0.592157
338.799988 -537.328247 -0.000109 0.539706
342.241913 -535.488770 -0.000085 0.553676
344.439301 -534.314514 -0.000064 0.549632
345.966553 -533.498291 -0.000036 0.549265
347.091553 -532.897034 -0.000074 0.530882
337.276001 -537.992004 6.770149 0.598897
337.277039 -537.991394 6.112742 0.562868
337.278107 -537.990845 5.464649 0.547794
337.279144 -537.990295 4.824309 0.663725
337.280151 -537.989807 4.190239 0.558578
337.281158 -537.989197 3.560997 0.592402
337.282166 -537.988708 2.935204 0.587132
337.283173 -537.988159 2.311493 0.542279
337.284180 -537.987671 1.688525 0.657966
337.285156 -537.987122 1.064962 0.877206
337.286163 -537.986633 0.439464 0.520711
338.743195 -537.220947 -0.000105 0.522426
342.197845 -535.405640 -0.000081 0.520833
344.403412 -534.246643 -0.000046 0.530025
345.936279 -533.441101 -0.000035 0.538971
347.065460 -532.847778 -0.000072 0.529044
337.245178 -537.858276 6.761514 0.560294
337.246246 -537.857666 6.105297 0.555637
337.247284 -537.857178 5.458377 0.574510
337.248322 -537.856628 4.819198 0.641544
337.249359 -537.856079 4.186275 0.568137
337.250366 -537.855530 3.558172 0.509069
337.251373 -537.855042 2.933511 0.563848
337.252350 -537.854492 2.310930 0.571078
337.253357 -537.854004 1.689088 0.639461
337.254364 -537.853455 1.066654 0.897426
337.255341 -537.852966 0.442288 0.610172
338.687012 -537.113342 -0.000114 0.535417
342.154388 -535.322144 -0.000080 0.533578
344.367920 -534.178589 -0.000056 0.513971
345.906158 -533.383911 -0.000098 0.557966
347.039673 -532.798401 -0.000080 0.553309
337.214478 -537.724976 6.753141 0.491422
337.215576 -537.724426 6.098077 0.541789
337.216614 -537.723877 5.452295 0.531495
337.217621 -537.723389 4.814240 0.690319
337.218628 -537.722839 4.182431 0.591544
337.219666 -537.722351 3.555433 0.528064
337.220703 -537.721802 2.931870 0.622304
337.221680 -537.721313 2.310383 0.583211
337.222626 -537.720825 1.689635 0.591054
337.223663 -537.720337 1.068295 0.791422
337.224670 -537.719849 0.445026 0.590196
338.632294 -537.005005 -0.000038 0.524877
342.111481 -535.238342 -0.000076 0.543137
344.332947 -534.110291 -0.000051 0.548162
345.876709 -533.326416 -0.000092 0.540441
347.014313 -532.748718 -0.000065 0.542647
337.183899 -537.592163 6.745028 0.528186
337.184998 -537.591675 6.091081 0.569853
337.186005 -537.591125 5.446403 0.575613
337.187042 -537.590637 4.809437 0.644608
337.188049 -537.590088 4.178707 0.559314
337.189087 -537.589600 3.552779 0.520711
337.190094 -537.589050 2.930280 0.602574
337.191101 -537.588623 2.309854 0.564706
337.192078 -537.588074 1.690165 0.611520
337.193085 -537.587585 1.069884 0.644975
337.194092 -537.587097 0.447679 0.499632
338.577759 -536.896606 -0.000034 0.537377
342.069183 -535.154236 -0.000072 0.526593
344.298523 -534.041687 -0.000039 0.530147
345.847687 -533.268555 -0.000075 0.510662
346.989258 -532.698914 -0.000061 0.538971
337.153412 -537.459839 6.737172 0.483456
337.154510 -537.459290 6.084309 0.556250
337.155518 -537.458801 5.440697 0.632721
337.156555 -537.458252 4.804786 0.534926
337.157562 -537.457825 4.175101 0.642892
337.158600 -537.457275 3.550209 0.558578
337.159607 -537.456787 2.928740 0.600245
337.160614 -537.456360 2.309340 0.515564
337.161621 -537.455811 1.690677 0.596324
337.162598 -537.455383 1.071423 0.576961
337.163605 -537.454834 0.450247 0.590441
338.523834 -536.787842 -0.000045 0.556373
342.027466 -535.069885 -0.000071 0.524632
344.264435 -533.972961 -0.000049 0.565319
345.819000 -533.210693 -0.000085 0.543137
346.964539 -532.648987 -0.000062 0.542034
337.123016 -537.327942 6.729576 0.516422
337.124115 -537.327393 6.077758 0.454534
337.125183 -537.326904 5.435178 0.462255
337.126221 -537.326416 4.800288 0.499265
337.127197 -537.325928 4.171614 0.552696
337.128204 -537.325439 3.547723 0.569975
337.202423 -537.289673 2.923260 0.630024
337.203430 -537.289185 2.307516 0.576593
337.204437 -537.288696 1.692503 0.592525
337.205444 -537.288269 1.076904 0.626103
337.206451 -537.287781 0.459394 0.555637
338.470825 -536.678650 -0.000041 0.539951
341.986328 -534.985168 -0.000067 0.536520
344.230927 -533.903931 -0.000043 0.520956
345.790771 -533.152527 -0.000079 0.528064
346.940186 -532.598816 -0.000058 0.521691
337.092743 -537.196411 6.722231 0.664216
337.093811 -537.195923 6.071424 0.573162
337.094879 -537.195435 5.429844 0.562132
337.095917 -537.194946 4.795939 0.541789
337.096893 -537.194458 4.168242 0.514828
337.391327 -537.055176 3.518707 1.000000
337.172272 -537.158752 2.921826 0.541176
337.173279 -537.158325 2.307038 0.603064
337.174255 -537.157837 1.692980 0.560662
337.175262 -537.157410 1.078336 0.544976
337.176270 -537.156921 0.461785 0.571446
338.418457 -536.569153 -0.000050 0.545833
341.945709 -534.900269 -0.000076 0.549142
344.197815 -533.834717 -0.000055 0.566667
345.762939 -533.094177 -0.000079 0.516912
346.916168 -532.548462 -0.000056 0.555392
337.062531 -537.065369 6.715141 0.593995
337.063629 -537.064819 6.065310 0.638235
337.064697 -537.064392 5.424693 0.549632
337.065735 -537.063843 4.791740 0.626838
337.066711 -537.063416 4.164986 0.666667
337.361664 -536.926331 3.516426 1.000000
337.068726 -537.062500 2.924424 0.135907
337.069733 -537.062012 2.307903 0.179167
337.070709 -537.061523 1.692115 0.191176
337.071716 -537.061035 1.075739 0.184681
337.072723 -537.060608 0.457451 0.177083
338.367065 -536.459229 -0.000031 0.555025
341.905823 -534.815063 -0.000069 0.548652
344.165070 -533.765259 -0.000093 0.529289
345.735504 -533.035583 -0.000071 0.545588
346.892517 -532.497986 -0.000048 0.559681
337.032440 -536.934631 6.708298 0.631005
337.033539 -536.934143 6.059411 0.597304
337.034607 -536.933655 5.419723 0.705637
337.035614 -536.933228 4.787691 0.599020
337.036621 -536.932739 4.161846 0.681250
337.332062 -536.797913 3.514226 1.000000
337.038605 -536.931824 2.923083 0.422181
337.039612 -536.931396 2.307456 0.293750
337.040619 -536.930908 1.692562 0.234681
337.041626 -536.930481 1.077080 0.288603
337.042633 -536.929932 0.459688 0.257230
338.316193 -536.348999 -0.000044 0.554657
341.866364 -534.729492 -0.000081 0.544485
344.132874 -533.695618 -0.000108 0.539583
345.708405 -532.976929 -0.000083 0.523039
346.869202 -532.447388 -0.000060 0.539461
337.002411 -536.804321 6.701706 0.510539
337.003479 -536.803833 6.053727 0.751716
337.004547 -536.803345 5.414936 0.728799
337.005585 -536.802856 4.783788 0.683088
337.006561 -536.802429 4.158819 0.599755
337.302582 -536.669922 3.512107 1.000000
337.008575 -536.801514 2.921790 0.484314
337.009583 -536.801086 2.307026 0.333946
337.010590 -536.800659 1.692992 0.279657
337.011597 -536.800171 1.078371 0.338358
337.012604 -536.799744 0.461844 0.291176
338.266266 -536.238342 -0.000037 0.530392
341.828033 -534.643555 -0.000008 0.515196
344.101288 -533.625671 -0.000100 0.529167
345.681885 -532.917969 -0.000066 0.544118
346.846283 -532.396606 -0.000045 0.541544
336.972443 -536.674316 6.695361 0.515931
336.973541 -536.673828 6.048257 0.447672
336.974609 -536.673401 5.410329 0.538235
336.975647 -536.672913 4.780032 0.534069
336.976624 -536.672485 4.155907 0.587132
337.273163 -536.542236 3.510067 1.000000
336.978638 -536.671631 2.920547 0.455515
336.979645 -536.671143 2.306612 0.309559
336.980652 -536.670715 1.693406 0.266299
336.981659 -536.670227 1.079615 0.307721
336.982666 -536.669861 0.463918 0.300980
338.217010 -536.127441 -0.000046 0.549510
341.789825 -534.557556 -0.000018 0.546569
344.070190 -533.555542 -0.000097 0.503431
345.655609 -532.858887 -0.000075 0.556495
346.823639 -532.345642 -0.000053 0.541789
336.942596 -536.544678 6.689261 0.580392
336.943695 -536.544189 6.042999 0.452083
336.944733 -536.543762 5.405899 0.482108
336.945770 -536.543335 4.776422 0.443627
336.946777 -536.542908 4.153107 0.575980
337.243805 -536.414856 3.508105 1.000000
336.948792 -536.542053 2.919351 0.412990
336.949799 -536.541565 2.306214 0.317279
336.950806 -536.541138 1.693805 0.306495
336.951813 -536.540771 1.080810 0.227696
336.952820 -536.540283 0.465913 0.228186
338.168610 -536.016113 -0.000043 0.534804
341.752289 -534.471252 -0.000013 0.541422
344.039612 -533.485107 -0.000092 0.521446
345.629822 -532.799622 -0.000072 0.543505
346.801422 -532.294495 -0.000046 0.525245
336.912811 -536.415405 6.683405 0.526838
336.913910 -536.414917 6.037950 0.355882
336.914978 -536.414490 5.401647 0.300980
336.915985 -536.414001 4.772955 0.313235
336.916992 -536.413635 4.150418 0.616667
337.214539 -536.287781 3.506222 1.000000
336.919006 -536.412781 2.918204 0.399755
336.920013 -536.412354 2.305831 0.299387
336.921021 -536.411926 1.694186 0.282598
336.922028 -536.411499 1.081958 0.253186
336.923035 -536.411072 0.467828 0.275245
338.120880 -535.904602 -0.000051 0.546691
341.715271 -534.384644 -0.000023 0.527941
344.009430 -533.414612 -0.000101 0.534436
345.604462 -532.740112 -0.000069 0.547672
346.779327 -532.243347 -0.000103 0.540809
336.883087 -536.286377 6.677790 0.523039
336.884186 -536.286011 6.033113 0.335417
336.885223 -536.285522 5.397572 0.231127
336.886292 -536.285095 4.769633 0.243137
336.887299 -536.284668 4.147841 0.594363
337.185333 -536.161072 3.504417 1.000000
336.889313 -536.283813 2.917103 0.373039
336.890320 -536.283447 2.305465 0.291912
336.891327 -536.282959 1.694553 0.369608
336.892334 -536.282593 1.083057 0.619363
336.893341 -536.282166 0.469664 0.275980
338.074127 -535.792603 -0.000036 0.538235
341.678650 -534.297974 -0.000061 0.542157
343.979828 -533.343811 -0.000096 0.546936
345.579498 -532.680481 -0.000066 0.562868
346.757843 -532.191895 -0.000096 0.469853
336.853455 -536.157715 6.672419 0.694608
336.854553 -536.157288 6.028480 0.359681
336.855591 -536.156860 5.393670 0.176471
336.856628 -536.156494 4.766453 0.301838
336.857635 -536.156006 4.145374 0.581495
337.156189 -536.034668 3.502690 1.000000
336.859650 -536.155212 2.916050 0.344976
336.860657 -536.154785 2.305114 0.288358
336.861694 -536.154358 1.694904 0.310539
336.862701 -536.153992 1.084110 0.545956
336.863708 -536.153564 0.471421 0.238235
338.028381 -535.680115 0.000011 0.539583
341.643188 -534.210754 -0.000015 0.521324
343.951202 -533.272583 0.000012 0.566299
345.555115 -532.620605 -0.000021 0.560417
346.736816 -532.140259 -0.000049 0.543015
336.823853 -536.029358 6.667287 0.574755
336.824951 -536.028870 6.024055 0.349387
336.825989 -536.028503 5.389943 0.206127
336.827026 -536.028015 4.763415 0.253064
336.828064 -536.027649 4.143018 0.530882
337.127136 -535.908508 3.501039 1.000000
336.830109 -536.026855 2.915044 0.320711
336.831116 -536.026489 2.304779 0.334681
336.832123 -536.026062 1.695239 0.348529
336.833130 -536.025696 1.085116 0.608211
336.834137 -536.025208 0.473099 0.223162
337.982666 -535.567688 -0.000040 0.530760
341.607727 -534.123596 -0.000065 0.528431
343.922302 -533.201477 -0.000037 0.567279
345.530792 -532.560730 -0.000069 0.554534
346.715851 -532.088623 -0.000092 0.491054
336.794342 -535.901245 6.662390 0.512377
336.795441 -535.900757 6.019836 0.480637
336.796478 -535.900391 5.386389 0.466422
336.797546 -535.899963 4.760517 0.470711
336.798553 -535.899597 4.140771 0.589216
337.098114 -535.782654 3.499465 1.000000
336.800598 -535.898804 2.914084 0.370343
336.801605 -535.898376 2.304460 0.259314
336.802612 -535.898010 1.695558 0.248407
336.803589 -535.897644 1.086075 0.160539
336.804657 -535.897217 0.474700 0.210049
337.938507 -535.454651 0.000005 0.530637
341.573517 -534.035889 -0.000020 0.546446
343.894379 -533.130005 0.000008 0.559559
345.507294 -532.500488 -0.000017 0.538603
346.695587 -532.036743 -0.000045 0.562132
336.764893 -535.773376 6.657733 0.541667
336.765991 -535.772949 6.015822 0.904289
336.767029 -535.772583 5.383007 0.736274
336.768066 -535.772156 4.757761 0.696078
336.769104 -535.771790 4.138633 0.486152
337.069214 -535.657043 3.497967 1.000000
336.771149 -535.770996 2.913172 0.256740
336.772156 -535.770569 2.304156 0.380760
336.773163 -535.770203 1.695862 0.523407
336.774170 -535.769775 1.086988 0.183578
336.775208 -535.769409 0.476223 0.200613
337.894684 -535.341492 -0.000004 0.519363
341.539551 -533.948120 -0.000028 0.546201
343.866699 -533.058472 -0.000000 0.559069
345.483978 -532.440247 -0.000026 0.560539
346.675446 -531.984680 -0.000054 0.527819
336.735504 -535.645813 6.653314 0.496201
336.736603 -535.645325 6.012010 0.574632
336.737640 -535.644897 5.379795 0.568873
336.738678 -535.644592 4.755144 0.624142
336.739685 -535.644165 4.136603 0.662745
337.040314 -535.531677 3.496545 1.000000
336.741760 -535.643433 2.912305 0.260172
336.742767 -535.643005 2.303867 0.294118
336.743774 -535.642700 1.696151 0.333946
336.744781 -535.642273 1.087854 0.213358
336.745789 -535.641907 0.477669 0.192647
337.851776 -535.227905 -0.000001 0.536520
341.506256 -533.860046 -0.000024 0.530025
343.839569 -532.986633 0.000002 0.558088
345.461090 -532.379700 -0.000023 0.560907
346.655823 -531.932556 -0.000039 0.541054
336.706146 -535.518372 6.649125 0.642770
336.707245 -535.518005 6.008400 0.665809
336.708282 -535.517578 5.376755 0.557721
336.709320 -535.517212 4.752666 0.545711
336.710358 -535.516846 4.134681 0.552083
337.011475 -535.406494 3.495200 1.000000
336.787415 -535.488647 2.907560 0.607966
336.788391 -535.488220 2.302286 0.534804
336.789429 -535.487854 1.697731 0.681127
336.790436 -535.487549 1.092597 0.575613
336.791412 -535.487122 0.485584 0.636642
337.809570 -535.114136 -0.000008 0.546324
341.473572 -533.771790 -0.000023 0.556005
343.812927 -532.914734 0.000003 0.606863
345.438629 -532.319153 -0.000031 0.508946
346.636414 -531.880310 -0.000047 0.542279
336.676880 -535.391235 6.645171 0.487500
336.677948 -535.390808 6.004994 0.518015
336.678986 -535.390503 5.373885 0.479044
336.680023 -535.390076 4.750326 0.542157
336.681091 -535.389709 4.132866 0.633578
336.982666 -535.281616 3.493928 1.000000
336.758240 -535.362122 2.906789 0.565196
336.759247 -535.361694 2.302030 0.635172
336.760254 -535.361389 1.697988 0.661397
336.761230 -535.360962 1.093368 0.607598
336.762268 -535.360657 0.486871 0.594853
337.768219 -535.000061 -0.000007 0.542770
341.441437 -533.683289 -0.000031 0.549142
343.786713 -532.842590 -0.000006 0.515809
345.416595 -532.258301 -0.000028 0.537255
346.617371 -531.827881 -0.000053 0.530882
336.647614 -535.264343 6.641451 0.500123
336.648682 -535.263916 6.001787 0.542647
336.649780 -535.263550 5.371182 0.632721
336.650818 -535.263184 4.748123 0.606373
336.651825 -535.262878 4.131158 0.563603
336.953949 -535.156921 3.492733 1.000000
336.729126 -535.235718 2.906063 0.582353
336.730133 -535.235413 2.301788 0.545833
336.731110 -535.234985 1.698230 0.650735
336.732147 -535.234680 1.094094 0.557843
336.733154 -535.234314 0.488082 0.604534
337.727600 -534.885681 -0.000013 0.541054
341.409943 -533.594604 -0.000037 0.519240
343.761047 -532.770264 -0.000014 0.529044
345.394958 -532.197388 -0.000035 0.569363
346.598755 -531.775391 -0.000059 0.528799
336.618408 -535.137573 6.637961 0.540074
336.619476 -535.137207 5.998780 0.573039
336.620575 -535.136841 5.368650 0.631127
336.621613 -535.136475 4.746058 0.579412
336.622620 -535.136108 4.129558 0.533456
336.623657 -535.135803 3.517754 0.610539
336.624664 -535.135437 2.909298 0.590441
336.625671 -535.135071 2.302866 0.610294
336.626678 -535.134705 1.697152 0.700368
336.627716 -535.134399 1.090860 0.549265
336.628723 -535.134033 0.482685 0.692770
337.687866 -534.770935 -0.000010 0.544853
341.379150 -533.505615 -0.000034 0.522917
343.735962 -532.697815 -0.000010 0.537990
345.373810 -532.136292 -0.000032 0.507843
346.580688 -531.722656 -0.000006 0.555760
336.589264 -535.010986 6.634702 0.584926
336.590332 -535.010620 5.995972 0.547059
336.591400 -535.010315 5.366284 0.522426
336.592468 -535.009949 4.744130 0.647304
336.593475 -535.009583 4.128061 0.546446
336.594513 -535.009216 3.516688 0.622304
336.595490 -535.008911 2.908660 0.643382
336.596527 -535.008545 2.302653 0.575000
336.597534 -535.008240 1.697365 0.578064
336.598541 -535.007874 1.091498 0.593137
336.599579 -535.007568 0.483750 0.615319
337.648865 -534.656006 -0.000018 0.529657
341.348877 -533.416504 -0.000041 0.526103
343.711273 -532.625061 -0.000017 0.526838
345.353027 -532.075134 -0.000038 0.510172
346.562744 -531.669800 -0.000012 0.462623
336.560150 -534.884583 6.631676 0.558211
336.561218 -534.884277 5.993363 0.602574
336.562286 -534.883911 5.364087 0.560049
336.563324 -534.883606 4.742338 0.618505
336.564362 -534.883240 4.126672 0.567770
336.565369 -534.882935 3.515697 0.670221
336.566406 -534.882568 2.908067 0.549142
336.567413 -534.882263 2.302455 0.604779
336.568420 -534.881897 1.697562 0.631618
336.569427 -534.881592 1.092091 0.550980
336.570465 -534.881226 0.484740 0.593382
337.610626 -534.540833 -0.000026 0.537500
341.319275 -533.327148 -0.000046 0.540319
343.686920 -532.552368 -0.000062 0.551225
345.332703 -532.013733 -0.000038 0.529534
346.545227 -531.616882 -0.000017 0.532843
336.531067 -534.758423 6.628877 0.547794
336.532135 -534.758057 5.990952 0.608333
336.533203 -534.757751 5.362055 0.553431
336.534241 -534.757385 4.740683 0.564093
336.535278 -534.757080 4.125389 0.550368
336.536316 -534.756714 3.514783 0.522304
336.537292 -534.756409 2.907518 0.575368
336.538330 -534.756042 2.302273 0.591912
336.539368 -534.755737 1.697745 0.661520
336.540375 -534.755371 1.092639 0.552451
336.541382 -534.755066 0.485655 0.555270
337.573608 -534.425293 0.000009 0.536152
341.290558 -533.237549 -0.000004 0.547426
343.663483 -532.479309 -0.000026 0.531495
345.312958 -531.952148 -0.000002 0.516422
346.528198 -531.563843 0.000015 0.523407
336.502014 -534.632263 6.626308 0.602696
336.503052 -534.632019 5.988739 0.585417
336.504150 -534.631653 5.360190 0.566422
336.505188 -534.631348 4.739163 0.544240
336.506226 -534.630981 4.124209 0.544363
336.507263 -534.630676 3.513942 0.558578
336.508270 -534.630371 2.907015 0.590809
336.509308 -534.630066 2.302104 0.593627
336.510315 -534.629700 1.697913 0.656127
336.511322 -534.629395 1.093143 0.532475
336.512360 -534.629028 0.486495 0.630270
337.537109 -534.309509 0.000014 0.531863
341.262238 -533.147766 0.000001 0.553186
343.640442 -532.406067 -0.000020 0.533088
345.293518 -531.890503 0.000003 0.518873
346.511292 -531.510742 -0.000015 0.539828
336.472992 -534.506348 6.623966 0.637500
336.474060 -534.506042 5.986722 0.671324
336.475128 -534.505737 5.358491 0.491054
336.476166 -534.505371 4.737777 0.547794
336.477234 -534.505127 4.123135 0.535784
336.478241 -534.504761 3.513177 0.539461
336.479279 -534.504456 2.906556 0.455637
336.480286 -534.504150 2.301952 0.539706
336.481293 -534.503845 1.698066 0.581618
336.482330 -534.503479 1.093601 0.497059
336.483337 -534.503235 0.487260 0.601961
337.501282 -534.193542 0.000008 0.534314
341.234528 -533.057800 -0.000005 0.533456
343.617798 -532.332764 -0.000026 0.519730
345.274475 -531.828735 -0.000004 0.508578
346.494873 -531.457458 -0.000021 0.540809
336.444000 -534.380554 6.621854 0.636887
336.445038 -534.380249 5.984900 0.612868
336.446136 -534.379883 5.356957 0.464338
336.447174 -534.379639 4.736526 0.505637
336.448242 -534.379272 4.122164 0.536029
336.449249 -534.379028 3.512486 0.488113
336.450256 -534.378662 2.906142 0.565564
336.451324 -534.378418 2.301814 0.541176
336.452332 -534.378052 1.698203 0.572794
336.453369 -534.377808 1.094016 0.455637
336.454376 -534.377441 0.487951 0.658088
337.466309 -534.077332 -0.000001 0.552941
341.207367 -532.967651 -0.000014 0.528309
343.595673 -532.259277 -0.000034 0.533456
345.255829 -531.766846 -0.000013 0.523529
346.478790 -531.404114 -0.000029 0.484069
336.415039 -534.254822 6.619967 0.606618
336.416077 -534.254517 5.983276 0.580515
336.417175 -534.254211 5.355589 0.475613
336.418213 -534.253906 4.735410 0.556863
336.419281 -534.253662 4.121299 0.481250
336.420288 -534.253296 3.511869 0.577819
336.421295 -534.253052 2.905772 0.525613
336.422363 -534.252686 2.301691 0.566544
336.423370 -534.252441 1.698327 0.604289
336.424408 -534.252136 1.094385 0.493505
336.425415 -534.251831 0.488568 0.682721
337.431854 -533.960938 -0.000042 0.537500
341.180878 -532.877319 -0.000020 0.532475
343.574066 -532.185608 -0.000040 0.539951
345.237671 -531.704773 -0.000013 0.531985
346.463104 -531.350586 -0.000035 0.517770
336.386108 -534.129211 6.618307 0.543260
336.387146 -534.128906 5.981847 0.663603
336.388214 -534.128601 5.354384 0.456740
336.389252 -534.128296 4.734428 0.506740
336.390350 -534.127991 4.120537 0.496446
336.391327 -534.127686 3.511326 0.602574
336.392365 -534.127441 2.905447 0.479657
336.393402 -534.127136 2.301582 0.583578
336.394440 -534.126831 1.698435 0.605270
336.395447 -534.126587 1.094710 0.489461
336.396484 -534.126282 0.489110 0.565319
337.398529 -533.844238 -0.000047 0.550490
341.155029 -532.786804 -0.000026 0.544118
343.553040 -532.111816 -0.000039 0.509804
345.219910 -531.642639 -0.000019 0.535784
346.447845 -531.296997 -0.000036 0.555637
336.357208 -534.003662 6.616874 0.587010
336.358215 -534.003418 5.980610 0.739706
336.359314 -534.003052 5.353344 0.731863
336.360352 -534.002808 4.733581 0.637255
336.361389 -534.002502 4.119880 0.554412
336.362427 -534.002258 3.510858 0.532230
336.363434 -534.001953 2.905167 0.427451
336.364502 -534.001648 2.301489 0.710907
336.365509 -534.001343 1.698528 0.739951
336.366547 -534.001099 1.094991 0.705515
336.367584 -534.000793 0.489579 0.611029
337.365997 -533.727295 -0.000053 0.542647
341.129822 -532.696167 -0.000031 0.540564
343.532471 -532.037903 -0.000045 0.523775
345.202576 -531.580322 -0.000023 0.488480
346.432892 -531.243286 -0.000040 0.529412
336.328278 -533.878235 6.615666 0.664706
336.329315 -533.877930 5.979569 0.480760
336.330383 -533.877686 5.352466 0.498529
336.331451 -533.877380 4.732865 0.468505
336.332520 -533.877075 4.119326 0.560662
336.333527 -533.876770 3.510464 0.575735
336.334534 -533.876526 2.904930 0.595098
336.335602 -533.876221 2.301410 0.758211
336.336609 -533.875977 1.698607 0.483578
336.337677 -533.875671 1.095227 0.497917
336.338684 -533.875427 0.489973 0.618995
337.334625 -533.610046 -0.000019 0.527451
341.105438 -532.605225 0.000002 0.542525
343.512634 -531.963806 -0.000011 0.524142
345.185852 -531.517883 0.000009 0.519730
346.418457 -531.189453 -0.000007 0.552083
336.299377 -533.752808 6.614682 0.533211
336.300446 -533.752563 5.978721 0.508333
336.301514 -533.752258 5.351752 0.519485
336.302582 -533.751953 4.732284 0.503799
336.303619 -533.751709 4.118875 0.581618
336.304657 -533.751465 3.510143 0.526961
336.305664 -533.751160 2.904738 0.730882
336.306732 -533.750916 2.301346 0.781250
336.307739 -533.750610 1.698671 0.494485
336.308777 -533.750427 1.095419 0.463480
336.309784 -533.750122 0.490294 0.583456
337.303497 -533.492737 -0.000054 0.529534
341.081329 -532.514282 -0.000034 0.530515
343.492950 -531.889587 -0.000045 0.535049
345.169281 -531.455444 -0.000024 0.538113
346.404175 -531.135559 -0.000039 0.548407
336.270508 -533.627441 6.613926 0.801593
336.271545 -533.627197 5.978069 0.361642
336.272614 -533.626892 5.351201 0.295466
336.273712 -533.626648 4.731835 0.317402
336.274750 -533.626343 4.118527 0.672059
336.275757 -533.626160 3.509895 0.746569
336.276764 -533.625854 2.904590 0.607353
336.277832 -533.625610 2.301297 0.783333
336.278870 -533.625305 1.698720 0.296324
336.279907 -533.625061 1.095568 0.311274
336.280914 -533.624817 0.490542 0.652819
337.273712 -533.375061 -0.000022 0.533578
341.058258 -532.422974 0.000003 0.542647
343.474152 -531.815247 -0.000014 0.517892
345.153442 -531.392700 0.000005 0.498162
346.390503 -531.081543 -0.000010 0.535662
336.241608 -533.502136 6.613394 0.648652
336.242676 -533.501831 5.977610 0.356373
336.243744 -533.501648 5.350816 0.215319
336.244812 -533.501343 4.731522 0.249020
336.245850 -533.501099 4.118283 0.518505
336.246887 -533.500854 3.509721 0.522917
336.247894 -533.500610 2.904486 0.675368
336.248962 -533.500305 2.301262 0.776226
336.249969 -533.500122 1.698755 0.239951
336.251038 -533.499817 1.095671 0.232230
336.252075 -533.499573 0.490715 0.550123
337.244507 -533.257263 -0.000025 0.539583
341.035583 -532.331665 -0.000002 0.552696
343.455658 -531.740784 -0.000019 0.565441
345.137848 -531.330017 0.000000 0.555270
346.377106 -531.027466 -0.000014 0.573039
336.212738 -533.376831 6.613089 0.625613
336.213806 -533.376526 5.977345 0.367034
336.214874 -533.376343 5.350592 0.201471
336.215942 -533.376038 4.731339 0.278676
336.217010 -533.375854 4.118143 0.695956
336.218018 -533.375549 3.509622 0.645711
336.219055 -533.375366 2.904426 0.569485
336.220093 -533.375061 2.301242 0.776961
336.221130 -533.374817 1.698775 0.176716
336.222168 -533.374634 1.095731 0.243015
336.223206 -533.374329 0.490815 0.529534
337.216095 -533.139221 -0.000030 0.544730
341.013519 -532.240051 -0.000007 0.529289
343.437683 -531.666138 -0.000023 0.542647
345.122589 -531.267151 -0.000031 0.534681
346.364075 -530.973267 -0.000013 0.483088
336.183868 -533.251526 6.613007 0.578309
336.184937 -533.251282 5.977273 0.374142
336.186035 -533.251038 5.350533 0.230515
336.187073 -533.250793 4.731291 0.303309
336.188141 -533.250549 4.118106 0.536765
336.189148 -533.250366 3.509595 0.516054
336.190186 -533.250061 2.904411 0.602819
336.191254 -533.249878 2.301237 0.760539
336.192291 -533.249573 1.698781 0.193382
336.193329 -533.249390 1.095747 0.250735
336.194336 -533.249146 0.490841 0.630760
337.188507 -533.021057 -0.000034 0.539706
340.992157 -532.148438 -0.000012 0.548039
343.420227 -531.591370 -0.000028 0.504534
345.107910 -531.204224 -0.000036 0.529412
346.351410 -530.918945 -0.000016 0.525368
336.155029 -533.126282 6.613150 0.572794
336.156067 -533.126038 5.977396 0.520098
336.157166 -533.125793 5.350637 0.510784
336.158203 -533.125549 4.731376 0.446569
336.159271 -533.125305 4.118172 0.595956
336.160309 -533.125061 3.509642 0.551225
336.161316 -533.124878 2.904438 0.584069
336.162384 -533.124634 2.301247 0.765686
336.163422 -533.124390 1.698771 0.526593
336.164459 -533.124146 1.095719 0.468015
336.165497 -533.123962 0.490794 0.759191
337.161743 -532.902649 -0.000037 0.535662
340.971375 -532.056580 -0.000017 0.544608
343.403351 -531.516541 -0.000023 0.524632
345.093658 -531.141174 -0.000039 0.545588
346.339081 -530.864563 -0.000021 0.524265
336.126160 -533.000977 6.613518 0.543505
336.127197 -533.000671 5.977715 0.906127
336.128296 -533.000488 5.350904 0.696691
336.129364 -533.000244 4.731594 0.571691
336.130402 -533.000061 4.118341 0.496569
336.131439 -532.999817 3.509763 0.542034
336.132446 -532.999573 2.904511 0.466422
336.133514 -532.999329 2.301270 0.764706
336.134552 -532.999146 1.698747 0.745833
336.135590 -532.998901 1.095647 0.695956
336.136627 -532.998718 0.490674 0.595711
337.135803 -532.784119 -0.000041 0.532475
340.951263 -531.964661 -0.000021 0.554779
343.386963 -531.441589 -0.000028 0.535172
345.079803 -531.078003 -0.000043 0.527819
346.327179 -530.810059 -0.000024 0.519363
336.097260 -532.875610 6.614113 0.618137
336.098328 -532.875427 5.978225 0.591422
336.099426 -532.875183 5.351336 0.518750
336.100494 -532.875000 4.731946 0.488113
336.101501 -532.874695 4.118615 0.568873
336.102539 -532.874512 3.509957 0.518382
336.103577 -532.874268 2.904627 0.621446
336.104645 -532.874084 2.301309 0.490809
336.105682 -532.873840 1.698708 0.543260
336.106750 -532.873657 1.095530 0.460417
336.107758 -532.873413 0.490479 0.612868
337.110962 -532.665283 -0.000014 0.528431
340.931976 -531.872498 0.000006 0.523284
343.371246 -531.366455 -0.000002 0.506127
345.066589 -531.014709 -0.000015 0.549020
346.315765 -530.755554 0.000001 0.504289
336.068359 -532.750305 6.614933 0.601716
336.069427 -532.750061 5.978930 0.613848
336.070526 -532.749878 5.351931 0.461887
336.071594 -532.749634 4.732430 0.552206
336.072632 -532.749451 4.118990 0.498284
336.073669 -532.749207 3.510226 0.526348
336.074707 -532.749023 2.904788 0.545833
336.075745 -532.748779 2.301363 0.538480
336.076813 -532.748596 1.698655 0.567157
336.077850 -532.748352 1.095370 0.477206
336.078888 -532.748169 0.490211 0.668382
337.086700 -532.546387 -0.000018 0.544853
340.913177 -531.780334 0.000001 0.533211
343.355896 -531.291260 -0.000005 0.519853
345.053680 -530.951416 -0.000019 0.529902
346.304626 -530.700928 -0.000003 0.519485
336.039459 -532.624817 6.615979 0.568873
336.040527 -532.624573 5.979831 0.669976
336.041626 -532.624451 5.352688 0.484436
336.042725 -532.624207 4.733049 0.543873
336.043732 -532.624023 4.119470 0.480270
336.044769 -532.623779 3.510567 0.601593
336.045807 -532.623596 2.904992 0.474387
336.046875 -532.623352 2.301430 0.586275
336.047913 -532.623230 1.698587 0.609069
336.048981 -532.622986 1.095165 0.502941
336.049988 -532.622803 0.489870 0.707353
337.063263 -532.427307 -0.000021 0.527206
340.894989 -531.687988 -0.000003 0.510662
343.341095 -531.216003 -0.000009 0.539338
345.041199 -530.888000 -0.000023 0.525245
346.293854 -530.646240 -0.000006 0.539216
336.010529 -532.499329 6.617251 0.575490
336.011627 -532.499146 5.980926 0.676103
336.012726 -532.498962 5.353611 0.506863
336.013763 -532.498779 4.733800 0.540196
336.014832 -532.498535 4.120053 0.549632
336.015869 -532.498413 3.510983 0.493260
336.016876 -532.498169 2.905241 0.461397
336.017975 -532.497986 2.301514 0.592525
336.019043 -532.497742 1.698503 0.611397
336.020081 -532.497620 1.094917 0.482475
336.021118 -532.497375 0.489454 0.584926
337.040649 -532.308044 -0.000027 0.533456
340.877411 -531.595459 -0.000010 0.552819
343.326782 -531.140625 -0.000015 0.539583
345.029144 -530.824463 -0.000029 0.564338
346.283447 -530.591492 -0.000013 0.540564
335.981598 -532.373840 6.618747 0.563113
335.982697 -532.373596 5.982215 0.592157
335.983795 -532.373413 5.354698 0.477328
335.984863 -532.373230 4.734685 0.616912
335.985901 -532.373047 4.120741 0.545221
335.986938 -532.372864 3.511472 0.453186
335.987976 -532.372681 2.905535 0.563113
335.989075 -532.372437 2.301611 0.561520
335.990082 -532.372314 1.698406 0.626471
335.991150 -532.372070 1.094623 0.583333
335.992188 -532.371948 0.488965 0.617034
337.018890 -532.188660 -0.000026 0.516299
340.860535 -531.502869 -0.000013 0.536397
343.312988 -531.065125 -0.000019 0.546569
345.017548 -530.760803 -0.000030 0.538971
346.273468 -530.536682 -0.000014 0.557598
335.952637 -532.248169 6.620471 0.567034
335.953735 -532.247986 5.983702 0.595588
335.954834 -532.247803 5.355948 0.504779
335.955902 -532.247620 4.735705 0.553309
335.956970 -532.247437 4.121532 0.529044
335.957977 -532.247253 3.512036 0.598162
335.959015 -532.247070 2.905873 0.589706
335.960114 -532.246887 2.301724 0.594485
335.961182 -532.246704 1.698294 0.696446
335.962189 -532.246521 1.094286 0.572059
335.963257 -532.246338 0.488402 0.629412
336.997955 -532.069092 -0.000030 0.540686
340.844299 -531.410156 -0.000017 0.526471
343.299774 -530.989502 -0.000022 0.546324
345.006378 -530.697144 -0.000033 0.503676
346.263855 -530.481750 -0.000017 0.524755
335.923645 -532.122437 6.622423 0.644853
335.924744 -532.122253 5.985381 0.634559
335.925842 -532.122009 5.357364 0.596324
335.926941 -532.121887 4.736859 0.609069
335.928009 -532.121704 4.122425 0.508088
335.929016 -532.121521 3.512673 0.517402
335.930054 -532.121338 2.906255 0.601593
335.931152 -532.121216 2.301851 0.580392
335.932220 -532.120972 1.698166 0.597304
335.933228 -532.120850 1.093904 0.570343
335.934296 -532.120667 0.487764 0.619853
336.978058 -531.949341 -0.000007 0.550123
340.828888 -531.317322 0.000005 0.524387
343.287201 -530.913818 -0.000000 0.506005
344.995819 -530.633362 -0.000008 0.549877
346.254730 -530.426758 0.000004 0.583946
335.894623 -531.996582 6.624599 0.687745
335.895752 -531.996338 5.987257 0.676961
335.896851 -531.996216 5.358945 0.677328
335.897919 -531.996033 4.738148 0.589583
335.898987 -531.995911 4.123425 0.570956
335.900024 -531.995728 3.513386 0.521814
335.901062 -531.995544 2.906682 0.575123
335.902161 -531.995361 2.301994 0.574142
335.903198 -531.995239 1.698024 0.544853
335.904266 -531.995056 1.093477 0.592525
335.905304 -531.994873 0.487053 0.637623
336.958801 -531.829529 -0.000011 0.534926
340.813934 -531.224426 0.000001 0.539461
343.274994 -530.838074 -0.000004 0.557598
344.985565 -530.569519 -0.000012 0.567524
346.245880 -530.371765 0.000000 0.553431
335.865601 -531.870605 6.627004 0.616299
335.866730 -531.870422 5.989329 0.697426
335.867828 -531.870239 5.360690 0.527941
335.868927 -531.870117 4.739571 0.576961
335.869965 -531.869934 4.124529 0.529289
335.870972 -531.869812 3.514172 0.520833
335.872040 -531.869629 2.907152 0.552083
335.873138 -531.869446 2.302150 0.602451
335.874207 -531.869263 1.697867 0.520343
335.875275 -531.869141 1.093007 0.579044
335.876282 -531.868958 0.486266 0.537255
336.940369 -531.709534 -0.000013 0.523039
340.799530 -531.131348 -0.000018 0.533088
343.263367 -530.762207 -0.000007 0.523897
344.975708 -530.505615 -0.000015 0.496569
346.237396 -530.316650 -0.000003 0.488725
335.836517 -531.744446 6.629637 0.586887
335.837677 -531.744263 5.991600 0.617525
335.838776 -531.744141 5.362602 0.698897
335.839874 -531.743958 4.741129 0.612623
335.840881 -531.743835 4.125738 0.526593
335.841949 -531.743652 3.515033 0.566544
335.842987 -531.743591 2.907668 0.637623
335.844086 -531.743408 2.302322 0.570956
335.845154 -531.743286 1.697695 0.610539
335.846222 -531.743103 1.092491 0.556250
335.847229 -531.742981 0.485406 0.607230
336.922791 -531.589478 -0.000015 0.542892
340.785919 -531.038208 -0.000021 0.525490
343.252258 -530.686279 -0.000010 0.541054
344.966370 -530.441711 -0.000017 0.525613
346.229340 -530.261475 -0.000006 0.546691
335.807404 -531.618225 6.632500 0.613113
335.808563 -531.618042 5.994066 0.633946
335.809662 -531.617859 5.364679 0.593382
335.810760 -531.617737 4.742823 0.577941
335.811798 -531.617615 4.127052 0.648162
335.812866 -531.617493 3.515970 0.594975
335.813904 -531.617310 2.908229 0.569363
335.814972 -531.617188 2.302509 0.612990
335.816040 -531.617004 1.697509 0.658456
335.817139 -531.616882 1.091930 0.495343
335.818176 -531.616760 0.484470 0.655147
336.906036 -531.469238 -0.000018 0.534926
340.772888 -530.944946 -0.000022 0.534681
343.241638 -530.610291 -0.000013 0.559681
344.957458 -530.377625 -0.000019 0.545833
346.221619 -530.206238 -0.000008 0.536397
335.778259 -531.491760 6.635591 0.663971
335.779419 -531.491577 5.996731 0.687990
335.780518 -531.491516 5.366924 0.659681
335.781616 -531.491333 4.744652 0.542402
335.782684 -531.491211 4.128471 0.566054
335.783722 -531.491028 3.516981 0.559559
335.784790 -531.490967 2.908835 0.645343
335.785858 -531.490784 2.302711 0.592279
335.786926 -531.490662 1.697307 0.593382
335.787994 -531.490479 1.091325 0.693382
335.789063 -531.490417 0.483459 0.625368
336.890137 -531.348938 -0.000020 0.527328
340.760590 -530.851685 -0.000024 0.556127
343.231598 -530.534241 -0.000014 0.539706
344.948975 -530.313599 -0.000020 0.543505
346.214325 -530.151001 -0.000010 0.528554
335.749115 -531.365173 6.638913 0.633578
335.750275 -531.365051 5.999595 0.559069
335.751373 -531.364929 5.369337 0.432230
335.752441 -531.364746 4.746619 0.497549
335.753479 -531.364624 4.129997 0.545098
335.754547 -531.364502 3.518068 0.500245
335.755615 -531.364441 2.909486 0.488725
335.756683 -531.364258 2.302928 0.543382
335.757782 -531.364075 1.697090 0.502206
335.758850 -531.364014 1.090674 0.407108
335.759918 -531.363831 0.482373 0.623897
336.875061 -531.228516 -0.000021 0.536152
340.748901 -530.758240 -0.000025 0.522549
343.222076 -530.458069 -0.000015 0.536520
344.940948 -530.249390 -0.000023 0.523775
346.207397 -530.095703 -0.000011 0.527083
335.719879 -531.238342 6.642466 0.645098
335.721039 -531.238281 6.002658 0.476225
335.722137 -531.238098 5.371917 0.456618
335.723236 -531.238037 4.748722 0.511152
335.724274 -531.237854 4.131628 0.621446
335.725342 -531.237793 3.519231 0.587132
335.726410 -531.237610 2.910182 0.587377
335.727478 -531.237549 2.303159 0.575000
335.728577 -531.237366 1.696858 0.590196
335.729645 -531.237305 1.089978 0.489461
335.730713 -531.237122 0.481211 0.665196
336.860992 -531.107971 -0.000005 0.532353
340.737976 -530.664734 -0.000009 0.531005
343.213196 -530.381836 -0.000001 0.563480
344.933472 -530.185242 -0.000006 0.534191
346.200958 -530.040283 0.000003 0.524755
335.690613 -531.111389 6.646250 0.572426
335.691772 -531.111267 6.005921 0.752083
335.692871 -531.111145 5.374666 0.740196
335.693970 -531.111023 4.750963 0.681863
335.695038 -531.110901 4.133366 0.490564
335.696106 -531.110779 3.520469 0.581863
335.697144 -531.110718 2.910925 0.631618
335.698212 -531.110535 2.303407 0.686152
335.699310 -531.110474 1.696611 0.654412
335.700378 -531.110352 1.089236 0.653064
335.701447 -531.110229 0.479973 0.657598
336.847626 -530.987305 -0.000007 0.516176
340.727631 -530.571228 -0.000010 0.516054
343.204712 -530.305603 -0.000002 0.546936
344.926331 -530.120972 -0.000008 0.505515
346.194794 -529.984924 0.000001 0.531127
335.661285 -530.984192 6.650271 0.513848
335.662445 -530.984070 6.009387 0.485784
335.663574 -530.984009 5.377585 0.511642
335.664642 -530.983826 4.753343 0.499265
335.665680 -530.983765 4.135211 0.659191
335.666748 -530.983643 3.521784 0.572059
335.667816 -530.983521 2.911712 0.465441
335.668915 -530.983398 2.303669 0.711152
335.669983 -530.983276 1.696349 0.547549
335.671082 -530.983215 1.088448 0.528064
335.672150 -530.983093 0.478660 0.584069
336.835083 -530.866577 -0.000011 0.548652
340.717865 -530.477600 -0.000014 0.512623
343.196777 -530.229248 -0.000006 0.536397
344.919647 -530.056702 -0.000012 0.531618
346.189026 -529.929504 -0.000004 0.568505
335.631897 -530.856812 6.654524 0.554657
335.633087 -530.856628 6.013054 0.486397
335.634186 -530.856506 5.380675 0.474265
335.635284 -530.856445 4.755861 0.473039
335.636353 -530.856323 4.137162 0.541422
335.637421 -530.856262 3.523175 0.538235
335.638489 -530.856140 2.912545 0.613848
335.639557 -530.856079 2.303947 0.726103
335.640625 -530.855957 1.696071 0.498897
335.641724 -530.855835 1.087615 0.456618
335.642792 -530.855713 0.477269 0.626348
336.823395 -530.745789 -0.000012 0.550368
340.708832 -530.383911 -0.000015 0.553309
343.189392 -530.152893 -0.000008 0.531005
344.913422 -529.992310 -0.000013 0.537377
346.183685 -529.874023 -0.000005 0.531985
335.602478 -530.729065 6.659012 0.496078
335.603638 -530.729004 6.016923 0.360784
335.604736 -530.728882 5.383935 0.294240
335.605865 -530.728821 4.758518 0.316299
335.606934 -530.728699 4.139222 0.531863
335.608002 -530.728638 3.524643 0.627083
335.609070 -530.728516 2.913425 0.566422
335.610138 -530.728455 2.304240 0.721201
335.611237 -530.728333 1.695778 0.288480
335.612335 -530.728210 1.086735 0.290686
335.613403 -530.728149 0.475801 0.580515
336.812592 -530.624878 -0.000009 0.518627
340.700439 -530.290161 -0.000011 0.532721
343.182556 -530.076416 -0.000004 0.535172
344.907684 -529.927917 -0.000009 0.547794
346.178711 -529.818481 -0.000002 0.550368
335.572998 -530.601135 6.663735 0.474387
335.574158 -530.601074 6.020998 0.349755
335.575287 -530.600952 5.387366 0.224510
335.576385 -530.600891 4.761316 0.240931
335.577454 -530.600830 4.141391 0.552328
335.578522 -530.600708 3.526189 0.647059
335.579590 -530.600647 2.914351 0.590441
335.580688 -530.600525 2.304548 0.703922
335.581787 -530.600464 1.695470 0.267647
335.582855 -530.600342 1.085809 0.225980
335.583954 -530.600281 0.474257 0.607966
336.802582 -530.503967 -0.000012 0.533088
340.692657 -530.196289 -0.000014 0.543627
343.176208 -529.999939 -0.000008 0.524755
344.902344 -529.863525 -0.000012 0.513848
346.174103 -529.762939 -0.000006 0.552206
335.543457 -530.472961 6.668697 0.452451
335.544617 -530.472900 6.025277 0.357721
335.545746 -530.472839 5.390970 0.176471
335.546844 -530.472717 4.764253 0.267402
335.547913 -530.472656 4.143669 0.551471
335.548981 -530.472534 3.527812 0.591299
335.550079 -530.472534 2.915323 0.576961
335.551147 -530.472412 2.304872 0.693137
335.552246 -530.472351 1.695146 0.183578
335.553345 -530.472229 1.084837 0.245343
335.554413 -530.472229 0.472635 0.642034
336.793427 -530.382935 -0.000012 0.536029
340.685608 -530.102478 -0.000014 0.509681
343.170471 -529.923462 -0.000008 0.553309
344.897491 -529.799011 -0.000013 0.534681
346.169922 -529.707336 -0.000006 0.517770
335.513824 -530.344482 6.673897 0.544363
335.514984 -530.344421 6.029761 0.351348
335.516113 -530.344360 5.394749 0.199877
335.517212 -530.344238 4.767332 0.298897
335.518311 -530.344238 4.146056 0.537623
335.519379 -530.344116 3.529513 0.552328
335.520477 -530.344055 2.916343 0.578431
335.521545 -530.343994 2.305212 0.689828
335.522644 -530.343933 1.694806 0.223652
335.523743 -530.343872 1.083818 0.268873
335.524841 -530.343811 0.470934 0.561520
336.785126 -530.261841 -0.000012 0.538848
340.679138 -530.008606 -0.000014 0.538480
343.165192 -529.846863 -0.000009 0.562868
344.893036 -529.734497 -0.000013 0.538603
346.166077 -529.651672 -0.000007 0.527451
335.484131 -530.215759 6.679337 0.541667
335.485291 -530.215698 6.034452 0.491299
335.486420 -530.215637 5.398700 0.468873
335.487549 -530.215515 4.770553 0.470833
335.488647 -530.215515 4.148553 0.545098
335.489716 -530.215393 3.531293 0.642647
335.490784 -530.215393 2.917408 0.612745
335.491852 -530.215271 2.305567 0.709314
335.493011 -530.215271 1.694451 0.471691
335.494110 -530.215149 1.082752 0.485784
335.495209 -530.215149 0.469156 0.573897
336.777771 -530.140686 -0.000003 0.535049
340.673431 -529.914612 -0.000004 0.540319
343.160522 -529.770264 -0.000001 0.535294
344.889099 -529.669983 -0.000004 0.561275
346.162689 -529.596069 0.000000 0.514461
335.454376 -530.086670 6.685019 0.535907
335.455536 -530.086609 6.039352 0.912132
335.456665 -530.086548 5.402827 0.727328
335.457794 -530.086487 4.773917 0.702574
335.458893 -530.086426 4.151162 0.634681
335.459991 -530.086365 3.533152 0.630637
335.461060 -530.086365 2.918522 0.580637
335.462158 -530.086243 2.305938 0.630637
335.463257 -530.086243 1.694080 0.712868
335.464355 -530.086121 1.081639 0.710417
335.465454 -530.086121 0.467297 0.633824
336.771149 -530.019470 -0.000004 0.537255
340.668304 -529.820618 -0.000005 0.533701
343.156342 -529.693665 -0.000001 0.513358
344.885590 -529.605469 -0.000005 0.542525
346.159668 -529.540405 -0.000000 0.499632
335.424561 -529.957275 6.690943 0.695466
335.425720 -529.957275 6.044459 0.633824
335.426849 -529.957153 5.407129 0.529044
335.427979 -529.957153 4.777424 0.546446
335.429077 -529.957092 4.153882 0.568015
335.430145 -529.957092 3.535090 0.603309
335.431244 -529.956970 2.919684 0.638358
335.432373 -529.956909 2.306324 0.588235
335.433472 -529.956909 1.693694 0.593873
335.434570 -529.956848 1.080479 0.686029
335.435669 -529.956787 0.465361 0.613480
336.765381 -529.898254 -0.000004 0.528064
340.663849 -529.726624 -0.000005 0.531373
