# This PCD file was generated using the MATLAB® pcwrite function
# from Computer Vision Toolbox®.
# .PCD v.7 - Point Cloud Data file format
VERSION .7
FIELDS x y z intensity
SIZE 4 4 4 4
TYPE F F F F
COUNT 1 1 1 1
WIDTH 1173
HEIGHT 1
VIEWPOINT 0 0 0 1 0 0 0
POINTS 1173
DATA ascii
139.142212 -348.287750 0.318420 0.724510
139.142685 -348.287537 0.004101 1.000000
140.290405 -347.775391 0.000024 0.570711
139.099106 -348.236206 4.319574 0.297549
139.099594 -348.235962 3.999908 0.681127
139.100082 -348.235748 3.684767 0.771446
139.100555 -348.235535 3.373395 0.820466
139.101028 -348.235352 3.065065 0.681250
139.101486 -348.235138 2.759084 0.679779
139.101959 -348.234924 2.454774 0.770588
139.102432 -348.234741 2.151475 0.695466
139.102890 -348.234558 1.848534 0.365074
139.103363 -348.234344 1.545301 0.223284
139.103821 -348.234131 1.241125 0.345221
139.104294 -348.233917 0.935345 0.259191
139.104767 -348.233704 0.627288 0.685907
139.105255 -348.233490 0.316260 0.733824
139.105728 -348.233276 0.001538 1.000000
140.267944 -347.724365 0.000047 0.572304
139.062012 -348.181763 4.322673 0.447304
139.062500 -348.181549 4.002580 0.716789
139.062988 -348.181335 3.687019 0.798652
139.063477 -348.181152 3.375229 0.773529
139.063950 -348.180939 3.066488 0.707598
139.064407 -348.180725 2.760098 0.695466
139.064880 -348.180511 2.455381 0.794730
139.065353 -348.180328 2.151677 0.672426
139.065811 -348.180115 1.848331 0.581618
139.066284 -348.179932 1.544693 0.528431
139.066757 -348.179718 1.240111 0.516422
139.067230 -348.179504 0.933923 0.458701
139.067703 -348.179321 0.625455 0.679044
139.068192 -348.179108 0.314012 0.663480
139.068680 -348.178925 -0.001131 1.000000
140.245880 -347.673187 0.000076 0.496691
139.024826 -348.127197 4.325893 0.529657
139.025330 -348.126953 4.005357 0.847549
139.025803 -348.126770 3.689357 0.842892
139.026276 -348.126556 3.377136 0.777941
139.026764 -348.126373 3.067966 0.772426
139.027237 -348.126190 2.761152 0.774510
139.027710 -348.125977 2.456013 0.747304
139.028183 -348.125763 2.151887 0.670588
139.028656 -348.125549 1.848121 0.909681
139.029114 -348.125397 1.544062 0.701348
139.029587 -348.125183 1.239058 0.558578
139.030060 -348.124969 0.932446 0.509559
139.030548 -348.124786 0.623550 0.674265
139.031036 -348.124573 0.311675 0.726593
139.031525 -348.124359 -0.003903 1.000000
140.224091 -347.621887 0.000085 0.518750
138.987518 -348.072479 4.329238 0.710294
138.988022 -348.072235 4.008239 0.716422
138.988510 -348.072052 3.691785 0.719240
138.988998 -348.071838 3.379115 0.781127
138.989471 -348.071655 3.069502 0.672549
138.989944 -348.071442 2.762246 0.723407
138.990417 -348.071259 2.456668 0.739461
138.990891 -348.071075 2.152106 0.630515
138.991364 -348.070862 1.847903 0.921201
138.991837 -348.070648 1.543407 0.731740
138.992310 -348.070465 1.237965 0.743015
138.992798 -348.070282 0.930912 0.723897
138.993271 -348.070099 0.621573 0.711642
138.993774 -348.069855 0.309250 0.787377
138.994263 -348.069672 -0.006781 1.000000
140.202469 -347.570526 0.000039 0.587132
138.950104 -348.017548 4.332706 0.798529
138.950607 -348.017365 4.011229 0.755024
138.951111 -348.017181 3.694303 0.730392
138.951599 -348.016968 3.381168 0.751593
138.952087 -348.016785 3.071093 0.689583
138.952560 -348.016571 2.763380 0.681005
138.953033 -348.016388 2.457348 0.748407
138.953506 -348.016205 2.152332 0.656740
138.953979 -348.015991 1.847677 0.830515
138.954453 -348.015808 1.542728 0.768260
138.954941 -348.015594 1.236831 0.806740
138.955414 -348.015411 0.929322 0.629289
138.955917 -348.015198 0.619522 0.778922
138.956406 -348.015015 0.306735 0.774877
138.956894 -348.014832 -0.009766 1.000000
140.181458 -347.518890 0.000069 0.513603
138.912582 -347.962524 4.336299 0.755270
138.913086 -347.962311 4.014327 0.837623
138.913589 -347.962128 3.696912 0.736274
138.914093 -347.961914 3.383294 0.733333
138.914566 -347.961731 3.072742 0.764338
138.915054 -347.961548 2.764554 0.715196
138.915543 -347.961334 2.458051 0.735172
138.916016 -347.961151 2.152566 0.762377
138.916489 -347.960968 1.847442 0.823407
138.916962 -347.960785 1.542024 0.779044
138.917450 -347.960571 1.235657 0.756373
138.917938 -347.960388 0.927674 0.674877
138.918427 -347.960205 0.617398 0.760049
138.918915 -347.959991 0.304130 0.753554
138.975052 -347.937714 0.000071 0.528799
140.160797 -347.467102 0.000089 0.509314
138.874939 -347.907288 4.340014 0.750980
138.875458 -347.907074 4.017531 0.829657
138.875946 -347.906891 3.699613 0.619118
138.876450 -347.906708 3.385494 0.779902
138.876938 -347.906494 3.074448 0.735662
138.877441 -347.906311 2.765770 0.665931
138.877914 -347.906128 2.458780 0.830882
138.878387 -347.905945 2.152809 0.813235
138.878876 -347.905762 1.847199 0.787623
138.879349 -347.905579 1.541296 0.805147
138.879837 -347.905396 1.234441 0.753431
138.880325 -347.905182 0.925969 0.754289
138.880814 -347.904999 0.615201 0.784436
138.881317 -347.904816 0.301434 0.826961
138.951202 -347.877625 0.000022 0.562132
140.140244 -347.415314 0.000042 0.556618
138.837173 -347.851868 4.343857 0.695956
138.837692 -347.851685 4.020844 0.758578
138.838211 -347.851471 3.702403 0.699142
138.838699 -347.851288 3.387770 0.749632
138.839188 -347.851105 3.076213 0.662377
138.839676 -347.850922 2.767028 0.715931
138.840164 -347.850769 2.459533 0.745711
138.840652 -347.850555 2.153060 0.800123
138.841141 -347.850372 1.846949 0.821814
138.841614 -347.850189 1.540543 0.725368
138.842117 -347.850006 1.233185 0.786765
138.842590 -347.849823 0.924207 0.728554
138.843094 -347.849640 0.612928 0.701103
138.843597 -347.849426 0.298646 0.854289
138.928040 -347.817291 0.000034 0.529412
140.120102 -347.363312 0.000010 0.560539
138.799301 -347.796265 4.347828 0.759436
138.799805 -347.796082 4.024268 0.693995
138.800308 -347.795898 3.705287 0.741789
138.800827 -347.795715 3.390121 0.709069
138.801315 -347.795532 3.078035 0.737990
138.801804 -347.795349 2.768327 0.690441
138.802307 -347.795166 2.460311 0.766667
138.802795 -347.794983 2.153319 0.669363
138.803268 -347.794800 1.846689 0.783211
138.803772 -347.794617 1.539766 0.705147
138.804260 -347.794434 1.231887 0.771078
138.804733 -347.794250 0.922386 0.671691
138.805237 -347.794067 0.610580 0.735907
138.805740 -347.793884 0.295766 0.808701
138.905441 -347.756714 0.000081 0.573284
140.100388 -347.311157 -0.000002 0.535784
138.761292 -347.740509 4.351926 0.693873
138.761795 -347.740326 4.027801 0.752328
138.762314 -347.740112 3.708263 0.753309
138.762817 -347.739929 3.392546 0.731373
138.763306 -347.739746 3.079917 0.752574
138.763809 -347.739563 2.769668 0.701471
138.764297 -347.739380 2.461114 0.666054
138.764786 -347.739227 2.153586 0.753799
138.765289 -347.739044 1.846422 0.727328
138.765762 -347.738861 1.538962 0.799755
138.766266 -347.738678 1.230546 0.690809
138.766769 -347.738525 0.920506 0.661642
138.767258 -347.738342 0.608156 0.741176
138.767761 -347.738159 0.292793 0.832475
138.883163 -347.696045 0.000101 0.529779
140.081039 -347.258911 -0.000019 0.556985
138.723129 -347.684540 4.356153 0.719363
138.723648 -347.684326 4.031445 0.711152
138.724167 -347.684143 3.711332 0.818015
138.724670 -347.683960 3.395049 0.790809
138.725174 -347.683807 3.081857 0.729657
138.725677 -347.683624 2.771050 0.768260
138.726166 -347.683441 2.461943 0.767157
138.726669 -347.683258 2.153862 0.683211
138.727158 -347.683075 1.846146 0.808456
138.727661 -347.682892 1.538134 0.789461
138.728134 -347.682709 1.229164 0.715809
138.728638 -347.682556 0.918567 0.717647
138.729141 -347.682373 0.605656 0.778431
138.729645 -347.682190 0.289727 0.814951
138.860992 -347.635315 0.000052 0.523652
140.062317 -347.206421 0.000035 0.562132
138.684845 -347.628357 4.360508 0.206985
138.685364 -347.628143 4.035200 0.213358
138.685898 -347.627960 3.714496 0.209069
138.686401 -347.627808 3.397627 0.211887
138.686905 -347.627625 3.083857 0.212377
138.687408 -347.627441 2.772475 0.209436
138.687912 -347.627289 2.462796 0.203922
138.688400 -347.627106 2.154147 0.223039
138.688904 -347.626923 1.845862 0.209926
138.689392 -347.626740 1.537281 0.202941
138.689896 -347.626587 1.227741 0.206127
138.690399 -347.626404 0.916569 0.221569
138.690918 -347.626221 0.603081 0.213358
138.691422 -347.626038 0.286569 0.218995
138.839615 -347.574280 0.000084 0.539093
140.043686 -347.153839 0.000016 0.556618
138.646423 -347.571960 4.365000 0.226838
138.646942 -347.571747 4.039073 0.219730
138.647446 -347.571594 3.717758 0.224020
138.647980 -347.571411 3.400286 0.206618
138.648483 -347.571228 3.085918 0.211887
138.648987 -347.571075 2.773945 0.216544
138.649475 -347.570892 2.463677 0.207843
138.649994 -347.570740 2.154440 0.193995
138.650497 -347.570557 1.845569 0.219608
138.650986 -347.570374 1.536401 0.227451
138.651489 -347.570221 1.226272 0.222426
138.651993 -347.570038 0.914509 0.218505
138.652512 -347.569855 0.600424 0.221936
138.653015 -347.569702 0.283310 0.202819
138.818405 -347.513214 0.000057 0.542525
140.025711 -347.101105 0.000070 0.536765
138.607834 -347.515320 4.369623 0.661642
138.608353 -347.515167 4.043058 0.670343
138.608887 -347.514954 3.721115 0.759436
138.609390 -347.514801 3.403023 0.693627
138.609909 -347.514618 3.088041 0.686765
138.610413 -347.514465 2.775458 0.763848
138.610916 -347.514282 2.464583 0.772181
138.611435 -347.514130 2.154742 0.601961
138.611923 -347.513947 1.845267 0.638726
138.612427 -347.513794 1.535495 0.822426
138.612930 -347.513611 1.224760 0.672059
138.613434 -347.513458 0.912388 0.666789
138.613953 -347.513275 0.597690 0.763726
138.614471 -347.513123 0.279956 0.706740
138.797623 -347.452026 0.000033 0.517034
140.007813 -347.048309 0.000053 0.545343
138.569092 -347.458496 4.374381 0.694363
138.569611 -347.458313 4.047160 0.655515
138.570145 -347.458160 3.724571 0.780882
138.570679 -347.457977 3.405839 0.761275
138.571182 -347.457794 3.090225 0.768015
138.571701 -347.457642 2.777014 0.819363
138.572205 -347.457458 2.465515 0.698039
138.572708 -347.457306 2.155052 0.628309
138.573212 -347.457123 1.844956 0.619363
138.573730 -347.456970 1.534563 0.824510
138.574219 -347.456787 1.223204 0.656495
138.574738 -347.456635 0.910206 0.683578
138.575256 -347.456482 0.594876 0.799020
138.575775 -347.456299 0.276506 0.738725
138.777115 -347.390686 -0.000026 0.551471
139.990158 -346.995453 -0.000002 0.506005
138.530197 -347.401398 4.379274 0.742647
138.530731 -347.401245 4.051378 0.722917
138.531250 -347.401062 3.728124 0.798652
138.531784 -347.400909 3.408736 0.669608
138.532303 -347.400757 3.092471 0.656373
138.532806 -347.400574 2.778615 0.671078
138.533325 -347.400421 2.466474 0.709069
138.533829 -347.400269 2.155372 0.749755
138.534332 -347.400085 1.844637 0.727574
138.534851 -347.399933 1.533604 0.752206
138.535370 -347.399780 1.221605 0.721078
138.535873 -347.399628 0.907962 0.735907
138.536392 -347.399445 0.591983 0.788725
138.536926 -347.399261 0.272957 0.656127
138.757645 -347.329041 0.000051 0.522181
139.973343 -346.942291 0.000070 0.566667
138.491135 -347.344116 4.384304 0.682230
138.491669 -347.343964 4.055715 0.749265
138.492203 -347.343781 3.731777 0.743260
138.492737 -347.343597 3.411714 0.711765
138.493240 -347.343445 3.094780 0.626471
138.493759 -347.343292 2.780260 0.650858
138.494278 -347.343140 2.467460 0.702451
138.494797 -347.342987 2.155700 0.688480
138.495316 -347.342834 1.844309 0.695466
138.495819 -347.342651 1.532619 0.706005
138.496338 -347.342468 1.219960 0.801103
138.496857 -347.342316 0.905655 0.710907
138.497391 -347.342163 0.589009 0.794853
138.497910 -347.342010 0.269310 0.723039
138.738007 -347.267487 -0.000005 0.525735
139.956406 -346.889191 0.000013 0.575858
138.451889 -347.286560 4.389472 0.687377
138.452454 -347.286407 4.060170 0.776593
138.452988 -347.286224 3.735530 0.686152
138.453522 -347.286072 3.414773 0.840074
138.454041 -347.285919 3.097152 0.582843
138.454559 -347.285767 2.781951 0.721446
138.455078 -347.285614 2.468473 0.797304
138.455597 -347.285461 2.156037 0.716912
138.456116 -347.285278 1.843972 0.683578
138.456635 -347.285126 1.531607 0.722672
138.457138 -347.284973 1.218271 0.710784
138.457672 -347.284790 0.903285 0.684436
138.458191 -347.284637 0.585953 0.781495
138.458725 -347.284515 0.265562 0.891912
138.719543 -347.205505 0.000103 0.570956
139.940247 -346.835846 0.000061 0.555025
138.412506 -347.228760 4.394779 0.715319
138.413055 -347.228577 4.064746 0.695098
138.413589 -347.228455 3.739384 0.790196
138.414124 -347.228271 3.417915 0.820956
138.414658 -347.228119 3.099588 0.641789
138.415192 -347.227966 2.783686 0.717647
138.415710 -347.227814 2.469513 0.778431
138.416229 -347.227661 2.156384 0.735172
138.416748 -347.227509 1.843625 0.641667
138.417267 -347.227325 1.530567 0.776716
138.417786 -347.227173 1.216536 0.632966
138.418304 -347.227020 0.900851 0.781250
138.418839 -347.226868 0.582815 0.796201
138.419388 -347.226746 0.261713 0.785907
138.700958 -347.143585 0.000090 0.501348
139.924240 -346.782440 0.000049 0.557721
138.372925 -347.170685 4.400228 0.701348
138.373474 -347.170532 4.069443 0.694363
138.374039 -347.170380 3.743340 0.804289
138.374573 -347.170227 3.421138 0.743260
138.375092 -347.170044 3.102088 0.766422
138.375626 -347.169891 2.785469 0.861029
138.376160 -347.169769 2.470580 0.776103
138.376678 -347.169617 2.156739 0.769363
138.377197 -347.169464 1.843270 0.605882
138.377731 -347.169312 1.529500 0.779167
138.378250 -347.169159 1.214755 0.682476
138.378769 -347.168976 0.898352 0.700613
138.379303 -347.168854 0.579594 0.781005
138.379852 -347.168701 0.257762 0.749877
138.682739 -347.081573 0.000060 0.538358
139.908340 -346.729004 -0.000029 0.561397
138.333160 -347.112335 4.405820 0.766299
138.333725 -347.112183 4.074260 0.662255
138.334274 -347.112061 3.747399 0.726838
138.334808 -347.111877 3.424447 0.786029
138.335358 -347.111725 3.104654 0.656863
138.335876 -347.111603 2.787297 0.739216
138.336426 -347.111450 2.471676 0.760172
138.336945 -347.111298 2.157104 0.710784
138.337479 -347.111145 1.842905 0.658456
138.337997 -347.110992 1.528404 0.657475
138.338516 -347.110840 1.212927 0.733578
138.339066 -347.110718 0.895788 0.781863
138.339584 -347.110565 0.576288 0.697426
138.340134 -347.110382 0.253708 0.758946
138.665314 -347.019318 0.000113 0.524020
139.893341 -346.675354 0.000025 0.521691
138.293228 -347.053741 4.411550 0.742034
138.293793 -347.053589 4.079204 0.682108
138.294342 -347.053436 3.751563 0.782598
138.294876 -347.053284 3.427842 0.772549
138.295425 -347.053131 3.107286 0.608701
138.295975 -347.053009 2.789173 0.663113
138.296494 -347.052826 2.472800 0.736274
138.297028 -347.052704 2.157479 0.708578
138.297546 -347.052551 1.842531 0.825123
138.298096 -347.052429 1.527281 0.710049
138.298615 -347.052277 1.211052 0.814951
138.299149 -347.052124 0.893158 0.800858
138.299683 -347.051971 0.572897 0.745588
138.300232 -347.051819 0.249549 0.731250
138.647614 -346.957153 0.000002 0.522672
139.878265 -346.621704 -0.000034 0.502696
138.253082 -346.994843 4.417429 0.745098
138.253647 -346.994690 4.084272 0.681495
138.254211 -346.994568 3.755833 0.757721
138.254761 -346.994385 3.431322 0.810784
138.255295 -346.994263 3.109985 0.743627
138.255844 -346.994141 2.791097 0.699142
138.256363 -346.993958 2.473952 0.824020
138.256912 -346.993835 2.157862 0.755882
138.257446 -346.993683 1.842147 0.821691
138.257965 -346.993561 1.526129 0.738235
138.258514 -346.993408 1.209130 0.712255
138.259064 -346.993256 0.890461 0.850245
138.259598 -346.993103 0.569420 0.787990
138.260147 -346.992981 0.245285 0.747794
138.630859 -346.894684 0.000011 0.545588
139.863632 -346.567902 -0.000073 0.512745
138.212753 -346.935638 4.423455 0.800858
138.213318 -346.935516 4.089468 0.691054
138.213882 -346.935364 3.760210 0.729902
138.214432 -346.935242 3.434890 0.849510
138.214981 -346.935089 3.112752 0.764216
138.215530 -346.934937 2.793068 0.722426
138.216064 -346.934814 2.475133 0.681005
138.216599 -346.934692 2.158256 0.827083
138.217133 -346.934509 1.841754 0.715564
138.217667 -346.934387 1.524949 0.802574
138.218216 -346.934265 1.207160 0.769730
138.218765 -346.934143 0.887697 0.826471
138.219315 -346.933960 0.565857 0.625123
138.219864 -346.933838 0.240913 0.779289
138.614594 -346.832123 0.000027 0.568382
139.849579 -346.513947 -0.000063 0.517770
138.172211 -346.876190 4.429631 0.833088
138.172791 -346.876038 4.094792 0.757598
138.173355 -346.875916 3.764695 0.706373
138.173904 -346.875763 3.438545 0.816299
138.174454 -346.875641 3.115587 0.845711
138.175003 -346.875488 2.795089 0.900490
138.175537 -346.875336 2.476343 0.735907
138.176086 -346.875214 2.158659 0.740931
138.176620 -346.875092 1.841350 0.767892
138.177170 -346.874969 1.523739 0.683824
138.177704 -346.874786 1.205140 0.811275
138.178253 -346.874664 0.884865 0.847059
138.178802 -346.874542 0.562205 0.647304
138.179367 -346.874390 0.236434 0.766912
138.598709 -346.769470 0.000035 0.543260
139.835892 -346.459900 -0.000054 0.525980
138.131454 -346.816406 4.435957 0.703309
138.132050 -346.816254 4.100246 0.836397
138.132599 -346.816132 3.769289 0.880637
138.133163 -346.815979 3.442291 0.789461
138.133728 -346.815857 3.118491 0.736274
138.134277 -346.815704 2.797158 0.699877
138.134827 -346.815582 2.477583 0.716422
138.135361 -346.815460 2.159072 0.786887
138.135910 -346.815338 1.840938 0.869118
138.136444 -346.815186 1.522499 0.686642
138.137009 -346.815063 1.203072 0.796814
138.137558 -346.814911 0.881963 0.778186
138.138107 -346.814758 0.558463 0.720833
138.138657 -346.814667 0.231845 0.805760
138.582779 -346.706818 -0.000067 0.585784
139.822296 -346.405853 -0.000117 0.546324
138.090500 -346.756287 4.442435 0.784926
138.091080 -346.756134 4.105831 0.786274
138.091660 -346.756012 3.773993 0.765441
138.092209 -346.755890 3.446126 0.738113
138.092773 -346.755768 3.121465 0.724387
138.093323 -346.755615 2.799278 0.754412
138.093872 -346.755493 2.478853 0.741789
138.094437 -346.755371 2.159495 0.737255
138.094971 -346.755219 1.840515 0.762990
138.095520 -346.755096 1.521230 0.766176
138.096085 -346.754974 1.200954 0.778799
138.096634 -346.754822 0.878991 0.730515
138.097198 -346.754700 0.554633 0.746814
138.097748 -346.754608 0.227147 0.742279
138.568069 -346.643829 0.000006 0.574020
139.809631 -346.351563 -0.000041 0.541299
138.049301 -346.695862 4.449068 0.809069
138.049896 -346.695740 4.111550 0.792770
138.050476 -346.695587 3.778811 0.744363
138.051041 -346.695465 3.450052 0.743015
138.051605 -346.695343 3.124510 0.707108
138.052170 -346.695221 2.801448 0.704779
138.052719 -346.695068 2.480153 0.659314
138.053268 -346.694946 2.159927 0.735662
138.053818 -346.694855 1.840082 0.666912
138.054382 -346.694702 1.519931 0.752328
138.054932 -346.694580 1.198785 0.758946
138.055496 -346.694458 0.875949 0.710172
138.056046 -346.694305 0.550710 0.731005
138.056610 -346.694214 0.222336 0.758701
138.553223 -346.580933 -0.000051 0.538358
139.796829 -346.297302 -0.000100 0.582230
138.007889 -346.635101 4.455857 0.673652
138.008484 -346.634979 4.117403 0.660294
138.009064 -346.634857 3.783741 0.650613
138.009644 -346.634705 3.454071 0.750490
138.010208 -346.634613 3.127626 0.696324
138.010773 -346.634460 2.803668 0.633701
138.011322 -346.634338 2.481483 0.727941
138.011887 -346.634247 2.160371 0.683456
138.012451 -346.634094 1.839639 0.704534
138.013000 -346.633972 1.518601 0.631005
138.013565 -346.633850 1.196566 0.737010
138.014130 -346.633728 0.872835 0.650735
138.014679 -346.633606 0.546695 0.680392
138.015259 -346.633484 0.217412 0.736274
138.539063 -346.517853 -0.000050 0.546691
139.784882 -346.242859 -0.000032 0.516789
137.966263 -346.573975 4.462805 0.741054
137.966843 -346.573883 4.123392 0.685417
137.967422 -346.573761 3.788786 0.787377
137.968002 -346.573639 3.458183 0.682843
137.968582 -346.573517 3.130815 0.748039
137.969147 -346.573395 2.805941 0.677083
137.969711 -346.573273 2.482845 0.742647
137.970276 -346.573120 2.160824 0.623407
137.970840 -346.573029 1.839185 0.597794
137.971390 -346.572906 1.517239 0.725490
137.971954 -346.572784 1.194294 0.707230
137.972519 -346.572662 0.869649 0.784681
137.973083 -346.572540 0.542587 0.677574
137.973663 -346.572418 0.212374 0.654657
138.525406 -346.454681 -0.000036 0.522426
139.773071 -346.188385 -0.000027 0.530270
137.924377 -346.512573 4.469912 0.751716
137.924973 -346.512451 4.129519 0.705882
137.925568 -346.512299 3.793948 0.774142
137.926147 -346.512177 3.462391 0.643260
137.926712 -346.512085 3.134078 0.708456
137.927292 -346.511932 2.808266 0.794485
137.927856 -346.511841 2.484238 0.708946
137.928421 -346.511719 2.161288 0.755392
137.928986 -346.511597 1.838722 0.635907
137.929550 -346.511505 1.515847 0.790686
137.930115 -346.511353 1.191970 0.693750
137.930679 -346.511261 0.866389 0.794485
137.931259 -346.511139 0.538384 0.793627
137.931839 -346.510986 0.207219 0.712500
138.512177 -346.391388 -0.000028 0.549755
139.761673 -346.133789 -0.000016 0.511397
137.882248 -346.450745 4.477181 0.703554
137.882843 -346.450623 4.135787 0.622181
137.883438 -346.450531 3.799227 0.742647
137.884033 -346.450409 3.466694 0.616544
137.884598 -346.450256 3.137414 0.749755
137.885178 -346.450165 2.810644 0.625245
137.885757 -346.450043 2.485663 0.587990
137.886322 -346.449951 2.161762 0.734681
137.886887 -346.449799 1.838247 0.640319
137.887451 -346.449707 1.514423 0.768137
137.888016 -346.449585 1.189593 0.703431
137.888611 -346.449493 0.863055 0.643137
137.889191 -346.449341 0.534086 0.757721
137.889755 -346.449249 0.201946 0.727696
138.498871 -346.328125 -0.000132 0.539706
139.750214 -346.079254 -0.000116 0.554412
137.839874 -346.388550 4.484614 0.826961
137.840485 -346.388458 4.142196 0.629902
137.841064 -346.388336 3.804626 0.667892
137.841660 -346.388245 3.471095 0.747549
137.842239 -346.388123 3.140827 0.700735
137.842819 -346.388000 2.813076 0.684314
137.843399 -346.387878 2.487119 0.614216
137.843964 -346.387756 2.162247 0.736765
137.844543 -346.387665 1.837762 0.660294
137.845123 -346.387573 1.512966 0.681618
137.845703 -346.387451 1.187163 0.709681
137.846268 -346.387360 0.859645 0.657353
137.846848 -346.387238 0.529690 0.738603
137.847443 -346.387115 0.196555 0.741912
138.486832 -346.264618 -0.000058 0.546814
139.739822 -346.024475 -0.000044 0.530025
137.797226 -346.325989 4.492216 0.757353
137.797836 -346.325897 4.148749 0.615196
137.798447 -346.325806 3.810146 0.741667
137.799042 -346.325684 3.475594 0.753186
137.799637 -346.325562 3.144316 0.707353
137.800201 -346.325470 2.815563 0.716544
137.800797 -346.325348 2.488609 0.781005
137.801361 -346.325226 2.162744 0.759559
137.801941 -346.325134 1.837266 0.653064
137.802521 -346.325012 1.511477 0.694485
137.803101 -346.324921 1.184678 0.658333
137.803680 -346.324799 0.856159 0.662745
137.804276 -346.324738 0.525195 0.771569
137.804871 -346.324615 0.191042 0.670221
138.474655 -346.201080 -0.000110 0.586765
139.729523 -345.969696 -0.000041 0.545221
137.754333 -346.263062 4.499985 0.690074
137.754959 -346.262970 4.155447 0.662010
137.755554 -346.262848 3.815788 0.693873
137.756165 -346.262756 3.480194 0.721446
137.756744 -346.262634 3.147882 0.750980
137.757324 -346.262543 2.818105 0.696446
137.757919 -346.262421 2.490132 0.818382
137.758499 -346.262329 2.163251 0.690564
137.759079 -346.262238 1.836759 0.656005
137.759659 -346.262146 1.509955 0.759681
137.760254 -346.262024 1.182137 0.648529
137.760834 -346.261932 0.852595 0.722917
137.761414 -346.261810 0.520601 0.780515
137.762024 -346.261719 0.185407 0.693260
138.463425 -346.137421 -0.000048 0.535049
139.719620 -345.914856 -0.000039 0.535417
137.711166 -346.199738 4.507924 0.718015
137.711777 -346.199646 4.162293 0.796569
137.712402 -346.199524 3.821555 0.796324
137.712997 -346.199432 3.484895 0.745956
137.713593 -346.199310 3.151528 0.765441
137.714188 -346.199249 2.820703 0.810172
137.714783 -346.199127 2.491688 0.827083
137.715347 -346.199005 2.163769 0.780147
137.715942 -346.198914 1.836241 0.607476
137.716522 -346.198822 1.508399 0.737377
137.717117 -346.198730 1.179541 0.837868
137.717712 -346.198608 0.848953 0.889093
137.718307 -346.198517 0.515905 0.773407
137.718903 -346.198425 0.179647 0.675735
138.452499 -346.073700 -0.000018 0.519730
139.710037 -345.859955 -0.000051 0.512868
137.667694 -346.135986 4.516044 0.705270
137.668335 -346.135895 4.169289 0.679657
137.668945 -346.135803 3.827448 0.747181
137.669571 -346.135681 3.489697 0.725613
137.670166 -346.135590 3.155253 0.804657
137.670761 -346.135498 2.823357 0.797059
137.671356 -346.135406 2.493279 0.791422
137.671936 -346.135284 2.164299 0.770711
137.672531 -346.135223 1.835711 0.866544
137.673126 -346.135101 1.506810 0.643505
137.673706 -346.135040 1.176888 0.680025
137.674316 -346.134918 0.845231 0.692402
137.674927 -346.134827 0.511107 0.697059
137.675522 -346.134705 0.173762 0.698039
138.441620 -346.009979 -0.000078 0.512500
139.700821 -345.804962 -0.000068 0.546324
137.623993 -346.071808 4.524329 0.667034
137.624619 -346.071716 4.176434 0.674632
137.625214 -346.071625 3.833470 0.740319
137.625839 -346.071533 3.494606 0.668137
137.626434 -346.071442 3.159059 0.677451
137.627060 -346.071350 2.826069 0.789216
137.627640 -346.071259 2.494903 0.755024
137.628235 -346.071167 2.164840 0.701103
137.628845 -346.071075 1.835170 0.820343
137.629440 -346.070984 1.505186 0.735417
137.630035 -346.070892 1.174178 0.823162
137.630630 -346.070801 0.841429 0.704167
137.631241 -346.070709 0.506204 0.787868
137.631851 -346.070587 0.167749 0.751716
138.431305 -345.946167 -0.000110 0.567157
139.691940 -345.749908 -0.000096 0.524510
137.579956 -346.007263 4.532803 0.725368
137.580582 -346.007141 4.183740 0.858088
137.581223 -346.007050 3.839619 0.745956
137.581848 -346.006958 3.499619 0.712623
137.582443 -346.006866 3.162946 0.807476
137.583054 -346.006805 2.828840 0.828554
137.583649 -346.006683 2.496563 0.626103
137.584259 -346.006592 2.165393 0.793015
137.584854 -346.006531 1.834617 0.839338
137.585449 -346.006439 1.503526 0.696201
137.586060 -346.006317 1.171409 0.716912
137.586655 -346.006256 0.837544 0.707475
137.587265 -346.006165 0.501196 0.730760
137.587891 -346.006073 0.161606 0.731373
138.421936 -345.882202 -0.000034 0.520221
139.684067 -345.694733 0.000032 0.555637
137.535645 -345.942230 4.541451 0.740931
137.536285 -345.942108 4.191196 0.751471
137.536911 -345.942017 3.845902 0.704289
137.537537 -345.941925 3.504740 0.745221
137.538132 -345.941864 3.166919 0.746936
137.538757 -345.941772 2.831670 0.814706
137.539368 -345.941681 2.498258 0.696446
137.539963 -345.941589 2.165957 0.806250
137.540573 -345.941528 1.834053 0.667770
137.541183 -345.941437 1.501832 0.717034
137.541779 -345.941345 1.168580 0.687010
137.542389 -345.941254 0.833576 0.700245
137.543015 -345.941162 0.496080 0.670588
137.543625 -345.941101 0.155332 0.719608
138.412766 -345.818176 -0.000009 0.560662
139.675949 -345.639587 -0.000000 0.562990
137.491013 -345.876740 4.550285 0.722794
137.491653 -345.876648 4.198812 0.723774
137.492294 -345.876587 3.852318 0.793873
137.492920 -345.876495 3.509970 0.761887
137.493546 -345.876404 3.170973 0.732353
137.494156 -345.876312 2.834560 0.758946
137.494751 -345.876221 2.499990 0.717157
137.495361 -345.876160 2.166534 0.813113
137.495987 -345.876068 1.833476 0.713358
137.496597 -345.875977 1.500101 0.713113
137.497208 -345.875885 1.165692 0.672059
137.497818 -345.875854 0.829524 0.698529
137.498444 -345.875763 0.490856 0.686152
137.499054 -345.875671 0.148925 0.754657
138.403885 -345.754181 -0.000023 0.523407
139.668228 -345.584381 -0.000026 0.526226
137.446060 -345.810791 4.559308 0.685539
137.446716 -345.810730 4.206592 0.735784
137.447342 -345.810638 3.858871 0.751103
137.447968 -345.810577 3.515312 0.679534
137.448608 -345.810486 3.175115 0.737132
137.449219 -345.810394 2.837512 0.782598
137.449844 -345.810303 2.501759 0.733211
137.450455 -345.810272 2.167123 0.777574
137.451065 -345.810181 1.832887 0.714093
137.451675 -345.810089 1.498332 0.791299
137.452301 -345.809998 1.162742 0.685907
137.452927 -345.809937 0.825387 0.735539
137.453552 -345.809845 0.485521 0.789461
137.454193 -345.809753 0.142382 0.642892
138.395584 -345.690033 -0.000003 0.502083
139.661133 -345.529114 0.000007 0.520588
137.400803 -345.744415 4.568521 0.772549
137.401443 -345.744324 4.214535 0.682598
137.402084 -345.744232 3.865562 0.798529
137.402725 -345.744171 3.520766 0.776348
137.403351 -345.744080 3.179345 0.665074
137.403976 -345.744019 2.840526 0.731250
137.404587 -345.743958 2.503564 0.742647
137.405212 -345.743866 2.167725 0.784681
137.405838 -345.743805 1.832286 0.704167
137.406448 -345.743713 1.496527 0.848162
137.407074 -345.743622 1.159729 0.086275
137.407715 -345.743561 0.821160 0.626961
137.408340 -345.743500 0.480075 0.758578
137.408981 -345.743408 0.135701 0.672059
138.387482 -345.625916 -0.000040 0.502083
139.654236 -345.473785 -0.000007 0.531005
137.355209 -345.677521 4.577927 0.721569
137.355865 -345.677429 4.222643 0.661520
137.356491 -345.677368 3.872392 0.784069
137.357147 -345.677277 3.526333 0.720466
137.357788 -345.677216 3.183662 0.668505
137.358398 -345.677155 2.843603 0.759926
137.359039 -345.677063 2.505407 0.683701
137.359650 -345.677002 2.168338 0.720956
137.360275 -345.676941 1.831672 0.703064
137.360901 -345.676880 1.494685 0.790809
137.361526 -345.676788 1.156654 0.082353
137.362167 -345.676727 0.816846 0.618627
137.362823 -345.676666 0.474514 0.614338
137.363449 -345.676575 0.128881 0.673284
138.380127 -345.561676 -0.000014 0.556250
139.647827 -345.418427 0.000002 0.479534
137.309265 -345.610138 4.587527 0.723652
137.309921 -345.610077 4.230920 0.569485
137.310577 -345.609985 3.879364 0.802819
137.311234 -345.609924 3.532017 0.721691
137.311874 -345.609833 3.188069 0.566789
137.312500 -345.609772 2.846744 0.666667
137.313126 -345.609711 2.507289 0.742525
137.313766 -345.609650 2.168965 0.653554
137.314377 -345.609558 1.831045 0.594608
137.315018 -345.609528 1.492804 0.767279
137.315659 -345.609467 1.153515 0.086152
137.316284 -345.609406 0.812443 0.549142
137.316956 -345.609314 0.468837 0.704902
137.317581 -345.609253 0.121919 0.604289
138.372955 -345.497437 -0.000041 0.540319
139.641586 -345.363037 -0.000040 0.531618
137.262985 -345.542236 4.597327 0.736765
137.263657 -345.542175 4.239369 0.641912
137.264313 -345.542114 3.886481 0.675613
137.264954 -345.542053 3.537817 0.723284
137.265594 -345.541992 3.192567 0.647549
137.266235 -345.541931 2.849950 0.584314
137.266876 -345.541870 2.509209 0.726593
137.267517 -345.541809 2.169605 0.769118
137.268158 -345.541718 1.830406 0.645711
137.268784 -345.541656 1.490885 0.777206
137.269424 -345.541595 1.150312 0.085662
137.270065 -345.541534 0.807948 0.671446
137.270737 -345.541473 0.463043 0.760907
137.271378 -345.541412 0.114812 0.664338
138.366531 -345.433105 -0.000005 0.528676
139.636124 -345.307526 0.000014 0.534681
137.216354 -345.473816 4.607329 0.592279
137.217010 -345.473755 4.247992 0.743015
137.217697 -345.473694 3.893745 0.650490
137.218338 -345.473663 3.543738 0.599510
137.218994 -345.473602 3.197158 0.725980
137.219635 -345.473541 2.853221 0.652206
137.220291 -345.473480 2.511169 0.618260
137.220932 -345.473419 2.170258 0.765196
137.221558 -345.473358 1.829753 0.681740
137.222198 -345.473297 1.488925 0.693505
137.222839 -345.473236 1.147042 0.080025
137.223480 -345.473175 0.803360 0.662132
137.224167 -345.473114 0.457129 0.758946
137.224823 -345.473053 0.107559 0.715074
138.360382 -345.368744 -0.000012 0.505637
139.630844 -345.252045 0.000017 0.548039
137.169342 -345.404877 4.617537 0.641912
137.170029 -345.404816 4.256792 0.674632
137.170700 -345.404755 3.901157 0.609804
137.171356 -345.404694 3.549780 0.635784
137.172028 -345.404663 3.201844 0.685294
137.172668 -345.404602 2.856561 0.606127
137.173325 -345.404541 2.513170 0.626593
137.173965 -345.404510 2.170924 0.711152
137.174606 -345.404449 1.829087 0.639706
137.175247 -345.404388 1.486926 0.666176
137.175903 -345.404327 1.143705 0.082230
137.176544 -345.404297 0.798679 0.665931
137.177231 -345.404205 0.451093 0.712255
137.177902 -345.404175 0.100157 0.733456
138.354553 -345.304382 -0.000040 0.568382
139.625778 -345.196564 -0.000022 0.533088
137.121979 -345.335388 4.627952 0.746324
137.122665 -345.335358 4.265771 0.742034
137.123337 -345.335266 3.908721 0.716544
137.124008 -345.335236 3.555946 0.800000
137.124664 -345.335205 3.206625 0.756985
137.125320 -345.335144 2.859968 0.713480
137.125992 -345.335083 2.515211 0.766667
137.126633 -345.335022 2.171603 0.754289
137.127289 -345.334961 1.828407 0.696324
137.127930 -345.334930 1.484885 0.749510
137.128586 -345.334869 1.140299 0.085907
137.129227 -345.334808 0.793901 0.667647
137.129913 -345.334778 0.444933 0.747059
137.130600 -345.334717 0.092604 0.707353
138.349411 -345.239929 -0.000020 0.513235
139.621140 -345.140991 -0.000052 0.554167
137.074234 -345.265350 4.638580 0.745098
137.074921 -345.265289 4.274934 0.706618
137.075607 -345.265259 3.916440 0.601838
137.076279 -345.265198 3.562238 0.834314
137.076950 -345.265167 3.211504 0.765319
137.077606 -345.265106 2.863445 0.592034
137.078262 -345.265076 2.517294 0.829044
137.078918 -345.265015 2.172297 0.745221
137.079575 -345.264984 1.827713 0.593873
137.080215 -345.264954 1.482803 0.804289
137.080887 -345.264862 1.136824 0.651838
137.081558 -345.264832 0.789027 0.614216
137.082230 -345.264801 0.438648 0.798897
137.082947 -345.264740 0.084897 0.711397
138.344955 -345.175415 0.000053 0.528064
139.617493 -345.085358 0.000069 0.531740
137.026077 -345.194733 4.649426 0.649510
137.026794 -345.194672 4.284284 0.676716
137.027466 -345.194611 3.924316 0.683701
137.028168 -345.194580 3.568657 0.752451
137.028839 -345.194550 3.216481 0.761397
137.029510 -345.194489 2.866992 0.681127
137.030167 -345.194458 2.519419 0.773529
137.030838 -345.194427 2.173005 0.766176
137.031494 -345.194397 1.827006 0.686152
137.032166 -345.194336 1.480679 0.755882
137.032822 -345.194305 1.133280 0.767034
137.033493 -345.194244 0.784056 0.678676
137.034164 -345.194214 0.432236 0.761642
137.034866 -345.194153 0.077032 0.762868
138.340240 -345.110962 -0.000027 0.560417
139.613464 -345.029755 -0.000006 0.524387
136.977570 -345.123535 4.660485 0.771446
136.978271 -345.123474 4.293818 0.721324
136.978973 -345.123444 3.932347 0.835294
136.979660 -345.123413 3.575203 0.789093
136.980331 -345.123383 3.221558 0.751961
136.981018 -345.123322 2.870610 0.781863
136.981674 -345.123291 2.521586 0.793382
136.982346 -345.123260 2.173727 0.705515
136.983032 -345.123230 1.826284 0.802328
136.983688 -345.123169 1.478513 0.799877
136.984360 -345.123138 1.129665 0.722304
136.985031 -345.123108 0.778984 0.763480
136.985718 -345.123077 0.425697 0.793505
136.986404 -345.123016 0.069009 1.000000
138.336563 -345.046417 0.000017 0.579044
139.610077 -344.974121 -0.000018 0.550123
nan nan nan 0.000000
95.858788 -347.094788 13.184906 0.821201
95.854752 -347.095001 11.423685 0.842279
95.850929 -347.095184 9.683032 0.519240
95.847069 -347.095398 7.958956 0.745588
95.843285 -347.095581 6.247558 0.477696
95.839417 -347.095764 4.545081 0.758824
95.835655 -347.095947 2.847816 0.338480
95.831848 -347.096130 1.152121 0.223039
106.920471 -346.544495 -0.000031 0.543750
123.220123 -345.733643 -0.000011 0.332108
130.218018 -345.385559 -0.000008 0.331495
134.115463 -345.191650 -0.000007 0.336642
136.603271 -345.067902 -0.000073 0.515564
138.332993 -344.981873 -0.000012 0.489338
139.607208 -344.918457 0.000007 0.580024
nan nan nan 0.000000
96.626862 -346.700104 13.015255 0.849632
96.622971 -346.700256 11.280734 0.863971
96.619171 -346.700409 9.566489 0.749632
96.615448 -346.700562 7.868556 0.705637
96.611816 -346.700745 6.183112 0.736274
96.608017 -346.700897 4.506467 0.695711
96.978584 -346.685028 2.828821 0.750980
96.975006 -346.685211 1.171119 0.747549
106.908775 -346.260529 0.000040 0.537255
123.212265 -345.563568 -0.000010 0.330270
130.212402 -345.264313 -0.000008 0.332108
134.111115 -345.097626 -0.000007 0.330760
136.600113 -344.991211 -0.000003 0.539828
138.330109 -344.917267 0.000011 0.515931
139.604904 -344.862762 0.000075 0.527696
nan nan nan 0.000000
97.371948 -346.317169 12.851211 0.820466
97.368217 -346.317291 11.142504 0.601225
97.364517 -346.317444 9.453783 0.750613
97.360909 -346.317566 7.781135 0.760662
97.357330 -346.317688 6.120800 0.749877
97.353683 -346.317810 4.469124 0.759559
97.350166 -346.317932 2.822512 0.748775
97.346611 -346.318085 1.177431 0.756250
106.897034 -345.976563 0.000010 0.540931
123.205582 -345.393402 -0.000011 0.329412
130.207642 -345.143036 -0.000008 0.333333
134.107407 -345.003571 -0.000007 0.335172
136.597229 -344.914551 0.000019 0.538480
138.327454 -344.852692 -0.000018 0.550123
139.602539 -344.807068 0.000032 0.513726
nan nan nan 0.000000
98.095222 -345.945465 12.692492 0.908824
98.091660 -345.945557 11.008753 0.751593
98.088043 -345.945679 9.344738 0.537623
98.084541 -345.945770 7.696553 0.751225
98.081001 -345.945862 6.060510 0.536397
98.077507 -345.945984 4.432994 0.743015
98.074104 -345.946075 2.810475 0.735907
98.070625 -345.946167 1.189469 0.528186
106.887703 -345.692505 0.000002 0.538848
123.200089 -345.223206 -0.000010 0.333333
130.203735 -345.021698 -0.000008 0.335539
134.104370 -344.909515 -0.000007 0.332966
136.594711 -344.837860 0.000010 0.525980
138.325562 -344.788055 0.000028 0.548529
139.600784 -344.751373 0.000044 0.541299
nan nan nan 0.000000
98.797653 -345.584473 12.538857 0.818873
98.794228 -345.584534 10.879298 0.748897
98.790665 -345.584595 9.239193 0.665564
98.787270 -345.584686 7.614686 0.730392
98.783859 -345.584747 6.002147 0.629289
98.780464 -345.584839 4.398022 0.727206
98.777138 -345.584900 2.798824 0.684804
98.773865 -345.584961 1.201122 0.722672
106.880226 -345.408386 -0.000012 0.331618
123.195786 -345.052979 -0.000010 0.334681
130.200653 -344.900391 -0.000008 0.333824
134.102005 -344.815399 -0.000007 0.334191
136.592682 -344.761139 -0.000005 0.544240
138.323807 -344.723450 0.000000 0.544485
139.599243 -344.695648 0.000013 0.429044
nan nan nan 0.000000
99.480255 -345.233643 12.390066 0.864093
99.476913 -345.233704 10.753931 0.734559
99.473511 -345.233765 9.136965 0.749877
99.470154 -345.233826 7.535401 0.739951
99.466835 -345.233856 5.945631 0.758211
99.463547 -345.233917 4.364154 0.758456
99.460289 -345.233948 2.787542 0.753309
99.457031 -345.234009 1.212405 0.769363
107.078384 -345.121216 0.009979 1.000000
123.192680 -344.882690 -0.000009 0.332721
130.198456 -344.779022 -0.000008 0.335907
134.100281 -344.721283 -0.000007 0.337868
136.591217 -344.684418 -0.000016 0.517157
138.322525 -344.658783 -0.000022 0.539951
139.598145 -344.639923 -0.000007 0.515319
nan nan nan 0.000000
100.143929 -344.892639 12.245903 1.000000
100.140625 -344.892639 10.632469 0.696201
100.137360 -344.892670 9.037927 0.654289
100.134079 -344.892700 7.458584 0.701348
100.130844 -344.892700 5.890872 0.662990
100.127632 -344.892731 4.331343 0.740196
100.124458 -344.892761 2.776612 0.566789
100.121223 -344.892792 1.223336 0.582843
106.871811 -344.840027 -0.000013 0.332475
123.190765 -344.712433 -0.000009 0.334804
130.197067 -344.657684 -0.000008 0.335907
134.099213 -344.627167 -0.000006 0.333578
136.590652 -344.607697 0.000038 0.524387
138.322189 -344.594147 0.000065 0.579412
139.597534 -344.584167 -0.000006 0.503064
nan nan nan 0.000000
99.776703 -344.561737 12.324905 0.854902
100.786217 -344.560883 10.514739 0.762377
100.783012 -344.560883 8.941940 0.305515
100.779861 -344.560913 7.384126 0.741299
100.776741 -344.560913 5.837793 0.328431
100.773552 -344.560913 4.299540 0.715319
100.770515 -344.560883 2.766016 0.613725
100.767395 -344.560883 1.233933 0.384191
106.871330 -344.555817 0.000024 0.536029
123.190018 -344.542145 -0.000009 0.329902
130.196548 -344.536285 -0.000008 0.331985
134.098801 -344.533020 -0.000007 0.319975
136.590286 -344.530945 0.000034 0.569363
138.321869 -344.529510 0.000055 0.566299
139.597198 -344.528442 -0.000027 0.546201
nan nan nan 0.000000
99.219055 -344.224548 12.445539 0.854902
101.414452 -344.238068 10.400585 0.706618
101.411339 -344.238037 8.848864 0.673284
101.408302 -344.238037 7.311929 0.728676
101.405190 -344.238007 5.786333 0.706495
101.402214 -344.237976 4.268698 0.728922
101.399185 -344.237976 2.755743 0.724020
101.396156 -344.237946 1.244208 0.689216
106.871201 -344.271576 -0.000019 0.332108
123.190475 -344.371887 -0.000009 0.332108
130.196869 -344.414917 -0.000008 0.332353
134.099060 -344.438904 -0.000007 0.337500
136.590576 -344.454224 0.000050 0.531618
138.321716 -344.464844 -0.000014 0.531250
139.597244 -344.472687 -0.000055 0.575490
nan nan nan 0.000000
98.642578 -343.879333 12.570759 0.854902
102.026123 -343.923737 10.289844 0.755637
102.023102 -343.923706 8.758572 0.735417
102.020126 -343.923676 7.241897 0.755392
102.017151 -343.923615 5.736406 0.730270
102.014175 -343.923615 4.238784 0.719608
102.011238 -343.923523 2.745777 0.745833
102.008286 -343.923523 1.254176 0.740196
106.873817 -343.987396 -0.000026 0.541789
123.192131 -344.201569 -0.000009 0.332353
130.198029 -344.293549 -0.000008 0.334681
134.099976 -344.344757 -0.000006 0.333333
136.591034 -344.377472 -0.000002 0.329412
138.322250 -344.400208 -0.000036 0.506985
139.597702 -344.416962 -0.000075 0.580147
nan nan nan 0.000000
98.046387 -343.525574 12.700777 0.854902
102.621902 -343.617615 10.182376 0.710539
102.618958 -343.617554 8.670949 0.745343
102.616051 -343.617493 7.173935 0.733333
102.613144 -343.617401 5.687962 0.693137
102.610260 -343.617371 4.209754 0.738848
102.607384 -343.617310 2.736106 0.724265
102.604507 -343.617249 1.263847 0.688358
106.879265 -343.703217 0.000010 0.541789
123.194962 -344.031342 -0.000009 0.334559
130.200058 -344.172211 -0.000008 0.330760
134.101563 -344.250671 -0.000002 0.336275
136.592300 -344.300781 -0.000002 0.328676
138.323456 -344.335571 -0.000005 0.531495
139.598602 -344.361206 -0.000081 0.532108
nan nan nan 0.000000
97.429428 -343.162842 12.835840 0.854902
102.705826 -343.305817 10.168448 0.686887
102.710266 -343.305939 8.658500 0.789461
102.714676 -343.306061 7.163436 0.683824
102.719063 -343.306183 5.679879 0.720711
102.723412 -343.306305 4.204558 0.756005
102.727745 -343.306427 2.734256 0.672181
102.732086 -343.306519 1.265814 0.719363
106.885376 -343.419067 -0.000018 0.331618
123.198982 -343.861084 -0.000007 0.334191
130.202911 -344.050873 -0.000008 0.331250
134.103790 -344.156586 -0.000000 0.334804
136.594131 -344.224030 -0.000002 0.335417
138.325180 -344.270966 0.000037 0.536765
139.600174 -344.305481 -0.000016 0.558578
nan nan nan 0.000000
96.790718 -342.790619 12.976182 0.854902
102.543320 -342.986694 10.199780 0.736765
102.547775 -342.986847 8.684038 0.665441
102.552208 -342.987000 7.183242 0.755882
102.556610 -342.987122 5.693995 0.711029
102.560997 -342.987305 4.213012 0.742525
102.565376 -342.987457 2.737072 0.724755
102.569740 -342.987610 1.262999 0.743505
106.894943 -343.135010 0.000024 0.537623
123.204185 -343.690887 -0.000008 0.334314
130.206635 -343.929565 -0.000008 0.333211
134.106659 -344.062469 -0.000002 0.335417
136.651398 -344.149231 0.010000 1.000000
138.327057 -344.206329 0.000015 0.531373
139.602051 -344.249786 0.000026 0.516789
nan nan nan 0.000000
96.128944 -342.408356 13.122111 0.854902
102.379547 -342.665100 10.231757 0.728186
102.384041 -342.665283 8.710102 0.713235
102.388504 -342.665466 7.203449 0.701471
102.392929 -342.665619 5.708396 0.727083
102.397331 -342.665833 4.221640 0.687255
102.401718 -342.666016 2.739946 0.703676
102.406128 -342.666199 1.260126 0.686765
106.905457 -342.850983 0.000016 0.539706
123.210587 -343.520721 -0.000007 0.329657
130.211197 -343.808289 -0.000008 0.330270
134.110168 -343.968414 -0.000007 0.332108
136.654266 -344.072937 0.009997 1.000000
138.329422 -344.141724 0.000005 0.587132
139.604065 -344.194092 0.000008 0.579657
nan nan nan 0.000000
95.443047 -342.015472 13.273885 0.854902
102.214478 -342.340973 10.264387 0.651103
102.219009 -342.341187 8.736698 0.654412
102.223511 -342.341370 7.224072 0.780515
102.227966 -342.341614 5.723091 0.706250
102.232376 -342.341827 4.230444 0.743750
102.236816 -342.342010 2.742877 0.702696
102.241226 -342.342224 1.257195 0.688480
106.917496 -342.567017 -0.000014 0.332598
123.218163 -343.350616 -0.000007 0.333333
130.216599 -343.687012 -0.000008 0.333701
134.114365 -343.874359 -0.000008 0.336520
136.657639 -343.996643 0.009995 1.000000
138.332367 -344.077148 0.000016 0.553799
139.606583 -344.138397 0.000016 0.554044
nan nan nan 0.000000
94.731583 -341.611298 13.431839 0.854902
102.048035 -342.014221 10.297697 0.782230
102.052612 -342.014465 8.763844 0.785049
102.057137 -342.014709 7.245121 0.771691
102.061638 -342.014954 5.738092 0.696201
102.066116 -342.015228 4.239428 0.743873
102.070572 -342.015442 2.745869 0.727328
102.075035 -342.015717 1.254204 0.770098
106.932114 -342.283203 -0.000015 0.535539
123.226944 -343.180542 -0.000007 0.331495
130.222839 -343.565796 -0.000008 0.332108
134.119232 -343.780365 -0.000004 0.329902
136.606705 -343.917358 -0.000003 0.335907
138.335602 -344.012573 -0.000005 0.500735
139.609375 -344.082733 -0.000003 0.529534
nan nan nan 0.000000
93.993256 -341.195251 13.596285 0.854902
101.880241 -341.684845 10.331678 0.723529
101.884857 -341.685089 8.791541 0.730515
101.889435 -341.685425 7.266596 0.715564
101.893990 -341.685669 5.753393 0.773407
101.898506 -341.685974 4.248594 0.770588
101.902992 -341.686249 2.748922 0.699020
101.907478 -341.686523 1.251152 0.717279
106.948578 -341.999451 -0.000022 0.543137
123.236908 -343.010529 -0.000007 0.333824
130.229935 -343.444641 -0.000008 0.333088
134.124741 -343.686401 -0.000002 0.331618
136.611191 -343.840759 -0.000003 0.335784
138.339539 -343.948059 0.000031 0.581863
139.612686 -344.027069 0.000008 0.509804
nan nan nan 0.000000
93.226349 -340.766541 13.767629 0.854902
101.711098 -341.352692 10.366344 0.714951
101.715752 -341.353027 8.819796 0.508211
101.720360 -341.353363 7.288505 0.743260
101.724953 -341.353668 5.769007 0.480392
101.729485 -341.353973 4.257946 0.709314
101.734016 -341.354279 2.752037 0.730515
101.738548 -341.354614 1.248038 0.412745
107.248184 -341.735260 0.013816 1.000000
123.248047 -342.840607 -0.000006 0.331495
130.237869 -343.323547 -0.000008 0.328064
134.130905 -343.592499 -0.000002 0.335172
136.616211 -343.764191 -0.000004 0.332966
138.343735 -343.883545 0.000023 0.538358
139.616241 -343.971436 -0.000015 0.493750
nan nan nan 0.000000
nan nan nan 0.000000
101.540512 -341.017792 10.401711 0.757353
101.545235 -341.018158 8.848621 0.247794
101.549858 -341.018494 7.310856 0.723897
101.554474 -341.018890 5.784935 0.196936
101.559067 -341.019226 4.267487 0.770343
101.563606 -341.019562 2.755215 0.783088
101.568199 -341.019928 1.244860 0.253922
107.093018 -341.440369 0.005164 1.000000
123.260384 -342.670807 -0.000006 0.334559
130.246658 -343.202454 -0.000008 0.333211
134.137726 -343.498596 -0.000002 0.334191
136.621765 -343.687653 -0.000004 0.332475
138.348465 -343.819061 0.000033 0.521201
139.620651 -343.915863 0.000079 0.498039
nan nan nan 0.000000
nan nan nan 0.000000
101.368492 -340.680023 10.437795 0.704044
101.373238 -340.680420 8.878029 0.758456
101.377922 -340.680847 7.333657 0.750490
101.382553 -340.681213 5.801186 0.748897
101.387177 -340.681580 4.277222 0.770466
101.391762 -340.681976 2.758456 0.712868
101.396385 -340.682373 1.241619 0.736029
106.938751 -341.143097 -0.003550 1.000000
123.273903 -342.501038 -0.000006 0.329044
130.256302 -343.081482 -0.000008 0.336275
134.145187 -343.404755 -0.000002 0.334804
136.627853 -343.611145 -0.000005 0.338725
138.353500 -343.754608 0.000015 0.519608
139.624878 -343.860291 0.000030 0.524877
nan nan nan 0.000000
nan nan nan 0.000000
101.194954 -340.339355 10.474605 0.739706
101.199738 -340.339783 8.908033 0.682108
101.204460 -340.340179 7.356922 0.697672
101.209137 -340.340607 5.817762 0.697672
101.213791 -340.341064 4.287152 0.738480
101.218430 -340.341461 2.761764 0.749142
101.223053 -340.341888 1.238313 0.678922
107.035828 -340.865997 0.000026 0.531127
123.288612 -342.331390 -0.000005 0.333578
130.266785 -342.960571 -0.000008 0.331005
134.153305 -343.310974 -0.000002 0.336397
136.634491 -343.534698 -0.000005 0.332353
138.359131 -343.690186 0.000023 0.535539
139.629837 -343.804779 0.000067 0.487010
nan nan nan 0.000000
nan nan nan 0.000000
