# This PCD file was generated using the MATLAB® pcwrite function
# from Computer Vision Toolbox®.
# .PCD v.7 - Point Cloud Data file format
VERSION .7
FIELDS x y z intensity
SIZE 4 4 4 4
TYPE F F F F
COUNT 1 1 1 1
WIDTH 1173
HEIGHT 1
VIEWPOINT 0 0 0 1 0 0 0
POINTS 1173
DATA ascii
355.624481 -598.302490 1.711964 1.000000
355.624481 -598.302490 1.595882 1.000000
355.624481 -598.302490 1.478921 1.000000
355.624481 -598.302490 1.360819 1.000000
355.624481 -598.302490 1.241302 1.000000
355.624481 -598.302490 1.120083 1.000000
355.617584 -598.278748 2.880624 1.000000
355.617584 -598.278748 2.759307 1.000000
355.617584 -598.278748 2.639694 1.000000
355.617584 -598.278748 2.521497 1.000000
355.617584 -598.278748 2.404443 1.000000
355.617584 -598.278748 2.288267 1.000000
355.617584 -598.278748 2.172713 1.000000
355.617584 -598.278748 2.057530 1.000000
355.617584 -598.278748 1.942470 1.000000
355.617584 -598.278748 1.827287 1.000000
355.617584 -598.278748 1.711733 1.000000
355.617584 -598.278748 1.595557 1.000000
355.617584 -598.278748 1.478503 1.000000
355.617584 -598.278748 1.360306 1.000000
355.617584 -598.278748 1.240693 1.000000
355.617584 -598.278748 1.119376 1.000000
355.610687 -598.255005 2.881375 1.000000
355.610687 -598.255005 2.759954 1.000000
355.610687 -598.255005 2.640239 1.000000
355.610687 -598.255005 2.521941 1.000000
355.610687 -598.255005 2.404787 1.000000
355.610687 -598.255005 2.288512 1.000000
355.610687 -598.255005 2.172860 1.000000
355.610687 -598.255005 2.057579 1.000000
355.610687 -598.255005 1.942421 1.000000
355.610687 -598.255005 1.827140 1.000000
355.610687 -598.255005 1.711488 1.000000
355.610687 -598.255005 1.595213 1.000000
355.610687 -598.255005 1.478059 1.000000
355.610687 -598.255005 1.359761 1.000000
355.610687 -598.255005 1.240046 1.000000
355.610687 -598.255005 1.118626 1.000000
355.603790 -598.231201 2.882169 1.000000
355.603790 -598.231201 2.760639 1.000000
355.603790 -598.231201 2.640816 1.000000
355.603790 -598.231201 2.522412 1.000000
355.603790 -598.231201 2.405152 1.000000
355.603790 -598.231201 2.288772 1.000000
355.603790 -598.231201 2.173016 1.000000
355.603790 -598.231201 2.057631 1.000000
355.603790 -598.231201 1.942369 1.000000
355.603790 -598.231201 1.826984 1.000000
355.603790 -598.231201 1.711228 1.000000
355.603790 -598.231201 1.594848 1.000000
355.603790 -598.231201 1.477588 1.000000
355.603790 -598.231201 1.359184 1.000000
355.603790 -598.231201 1.239361 1.000000
355.603790 -598.231201 1.117831 1.000000
355.596832 -598.207397 2.883008 1.000000
355.596832 -598.207397 2.761363 1.000000
355.596832 -598.207397 2.641426 1.000000
355.596832 -598.207397 2.522909 1.000000
355.596832 -598.207397 2.405538 1.000000
355.596832 -598.207397 2.289047 1.000000
355.596832 -598.207397 2.173180 1.000000
355.596832 -598.207397 2.057686 1.000000
355.596832 -598.207397 1.942315 1.000000
355.596832 -598.207397 1.826820 1.000000
355.596832 -598.207397 1.710953 1.000000
355.596832 -598.207397 1.594462 1.000000
355.596832 -598.207397 1.477091 1.000000
355.596832 -598.207397 1.358574 1.000000
355.596832 -598.207397 1.238637 1.000000
355.596832 -598.207397 1.116992 1.000000
355.589905 -598.183533 2.883892 1.000000
355.589905 -598.183533 2.762125 1.000000
355.589905 -598.183533 2.642068 1.000000
355.589905 -598.183533 2.523433 1.000000
355.589905 -598.183533 2.405944 1.000000
355.589905 -598.183533 2.289336 1.000000
355.589905 -598.183533 2.173354 1.000000
355.589905 -598.183533 2.057743 1.000000
355.589905 -598.183533 1.942257 1.000000
355.589905 -598.183533 1.826646 1.000000
355.589905 -598.183533 1.710663 1.000000
355.589905 -598.183533 1.594056 1.000000
355.589905 -598.183533 1.476568 1.000000
355.589905 -598.183533 1.357932 1.000000
355.589905 -598.183533 1.237875 1.000000
355.589905 -598.183533 1.116108 1.000000
355.582947 -598.159546 2.884821 1.000000
355.582947 -598.159546 2.762926 1.000000
355.582947 -598.159546 2.642743 1.000000
355.582947 -598.159546 2.523983 1.000000
355.582947 -598.159546 2.406370 1.000000
355.582947 -598.159546 2.289640 1.000000
355.582947 -598.159546 2.173536 1.000000
355.582947 -598.159546 2.057804 1.000000
355.582947 -598.159546 1.942196 1.000000
355.582947 -598.159546 1.826464 1.000000
355.582947 -598.159546 1.710359 1.000000
355.582947 -598.159546 1.593630 1.000000
355.582947 -598.159546 1.476017 1.000000
355.582947 -598.159546 1.357257 1.000000
355.582947 -598.159546 1.237074 1.000000
355.582947 -598.159546 1.115179 1.000000
355.575989 -598.135559 2.885795 1.000000
355.575989 -598.135559 2.763766 1.000000
355.575989 -598.135559 2.643450 1.000000
355.575989 -598.135559 2.524559 1.000000
355.575989 -598.135559 2.406818 1.000000
355.575989 -598.135559 2.289959 1.000000
355.575989 -598.135559 2.173727 1.000000
355.575989 -598.135559 2.057868 1.000000
355.575989 -598.135559 1.942132 1.000000
355.575989 -598.135559 1.826273 1.000000
355.575989 -598.135559 1.710041 1.000000
355.575989 -598.135559 1.593182 1.000000
355.575989 -598.135559 1.475441 1.000000
355.575989 -598.135559 1.356550 1.000000
355.575989 -598.135559 1.236234 1.000000
355.575989 -598.135559 1.114205 1.000000
355.569000 -598.111511 2.886815 1.000000
355.569000 -598.111511 2.764645 1.000000
355.569000 -598.111511 2.644191 1.000000
355.569000 -598.111511 2.525163 1.000000
355.569000 -598.111511 2.407286 1.000000
355.569000 -598.111511 2.290293 1.000000
355.569000 -598.111511 2.173927 1.000000
355.569000 -598.111511 2.057934 1.000000
355.569000 -598.111511 1.942066 1.000000
355.569000 -598.111511 1.826073 1.000000
355.569000 -598.111511 1.709707 1.000000
355.569000 -598.111511 1.592714 1.000000
355.569000 -598.111511 1.474837 1.000000
355.569000 -598.111511 1.355809 1.000000
355.569000 -598.111511 1.235355 1.000000
355.569000 -598.111511 1.113186 1.000000
355.562012 -598.087463 2.887880 1.000000
355.562012 -598.087463 2.765563 1.000000
355.562012 -598.087463 2.644964 1.000000
355.562012 -598.087463 2.525794 1.000000
355.562012 -598.087463 2.407775 1.000000
355.562012 -598.087463 2.290642 1.000000
355.562012 -598.087463 2.174136 1.000000
355.562012 -598.087463 2.058004 1.000000
355.562012 -598.087463 1.941996 1.000000
355.562012 -598.087463 1.825864 1.000000
355.562012 -598.087463 1.709358 1.000000
355.562012 -598.087463 1.592225 1.000000
355.562012 -598.087463 1.474206 1.000000
355.562012 -598.087463 1.355036 1.000000
355.562012 -598.087463 1.234437 1.000000
355.562012 -598.087463 1.112120 1.000000
355.554993 -598.063293 2.888991 1.000000
355.554993 -598.063293 2.766521 1.000000
355.554993 -598.063293 2.645772 1.000000
355.554993 -598.063293 2.526452 1.000000
355.554993 -598.063293 2.408285 1.000000
355.554993 -598.063293 2.291005 1.000000
355.554993 -598.063293 2.174354 1.000000
355.554993 -598.063293 2.058076 1.000000
355.554993 -598.063293 1.941924 1.000000
355.554993 -598.063293 1.825646 1.000000
355.554993 -598.063293 1.708995 1.000000
355.554993 -598.063293 1.591715 1.000000
355.554993 -598.063293 1.473548 1.000000
355.554993 -598.063293 1.354228 1.000000
355.554993 -598.063293 1.233479 1.000000
355.554993 -598.063293 1.111009 1.000000
355.547943 -598.039124 2.890148 1.000000
355.547943 -598.039124 2.767519 1.000000
355.547943 -598.039124 2.646612 1.000000
355.547943 -598.039124 2.527137 1.000000
355.547943 -598.039124 2.408817 1.000000
355.547943 -598.039124 2.291384 1.000000
355.547943 -598.039124 2.174581 1.000000
355.547943 -598.039124 2.058152 1.000000
355.547943 -598.039124 1.941848 1.000000
355.547943 -598.039124 1.825419 1.000000
355.547943 -598.039124 1.708616 1.000000
355.547943 -598.039124 1.591183 1.000000
355.547943 -598.039124 1.472863 1.000000
355.547943 -598.039124 1.353388 1.000000
355.547943 -598.039124 1.232481 1.000000
355.547943 -598.039124 1.109852 1.000000
355.540894 -598.014771 2.891352 1.000000
355.540894 -598.014771 2.768557 1.000000
355.540894 -598.014771 2.647487 1.000000
355.540894 -598.014771 2.527850 1.000000
355.540894 -598.014771 2.409370 1.000000
355.540894 -598.014771 2.291778 1.000000
355.540894 -598.014771 2.174817 1.000000
355.540894 -598.014771 2.058231 1.000000
355.540894 -598.014771 1.941769 1.000000
355.540894 -598.014771 1.825183 1.000000
355.540894 -598.014771 1.708222 1.000000
355.540894 -598.014771 1.590630 1.000000
355.540894 -598.014771 1.472150 1.000000
355.540894 -598.014771 1.352513 1.000000
355.540894 -598.014771 1.231443 1.000000
355.540894 -598.014771 1.108648 1.000000
355.533813 -597.990417 2.892603 1.000000
355.533813 -597.990417 2.769636 1.000000
355.533813 -597.990417 2.648395 1.000000
355.533813 -597.990417 2.528591 1.000000
355.533813 -597.990417 2.409944 1.000000
355.533813 -597.990417 2.292188 1.000000
355.533813 -597.990417 2.175062 1.000000
355.533813 -597.990417 2.058312 1.000000
355.533813 -597.990417 1.941688 1.000000
355.533813 -597.990417 1.824938 1.000000
355.533813 -597.990417 1.707812 1.000000
355.533813 -597.990417 1.590056 1.000000
355.533813 -597.990417 1.471409 1.000000
355.533813 -597.990417 1.351605 1.000000
355.533813 -597.990417 1.230364 1.000000
355.533813 -597.990417 1.107398 1.000000
355.526733 -597.966003 2.893900 1.000000
355.526733 -597.966003 2.770755 1.000000
355.526733 -597.966003 2.649338 1.000000
355.526733 -597.966003 2.529359 1.000000
355.526733 -597.966003 2.410540 1.000000
355.526733 -597.966003 2.292613 1.000000
355.526733 -597.966003 2.175317 1.000000
355.526733 -597.966003 2.058397 1.000000
355.526733 -597.966003 1.941603 1.000000
355.526733 -597.966003 1.824683 1.000000
355.526733 -597.966003 1.707387 1.000000
355.526733 -597.966003 1.589460 1.000000
355.526733 -597.966003 1.470641 1.000000
355.526733 -597.966003 1.350662 1.000000
355.526733 -597.966003 1.229246 1.000000
355.526733 -597.966003 1.106100 1.000000
355.519623 -597.941528 2.895246 1.000000
355.519623 -597.941528 2.771915 1.000000
355.519623 -597.941528 2.650315 1.000000
355.519623 -597.941528 2.530156 1.000000
355.519623 -597.941528 2.411158 1.000000
355.519623 -597.941528 2.293053 1.000000
355.519623 -597.941528 2.175581 1.000000
355.519623 -597.941528 2.058485 1.000000
355.519623 -597.941528 1.941515 1.000000
355.519623 -597.941528 1.824420 1.000000
355.519623 -597.941528 1.706947 1.000000
355.519623 -597.941528 1.588842 1.000000
355.519623 -597.941528 1.469844 1.000000
355.519623 -597.941528 1.349685 1.000000
355.519623 -597.941528 1.228086 1.000000
355.519623 -597.941528 1.104755 1.000000
355.512482 -597.916992 2.896639 1.000000
355.512482 -597.916992 2.773116 1.000000
355.512482 -597.916992 2.651327 1.000000
355.512482 -597.916992 2.530981 1.000000
355.512482 -597.916992 2.411798 1.000000
355.512482 -597.916992 2.293509 1.000000
355.512482 -597.916992 2.175853 1.000000
355.512482 -597.916992 2.058576 1.000000
355.512482 -597.916992 1.941424 1.000000
355.512482 -597.916992 1.824146 1.000000
355.512482 -597.916992 1.706491 1.000000
355.512482 -597.916992 1.588202 1.000000
355.512482 -597.916992 1.469019 1.000000
355.512482 -597.916992 1.348673 1.000000
355.512482 -597.916992 1.226884 1.000000
355.512482 -597.916992 1.103361 1.000000
355.505310 -597.892334 2.898080 1.000000
355.505310 -597.892334 2.774359 1.000000
355.505310 -597.892334 2.652374 1.000000
355.505310 -597.892334 2.531835 1.000000
355.505310 -597.892334 2.412460 1.000000
355.505310 -597.892334 2.293981 1.000000
355.505310 -597.892334 2.176136 1.000000
355.505310 -597.892334 2.058670 1.000000
355.505310 -597.892334 1.941330 1.000000
355.505310 -597.892334 1.823864 1.000000
355.505310 -597.892334 1.706019 1.000000
355.505310 -597.892334 1.587540 1.000000
355.505310 -597.892334 1.468166 1.000000
355.505310 -597.892334 1.347626 1.000000
355.505310 -597.892334 1.225642 1.000000
355.505310 -597.892334 1.101920 1.000000
355.498138 -597.867615 2.899570 1.000000
355.498138 -597.867615 2.775643 1.000000
355.498138 -597.867615 2.653456 1.000000
355.498138 -597.867615 2.532717 1.000000
355.498138 -597.867615 2.413144 1.000000
355.498138 -597.867615 2.294468 1.000000
355.498138 -597.867615 2.176428 1.000000
355.498138 -597.867615 2.058768 1.000000
355.498138 -597.867615 1.941233 1.000000
355.498138 -597.867615 1.823572 1.000000
355.498138 -597.867615 1.705531 1.000000
355.498138 -597.867615 1.586856 1.000000
355.498138 -597.867615 1.467283 1.000000
355.498138 -597.867615 1.346544 1.000000
355.498138 -597.867615 1.224357 1.000000
355.498138 -597.867615 1.100430 1.000000
355.490906 -597.842773 2.901109 1.000000
355.490906 -597.842773 2.776970 1.000000
355.490906 -597.842773 2.654574 1.000000
355.490906 -597.842773 2.533628 1.000000
355.490906 -597.842773 2.413851 1.000000
355.490906 -597.842773 2.294972 1.000000
355.490936 -597.842773 2.176730 1.000000
355.490906 -597.842773 2.058868 1.000000
355.490906 -597.842773 1.941132 1.000000
355.490936 -597.842773 1.823270 1.000000
355.490906 -597.842773 1.705028 1.000000
355.490936 -597.842773 1.586149 1.000000
355.490936 -597.842773 1.466372 1.000000
355.490936 -597.842773 1.345426 1.000000
355.490906 -597.842773 1.223030 1.000000
355.490906 -597.842773 1.098891 1.000000
355.483704 -597.817871 2.902697 1.000000
355.483704 -597.817871 2.778339 1.000000
355.483704 -597.817871 2.655728 1.000000
355.483704 -597.817871 2.534568 1.000000
355.483704 -597.817871 2.414580 1.000000
355.483704 -597.817871 2.295492 1.000000
355.483704 -597.817871 2.177042 1.000000
355.483704 -597.817871 2.058972 1.000000
355.483704 -597.817871 1.941028 1.000000
355.483704 -597.817871 1.822958 1.000000
355.483704 -597.817871 1.704508 1.000000
355.483704 -597.817871 1.585420 1.000000
355.483704 -597.817871 1.465432 1.000000
355.483704 -597.817871 1.344272 1.000000
355.483704 -597.817871 1.221661 1.000000
355.483704 -597.817871 1.097304 1.000000
355.476440 -597.792847 2.904335 1.000000
355.476440 -597.792847 2.779752 1.000000
355.476440 -597.792847 2.656918 1.000000
355.476440 -597.792847 2.535538 1.000000
355.476440 -597.792847 2.415332 1.000000
355.476440 -597.792847 2.296028 1.000000
355.476440 -597.792847 2.177363 1.000000
355.476440 -597.792847 2.059079 1.000000
355.476440 -597.792847 1.940921 1.000000
355.476440 -597.792847 1.822637 1.000000
355.476440 -597.792847 1.703972 1.000000
355.476440 -597.792847 1.584668 1.000000
355.476440 -597.792847 1.464462 1.000000
355.476440 -597.792847 1.343083 1.000000
355.476440 -597.792847 1.220249 1.000000
355.476440 -597.792847 1.095665 1.000000
355.469147 -597.767822 2.906023 1.000000
355.469147 -597.767822 2.781207 1.000000
355.469147 -597.767822 2.658144 1.000000
355.469147 -597.767822 2.536538 1.000000
355.469147 -597.767822 2.416108 1.000000
355.469147 -597.767822 2.296581 1.000000
355.469147 -597.767822 2.177694 1.000000
355.469147 -597.767822 2.059189 1.000000
355.469147 -597.767822 1.940811 1.000000
355.469147 -597.767822 1.822306 1.000000
355.469147 -597.767822 1.703419 1.000000
355.469147 -597.767822 1.583892 1.000000
355.469147 -597.767822 1.463462 1.000000
355.469147 -597.767822 1.341856 1.000000
355.469147 -597.767822 1.218793 1.000000
355.469147 -597.767822 1.093978 1.000000
355.461853 -597.742615 2.907761 1.000000
355.461853 -597.742615 2.782706 1.000000
355.461853 -597.742615 2.659407 1.000000
355.461853 -597.742615 2.537568 1.000000
355.461853 -597.742615 2.416906 1.000000
355.461853 -597.742615 2.297150 1.000000
355.461853 -597.742615 2.178035 1.000000
355.461853 -597.742615 2.059303 1.000000
355.461853 -597.742615 1.940697 1.000000
355.461853 -597.742615 1.821965 1.000000
355.461853 -597.742615 1.702850 1.000000
355.461853 -597.742615 1.583094 1.000000
355.461853 -597.742615 1.462433 1.000000
355.461853 -597.742615 1.340593 1.000000
355.461853 -597.742615 1.217294 1.000000
355.461853 -597.742615 1.092239 1.000000
355.454498 -597.717346 2.909551 1.000000
355.454498 -597.717346 2.784250 1.000000
355.454498 -597.717346 2.660707 1.000000
355.454498 -597.717346 2.538628 1.000000
355.454498 -597.717346 2.417728 1.000000
355.454498 -597.717346 2.297736 1.000000
355.454498 -597.717346 2.178386 1.000000
355.454498 -597.717346 2.059420 1.000000
355.454498 -597.717346 1.940580 1.000000
355.454498 -597.717346 1.821614 1.000000
355.454498 -597.717346 1.702264 1.000000
355.454498 -597.717346 1.582272 1.000000
355.454498 -597.717346 1.461373 1.000000
355.454498 -597.717346 1.339293 1.000000
355.454498 -597.717346 1.215751 1.000000
355.454498 -597.717346 1.090449 1.000000
355.447113 -597.692017 2.911393 1.000000
355.447113 -597.692017 2.785837 1.000000
355.447113 -597.692017 2.662045 1.000000
355.447113 -597.692017 2.539718 1.000000
355.447113 -597.692017 2.418574 1.000000
355.447113 -597.692017 2.298339 1.000000
355.447113 -597.692017 2.178747 1.000000
355.447113 -597.692017 2.059540 1.000000
355.447113 -597.692017 1.940460 1.000000
355.447113 -597.692017 1.821253 1.000000
355.447113 -597.692017 1.701661 1.000000
355.447113 -597.692017 1.581426 1.000000
355.447113 -597.692017 1.460282 1.000000
355.447113 -597.692017 1.337956 1.000000
355.447113 -597.692017 1.214163 1.000000
355.447113 -597.692017 1.088608 1.000000
355.439728 -597.666504 2.913286 1.000000
355.439728 -597.666504 2.787470 1.000000
355.439728 -597.666504 2.663420 1.000000
355.439728 -597.666504 2.540839 1.000000
355.439728 -597.666504 2.419443 1.000000
355.439728 -597.666504 2.298958 1.000000
355.439728 -597.666504 2.179119 1.000000
355.439728 -597.666504 2.059664 1.000000
355.439728 -597.666504 1.940336 1.000000
355.439728 -597.666504 1.820881 1.000000
355.439758 -597.666504 1.701042 1.000000
355.439758 -597.666504 1.580557 1.000000
355.439758 -597.666504 1.459161 1.000000
355.439758 -597.666504 1.336580 1.000000
355.439728 -597.666504 1.212530 1.000000
355.439758 -597.666504 1.086714 1.000000
355.432312 -597.640930 2.915232 1.000000
355.432312 -597.640930 2.789148 1.000000
355.432312 -597.640930 2.664834 1.000000
355.432312 -597.640930 2.541992 1.000000
355.432312 -597.640930 2.420337 1.000000
355.432312 -597.640930 2.299595 1.000000
355.432312 -597.640930 2.179500 1.000000
355.432312 -597.640930 2.059791 1.000000
355.432312 -597.640930 1.940209 1.000000
355.432312 -597.640930 1.820500 1.000000
355.432312 -597.640930 1.700405 1.000000
355.432312 -597.640930 1.579663 1.000000
355.432312 -597.640930 1.458008 1.000000
355.432312 -597.640930 1.335167 1.000000
355.432312 -597.640930 1.210853 1.000000
355.432312 -597.640930 1.084768 1.000000
355.424835 -597.615234 2.917231 1.000000
355.424835 -597.615234 2.790872 1.000000
355.424866 -597.615234 2.666286 1.000000
355.424866 -597.615234 2.543175 1.000000
355.424866 -597.615234 2.421255 1.000000
355.424866 -597.615234 2.300250 1.000000
355.424866 -597.615234 2.179892 1.000000
355.424866 -597.615234 2.059921 1.000000
355.424866 -597.615234 1.940079 1.000000
355.424866 -597.615234 1.820108 1.000000
355.424866 -597.615234 1.699750 1.000000
355.424866 -597.615234 1.578745 1.000000
355.424866 -597.615234 1.456825 1.000000
355.424866 -597.615234 1.333714 1.000000
355.424866 -597.615234 1.209129 1.000000
355.424866 -597.615234 1.082769 1.000000
355.417328 -597.589417 2.919284 1.000000
355.417328 -597.589417 2.792642 1.000000
355.417328 -597.589417 2.667777 1.000000
355.417328 -597.589417 2.544391 1.000000
355.417328 -597.589417 2.422198 1.000000
355.417328 -597.589417 2.300922 1.000000
355.417328 -597.589417 2.180295 1.000000
355.417328 -597.589417 2.060055 1.000000
355.417328 -597.589417 1.939945 1.000000
355.417328 -597.589417 1.819705 1.000000
355.417328 -597.589417 1.699078 1.000000
355.417328 -597.589417 1.577802 1.000000
355.417328 -597.589417 1.455609 1.000000
355.417328 -597.589417 1.332223 1.000000
355.417328 -597.589417 1.207359 1.000000
355.417328 -597.589417 1.080716 1.000000
355.409821 -597.563538 2.921391 1.000000
355.409821 -597.563538 2.794458 1.000000
355.409821 -597.563538 2.669307 1.000000
355.409821 -597.563538 2.545639 1.000000
355.409821 -597.563538 2.423166 1.000000
355.409821 -597.563538 2.301611 1.000000
355.409821 -597.563538 2.180708 1.000000
355.409821 -597.563538 2.060193 1.000000
355.409821 -597.563538 1.939807 1.000000
355.409821 -597.563538 1.819292 1.000000
355.409821 -597.563538 1.698388 1.000000
355.409821 -597.563538 1.576834 1.000000
355.409821 -597.563538 1.454361 1.000000
355.409821 -597.563538 1.330693 1.000000
355.409821 -597.563538 1.205542 1.000000
355.409821 -597.563538 1.078609 1.000000
355.402252 -597.537476 2.923553 1.000000
355.402252 -597.537476 2.796322 1.000000
355.402252 -597.537476 2.670878 1.000000
355.402252 -597.537476 2.546919 1.000000
355.402252 -597.537476 2.424159 1.000000
355.402252 -597.537476 2.302319 1.000000
355.402252 -597.537476 2.181132 1.000000
355.402252 -597.537476 2.060334 1.000000
355.402252 -597.537476 1.939666 1.000000
355.402252 -597.537476 1.818868 1.000000
355.402252 -597.537476 1.697681 1.000000
355.402252 -597.537476 1.575841 1.000000
355.402252 -597.537476 1.453081 1.000000
355.402252 -597.537476 1.329122 1.000000
355.402252 -597.537476 1.203678 1.000000
355.402252 -597.537476 1.076447 1.000000
355.394623 -597.511292 2.925770 1.000000
355.394623 -597.511292 2.798234 1.000000
355.394623 -597.511292 2.672488 1.000000
355.394623 -597.511292 2.548232 1.000000
355.394623 -597.511292 2.425177 1.000000
355.394623 -597.511292 2.303045 1.000000
355.394623 -597.511292 2.181567 1.000000
355.394623 -597.511292 2.060479 1.000000
355.394623 -597.511292 1.939521 1.000000
355.394623 -597.511292 1.818433 1.000000
355.394623 -597.511292 1.696955 1.000000
355.394623 -597.511292 1.574823 1.000000
355.394623 -597.511292 1.451768 1.000000
355.394623 -597.511292 1.327512 1.000000
355.394623 -597.511292 1.201766 1.000000
355.394623 -597.511292 1.074230 1.000000
355.387024 -597.484985 2.928043 1.000000
355.387024 -597.484985 2.800194 1.000000
355.387024 -597.484985 2.674140 1.000000
355.387024 -597.484985 2.549578 1.000000
355.387024 -597.484985 2.426221 1.000000
355.387024 -597.484985 2.303789 1.000000
355.387024 -597.484985 2.182013 1.000000
355.387024 -597.484985 2.060627 1.000000
355.387024 -597.484985 1.939372 1.000000
355.387024 -597.484985 1.817987 1.000000
355.387024 -597.484985 1.696211 1.000000
355.387024 -597.484985 1.573779 1.000000
355.387024 -597.484985 1.450422 1.000000
355.387024 -597.484985 1.325860 1.000000
355.387024 -597.484985 1.199806 1.000000
355.387024 -597.484985 1.071957 1.000000
355.379333 -597.458618 2.930374 1.000000
355.379333 -597.458618 2.802203 1.000000
355.379333 -597.458618 2.675832 1.000000
355.379333 -597.458618 2.550958 1.000000
355.379333 -597.458557 2.427291 1.000000
355.379333 -597.458557 2.304552 1.000000
355.379333 -597.458557 2.182470 1.000000
355.379333 -597.458557 2.060780 1.000000
355.379333 -597.458557 1.939220 1.000000
355.379333 -597.458557 1.817530 1.000000
355.379333 -597.458557 1.695448 1.000000
355.379333 -597.458557 1.572709 1.000000
355.379333 -597.458557 1.449042 1.000000
355.379333 -597.458557 1.324168 1.000000
355.379333 -597.458557 1.197797 1.000000
355.379333 -597.458618 1.069627 1.000000
355.371613 -597.432068 2.932761 1.000000
355.371613 -597.432068 2.804262 1.000000
355.371613 -597.432068 2.677566 1.000000
355.371613 -597.432068 2.552372 1.000000
355.371613 -597.432068 2.428387 1.000000
355.371613 -597.432068 2.305333 1.000000
355.371613 -597.432068 2.182938 1.000000
355.371613 -597.432068 2.060936 1.000000
355.371613 -597.432068 1.939064 1.000000
355.371613 -597.432068 1.817062 1.000000
355.371613 -597.432068 1.694667 1.000000
355.371613 -597.432068 1.571613 1.000000
355.371613 -597.432068 1.447628 1.000000
355.371613 -597.432068 1.322434 1.000000
355.371613 -597.432068 1.195739 1.000000
355.371613 -597.432068 1.067240 1.000000
355.363861 -597.405334 2.935205 1.000000
355.363861 -597.405334 2.806370 1.000000
355.363861 -597.405334 2.679342 1.000000
355.363861 -597.405334 2.553820 1.000000
355.363861 -597.405334 2.429510 1.000000
355.363861 -597.405334 2.306134 1.000000
355.363861 -597.405334 2.183417 1.000000
355.363861 -597.405334 2.061095 1.000000
355.363861 -597.405334 1.938905 1.000000
355.363861 -597.405334 1.816582 1.000000
355.363861 -597.405334 1.693866 1.000000
355.363861 -597.405334 1.570490 1.000000
355.363861 -597.405334 1.446180 1.000000
355.363861 -597.405334 1.320658 1.000000
355.363861 -597.405334 1.193631 1.000000
355.363861 -597.405334 1.064795 1.000000
355.356049 -597.378540 2.937710 1.000000
355.356049 -597.378540 2.808529 1.000000
355.356049 -597.378540 2.681161 1.000000
355.356049 -597.378540 2.555303 1.000000
355.356049 -597.378540 2.430660 1.000000
355.356049 -597.378540 2.306953 1.000000
355.356049 -597.378540 2.183908 1.000000
355.356049 -597.378540 2.061259 1.000000
355.356049 -597.378540 1.938741 1.000000
355.356049 -597.378540 1.816091 1.000000
355.356049 -597.378540 1.693047 1.000000
355.356049 -597.378540 1.569340 1.000000
355.356049 -597.378540 1.444697 1.000000
355.356049 -597.378540 1.318839 1.000000
355.356049 -597.378540 1.191472 1.000000
355.356049 -597.378540 1.062291 1.000000
355.348206 -597.351501 2.940273 1.000000
355.348206 -597.351501 2.810739 1.000000
355.348206 -597.351501 2.683023 1.000000
355.348206 -597.351501 2.556820 1.000000
355.348206 -597.351501 2.431838 1.000000
355.348206 -597.351501 2.307792 1.000000
355.348206 -597.351501 2.184411 1.000000
355.348206 -597.351501 2.061427 1.000000
355.348206 -597.351501 1.938573 1.000000
355.348206 -597.351501 1.815589 1.000000
355.348206 -597.351501 1.692208 1.000000
355.348206 -597.351501 1.568162 1.000000
355.348206 -597.351501 1.443180 1.000000
355.348206 -597.351501 1.316977 1.000000
355.348206 -597.351501 1.189262 1.000000
355.348206 -597.351501 1.059727 1.000000
355.340363 -597.324402 2.942896 1.000000
355.340363 -597.324402 2.813001 1.000000
355.340363 -597.324402 2.684929 1.000000
355.340363 -597.324402 2.558374 1.000000
355.340363 -597.324402 2.433043 1.000000
355.340363 -597.324402 2.308651 1.000000
355.340363 -597.324402 2.184926 1.000000
355.340363 -597.324402 2.061598 1.000000
355.340363 -597.324402 1.938402 1.000000
355.340363 -597.324402 1.815074 1.000000
355.340363 -597.324402 1.691349 1.000000
355.340363 -597.324402 1.566958 1.000000
355.340363 -597.324402 1.441626 1.000000
355.340363 -597.324402 1.315071 1.000000
355.340363 -597.324402 1.187000 1.000000
355.340363 -597.324402 1.057104 1.000000
355.332397 -597.297058 2.945580 1.000000
355.332397 -597.297058 2.815315 1.000000
355.332397 -597.297058 2.686879 1.000000
355.332397 -597.297058 2.559964 1.000000
355.332397 -597.297058 2.434275 1.000000
355.332397 -597.297058 2.309530 1.000000
355.332397 -597.297058 2.185452 1.000000
355.332397 -597.297058 2.061773 1.000000
355.332397 -597.297058 1.938227 1.000000
355.332397 -597.297058 1.814548 1.000000
355.332397 -597.297058 1.690470 1.000000
355.332397 -597.297058 1.565725 1.000000
355.332397 -597.297058 1.440037 1.000000
355.332397 -597.297058 1.313121 1.000000
355.332397 -597.297058 1.184685 1.000000
355.332397 -597.297058 1.054420 1.000000
355.324463 -597.269653 2.948326 1.000000
355.324463 -597.269653 2.817683 1.000000
355.324463 -597.269653 2.688873 1.000000
355.324463 -597.269653 2.561590 1.000000
355.324463 -597.269653 2.435536 1.000000
355.324463 -597.269653 2.310429 1.000000
355.324463 -597.269653 2.185991 1.000000
355.324463 -597.269653 2.061953 1.000000
355.324463 -597.269653 1.938047 1.000000
355.324463 -597.269653 1.814009 1.000000
355.324463 -597.269653 1.689571 1.000000
355.324463 -597.269653 1.564464 1.000000
355.324463 -597.269653 1.438411 1.000000
355.324463 -597.269653 1.311127 1.000000
355.324463 -597.269653 1.182317 1.000000
355.324463 -597.269653 1.051674 1.000000
355.316437 -597.242065 2.951135 1.000000
355.316437 -597.242065 2.820104 1.000000
355.316437 -597.242065 2.690914 1.000000
355.316437 -597.242065 2.563253 1.000000
355.316437 -597.242065 2.436826 1.000000
355.316437 -597.242065 2.311348 1.000000
355.316437 -597.242065 2.186542 1.000000
355.316437 -597.242065 2.062136 1.000000
355.316437 -597.242065 1.937864 1.000000
355.316437 -597.242065 1.813458 1.000000
355.316437 -597.242065 1.688652 1.000000
355.316437 -597.242065 1.563174 1.000000
355.316437 -597.242065 1.436747 1.000000
355.316437 -597.242065 1.309087 1.000000
355.316437 -597.242065 1.179896 1.000000
355.316437 -597.242065 1.048865 1.000000
355.308350 -597.214294 2.954007 1.000000
355.308350 -597.214294 2.822580 1.000000
355.308350 -597.214294 2.693000 1.000000
355.308350 -597.214294 2.564954 1.000000
355.308350 -597.214294 2.438145 1.000000
355.308350 -597.214294 2.312288 1.000000
355.308350 -597.214294 2.187105 1.000000
355.308350 -597.214294 2.062324 1.000000
355.308350 -597.214294 1.937676 1.000000
355.308350 -597.214294 1.812895 1.000000
355.308350 -597.214294 1.687712 1.000000
355.308350 -597.214294 1.561855 1.000000
355.308350 -597.214294 1.435047 1.000000
355.308350 -597.214294 1.307000 1.000000
355.308350 -597.214294 1.177420 1.000000
355.308350 -597.214294 1.045994 1.000000
355.300232 -597.186340 2.956943 1.000000
355.300232 -597.186340 2.825112 1.000000
355.300232 -597.186340 2.695132 1.000000
355.300232 -597.186340 2.566692 1.000000
355.300232 -597.186340 2.439493 1.000000
355.300232 -597.186340 2.313249 1.000000
355.300232 -597.186340 2.187681 1.000000
355.300232 -597.186340 2.062515 1.000000
355.300232 -597.186340 1.937485 1.000000
355.300232 -597.186340 1.812319 1.000000
355.300232 -597.186340 1.686751 1.000000
355.300232 -597.186340 1.560507 1.000000
355.300232 -597.186340 1.433308 1.000000
355.300232 -597.186340 1.304868 1.000000
355.300232 -597.186340 1.174888 1.000000
355.300232 -597.186340 1.043058 1.000000
355.292084 -597.158264 2.959943 1.000000
355.292084 -597.158264 2.827699 1.000000
355.292084 -597.158264 2.697312 1.000000
355.292084 -597.158264 2.568469 1.000000
355.292084 -597.158264 2.440872 1.000000
355.292084 -597.158264 2.314231 1.000000
355.292084 -597.158264 2.188269 1.000000
355.292084 -597.158264 2.062711 1.000000
355.292084 -597.158264 1.937288 1.000000
355.292084 -597.158264 1.811731 1.000000
355.292084 -597.158264 1.685769 1.000000
355.292084 -597.158264 1.559129 1.000000
355.292084 -597.158264 1.431531 1.000000
355.292084 -597.158264 1.302688 1.000000
355.292084 -597.158264 1.172301 1.000000
355.292084 -597.158264 1.040057 1.000000
355.283844 -597.129944 2.963010 1.000000
355.283844 -597.129944 2.830344 1.000000
355.283844 -597.129944 2.699540 1.000000
355.283844 -597.129944 2.570285 1.000000
355.283844 -597.129944 2.442280 1.000000
355.283844 -597.129944 2.315235 1.000000
355.283844 -597.129944 2.188871 1.000000
355.283844 -597.129944 2.062912 1.000000
355.283844 -597.129944 1.937088 1.000000
355.283844 -597.129944 1.811129 1.000000
355.283844 -597.129944 1.684765 1.000000
355.283844 -597.129944 1.557720 1.000000
355.283844 -597.129944 1.429715 1.000000
355.283844 -597.129944 1.300460 1.000000
355.283844 -597.129944 1.169656 1.000000
355.283844 -597.129944 1.036990 1.000000
355.275574 -597.101440 2.966145 1.000000
355.275574 -597.101440 2.833046 1.000000
355.275574 -597.101440 2.701817 1.000000
355.275574 -597.101440 2.572141 1.000000
355.275574 -597.101440 2.443719 1.000000
355.275574 -597.101440 2.316261 1.000000
355.275574 -597.101440 2.189485 1.000000
355.275574 -597.101440 2.063117 1.000000
355.275574 -597.101440 1.936883 1.000000
355.275574 -597.101440 1.810515 1.000000
355.275574 -597.101440 1.683739 1.000000
355.275574 -597.101440 1.556281 1.000000
355.275574 -597.101440 1.427859 1.000000
355.275574 -597.101440 1.298183 1.000000
355.275574 -597.101440 1.166954 1.000000
355.275574 -597.101440 1.033856 1.000000
355.267242 -597.072815 2.969346 1.000000
355.267242 -597.072815 2.835807 1.000000
355.267242 -597.072815 2.704142 1.000000
355.267242 -597.072815 2.574038 1.000000
355.267242 -597.072815 2.445190 1.000000
355.267242 -597.072815 2.317309 1.000000
355.267242 -597.072815 2.190113 1.000000
355.267242 -597.072815 2.063326 1.000000
355.267242 -597.072815 1.936674 1.000000
355.267242 -597.072815 1.809887 1.000000
355.267242 -597.072815 1.682691 1.000000
355.267242 -597.072815 1.554810 1.000000
355.267242 -597.072815 1.425963 1.000000
355.267242 -597.072815 1.295858 1.000000
355.267242 -597.072815 1.164193 1.000000
355.267242 -597.072815 1.030654 1.000000
355.258850 -597.043945 2.972617 1.000000
355.258850 -597.043945 2.838627 1.000000
355.258850 -597.043945 2.706518 1.000000
355.258850 -597.043945 2.575974 1.000000
355.258850 -597.043945 2.446692 1.000000
355.258850 -597.043945 2.318380 1.000000
355.258850 -597.043945 2.190755 1.000000
355.258850 -597.043945 2.063540 1.000000
355.258850 -597.043945 1.936460 1.000000
355.258850 -597.043945 1.809245 1.000000
355.258850 -597.043945 1.681620 1.000000
355.258850 -597.043945 1.553308 1.000000
355.258850 -597.043945 1.424026 1.000000
355.258850 -597.043945 1.293482 1.000000
355.258850 -597.043945 1.161374 1.000000
355.258850 -597.043945 1.027383 1.000000
355.250427 -597.014832 2.975957 1.000000
355.250427 -597.014832 2.841507 1.000000
355.250427 -597.014832 2.708945 1.000000
355.250427 -597.014832 2.577952 1.000000
355.250427 -597.014832 2.448226 1.000000
355.250427 -597.014832 2.319473 1.000000
355.250427 -597.014832 2.191410 1.000000
355.250427 -597.014832 2.063758 1.000000
355.250427 -597.014832 1.936242 1.000000
355.250427 -597.014832 1.808590 1.000000
355.250427 -597.014832 1.680527 1.000000
355.250427 -597.014832 1.551774 1.000000
355.250427 -597.014832 1.422048 1.000000
355.250427 -597.014832 1.291055 1.000000
355.250427 -597.014832 1.158493 1.000000
355.250427 -597.014832 1.024043 1.000000
355.241943 -596.985657 2.979368 1.000000
355.241943 -596.985657 2.844448 1.000000
355.241943 -596.985657 2.711423 1.000000
355.241943 -596.985657 2.579973 1.000000
355.241943 -596.985657 2.449793 1.000000
355.241943 -596.985657 2.320590 1.000000
355.241943 -596.985657 2.192079 1.000000
355.241943 -596.985657 2.063981 1.000000
355.241943 -596.985657 1.936019 1.000000
355.241943 -596.985657 1.807921 1.000000
355.241943 -596.985657 1.679410 1.000000
355.241943 -596.985657 1.550207 1.000000
355.241943 -596.985657 1.420027 1.000000
355.241943 -596.985657 1.288577 1.000000
355.241943 -596.985657 1.155552 1.000000
355.241943 -596.985657 1.020632 1.000000
355.233398 -596.956177 2.982852 1.000000
355.233398 -596.956177 2.847452 1.000000
355.233398 -596.956177 2.713953 1.000000
355.233398 -596.956177 2.582035 1.000000
355.233398 -596.956177 2.451393 1.000000
355.233398 -596.956177 2.321730 1.000000
355.233398 -596.956177 2.192762 1.000000
355.233398 -596.956177 2.064208 1.000000
355.233398 -596.956177 1.935792 1.000000
355.233398 -596.956177 1.807238 1.000000
355.233398 -596.956177 1.678270 1.000000
355.233398 -596.956177 1.548607 1.000000
355.233398 -596.956177 1.417965 1.000000
355.233398 -596.956177 1.286047 1.000000
355.233398 -596.956177 1.152548 1.000000
355.233398 -596.956177 1.017148 1.000000
355.224762 -596.926514 2.986408 1.000000
355.224762 -596.926514 2.850518 1.000000
355.224762 -596.926514 2.716536 1.000000
355.224762 -596.926514 2.584142 1.000000
355.224762 -596.926514 2.453026 1.000000
355.224762 -596.926514 2.322895 1.000000
355.224762 -596.926514 2.193460 1.000000
355.224762 -596.926514 2.064440 1.000000
355.224762 -596.926514 1.935560 1.000000
355.224762 -596.926514 1.806540 1.000000
355.224762 -596.926514 1.677105 1.000000
355.224762 -596.926514 1.546974 1.000000
355.224762 -596.926514 1.415859 1.000000
355.224762 -596.926514 1.283463 1.000000
355.224762 -596.926514 1.149482 1.000000
355.224762 -596.926514 1.013592 1.000000
355.216064 -596.896606 2.990039 1.000000
355.216064 -596.896606 2.853649 1.000000
355.216064 -596.896606 2.719174 1.000000
355.216064 -596.896606 2.586292 1.000000
355.216064 -596.896606 2.454694 1.000000
355.216064 -596.896606 2.324083 1.000000
355.216064 -596.896606 2.194172 1.000000
355.216064 -596.896606 2.064678 1.000000
355.216064 -596.896606 1.935322 1.000000
355.216064 -596.896606 1.805828 1.000000
355.216064 -596.896606 1.675917 1.000000
355.216064 -596.896606 1.545306 1.000000
355.216064 -596.896606 1.413708 1.000000
355.216064 -596.896606 1.280826 1.000000
355.216064 -596.896606 1.146351 1.000000
355.216064 -596.896606 1.009961 1.000000
nan nan nan 0.000000
355.207306 -596.866516 2.856845 1.000000
355.207306 -596.866516 2.721866 1.000000
355.207306 -596.866516 2.588486 1.000000
355.207306 -596.866516 2.456396 1.000000
355.207306 -596.866516 2.325296 1.000000
355.207306 -596.866516 2.194899 1.000000
355.207306 -596.866516 2.064920 1.000000
355.207306 -596.866516 1.935080 1.000000
355.207306 -596.866516 1.805101 1.000000
355.207306 -596.866516 1.674704 1.000000
355.207306 -596.866516 1.543604 1.000000
355.207306 -596.866516 1.411514 1.000000
355.207306 -596.866516 1.278134 1.000000
355.207306 -596.866516 1.143156 1.000000
355.207306 -596.866516 1.006255 1.000000
nan nan nan 0.000000
355.198517 -596.836121 2.860107 1.000000
355.198517 -596.836121 2.724614 1.000000
355.198517 -596.836121 2.590726 1.000000
355.198517 -596.836121 2.458133 1.000000
355.198517 -596.836121 2.326535 1.000000
355.198517 -596.836121 2.195641 1.000000
355.198517 -596.836121 2.065167 1.000000
355.198517 -596.836121 1.934833 1.000000
355.198517 -596.836121 1.804359 1.000000
355.198517 -596.836121 1.673465 1.000000
355.198517 -596.836121 1.541867 1.000000
355.198517 -596.836121 1.409274 1.000000
355.198517 -596.836121 1.275386 1.000000
355.198517 -596.836121 1.139894 1.000000
355.198517 -596.836121 1.002472 1.000000
nan nan nan 0.000000
355.189636 -596.805603 2.863436 1.000000
355.189636 -596.805603 2.727419 1.000000
355.189636 -596.805603 2.593013 1.000000
355.189636 -596.805603 2.459906 1.000000
355.189636 -596.805603 2.327798 1.000000
355.189636 -596.805603 2.196398 1.000000
355.189636 -596.805603 2.065419 1.000000
355.189636 -596.805603 1.934581 1.000000
355.189636 -596.805603 1.803602 1.000000
355.189636 -596.805603 1.672202 1.000000
355.189636 -596.805603 1.540094 1.000000
355.189636 -596.805603 1.406987 1.000000
355.189636 -596.805603 1.272582 1.000000
355.189636 -596.805603 1.136565 1.000000
355.189636 -596.805603 0.998611 1.000000
nan nan nan 0.000000
355.180695 -596.774780 2.866832 1.000000
355.180695 -596.774780 2.730281 1.000000
355.180695 -596.774780 2.595346 1.000000
355.180695 -596.774780 2.461716 1.000000
355.180695 -596.774780 2.329088 1.000000
355.180695 -596.774780 2.197170 1.000000
355.180695 -596.774780 2.065676 1.000000
355.180695 -596.774780 1.934323 1.000000
355.180695 -596.774841 1.802830 1.000000
355.180695 -596.774780 1.670912 1.000000
355.180695 -596.774780 1.538284 1.000000
355.180695 -596.774780 1.404654 1.000000
355.180695 -596.774780 1.269720 1.000000
355.180695 -596.774780 1.133168 1.000000
355.180695 -596.774780 0.994671 1.000000
nan nan nan 0.000000
355.171661 -596.743713 2.870299 1.000000
355.171661 -596.743713 2.733201 1.000000
355.171661 -596.743713 2.597727 1.000000
355.171661 -596.743713 2.463562 1.000000
355.171661 -596.743713 2.330404 1.000000
355.171661 -596.743713 2.197959 1.000000
355.171661 -596.743713 2.065939 1.000000
355.171661 -596.743713 1.934061 1.000000
355.171661 -596.743713 1.802041 1.000000
355.171661 -596.743713 1.669596 1.000000
355.171661 -596.743713 1.536438 1.000000
355.171661 -596.743713 1.402273 1.000000
355.171661 -596.743713 1.266799 1.000000
355.171661 -596.743713 1.129701 1.000000
355.171661 -596.743713 0.990651 1.000000
nan nan nan 0.000000
355.162567 -596.712402 2.873836 1.000000
355.162567 -596.712402 2.736181 1.000000
355.162567 -596.712402 2.600156 1.000000
355.162567 -596.712402 2.465446 1.000000
355.162567 -596.712402 2.331747 1.000000
355.162567 -596.712402 2.198763 1.000000
355.162567 -596.712402 2.066207 1.000000
355.162567 -596.712402 1.933793 1.000000
355.162567 -596.712402 1.801237 1.000000
355.162567 -596.712402 1.668253 1.000000
355.162567 -596.712402 1.534554 1.000000
355.162567 -596.712402 1.399844 1.000000
355.162567 -596.712402 1.263819 1.000000
355.162567 -596.712402 1.126164 1.000000
355.162567 -596.712402 0.986549 1.000000
nan nan nan 0.000000
355.153412 -596.680908 2.877445 1.000000
355.153412 -596.680908 2.739221 1.000000
355.153412 -596.680908 2.602635 1.000000
355.153412 -596.680908 2.467368 1.000000
355.153412 -596.680908 2.333117 1.000000
355.153412 -596.680908 2.199584 1.000000
355.153412 -596.680908 2.066481 1.000000
355.153412 -596.680908 1.933519 1.000000
355.153412 -596.680908 1.800416 1.000000
355.153412 -596.680908 1.666883 1.000000
355.153412 -596.680908 1.532632 1.000000
355.153412 -596.680908 1.397365 1.000000
355.153412 -596.680908 1.260779 1.000000
355.153412 -596.680908 1.122555 1.000000
355.153412 -596.680908 0.982363 1.000000
nan nan nan 0.000000
355.144135 -596.648987 2.881127 1.000000
355.144135 -596.648987 2.742323 1.000000
355.144135 -596.648987 2.605164 1.000000
355.144135 -596.648987 2.469330 1.000000
355.144135 -596.648987 2.334515 1.000000
355.144135 -596.648987 2.200422 1.000000
355.144135 -596.648987 2.066760 1.000000
355.144135 -596.648987 1.933240 1.000000
355.144135 -596.648987 1.799578 1.000000
355.144135 -596.648987 1.665485 1.000000
355.144135 -596.648987 1.530670 1.000000
355.144135 -596.648987 1.394836 1.000000
355.144135 -596.648987 1.257676 1.000000
355.144135 -596.648987 1.118873 1.000000
355.144135 -596.648987 0.978093 1.000000
nan nan nan 0.000000
355.134827 -596.616943 2.884884 1.000000
355.134827 -596.616943 2.745488 1.000000
355.134827 -596.616943 2.607744 1.000000
355.134857 -596.616943 2.471330 1.000000
355.134857 -596.616943 2.335941 1.000000
355.134827 -596.616943 2.201276 1.000000
355.134857 -596.616943 2.067044 1.000000
355.134857 -596.616943 1.932956 1.000000
355.134857 -596.616943 1.798724 1.000000
355.134857 -596.616943 1.664059 1.000000
355.134857 -596.616943 1.528670 1.000000
355.134857 -596.616943 1.392256 1.000000
355.134857 -596.616943 1.254512 1.000000
355.134857 -596.616943 1.115117 1.000000
355.134857 -596.616943 0.973736 1.000000
nan nan nan 0.000000
355.125397 -596.584595 2.888716 1.000000
355.125397 -596.584595 2.748716 1.000000
355.125397 -596.584595 2.610376 1.000000
355.125397 -596.584595 2.473372 1.000000
355.125397 -596.584595 2.337396 1.000000
355.125397 -596.584595 2.202148 1.000000
355.125397 -596.584595 2.067335 1.000000
355.125397 -596.584595 1.932665 1.000000
355.125397 -596.584595 1.797852 1.000000
355.125397 -596.584595 1.662604 1.000000
355.125427 -596.584595 1.526628 1.000000
355.125397 -596.584595 1.389624 1.000000
355.125397 -596.584595 1.251283 1.000000
355.125397 -596.584595 1.111284 1.000000
355.125397 -596.584595 0.969292 1.000000
nan nan nan 0.000000
355.115936 -596.551941 2.892625 1.000000
355.115936 -596.551941 2.752010 1.000000
355.115936 -596.551941 2.613060 1.000000
355.115936 -596.551941 2.475454 1.000000
355.115936 -596.551941 2.338880 1.000000
355.115936 -596.551941 2.203037 1.000000
355.115936 -596.551941 2.067631 1.000000
355.115936 -596.551941 1.932369 1.000000
355.115936 -596.551941 1.796963 1.000000
355.115936 -596.551941 1.661120 1.000000
355.115936 -596.551941 1.524546 1.000000
355.115936 -596.551941 1.386940 1.000000
355.115936 -596.551941 1.247990 1.000000
355.115936 -596.551941 1.107375 1.000000
355.115936 -596.551941 0.964758 1.000000
nan nan nan 0.000000
355.106384 -596.518982 2.896613 1.000000
355.106384 -596.518982 2.755370 1.000000
355.106384 -596.518982 2.615799 1.000000
355.106384 -596.518982 2.477578 1.000000
355.106384 -596.518982 2.340394 1.000000
355.106384 -596.518982 2.203944 1.000000
355.106384 -596.518982 2.067933 1.000000
355.106384 -596.518982 1.932067 1.000000
355.106384 -596.518982 1.796056 1.000000
355.106384 -596.518982 1.659606 1.000000
355.106384 -596.518982 1.522422 1.000000
355.106384 -596.518982 1.384201 1.000000
355.106384 -596.518982 1.244631 1.000000
355.106384 -596.518982 1.103388 1.000000
355.106384 -596.518982 0.960134 1.000000
nan nan nan 0.000000
355.096710 -596.485657 2.900680 1.000000
355.096710 -596.485657 2.758796 1.000000
355.096710 -596.485718 2.618593 1.000000
355.096710 -596.485657 2.479744 1.000000
355.096710 -596.485718 2.341938 1.000000
355.096710 -596.485718 2.204869 1.000000
355.096710 -596.485718 2.068241 1.000000
355.096710 -596.485718 1.931759 1.000000
355.096710 -596.485718 1.795131 1.000000
355.096710 -596.485718 1.658062 1.000000
355.096710 -596.485718 1.520256 1.000000
355.096710 -596.485718 1.381407 1.000000
355.096710 -596.485657 1.241204 1.000000
355.096710 -596.485657 1.099320 1.000000
355.096710 -596.485657 0.955416 1.000000
nan nan nan 0.000000
355.086975 -596.452148 2.904829 1.000000
355.086975 -596.452148 2.762291 1.000000
355.086975 -596.452148 2.621442 1.000000
355.086975 -596.452148 2.481954 1.000000
355.086975 -596.452148 2.343513 1.000000
355.086975 -596.452148 2.205813 1.000000
355.086975 -596.452148 2.068555 1.000000
355.086975 -596.452148 1.931445 1.000000
355.086975 -596.452148 1.794187 1.000000
355.086975 -596.452148 1.656487 1.000000
355.086975 -596.452148 1.518046 1.000000
355.086975 -596.452148 1.378558 1.000000
355.086975 -596.452148 1.237709 1.000000
355.086975 -596.452148 1.095172 1.000000
355.086975 -596.452148 0.950605 1.000000
nan nan nan 0.000000
355.077118 -596.418274 2.909060 1.000000
355.077118 -596.418274 2.765857 1.000000
355.077118 -596.418274 2.624348 1.000000
355.077118 -596.418274 2.484208 1.000000
355.077118 -596.418274 2.345119 1.000000
355.077118 -596.418274 2.206775 1.000000
355.077118 -596.418274 2.068876 1.000000
355.077118 -596.418274 1.931124 1.000000
355.077118 -596.418274 1.793224 1.000000
355.077118 -596.418274 1.654881 1.000000
355.077118 -596.418274 1.515792 1.000000
355.077118 -596.418274 1.375652 1.000000
355.077118 -596.418274 1.234144 1.000000
355.077118 -596.418274 1.090940 1.000000
355.077118 -596.418274 0.945697 1.000000
nan nan nan 0.000000
355.067200 -596.384094 2.913377 1.000000
355.067200 -596.384094 2.769493 1.000000
355.067200 -596.384094 2.627313 1.000000
355.067200 -596.384094 2.486507 1.000000
355.067200 -596.384094 2.346758 1.000000
355.067200 -596.384094 2.207757 1.000000
355.067200 -596.384094 2.069203 1.000000
355.067200 -596.384094 1.930797 1.000000
355.067200 -596.384094 1.792243 1.000000
355.067200 -596.384094 1.653242 1.000000
355.067200 -596.384094 1.513493 1.000000
355.067200 -596.384094 1.372688 1.000000
355.067200 -596.384094 1.230508 1.000000
355.067200 -596.384094 1.086624 1.000000
355.067200 -596.384094 0.940691 1.000000
nan nan nan 0.000000
355.057190 -596.349609 2.917779 1.000000
355.057190 -596.349609 2.773202 1.000000
355.057190 -596.349609 2.630336 1.000000
355.057190 -596.349609 2.488852 1.000000
355.057190 -596.349609 2.348429 1.000000
355.057190 -596.349609 2.208759 1.000000
355.057190 -596.349609 2.069536 1.000000
355.057190 -596.349609 1.930463 1.000000
355.057190 -596.349609 1.791241 1.000000
355.057190 -596.349609 1.651571 1.000000
355.057190 -596.349609 1.511148 1.000000
355.057190 -596.349609 1.369664 1.000000
355.057190 -596.349609 1.226799 1.000000
355.057190 -596.349609 1.082222 1.000000
355.057190 -596.349609 0.935586 1.000000
nan nan nan 0.000000
355.047058 -596.314758 2.922269 1.000000
355.047058 -596.314758 2.776984 1.000000
355.047058 -596.314758 2.633420 1.000000
355.047058 -596.314758 2.491244 1.000000
355.047058 -596.314758 2.350134 1.000000
355.047058 -596.314758 2.209780 1.000000
355.047058 -596.314758 2.069877 1.000000
355.047058 -596.314758 1.930123 1.000000
355.047058 -596.314758 1.790220 1.000000
355.047058 -596.314758 1.649866 1.000000
355.047058 -596.314758 1.508756 1.000000
355.047058 -596.314758 1.366580 1.000000
355.047058 -596.314758 1.223016 1.000000
355.047058 -596.314758 1.077731 1.000000
355.047058 -596.314758 0.930378 1.000000
nan nan nan 0.000000
355.036835 -596.279602 2.926848 1.000000
355.036835 -596.279602 2.780842 1.000000
355.036835 -596.279602 2.636565 1.000000
355.036835 -596.279602 2.493683 1.000000
355.036835 -596.279602 2.351872 1.000000
355.036835 -596.279602 2.210822 1.000000
355.036835 -596.279602 2.070224 1.000000
355.036835 -596.279602 1.929776 1.000000
355.036835 -596.279602 1.789178 1.000000
355.036835 -596.279602 1.648127 1.000000
355.036835 -596.279602 1.506317 1.000000
355.036835 -596.279602 1.363435 1.000000
355.036835 -596.279602 1.219158 1.000000
355.036835 -596.279602 1.073152 1.000000
