# This PCD file was generated using the MATLABÂ® pcwrite function
# from Computer Vision ToolboxÂ®.
# .PCD v.7 - Point Cloud Data file format
VERSION .7
FIELDS x y z intensity
SIZE 4 4 4 4
TYPE F F F F
COUNT 1 1 1 1
WIDTH 1192
HEIGHT 1
VIEWPOINT 0 0 0 1 0 0 0
POINTS 1192
DATA ascii
-86.206238 -47.380112 2.478449 1.000000
-86.206238 -47.380112 2.286659 1.000000
-86.206238 -47.380112 2.095484 1.000000
-86.206238 -47.380112 1.904515 1.000000
-86.206238 -47.380112 1.713341 1.000000
-86.206238 -47.380112 1.521551 1.000000
-86.206230 -47.380112 1.328729 1.000000
-86.206238 -47.380112 1.134449 1.000000
-86.206238 -47.380112 0.938272 1.000000
-86.206230 -47.380112 0.739745 1.000000
-86.206230 -47.380112 0.538390 1.000000
-86.157295 -47.388031 3.454497 1.000000
-86.157295 -47.388031 3.254122 1.000000
-86.157295 -47.388031 3.056561 1.000000
-86.157295 -47.388031 2.861339 1.000000
-86.157295 -47.388031 2.668005 1.000000
-86.157295 -47.388031 2.476120 1.000000
-86.157295 -47.388031 2.285264 1.000000
-86.157295 -47.388031 2.095020 1.000000
-86.157295 -47.388031 1.904980 1.000000
-86.157295 -47.388031 1.714736 1.000000
-86.157295 -47.388031 1.523880 1.000000
-86.157295 -47.388031 1.331995 1.000000
-86.157295 -47.388031 1.138661 1.000000
-86.157295 -47.388035 0.943439 1.000000
-86.157295 -47.388035 0.745878 1.000000
-86.157295 -47.388035 0.545503 1.000000
-86.108833 -47.395870 3.447526 1.000000
-86.108833 -47.395866 3.248112 1.000000
-86.108833 -47.395870 3.051497 1.000000
-86.108833 -47.395866 2.857211 1.000000
-86.108833 -47.395870 2.664803 1.000000
-86.108833 -47.395866 2.473838 1.000000
-86.108833 -47.395866 2.283897 1.000000
-86.108833 -47.395870 2.094565 1.000000
-86.108833 -47.395870 1.905435 1.000000
-86.108833 -47.395870 1.716103 1.000000
-86.108833 -47.395870 1.526161 1.000000
-86.108833 -47.395870 1.335197 1.000000
-86.108833 -47.395870 1.142789 1.000000
-86.108833 -47.395870 0.948503 1.000000
-86.108833 -47.395870 0.751889 1.000000
-86.108833 -47.395870 0.552474 1.000000
-86.060829 -47.403637 3.440689 1.000000
-86.060829 -47.403637 3.242216 1.000000
-86.060829 -47.403637 3.046531 1.000000
-86.060829 -47.403637 2.853162 1.000000
-86.060829 -47.403637 2.661663 1.000000
-86.060829 -47.403637 2.471600 1.000000
-86.060829 -47.403637 2.282556 1.000000
-86.060829 -47.403637 2.094118 1.000000
-86.060829 -47.403637 1.905882 1.000000
-86.060829 -47.403641 1.717444 1.000000
-86.060829 -47.403637 1.528400 1.000000
-86.060829 -47.403637 1.338337 1.000000
-86.060829 -47.403641 1.146838 1.000000
-86.060829 -47.403637 0.953470 1.000000
-86.060822 -47.403641 0.757784 1.000000
-86.060822 -47.403641 0.559312 1.000000
-86.013275 -47.411327 3.433987 1.000000
-86.013268 -47.411324 3.236438 1.000000
-86.013268 -47.411324 3.041663 1.000000
-86.013268 -47.411324 2.849194 1.000000
-86.013268 -47.411324 2.658585 1.000000
-86.013268 -47.411324 2.469407 1.000000
-86.013275 -47.411324 2.281241 1.000000
-86.013268 -47.411324 2.093680 1.000000
-86.013268 -47.411324 1.906320 1.000000
-86.013275 -47.411324 1.718759 1.000000
-86.013275 -47.411324 1.530593 1.000000
-86.013275 -47.411324 1.341415 1.000000
-86.013275 -47.411324 1.150806 1.000000
-86.013275 -47.411327 0.958337 1.000000
-86.013275 -47.411327 0.763562 1.000000
-86.013275 -47.411327 0.566013 1.000000
-85.966156 -47.418949 3.427417 1.000000
-85.966156 -47.418949 3.230772 1.000000
-85.966156 -47.418949 3.036889 1.000000
-85.966156 -47.418949 2.845302 1.000000
-85.966156 -47.418949 2.655567 1.000000
-85.966156 -47.418953 2.467256 1.000000
-85.966156 -47.418953 2.279952 1.000000
-85.966156 -47.418953 2.093251 1.000000
-85.966156 -47.418953 1.906749 1.000000
-85.966156 -47.418953 1.720048 1.000000
-85.966156 -47.418953 1.532745 1.000000
-85.966156 -47.418953 1.344433 1.000000
-85.966156 -47.418953 1.154698 1.000000
-85.966156 -47.418953 0.963112 1.000000
-85.966156 -47.418953 0.769229 1.000000
-85.966156 -47.418953 0.572585 1.000000
-85.919464 -47.426502 3.420975 1.000000
-85.919464 -47.426502 3.225218 1.000000
-85.919464 -47.426502 3.032209 1.000000
-85.919464 -47.426502 2.841487 1.000000
-85.919464 -47.426502 2.652609 1.000000
-85.919464 -47.426502 2.465147 1.000000
-85.919464 -47.426502 2.278689 1.000000
-85.919464 -47.426502 2.092830 1.000000
-85.919464 -47.426502 1.907170 1.000000
-85.919464 -47.426502 1.721311 1.000000
-85.919464 -47.426502 1.534853 1.000000
-85.919464 -47.426502 1.347392 1.000000
-85.919464 -47.426506 1.158513 1.000000
-85.919464 -47.426502 0.967790 1.000000
-85.919464 -47.426506 0.774783 1.000000
-85.919464 -47.426506 0.579026 1.000000
-85.873192 -47.433990 3.414658 1.000000
-85.873192 -47.433990 3.219772 1.000000
-85.873192 -47.433990 3.027622 1.000000
-85.873192 -47.433990 2.837747 1.000000
-85.873192 -47.433990 2.649708 1.000000
-85.873192 -47.433990 2.463079 1.000000
-85.873192 -47.433990 2.277450 1.000000
-85.873192 -47.433990 2.092417 1.000000
-85.873192 -47.433990 1.907583 1.000000
-85.873192 -47.433990 1.722550 1.000000
-85.873192 -47.433990 1.536921 1.000000
-85.873192 -47.433990 1.350292 1.000000
-85.873192 -47.433990 1.162253 1.000000
-85.873192 -47.433990 0.972379 1.000000
-85.873192 -47.433990 0.780229 1.000000
-85.873192 -47.433990 0.585342 1.000000
-85.827332 -47.441406 3.408468 1.000000
-85.827332 -47.441406 3.214434 1.000000
-85.827332 -47.441406 3.023125 1.000000
-85.827332 -47.441406 2.834081 1.000000
-85.827332 -47.441410 2.646865 1.000000
-85.827332 -47.441406 2.461053 1.000000
-85.827324 -47.441410 2.276236 1.000000
-85.827332 -47.441410 2.092013 1.000000
-85.827332 -47.441410 1.907987 1.000000
-85.827324 -47.441410 1.723764 1.000000
-85.827332 -47.441406 1.538947 1.000000
-85.827324 -47.441410 1.353136 1.000000
-85.827332 -47.441410 1.165919 1.000000
-85.827332 -47.441410 0.976875 1.000000
-85.827332 -47.441410 0.785566 1.000000
-85.827324 -47.441410 0.591533 1.000000
-85.781853 -47.448761 3.402399 1.000000
-85.781853 -47.448761 3.209201 1.000000
-85.781853 -47.448761 3.018716 1.000000
-85.781853 -47.448761 2.830487 1.000000
-85.781853 -47.448761 2.644077 1.000000
-85.781853 -47.448761 2.459066 1.000000
-85.781853 -47.448761 2.275046 1.000000
-85.781853 -47.448761 2.091617 1.000000
-85.781853 -47.448761 1.908384 1.000000
-85.781853 -47.448761 1.724954 1.000000
-85.781853 -47.448761 1.540934 1.000000
-85.781853 -47.448761 1.355923 1.000000
-85.781853 -47.448761 1.169513 1.000000
-85.781853 -47.448761 0.981284 1.000000
-85.781853 -47.448761 0.790799 1.000000
-85.781853 -47.448761 0.597602 1.000000
-85.736778 -47.456055 3.396449 1.000000
-85.736778 -47.456055 3.204071 1.000000
-85.736778 -47.456055 3.014394 1.000000
-85.736778 -47.456055 2.826963 1.000000
-85.736778 -47.456055 2.641345 1.000000
-85.736778 -47.456055 2.457119 1.000000
-85.736778 -47.456055 2.273879 1.000000
-85.736778 -47.456055 2.091228 1.000000
-85.736778 -47.456055 1.908772 1.000000
-85.736778 -47.456055 1.726121 1.000000
-85.736778 -47.456055 1.542881 1.000000
-85.736778 -47.456059 1.358655 1.000000
-85.736778 -47.456055 1.173037 1.000000
-85.736778 -47.456055 0.985606 1.000000
-85.736778 -47.456055 0.795930 1.000000
-85.736778 -47.456059 0.603552 1.000000
-85.692078 -47.463287 3.390618 1.000000
-85.692078 -47.463287 3.199043 1.000000
-85.692078 -47.463287 3.010158 1.000000
-85.692078 -47.463287 2.823510 1.000000
-85.692078 -47.463287 2.638667 1.000000
-85.692078 -47.463287 2.455210 1.000000
-85.692078 -47.463287 2.272735 1.000000
-85.692078 -47.463287 2.090847 1.000000
-85.692078 -47.463287 1.909153 1.000000
-85.692078 -47.463287 1.727265 1.000000
-85.692078 -47.463287 1.544790 1.000000
-85.692078 -47.463287 1.361334 1.000000
-85.692078 -47.463287 1.176490 1.000000
-85.692078 -47.463287 0.989842 1.000000
-85.692078 -47.463287 0.800957 1.000000
-85.692078 -47.463287 0.609383 1.000000
-85.647743 -47.470455 3.384902 1.000000
-85.647743 -47.470455 3.194115 1.000000
-85.647743 -47.470455 3.006006 1.000000
-85.647743 -47.470459 2.820125 1.000000
-85.647743 -47.470455 2.636042 1.000000
-85.647743 -47.470455 2.453339 1.000000
-85.647743 -47.470455 2.271614 1.000000
-85.647743 -47.470455 2.090473 1.000000
-85.647743 -47.470455 1.909527 1.000000
-85.647743 -47.470455 1.728386 1.000000
-85.647743 -47.470459 1.546661 1.000000
-85.647743 -47.470459 1.363959 1.000000
-85.647743 -47.470459 1.179875 1.000000
-85.647743 -47.470459 0.993994 1.000000
-85.647743 -47.470459 0.805886 1.000000
-85.647743 -47.470459 0.615099 1.000000
-85.603775 -47.477570 3.379300 1.000000
-85.603775 -47.477570 3.189284 1.000000
-85.603775 -47.477570 3.001937 1.000000
-85.603775 -47.477570 2.816808 1.000000
-85.603775 -47.477570 2.633469 1.000000
-85.603775 -47.477570 2.451505 1.000000
-85.603775 -47.477570 2.270515 1.000000
-85.603775 -47.477570 2.090108 1.000000
-85.603775 -47.477570 1.909893 1.000000
-85.603775 -47.477570 1.729484 1.000000
-85.603775 -47.477570 1.548495 1.000000
-85.603775 -47.477570 1.366531 1.000000
-85.603775 -47.477570 1.183192 1.000000
-85.603775 -47.477570 0.998063 1.000000
-85.603775 -47.477570 0.810716 1.000000
-85.603775 -47.477570 0.620701 1.000000
-85.560158 -47.484627 3.373809 1.000000
-85.560158 -47.484627 3.184550 1.000000
-85.560158 -47.484627 2.997948 1.000000
-85.560158 -47.484627 2.813556 1.000000
-85.560158 -47.484627 2.630947 1.000000
-85.560158 -47.484627 2.449708 1.000000
-85.560158 -47.484627 2.269439 1.000000
-85.560158 -47.484627 2.089749 1.000000
-85.560158 -47.484627 1.910251 1.000000
-85.560158 -47.484627 1.730561 1.000000
-85.560158 -47.484627 1.550292 1.000000
-85.560158 -47.484627 1.369053 1.000000
-85.560158 -47.484627 1.186444 1.000000
-85.560158 -47.484627 1.002052 1.000000
-85.560158 -47.484627 0.815451 1.000000
-85.560158 -47.484627 0.626192 1.000000
-85.516876 -47.491631 3.368428 1.000000
-85.516876 -47.491631 3.179910 1.000000
-85.516876 -47.491631 2.994039 1.000000
-85.516876 -47.491631 2.810370 1.000000
-85.516876 -47.491634 2.628476 1.000000
-85.516876 -47.491631 2.447946 1.000000
-85.516876 -47.491634 2.268383 1.000000
-85.516876 -47.491634 2.089397 1.000000
-85.516876 -47.491634 1.910603 1.000000
-85.516876 -47.491634 1.731617 1.000000
-85.516876 -47.491634 1.552054 1.000000
-85.516876 -47.491634 1.371525 1.000000
-85.516876 -47.491634 1.189631 1.000000
-85.516876 -47.491634 1.005961 1.000000
-85.516876 -47.491634 0.820091 1.000000
-85.516876 -47.491634 0.631573 1.000000
-85.473946 -47.498573 3.363157 1.000000
-85.473946 -47.498573 3.175365 1.000000
-85.473946 -47.498573 2.990210 1.000000
-85.473946 -47.498573 2.807248 1.000000
-85.473946 -47.498573 2.626055 1.000000
-85.473946 -47.498573 2.446221 1.000000
-85.473946 -47.498573 2.267349 1.000000
-85.473946 -47.498573 2.089053 1.000000
-85.473946 -47.498573 1.910947 1.000000
-85.473946 -47.498573 1.732651 1.000000
-85.473946 -47.498573 1.553779 1.000000
-85.473946 -47.498573 1.373945 1.000000
-85.473946 -47.498573 1.192752 1.000000
-85.473946 -47.498577 1.009790 1.000000
-85.473946 -47.498577 0.824635 1.000000
-85.473946 -47.498573 0.636844 1.000000
-85.431335 -47.505466 3.357991 1.000000
-85.431335 -47.505466 3.170911 1.000000
-85.431335 -47.505470 2.986458 1.000000
-85.431335 -47.505466 2.804189 1.000000
-85.431335 -47.505470 2.623682 1.000000
-85.431335 -47.505466 2.444530 1.000000
-85.431335 -47.505466 2.266336 1.000000
-85.431335 -47.505466 2.088716 1.000000
-85.431335 -47.505466 1.911285 1.000000
-85.431335 -47.505470 1.733664 1.000000
-85.431335 -47.505470 1.555470 1.000000
-85.431335 -47.505470 1.376318 1.000000
-85.431335 -47.505470 1.195811 1.000000
-85.431335 -47.505470 1.013543 1.000000
-85.431335 -47.505470 0.829089 1.000000
-85.431335 -47.505470 0.642010 1.000000
-85.389038 -47.512306 3.352930 1.000000
-85.389038 -47.512306 3.166547 1.000000
-85.389038 -47.512306 2.982781 1.000000
-85.389038 -47.512306 2.801192 1.000000
-85.389038 -47.512306 2.621358 1.000000
-85.389038 -47.512306 2.442873 1.000000
-85.389038 -47.512306 2.265344 1.000000
-85.389038 -47.512306 2.088385 1.000000
-85.389038 -47.512306 1.911615 1.000000
-85.389038 -47.512306 1.734656 1.000000
-85.389038 -47.512306 1.557127 1.000000
-85.389038 -47.512306 1.378642 1.000000
-85.389038 -47.512306 1.198808 1.000000
-85.389038 -47.512306 1.017219 1.000000
-85.389038 -47.512306 0.833453 1.000000
-85.389038 -47.512306 0.647071 1.000000
-85.347061 -47.519096 3.347972 1.000000
-85.347061 -47.519096 3.162272 1.000000
-85.347061 -47.519096 2.979180 1.000000
-85.347061 -47.519096 2.798256 1.000000
-85.347061 -47.519096 2.619081 1.000000
-85.347061 -47.519096 2.441250 1.000000
-85.347061 -47.519096 2.264371 1.000000
-85.347061 -47.519096 2.088061 1.000000
-85.347061 -47.519096 1.911939 1.000000
-85.347061 -47.519096 1.735628 1.000000
-85.347061 -47.519096 1.558750 1.000000
-85.347061 -47.519096 1.380919 1.000000
-85.347061 -47.519096 1.201744 1.000000
-85.347061 -47.519096 1.020820 1.000000
-85.347061 -47.519096 0.837728 1.000000
-85.347061 -47.519096 0.652029 1.000000
-85.305389 -47.525841 3.343114 1.000000
-85.305389 -47.525841 3.158084 1.000000
-85.305389 -47.525841 2.975652 1.000000
-85.305389 -47.525841 2.795379 1.000000
-85.305389 -47.525841 2.616850 1.000000
-85.305389 -47.525845 2.439660 1.000000
-85.305389 -47.525845 2.263419 1.000000
-85.305389 -47.525845 2.087744 1.000000
-85.305389 -47.525845 1.912256 1.000000
-85.305389 -47.525845 1.736581 1.000000
-85.305389 -47.525845 1.560340 1.000000
-85.305389 -47.525845 1.383150 1.000000
-85.305389 -47.525845 1.204621 1.000000
-85.305389 -47.525845 1.024349 1.000000
-85.305389 -47.525845 0.841917 1.000000
-85.305389 -47.525845 0.656886 1.000000
-85.264008 -47.532536 3.338358 1.000000
-85.264008 -47.532536 3.153983 1.000000
-85.264008 -47.532536 2.972196 1.000000
-85.264000 -47.532536 2.792563 1.000000
-85.264000 -47.532536 2.614665 1.000000
-85.264000 -47.532536 2.438103 1.000000
-85.264000 -47.532536 2.262486 1.000000
-85.264000 -47.532536 2.087433 1.000000
-85.264000 -47.532536 1.912567 1.000000
-85.264000 -47.532536 1.737514 1.000000
-85.264000 -47.532536 1.561897 1.000000
-85.264000 -47.532536 1.385335 1.000000
-85.264000 -47.532536 1.207438 1.000000
-85.264000 -47.532536 1.027804 1.000000
-85.264000 -47.532536 0.846018 1.000000
-85.264000 -47.532536 0.661643 1.000000
-85.222923 -47.539181 3.333699 1.000000
-85.222916 -47.539181 3.149966 1.000000
-85.222916 -47.539185 2.968812 1.000000
-85.222916 -47.539181 2.789804 1.000000
-85.222916 -47.539185 2.612526 1.000000
-85.222916 -47.539185 2.436578 1.000000
-85.222916 -47.539185 2.261572 1.000000
-85.222916 -47.539185 2.087128 1.000000
-85.222916 -47.539185 1.912871 1.000000
-85.222916 -47.539185 1.738428 1.000000
-85.222916 -47.539185 1.563422 1.000000
-85.222916 -47.539185 1.387474 1.000000
-85.222916 -47.539185 1.210196 1.000000
-85.222916 -47.539185 1.031188 1.000000
-85.222916 -47.539185 0.850035 1.000000
-85.222916 -47.539185 0.666301 1.000000
-85.182114 -47.545784 3.329138 1.000000
-85.182114 -47.545784 3.146033 1.000000
-85.182114 -47.545784 2.965499 1.000000
-85.182114 -47.545784 2.787103 1.000000
-85.182114 -47.545784 2.610431 1.000000
-85.182114 -47.545784 2.435085 1.000000
-85.182114 -47.545784 2.260678 1.000000
-85.182114 -47.545784 2.086830 1.000000
-85.182114 -47.545784 1.913170 1.000000
-85.182114 -47.545784 1.739322 1.000000
-85.182114 -47.545784 1.564915 1.000000
-85.182114 -47.545784 1.389569 1.000000
-85.182114 -47.545784 1.212897 1.000000
-85.182114 -47.545784 1.034501 1.000000
-85.182114 -47.545784 0.853967 1.000000
-85.182114 -47.545784 0.670862 1.000000
-85.141579 -47.552338 3.324672 1.000000
-85.141579 -47.552338 3.142182 1.000000
-85.141579 -47.552338 2.962255 1.000000
-85.141579 -47.552338 2.784458 1.000000
-85.141579 -47.552338 2.608380 1.000000
-85.141579 -47.552338 2.433623 1.000000
-85.141579 -47.552338 2.259802 1.000000
-85.141579 -47.552341 2.086539 1.000000
-85.141579 -47.552341 1.913461 1.000000
-85.141579 -47.552338 1.740198 1.000000
-85.141579 -47.552341 1.566377 1.000000
-85.141579 -47.552341 1.391620 1.000000
-85.141579 -47.552341 1.215542 1.000000
-85.141579 -47.552341 1.037746 1.000000
-85.141579 -47.552341 0.857818 1.000000
-85.141579 -47.552341 0.675329 1.000000
-85.101326 -47.558853 3.320299 1.000000
-85.101326 -47.558853 3.138412 1.000000
-85.101326 -47.558853 2.959078 1.000000
-85.101326 -47.558853 2.781869 1.000000
-85.101326 -47.558853 2.606372 1.000000
-85.101326 -47.558857 2.432192 1.000000
-85.101326 -47.558853 2.258944 1.000000
-85.101326 -47.558857 2.086253 1.000000
-85.101326 -47.558857 1.913747 1.000000
-85.101326 -47.558857 1.741056 1.000000
-85.101326 -47.558857 1.567808 1.000000
-85.101326 -47.558857 1.393628 1.000000
-85.101326 -47.558857 1.218132 1.000000
-85.101326 -47.558857 1.040922 1.000000
-85.101326 -47.558857 0.861588 1.000000
-85.101326 -47.558857 0.679701 1.000000
-85.061333 -47.565323 3.316020 1.000000
-85.061333 -47.565323 3.134722 1.000000
-85.061333 -47.565323 2.955970 1.000000
-85.061333 -47.565323 2.779335 1.000000
-85.061333 -47.565323 2.604406 1.000000
-85.061333 -47.565323 2.430791 1.000000
-85.061333 -47.565323 2.258105 1.000000
-85.061333 -47.565323 2.085974 1.000000
-85.061333 -47.565323 1.914026 1.000000
-85.061333 -47.565323 1.741895 1.000000
-85.061333 -47.565323 1.569209 1.000000
-85.061333 -47.565323 1.395594 1.000000
-85.061333 -47.565323 1.220666 1.000000
-85.061333 -47.565327 1.044031 1.000000
-85.061333 -47.565327 0.865278 1.000000
-85.061333 -47.565323 0.683980 1.000000
-85.021584 -47.571751 3.311832 1.000000
-85.021584 -47.571751 3.131111 1.000000
-85.021584 -47.571751 2.952928 1.000000
-85.021584 -47.571751 2.776854 1.000000
-85.021584 -47.571751 2.602483 1.000000
-85.021584 -47.571751 2.429420 1.000000
-85.021584 -47.571751 2.257283 1.000000
-85.021584 -47.571751 2.085700 1.000000
-85.021584 -47.571751 1.914300 1.000000
-85.021584 -47.571751 1.742717 1.000000
-85.021584 -47.571754 1.570580 1.000000
-85.021584 -47.571754 1.397517 1.000000
-85.021584 -47.571754 1.223146 1.000000
-85.021584 -47.571751 1.047073 1.000000
-85.021584 -47.571754 0.868889 1.000000
-85.021584 -47.571754 0.688169 1.000000
-84.982101 -47.578136 3.307735 1.000000
-84.982101 -47.578136 3.127578 1.000000
-84.982101 -47.578136 2.949951 1.000000
-84.982101 -47.578136 2.774428 1.000000
-84.982101 -47.578136 2.600601 1.000000
-84.982101 -47.578136 2.428079 1.000000
-84.982101 -47.578136 2.256480 1.000000
-84.982101 -47.578136 2.085432 1.000000
-84.982101 -47.578136 1.914568 1.000000
-84.982101 -47.578136 1.743520 1.000000
-84.982101 -47.578136 1.571921 1.000000
-84.982101 -47.578136 1.399399 1.000000
-84.982101 -47.578136 1.225572 1.000000
-84.982101 -47.578136 1.050049 1.000000
-84.982101 -47.578136 0.872422 1.000000
-84.982101 -47.578136 0.692266 1.000000
-84.942856 -47.584484 3.303726 1.000000
-84.942856 -47.584484 3.124122 1.000000
-84.942856 -47.584484 2.947039 1.000000
-84.942856 -47.584484 2.772054 1.000000
-84.942856 -47.584484 2.598760 1.000000
-84.942856 -47.584484 2.426766 1.000000
-84.942856 -47.584484 2.255694 1.000000
-84.942856 -47.584484 2.085170 1.000000
-84.942856 -47.584484 1.914830 1.000000
-84.942856 -47.584484 1.744306 1.000000
-84.942856 -47.584484 1.573234 1.000000
-84.942856 -47.584484 1.401240 1.000000
-84.942856 -47.584488 1.227946 1.000000
-84.942856 -47.584488 1.052961 1.000000
-84.942856 -47.584488 0.875879 1.000000
-84.942856 -47.584488 0.696275 1.000000
-84.903847 -47.590797 3.299804 1.000000
-84.903847 -47.590797 3.120740 1.000000
-84.903847 -47.590797 2.944190 1.000000
-84.903847 -47.590797 2.769732 1.000000
-84.903847 -47.590797 2.596959 1.000000
-84.903847 -47.590797 2.425483 1.000000
-84.903839 -47.590801 2.254924 1.000000
-84.903839 -47.590801 2.084914 1.000000
-84.903839 -47.590801 1.915086 1.000000
-84.903839 -47.590801 1.745076 1.000000
-84.903847 -47.590801 1.574517 1.000000
-84.903847 -47.590801 1.403041 1.000000
-84.903847 -47.590801 1.230269 1.000000
-84.903839 -47.590801 1.055810 1.000000
-84.903839 -47.590801 0.879260 1.000000
-84.903847 -47.590801 0.700196 1.000000
-84.865074 -47.597069 3.295969 1.000000
-84.865074 -47.597069 3.117434 1.000000
-84.865074 -47.597069 2.941405 1.000000
-84.865074 -47.597069 2.767461 1.000000
-84.865074 -47.597069 2.595198 1.000000
-84.865074 -47.597069 2.424227 1.000000
-84.865074 -47.597069 2.254172 1.000000
-84.865074 -47.597069 2.084664 1.000000
-84.865074 -47.597069 1.915336 1.000000
-84.865074 -47.597069 1.745827 1.000000
-84.865074 -47.597069 1.575773 1.000000
-84.865074 -47.597069 1.404802 1.000000
-84.865074 -47.597069 1.232539 1.000000
-84.865074 -47.597073 1.058595 1.000000
-84.865074 -47.597073 0.882567 1.000000
-84.865074 -47.597069 0.704031 1.000000
-84.826523 -47.603306 3.292219 1.000000
-84.826523 -47.603310 3.114200 1.000000
-84.826523 -47.603310 2.938680 1.000000
-84.826523 -47.603310 2.765240 1.000000
-84.826523 -47.603310 2.593475 1.000000
-84.826523 -47.603310 2.423000 1.000000
-84.826523 -47.603310 2.253437 1.000000
-84.826523 -47.603310 2.084419 1.000000
-84.826523 -47.603310 1.915581 1.000000
-84.826523 -47.603310 1.746563 1.000000
-84.826523 -47.603310 1.577000 1.000000
-84.826523 -47.603310 1.406525 1.000000
-84.826523 -47.603310 1.234761 1.000000
-84.826523 -47.603310 1.061320 1.000000
-84.826523 -47.603310 0.885800 1.000000
-84.826523 -47.603310 0.707781 1.000000
-84.788193 -47.609501 3.288555 1.000000
-84.788193 -47.609501 3.111041 1.000000
-84.788193 -47.609501 2.936019 1.000000
-84.788193 -47.609501 2.763070 1.000000
-84.788193 -47.609501 2.591793 1.000000
-84.788193 -47.609505 2.421800 1.000000
-84.788193 -47.609505 2.252718 1.000000
-84.788193 -47.609501 2.084179 1.000000
-84.788193 -47.609501 1.915821 1.000000
-84.788193 -47.609505 1.747282 1.000000
-84.788193 -47.609505 1.578200 1.000000
-84.788193 -47.609501 1.408207 1.000000
-84.788193 -47.609505 1.236930 1.000000
-84.788193 -47.609501 1.063981 1.000000
-84.788193 -47.609505 0.888960 1.000000
-84.788193 -47.609505 0.711445 1.000000
-84.750076 -47.615669 3.284973 1.000000
-84.750076 -47.615669 3.107952 1.000000
-84.750076 -47.615669 2.933416 1.000000
-84.750076 -47.615669 2.760948 1.000000
-84.750076 -47.615673 2.590147 1.000000
-84.750076 -47.615669 2.420628 1.000000
-84.750076 -47.615673 2.252016 1.000000
-84.750076 -47.615669 2.083945 1.000000
-84.750076 -47.615669 1.916055 1.000000
-84.750076 -47.615673 1.747984 1.000000
-84.750076 -47.615669 1.579372 1.000000
-84.750076 -47.615673 1.409853 1.000000
-84.750076 -47.615673 1.239052 1.000000
-84.750076 -47.615673 1.066584 1.000000
-84.750076 -47.615673 0.892049 1.000000
-84.750076 -47.615673 0.715028 1.000000
-84.712173 -47.621799 3.281472 1.000000
-84.712173 -47.621803 3.104934 1.000000
-84.712173 -47.621803 2.930874 1.000000
-84.712173 -47.621803 2.758876 1.000000
-84.712173 -47.621803 2.588540 1.000000
-84.712173 -47.621803 2.419482 1.000000
-84.712173 -47.621803 2.251329 1.000000
-84.712173 -47.621803 2.083717 1.000000
-84.712173 -47.621803 1.916283 1.000000
-84.712173 -47.621803 1.748671 1.000000
-84.712173 -47.621803 1.580518 1.000000
-84.712173 -47.621803 1.411460 1.000000
-84.712173 -47.621803 1.241124 1.000000
-84.712173 -47.621803 1.069126 1.000000
-84.712173 -47.621803 0.895066 1.000000
-84.712173 -47.621803 0.718528 1.000000
-84.674469 -47.627907 3.278053 1.000000
-84.674469 -47.627903 3.101986 1.000000
-84.674469 -47.627903 2.928390 1.000000
-84.674469 -47.627907 2.756851 1.000000
-84.674469 -47.627907 2.586969 1.000000
-84.674469 -47.627907 2.418363 1.000000
-84.674469 -47.627907 2.250659 1.000000
-84.674469 -47.627907 2.083493 1.000000
-84.674469 -47.627907 1.916507 1.000000
-84.674469 -47.627907 1.749341 1.000000
-84.674469 -47.627907 1.581637 1.000000
-84.674469 -47.627907 1.413031 1.000000
-84.674469 -47.627907 1.243149 1.000000
-84.674469 -47.627907 1.071610 1.000000
-84.674469 -47.627907 0.898015 1.000000
-84.674469 -47.627907 0.721948 1.000000
-84.636971 -47.633968 3.274715 1.000000
-84.636971 -47.633968 3.099107 1.000000
-84.636971 -47.633968 2.925965 1.000000
-84.636971 -47.633968 2.754874 1.000000
-84.636971 -47.633968 2.585436 1.000000
-84.636971 -47.633968 2.417270 1.000000
-84.636971 -47.633968 2.250004 1.000000
-84.636971 -47.633968 2.083275 1.000000
-84.636971 -47.633968 1.916725 1.000000
-84.636971 -47.633968 1.749996 1.000000
-84.636971 -47.633968 1.582730 1.000000
-84.636971 -47.633968 1.414564 1.000000
-84.636971 -47.633968 1.245126 1.000000
-84.636971 -47.633968 1.074035 1.000000
-84.636971 -47.633968 0.900893 1.000000
-84.636971 -47.633968 0.725285 1.000000
-84.599670 -47.640003 3.271456 1.000000
-84.599663 -47.640003 3.096297 1.000000
-84.599663 -47.640003 2.923598 1.000000
-84.599663 -47.640003 2.752944 1.000000
-84.599663 -47.640003 2.583939 1.000000
-84.599663 -47.640003 2.416203 1.000000
-84.599663 -47.640003 2.249364 1.000000
-84.599663 -47.640003 2.083062 1.000000
-84.599663 -47.640003 1.916938 1.000000
-84.599663 -47.640003 1.750635 1.000000
-84.599663 -47.640003 1.583797 1.000000
-84.599663 -47.640003 1.416061 1.000000
-84.599663 -47.640007 1.247056 1.000000
-84.599663 -47.640007 1.076403 1.000000
-84.599663 -47.640007 0.903704 1.000000
-84.599663 -47.640003 0.728545 1.000000
-84.562546 -47.646008 3.268275 1.000000
-84.562546 -47.646008 3.093554 1.000000
-84.562546 -47.646008 2.921287 1.000000
-84.562546 -47.646008 2.751060 1.000000
-84.562546 -47.646008 2.582479 1.000000
-84.562546 -47.646008 2.415162 1.000000
-84.562546 -47.646008 2.248741 1.000000
-84.562546 -47.646008 2.082854 1.000000
-84.562546 -47.646008 1.917146 1.000000
-84.562546 -47.646008 1.751259 1.000000
-84.562546 -47.646008 1.584838 1.000000
-84.562546 -47.646008 1.417521 1.000000
-84.562546 -47.646008 1.248940 1.000000
-84.562546 -47.646008 1.078713 1.000000
-84.562546 -47.646008 0.906446 1.000000
-84.562546 -47.646008 0.731725 1.000000
-84.525612 -47.651981 3.265171 1.000000
-84.525612 -47.651981 3.090878 1.000000
-84.525612 -47.651981 2.919033 1.000000
-84.525612 -47.651981 2.749222 1.000000
-84.525612 -47.651981 2.581053 1.000000
-84.525612 -47.651981 2.414146 1.000000
-84.525612 -47.651981 2.248132 1.000000
-84.525612 -47.651981 2.082652 1.000000
-84.525612 -47.651981 1.917348 1.000000
-84.525612 -47.651981 1.751868 1.000000
-84.525612 -47.651981 1.585854 1.000000
-84.525612 -47.651981 1.418947 1.000000
-84.525612 -47.651985 1.250778 1.000000
-84.525612 -47.651985 1.080968 1.000000
-84.525612 -47.651985 0.909122 1.000000
-84.525612 -47.651985 0.734829 1.000000
-84.488846 -47.657928 3.262144 1.000000
-84.488853 -47.657928 3.088268 1.000000
-84.488846 -47.657928 2.916833 1.000000
-84.488846 -47.657928 2.747429 1.000000
-84.488846 -47.657932 2.579663 1.000000
-84.488846 -47.657928 2.413155 1.000000
-84.488846 -47.657932 2.247538 1.000000
-84.488846 -47.657932 2.082454 1.000000
-84.488846 -47.657932 1.917546 1.000000
-84.488846 -47.657932 1.752462 1.000000
-84.488846 -47.657932 1.586845 1.000000
-84.488846 -47.657932 1.420338 1.000000
-84.488846 -47.657932 1.252571 1.000000
-84.488846 -47.657932 1.083167 1.000000
-84.488846 -47.657932 0.911733 1.000000
-84.488846 -47.657932 0.737857 1.000000
-84.452271 -47.663845 3.259192 1.000000
-84.452271 -47.663845 3.085722 1.000000
-84.452271 -47.663845 2.914689 1.000000
-84.452271 -47.663845 2.745681 1.000000
-84.452271 -47.663845 2.578307 1.000000
-84.452271 -47.663845 2.412188 1.000000
-84.452271 -47.663845 2.246959 1.000000
-84.452271 -47.663845 2.082261 1.000000
-84.452271 -47.663845 1.917739 1.000000
-84.452271 -47.663845 1.753041 1.000000
-84.452271 -47.663845 1.587811 1.000000
-84.452271 -47.663845 1.421693 1.000000
-84.452271 -47.663849 1.254319 1.000000
-84.452271 -47.663849 1.085311 1.000000
-84.452271 -47.663849 0.914278 1.000000
-84.452271 -47.663849 0.740809 1.000000
-84.415855 -47.669739 3.256315 1.000000
-84.415855 -47.669735 3.083242 1.000000
-84.415855 -47.669739 2.912600 1.000000
-84.415855 -47.669739 2.743978 1.000000
-84.415855 -47.669739 2.576986 1.000000
-84.415855 -47.669739 2.411247 1.000000
-84.415855 -47.669739 2.246395 1.000000
-84.415855 -47.669739 2.082073 1.000000
-84.415855 -47.669739 1.917927 1.000000
-84.415855 -47.669739 1.753605 1.000000
-84.415855 -47.669739 1.588753 1.000000
-84.415855 -47.669739 1.423014 1.000000
-84.415855 -47.669739 1.256022 1.000000
-84.415855 -47.669739 1.087401 1.000000
-84.415855 -47.669739 0.916758 1.000000
-84.415855 -47.669739 0.743685 1.000000
-84.379601 -47.675602 3.253513 1.000000
-84.379601 -47.675602 3.080826 1.000000
-84.379601 -47.675602 2.910564 1.000000
-84.379601 -47.675602 2.742318 1.000000
-84.379601 -47.675602 2.575699 1.000000
-84.379601 -47.675602 2.410329 1.000000
-84.379601 -47.675602 2.245846 1.000000
-84.379601 -47.675602 2.081890 1.000000
-84.379601 -47.675602 1.918110 1.000000
-84.379601 -47.675602 1.754154 1.000000
-84.379601 -47.675602 1.589670 1.000000
-84.379601 -47.675602 1.424301 1.000000
-84.379601 -47.675602 1.257682 1.000000
-84.379601 -47.675602 1.089436 1.000000
-84.379601 -47.675602 0.919174 1.000000
-84.379601 -47.675602 0.746488 1.000000
-84.343513 -47.681438 3.250783 1.000000
-84.343513 -47.681438 3.078473 1.000000
-84.343513 -47.681438 2.908581 1.000000
-84.343513 -47.681438 2.740702 1.000000
-84.343513 -47.681438 2.574445 1.000000
-84.343513 -47.681438 2.409436 1.000000
-84.343513 -47.681438 2.245310 1.000000
-84.343513 -47.681438 2.081712 1.000000
-84.343513 -47.681438 1.918288 1.000000
-84.343513 -47.681438 1.754690 1.000000
-84.343513 -47.681438 1.590564 1.000000
-84.343513 -47.681438 1.425555 1.000000
-84.343513 -47.681438 1.259298 1.000000
-84.343513 -47.681438 1.091419 1.000000
-84.343513 -47.681438 0.921528 1.000000
-84.343513 -47.681438 0.749217 1.000000
-84.307571 -47.687252 3.248126 1.000000
-84.307571 -47.687252 3.076181 1.000000
-84.307571 -47.687252 2.906651 1.000000
-84.307571 -47.687252 2.739129 1.000000
-84.307571 -47.687256 2.573225 1.000000
-84.307571 -47.687252 2.408566 1.000000
-84.307571 -47.687252 2.244789 1.000000
-84.307571 -47.687256 2.081538 1.000000
-84.307571 -47.687256 1.918462 1.000000
-84.307571 -47.687256 1.755211 1.000000
-84.307571 -47.687256 1.591434 1.000000
-84.307571 -47.687256 1.426775 1.000000
-84.307571 -47.687256 1.260872 1.000000
-84.307571 -47.687256 1.093349 1.000000
-84.307571 -47.687256 0.923819 1.000000
-84.307571 -47.687256 0.751874 1.000000
-84.271790 -47.693043 3.245542 1.000000
-84.271790 -47.693043 3.073953 1.000000
-84.271790 -47.693043 2.904773 1.000000
-84.271790 -47.693043 2.737598 1.000000
-84.271790 -47.693043 2.572038 1.000000
-84.271790 -47.693043 2.407720 1.000000
-84.271790 -47.693043 2.244282 1.000000
-84.271790 -47.693043 2.081369 1.000000
-84.271790 -47.693043 1.918631 1.000000
-84.271790 -47.693043 1.755718 1.000000
-84.271790 -47.693043 1.592280 1.000000
-84.271790 -47.693043 1.427962 1.000000
-84.271790 -47.693043 1.262402 1.000000
-84.271790 -47.693043 1.095227 1.000000
-84.271790 -47.693043 0.926047 1.000000
-84.271790 -47.693043 0.754459 1.000000
-84.236153 -47.698807 3.243028 1.000000
-84.236153 -47.698807 3.071786 1.000000
-84.236153 -47.698807 2.902947 1.000000
-84.236153 -47.698807 2.736109 1.000000
-84.236153 -47.698807 2.570883 1.000000
-84.236153 -47.698807 2.406897 1.000000
-84.236153 -47.698807 2.243789 1.000000
-84.236153 -47.698807 2.081205 1.000000
-84.236153 -47.698807 1.918795 1.000000
-84.236153 -47.698807 1.756211 1.000000
-84.236153 -47.698807 1.593103 1.000000
-84.236153 -47.698807 1.429117 1.000000
-84.236153 -47.698807 1.263891 1.000000
-84.236153 -47.698807 1.097053 1.000000
-84.236153 -47.698807 0.928215 1.000000
-84.236153 -47.698807 0.756973 1.000000
-84.200653 -47.704552 3.240584 1.000000
-84.200653 -47.704552 3.069678 1.000000
-84.200653 -47.704552 2.901172 1.000000
-84.200653 -47.704552 2.734662 1.000000
-84.200653 -47.704552 2.569761 1.000000
-84.200653 -47.704552 2.406097 1.000000
-84.200653 -47.704552 2.243310 1.000000
-84.200653 -47.704552 2.081045 1.000000
-84.200653 -47.704552 1.918955 1.000000
-84.200653 -47.704552 1.756690 1.000000
-84.200653 -47.704552 1.593903 1.000000
-84.200653 -47.704552 1.430239 1.000000
-84.200653 -47.704552 1.265338 1.000000
-84.200653 -47.704552 1.098828 1.000000
-84.200653 -47.704552 0.930322 1.000000
-84.200653 -47.704552 0.759416 1.000000
-84.165298 -47.710270 3.238211 1.000000
-84.165298 -47.710270 3.067632 1.000000
-84.165298 -47.710270 2.899448 1.000000
-84.165298 -47.710270 2.733256 1.000000
-84.165298 -47.710270 2.568671 1.000000
-84.165298 -47.710270 2.405321 1.000000
-84.165298 -47.710270 2.242845 1.000000
-84.165298 -47.710270 2.080890 1.000000
-84.165298 -47.710270 1.919110 1.000000
-84.165298 -47.710270 1.757155 1.000000
-84.165298 -47.710270 1.594679 1.000000
-84.165298 -47.710274 1.431329 1.000000
-84.165298 -47.710274 1.266744 1.000000
-84.165298 -47.710274 1.100552 1.000000
-84.165298 -47.710274 0.932368 1.000000
-84.165298 -47.710274 0.761790 1.000000
-84.130074 -47.715965 3.235907 1.000000
-84.130074 -47.715965 3.065646 1.000000
-84.130074 -47.715965 2.897775 1.000000
-84.130074 -47.715965 2.731892 1.000000
-84.130074 -47.715965 2.567613 1.000000
-84.130074 -47.715965 2.404566 1.000000
-84.130074 -47.715965 2.242393 1.000000
-84.130074 -47.715965 2.080740 1.000000
-84.130074 -47.715965 1.919260 1.000000
-84.130074 -47.715965 1.757607 1.000000
-84.130074 -47.715965 1.595434 1.000000
-84.130074 -47.715965 1.432387 1.000000
-84.130074 -47.715965 1.268108 1.000000
-84.130074 -47.715965 1.102225 1.000000
-84.130074 -47.715965 0.934355 1.000000
-84.130074 -47.715965 0.764094 1.000000
-84.094971 -47.721645 3.233671 1.000000
-84.094971 -47.721645 3.063718 1.000000
-84.094971 -47.721645 2.896151 1.000000
-84.094971 -47.721645 2.730568 1.000000
-84.094971 -47.721645 2.566586 1.000000
-84.094971 -47.721645 2.403834 1.000000
-84.094971 -47.721645 2.241954 1.000000
-84.094971 -47.721645 2.080594 1.000000
-84.094971 -47.721645 1.919406 1.000000
-84.094971 -47.721645 1.758046 1.000000
-84.094971 -47.721645 1.596166 1.000000
-84.094971 -47.721645 1.433414 1.000000
-84.094971 -47.721645 1.269432 1.000000
-84.094971 -47.721645 1.103849 1.000000
-84.094971 -47.721645 0.936282 1.000000
-84.094971 -47.721645 0.766329 1.000000
-84.060005 -47.727303 3.231503 1.000000
-84.059998 -47.727303 3.061848 1.000000
-84.059998 -47.727303 2.894576 1.000000
-84.059998 -47.727303 2.729285 1.000000
-84.059998 -47.727303 2.565590 1.000000
-84.059998 -47.727303 2.403125 1.000000
-84.059998 -47.727303 2.241529 1.000000
-84.059998 -47.727303 2.080452 1.000000
-84.059998 -47.727303 1.919548 1.000000
-84.059998 -47.727303 1.758471 1.000000
-84.059998 -47.727303 1.596875 1.000000
-84.059998 -47.727303 1.434410 1.000000
-84.059998 -47.727303 1.270716 1.000000
-84.059998 -47.727303 1.105425 1.000000
-84.059998 -47.727303 0.938152 1.000000
-84.059998 -47.727303 0.768497 1.000000
-84.025154 -47.732941 3.229403 1.000000
-84.025154 -47.732941 3.060037 1.000000
-84.025154 -47.732944 2.893050 1.000000
-84.025154 -47.732944 2.728040 1.000000
-84.025154 -47.732941 2.564626 1.000000
-84.025154 -47.732944 2.402437 1.000000
-84.025154 -47.732944 2.241117 1.000000
-84.025154 -47.732944 2.080315 1.000000
-84.025154 -47.732944 1.919685 1.000000
-84.025154 -47.732944 1.758883 1.000000
-84.025154 -47.732944 1.597563 1.000000
-84.025154 -47.732944 1.435374 1.000000
-84.025154 -47.732944 1.271960 1.000000
-84.025154 -47.732944 1.106951 1.000000
-84.025154 -47.732944 0.939963 1.000000
-84.025154 -47.732944 0.770598 1.000000
-83.990417 -47.738560 3.227369 1.000000
-83.990417 -47.738560 3.058284 1.000000
-83.990417 -47.738560 2.891572 1.000000
-83.990417 -47.738560 2.726836 1.000000
-83.990417 -47.738560 2.563692 1.000000
-83.990417 -47.738560 2.401771 1.000000
-83.990417 -47.738560 2.240718 1.000000
-83.990417 -47.738560 2.080182 1.000000
-83.990417 -47.738560 1.919818 1.000000
-83.990417 -47.738560 1.759282 1.000000
-83.990417 -47.738560 1.598229 1.000000
-83.990417 -47.738560 1.436309 1.000000
-83.990417 -47.738560 1.273164 1.000000
-83.990417 -47.738564 1.108428 1.000000
-83.990417 -47.738560 0.941717 1.000000
-83.990417 -47.738560 0.772632 1.000000
-83.955795 -47.744160 3.225402 1.000000
-83.955795 -47.744160 3.056588 1.000000
-83.955795 -47.744160 2.890144 1.000000
-83.955795 -47.744160 2.725672 1.000000
-83.955795 -47.744160 2.562788 1.000000
-83.955795 -47.744160 2.401128 1.000000
-83.955795 -47.744160 2.240332 1.000000
-83.955795 -47.744160 2.080054 1.000000
-83.955795 -47.744160 1.919946 1.000000
-83.955795 -47.744160 1.759668 1.000000
-83.955795 -47.744160 1.598872 1.000000
-83.955795 -47.744160 1.437212 1.000000
-83.955795 -47.744164 1.274329 1.000000
-83.955795 -47.744164 1.109856 1.000000
-83.955795 -47.744164 0.943412 1.000000
-83.955795 -47.744164 0.774598 1.000000
-83.921288 -47.749741 3.223501 1.000000
-83.921288 -47.749741 3.054949 1.000000
-83.921288 -47.749741 2.888763 1.000000
-83.921288 -47.749741 2.724545 1.000000
-83.921288 -47.749741 2.561915 1.000000
-83.921288 -47.749741 2.400505 1.000000
-83.921288 -47.749741 2.239959 1.000000
-83.921288 -47.749744 2.079929 1.000000
-83.921288 -47.749744 1.920071 1.000000
-83.921288 -47.749741 1.760040 1.000000
-83.921288 -47.749741 1.599495 1.000000
-83.921288 -47.749741 1.438085 1.000000
-83.921288 -47.749744 1.275455 1.000000
-83.921288 -47.749744 1.111237 1.000000
-83.921288 -47.749744 0.945052 1.000000
-83.921288 -47.749744 0.776500 1.000000
-83.886879 -47.755306 3.221665 1.000000
-83.886879 -47.755310 3.053366 1.000000
-83.886879 -47.755306 2.887429 1.000000
-83.886879 -47.755310 2.723458 1.000000
-83.886879 -47.755306 2.561072 1.000000
-83.886879 -47.755306 2.399904 1.000000
-83.886879 -47.755310 2.239599 1.000000
-83.886879 -47.755310 2.079809 1.000000
-83.886879 -47.755310 1.920191 1.000000
-83.886879 -47.755310 1.760400 1.000000
-83.886879 -47.755310 1.600096 1.000000
-83.886879 -47.755310 1.438928 1.000000
-83.886879 -47.755310 1.276542 1.000000
-83.886879 -47.755310 1.112571 1.000000
-83.886879 -47.755310 0.946635 1.000000
-83.886879 -47.755310 0.778335 1.000000
-83.852570 -47.760857 3.219894 1.000000
-83.852570 -47.760857 3.051838 1.000000
-83.852570 -47.760857 2.886143 1.000000
-83.852570 -47.760860 2.722409 1.000000
-83.852570 -47.760860 2.560258 1.000000
-83.852570 -47.760860 2.399324 1.000000
-83.852570 -47.760860 2.239252 1.000000
-83.852577 -47.760860 2.079694 1.000000
-83.852577 -47.760860 1.920306 1.000000
-83.852577 -47.760860 1.760748 1.000000
-83.852577 -47.760860 1.600676 1.000000
-83.852577 -47.760860 1.439742 1.000000
-83.852577 -47.760860 1.277591 1.000000
-83.852577 -47.760860 1.113858 1.000000
-83.852577 -47.760860 0.948162 1.000000
-83.852577 -47.760860 0.780107 1.000000
-83.818367 -47.766392 3.218187 1.000000
-83.818367 -47.766392 3.050367 1.000000
-83.818367 -47.766392 2.884903 1.000000
-83.818367 -47.766392 2.721399 1.000000
-83.818367 -47.766392 2.559475 1.000000
-83.818367 -47.766396 2.398766 1.000000
-83.818367 -47.766392 2.238917 1.000000
-83.818367 -47.766396 2.079582 1.000000
-83.818367 -47.766396 1.920418 1.000000
-83.818367 -47.766396 1.761083 1.000000
-83.818367 -47.766396 1.601234 1.000000
-83.818367 -47.766396 1.440526 1.000000
-83.818367 -47.766396 1.278602 1.000000
-83.818367 -47.766396 1.115097 1.000000
-83.818367 -47.766396 0.949634 1.000000
-83.818367 -47.766396 0.781814 1.000000
-83.784248 -47.771912 3.216544 1.000000
-83.784248 -47.771912 3.048950 1.000000
-83.784248 -47.771912 2.883709 1.000000
-83.784248 -47.771912 2.720426 1.000000
-83.784248 -47.771912 2.558720 1.000000
-83.784248 -47.771912 2.398228 1.000000
-83.784248 -47.771912 2.238595 1.000000
-83.784248 -47.771912 2.079475 1.000000
-83.784248 -47.771912 1.920525 1.000000
-83.784248 -47.771912 1.761405 1.000000
-83.784248 -47.771912 1.601772 1.000000
-83.784248 -47.771912 1.441280 1.000000
-83.784248 -47.771912 1.279575 1.000000
-83.784248 -47.771912 1.116291 1.000000
-83.784248 -47.771912 0.951050 1.000000
-83.784248 -47.771912 0.783457 1.000000
-83.750229 -47.777412 3.214965 1.000000
-83.750229 -47.777416 3.047589 1.000000
-83.750229 -47.777412 2.882563 1.000000
-83.750229 -47.777416 2.719491 1.000000
-83.750229 -47.777416 2.557995 1.000000
-83.750229 -47.777412 2.397711 1.000000
-83.750229 -47.777412 2.238285 1.000000
-83.750229 -47.777416 2.079372 1.000000
-83.750229 -47.777416 1.920628 1.000000
-83.750229 -47.777416 1.761714 1.000000
-83.750229 -47.777416 1.602289 1.000000
-83.750229 -47.777420 1.442005 1.000000
-83.750229 -47.777420 1.280510 1.000000
-83.750229 -47.777420 1.117438 1.000000
-83.750229 -47.777420 0.952412 1.000000
-83.750229 -47.777420 0.785035 1.000000
-83.716286 -47.782906 3.213449 1.000000
-83.716286 -47.782906 3.046282 1.000000
-83.716286 -47.782906 2.881461 1.000000
-83.716286 -47.782906 2.718593 1.000000
-83.716286 -47.782906 2.557299 1.000000
-83.716286 -47.782906 2.397215 1.000000
-83.716286 -47.782906 2.237988 1.000000
-83.716286 -47.782906 2.079273 1.000000
-83.716286 -47.782906 1.920727 1.000000
-83.716286 -47.782906 1.762012 1.000000
-83.716286 -47.782906 1.602785 1.000000
-83.716286 -47.782906 1.442701 1.000000
-83.716286 -47.782906 1.281407 1.000000
-83.716286 -47.782906 1.118539 1.000000
-83.716286 -47.782906 0.953719 1.000000
-83.716286 -47.782906 0.786551 1.000000
-83.682434 -47.788383 3.211996 1.000000
-83.682434 -47.788380 3.045029 1.000000
-83.682434 -47.788383 2.880405 1.000000
-83.682434 -47.788383 2.717732 1.000000
-83.682434 -47.788383 2.556631 1.000000
-83.682434 -47.788383 2.396739 1.000000
-83.682434 -47.788383 2.237703 1.000000
-83.682434 -47.788383 2.079178 1.000000
-83.682434 -47.788383 1.920822 1.000000
-83.682434 -47.788383 1.762297 1.000000
-83.682434 -47.788383 1.603261 1.000000
-83.682434 -47.788383 1.443369 1.000000
-83.682434 -47.788383 1.282268 1.000000
-83.682434 -47.788383 1.119595 1.000000
-83.682434 -47.788383 0.954972 1.000000
-83.682434 -47.788383 0.788005 1.000000
-83.648659 -47.793842 3.210605 1.000000
-83.648659 -47.793842 3.043829 1.000000
-83.648659 -47.793842 2.879395 1.000000
-83.648659 -47.793842 2.716909 1.000000
-83.648659 -47.793842 2.555993 1.000000
-83.648659 -47.793842 2.396284 1.000000
-83.648659 -47.793842 2.237430 1.000000
-83.648659 -47.793842 2.079087 1.000000
-83.648659 -47.793842 1.920913 1.000000
-83.648659 -47.793842 1.762570 1.000000
-83.648659 -47.793846 1.603716 1.000000
-83.648659 -47.793846 1.444007 1.000000
-83.648659 -47.793846 1.283091 1.000000
-83.648659 -47.793846 1.120605 1.000000
-83.648659 -47.793846 0.956171 1.000000
-83.648659 -47.793846 0.789395 1.000000
-83.614960 -47.799294 3.209277 1.000000
-83.614960 -47.799294 3.042684 1.000000
-83.614960 -47.799294 2.878430 1.000000
-83.614960 -47.799294 2.716122 1.000000
-83.614960 -47.799294 2.555382 1.000000
-83.614960 -47.799294 2.395849 1.000000
-83.614960 -47.799294 2.237170 1.000000
-83.614960 -47.799294 2.079000 1.000000
-83.614960 -47.799294 1.921000 1.000000
-83.614960 -47.799297 1.762830 1.000000
-83.614960 -47.799294 1.604151 1.000000
-83.614960 -47.799297 1.444618 1.000000
-83.614960 -47.799294 1.283878 1.000000
-83.614960 -47.799297 1.121570 1.000000
-83.614960 -47.799297 0.957316 1.000000
-83.614960 -47.799297 0.790724 1.000000
-83.581337 -47.804733 3.208009 1.000000
-83.581337 -47.804733 3.041592 1.000000
-83.581337 -47.804733 2.877510 1.000000
-83.581337 -47.804733 2.715372 1.000000
-83.581337 -47.804733 2.554801 1.000000
-83.581337 -47.804733 2.395434 1.000000
-83.581337 -47.804733 2.236921 1.000000
-83.581337 -47.804733 2.078917 1.000000
-83.581337 -47.804733 1.921083 1.000000
-83.581337 -47.804733 1.763079 1.000000
-83.581337 -47.804733 1.604566 1.000000
-83.581337 -47.804733 1.445199 1.000000
-83.581337 -47.804737 1.284628 1.000000
-83.581337 -47.804733 1.122490 1.000000
-83.581337 -47.804733 0.958409 1.000000
-83.581337 -47.804733 0.791991 1.000000
-83.547775 -47.810162 3.206804 1.000000
-83.547775 -47.810162 3.040552 1.000000
-83.547775 -47.810165 2.876634 1.000000
-83.547775 -47.810162 2.714658 1.000000
-83.547775 -47.810165 2.554247 1.000000
-83.547775 -47.810165 2.395040 1.000000
-83.547775 -47.810162 2.236685 1.000000
-83.547775 -47.810165 2.078839 1.000000
-83.547775 -47.810165 1.921161 1.000000
-83.547775 -47.810165 1.763315 1.000000
-83.547775 -47.810165 1.604960 1.000000
-83.547775 -47.810165 1.445753 1.000000
-83.547775 -47.810165 1.285342 1.000000
-83.547775 -47.810165 1.123366 1.000000
-83.547775 -47.810165 0.959448 1.000000
-83.547775 -47.810165 0.793196 1.000000
-83.514282 -47.815582 3.205659 1.000000
-83.514282 -47.815582 3.039565 1.000000
-83.514282 -47.815582 2.875803 1.000000
-83.514282 -47.815582 2.713980 1.000000
-83.514282 -47.815582 2.553721 1.000000
-83.514282 -47.815582 2.394665 1.000000
-83.514282 -47.815582 2.236460 1.000000
-83.514282 -47.815582 2.078764 1.000000
-83.514282 -47.815582 1.921236 1.000000
-83.514282 -47.815582 1.763540 1.000000
-83.514282 -47.815582 1.605335 1.000000
-83.514282 -47.815582 1.446279 1.000000
-83.514282 -47.815582 1.286020 1.000000
-83.514282 -47.815582 1.124197 1.000000
-83.514282 -47.815582 0.960435 1.000000
-83.514282 -47.815582 0.794341 1.000000
-83.480858 -47.820988 3.204576 1.000000
-83.480858 -47.820992 3.038630 1.000000
-83.480858 -47.820988 2.875016 1.000000
-83.480858 -47.820992 2.713338 1.000000
-83.480858 -47.820992 2.553224 1.000000
-83.480858 -47.820992 2.394310 1.000000
-83.480858 -47.820992 2.236248 1.000000
-83.480858 -47.820992 2.078693 1.000000
-83.480858 -47.820992 1.921307 1.000000
-83.480858 -47.820992 1.763752 1.000000
-83.480858 -47.820992 1.605690 1.000000
-83.480858 -47.820992 1.446777 1.000000
-83.480858 -47.820992 1.286662 1.000000
-83.480858 -47.820992 1.124985 1.000000
-83.480858 -47.820992 0.961370 1.000000
-83.480858 -47.820992 0.795424 1.000000
-83.447487 -47.826389 3.203553 1.000000
-83.447487 -47.826389 3.037748 1.000000
-83.447487 -47.826389 2.874272 1.000000
-83.447487 -47.826389 2.712732 1.000000
-83.447487 -47.826389 2.552754 1.000000
-83.447487 -47.826389 2.393975 1.000000
-83.447487 -47.826389 2.236047 1.000000
-83.447487 -47.826389 2.078626 1.000000
-83.447487 -47.826389 1.921374 1.000000
-83.447487 -47.826389 1.763953 1.000000
-83.447487 -47.826389 1.606025 1.000000
-83.447487 -47.826389 1.447247 1.000000
-83.447487 -47.826389 1.287268 1.000000
-83.447487 -47.826389 1.125728 1.000000
-83.447487 -47.826389 0.962252 1.000000
-83.447487 -47.826389 0.796448 1.000000
-83.414169 -47.831776 3.202590 1.000000
-83.414169 -47.831776 3.036919 1.000000
-83.414169 -47.831776 2.873573 1.000000
-83.414169 -47.831776 2.712162 1.000000
-83.414169 -47.831776 2.552312 1.000000
-83.414169 -47.831776 2.393660 1.000000
-83.414169 -47.831776 2.235858 1.000000
-83.414169 -47.831776 2.078563 1.000000
-83.414169 -47.831776 1.921437 1.000000
-83.414169 -47.831776 1.764142 1.000000
-83.414169 -47.831776 1.606340 1.000000
-83.414169 -47.831776 1.447689 1.000000
-83.414169 -47.831779 1.287838 1.000000
-83.414169 -47.831779 1.126427 1.000000
-83.414169 -47.831776 0.963082 1.000000
-83.414169 -47.831776 0.797410 1.000000
-83.380898 -47.837158 3.201687 1.000000
-83.380898 -47.837162 3.036140 1.000000
-83.380898 -47.837158 2.872917 1.000000
-83.380898 -47.837158 2.711628 1.000000
-83.380898 -47.837162 2.551897 1.000000
-83.380898 -47.837162 2.393364 1.000000
-83.380898 -47.837162 2.235681 1.000000
-83.380898 -47.837162 2.078504 1.000000
-83.380898 -47.837162 1.921496 1.000000
-83.380898 -47.837162 1.764319 1.000000
-83.380898 -47.837162 1.606635 1.000000
-83.380898 -47.837162 1.448103 1.000000
-83.380898 -47.837162 1.288372 1.000000
-83.380898 -47.837162 1.127083 1.000000
-83.380898 -47.837162 0.963861 1.000000
-83.380898 -47.837162 0.798313 1.000000
-83.347679 -47.842533 3.200844 1.000000
-83.347679 -47.842533 3.035413 1.000000
-83.347679 -47.842533 2.872305 1.000000
-83.347679 -47.842533 2.711128 1.000000
-83.347679 -47.842533 2.551510 1.000000
-83.347679 -47.842533 2.393089 1.000000
-83.347679 -47.842533 2.235516 1.000000
-83.347679 -47.842533 2.078449 1.000000
-83.347679 -47.842533 1.921551 1.000000
-83.347679 -47.842533 1.764484 1.000000
-83.347679 -47.842533 1.606911 1.000000
-83.347679 -47.842537 1.448490 1.000000
-83.347679 -47.842537 1.288872 1.000000
