# This PCD file was generated using the MATLAB® pcwrite function
# from Computer Vision Toolbox®.
# .PCD v.7 - Point Cloud Data file format
VERSION .7
FIELDS x y z intensity
SIZE 4 4 4 4
TYPE F F F F
COUNT 1 1 1 1
WIDTH 1157
HEIGHT 1
VIEWPOINT 0 0 0 1 0 0 0
POINTS 1157
DATA ascii
200.672867 -233.783203 5.140501 0.776471
200.672867 -233.783203 4.560228 0.768627
200.672867 -233.783203 3.985563 0.592525
200.672867 -233.783203 3.415211 0.645221
200.672867 -233.783203 2.847912 0.758088
200.672867 -233.783203 2.282436 0.750000
200.672867 -233.783203 1.717564 0.768873
200.672867 -233.783203 1.152087 0.371936
200.672867 -233.783188 0.584789 0.640441
200.672867 -233.783188 0.014437 0.635784
201.437210 -230.085464 -0.000127 0.550613
201.941528 -227.645767 -0.000151 0.519608
202.292114 -225.949768 -0.000103 0.516667
202.550339 -224.700500 -0.000125 0.563480
200.574509 -233.667007 6.299908 0.543260
200.574493 -233.667007 5.707542 0.663971
200.574509 -233.667007 5.123494 0.551838
200.574509 -233.666992 4.546363 0.583211
200.574493 -233.666992 3.974811 0.614828
200.574493 -233.667007 3.407547 0.609436
200.574493 -233.666992 2.843321 0.568137
200.574493 -233.666992 2.280906 0.532966
200.574493 -233.667007 1.719094 0.580882
200.574493 -233.667007 1.156679 0.254412
200.574509 -233.666992 0.592453 0.720588
200.574509 -233.666992 0.025190 0.545711
201.345078 -230.066193 -0.000141 0.515686
201.866425 -227.630005 -0.000154 0.505147
202.228775 -225.936844 -0.000187 0.532843
202.495789 -224.689087 -0.000142 0.483578
200.477203 -233.552048 6.276955 0.746936
200.477203 -233.552048 5.687753 0.676225
200.477203 -233.552048 5.106822 0.862868
200.477203 -233.552032 4.532771 0.854657
200.477203 -233.552048 3.964270 0.641667
200.477203 -233.552048 3.400034 0.621814
200.477203 -233.552032 2.838819 0.589828
200.477203 -233.552032 2.279407 0.857108
200.477203 -233.552032 1.720593 0.846201
200.477203 -233.552032 1.161181 0.210417
200.477203 -233.552032 0.599966 0.704534
200.477203 -233.552032 0.035730 0.626716
201.252991 -230.046646 -0.000213 0.554412
201.791397 -227.613861 -0.000187 0.522304
202.165558 -225.923172 -0.000205 0.570711
202.441284 -224.677322 -0.000163 0.580270
200.380936 -233.438309 6.254453 0.676348
200.380936 -233.438293 5.668350 0.634559
200.380936 -233.438293 5.090476 0.785049
200.380936 -233.438309 4.519446 0.773407
200.380936 -233.438309 3.953936 0.433211
200.380936 -233.438309 3.392668 0.633824
200.380936 -233.438293 2.834406 0.584559
200.380920 -233.438293 2.277937 0.778922
200.380936 -233.438309 1.722063 0.805147
200.380920 -233.438293 1.165594 0.296201
200.380920 -233.438293 0.607332 0.648775
200.380920 -233.438293 0.046065 0.706863
201.161224 -230.025696 -0.000170 0.555760
201.716507 -227.597107 -0.000205 0.516789
202.102463 -225.909073 -0.000227 0.504534
202.386826 -224.665405 -0.000247 0.549265
200.285660 -233.325745 6.232391 0.682230
200.285660 -233.325745 5.649327 0.617279
200.285660 -233.325745 5.074450 0.586275
200.285675 -233.325745 4.506382 0.595588
200.285660 -233.325745 3.943804 0.637255
200.285675 -233.325745 3.385446 0.628799
200.285675 -233.325745 2.830079 0.589461
200.285675 -233.325745 2.276495 0.567279
200.285660 -233.325745 1.723505 0.587990
200.285675 -233.325745 1.169921 0.151716
200.285675 -233.325745 0.614553 0.673407
200.285675 -233.325745 0.056197 0.643750
201.069519 -230.004456 -0.000180 0.540196
201.641739 -227.579803 -0.000216 0.524265
202.039490 -225.894470 -0.000232 0.556127
202.332565 -224.652634 -0.000206 0.489706
200.191360 -233.214355 6.210762 0.587500
200.191360 -233.214355 5.630678 0.621078
200.191360 -233.214355 5.058738 0.597794
200.191360 -233.214355 4.493573 0.595956
200.191360 -233.214355 3.933870 0.604534
200.191376 -233.214355 3.378366 0.615564
200.191360 -233.214355 2.825837 0.577083
200.191360 -233.214355 2.275082 0.583946
200.191376 -233.214355 1.724918 0.596201
200.191360 -233.214355 1.174163 0.149142
200.191376 -233.214355 0.621634 0.713113
200.191360 -233.214355 0.066130 0.654167
200.977936 -229.982651 -0.000199 0.532475
201.567276 -227.561279 -0.000097 0.568873
201.976669 -225.879227 -0.000191 0.532353
202.278397 -224.639435 -0.000152 0.502328
200.098038 -233.104080 6.189555 0.687745
200.098038 -233.104080 5.612392 0.677574
200.098038 -233.104080 5.043334 0.768750
200.098038 -233.104111 4.481015 0.793137
200.098038 -233.104080 3.924130 0.519363
200.098038 -233.104080 3.371424 0.625735
200.098038 -233.104111 2.821678 0.594608
200.098038 -233.104080 2.273697 0.687745
200.098038 -233.104080 1.726303 0.772304
200.098038 -233.104111 1.178321 0.138971
200.098022 -233.104080 0.628576 0.646078
200.098022 -233.104080 0.075871 0.596936
200.886520 -229.960114 -0.000207 0.555025
201.492645 -227.543365 -0.000190 0.572549
201.913864 -225.863800 -0.000210 0.533824
202.224258 -224.626205 -0.000189 0.528922
200.005630 -232.994919 6.168762 0.610294
200.005630 -232.994919 5.594465 0.659191
200.005630 -232.994919 5.028230 0.768873
200.005630 -232.994919 4.468701 0.878431
200.005630 -232.994919 3.914580 0.603431
200.005630 -232.994919 3.364618 0.677328
200.005630 -232.994919 2.817600 0.642157
200.005630 -232.994919 2.272339 0.696324
200.005630 -232.994919 1.727661 0.834314
200.005630 -232.994919 1.182400 0.190074
200.005630 -232.994919 0.635381 0.663725
200.005630 -232.994919 0.085419 0.562990
200.795364 -229.936600 -0.000163 0.540564
201.418243 -227.524506 -0.000205 0.518750
201.851257 -225.847672 -0.000172 0.529044
202.170212 -224.612518 -0.000204 0.531373
199.914139 -232.886826 6.148378 0.637745
199.914139 -232.886826 5.576886 0.663848
199.914139 -232.886826 5.013422 0.771936
199.914139 -232.886826 4.456630 0.885662
199.914139 -232.886826 3.905219 0.694118
199.914139 -232.886826 3.357945 0.540686
199.914139 -232.886826 2.813601 0.606618
199.914139 -232.886826 2.271007 0.697304
199.914139 -232.886826 1.728993 0.843750
199.914139 -232.886826 1.186398 0.219485
199.914139 -232.886826 0.642054 0.716054
199.914139 -232.886826 0.094781 0.597426
200.704285 -229.912857 -0.000179 0.541544
201.344070 -227.504822 -0.000160 0.530637
201.788712 -225.831314 -0.000176 0.555025
202.116318 -224.598236 -0.000164 0.493750
199.823532 -232.779770 6.128390 0.589706
199.823517 -232.779755 5.559653 0.588726
199.823532 -232.779755 4.998902 0.752941
199.823517 -232.779755 4.444793 0.885662
199.823517 -232.779755 3.896039 0.657598
199.823517 -232.779755 3.351402 0.670833
199.823532 -232.779755 2.809682 0.629289
199.823532 -232.779770 2.269701 0.695466
199.823532 -232.779785 1.730299 0.743137
199.823532 -232.779755 1.190318 0.248407
199.823517 -232.779755 0.648598 0.733946
199.823517 -232.779755 0.103962 0.567034
200.613373 -229.888458 -0.000191 0.537623
201.269958 -227.484955 -0.000178 0.536642
201.726318 -225.814377 -0.000148 0.564338
202.062500 -224.583771 -0.000173 0.537623
199.733780 -232.673737 6.108793 0.628554
199.733780 -232.673737 5.542756 0.532353
199.733780 -232.673737 4.984667 0.752941
199.733780 -232.673737 4.433187 0.885662
199.733780 -232.673737 3.887039 0.634436
199.733780 -232.673737 3.344988 0.599265
199.733780 -232.673737 2.805839 0.644730
199.733780 -232.673737 2.268421 0.639093
199.733780 -232.673737 1.731579 0.741176
199.733780 -232.673737 1.194161 0.439338
199.733780 -232.673737 0.655012 0.617034
199.733780 -232.673737 0.112962 0.606740
200.522751 -229.862915 -0.000127 0.541054
201.196091 -227.464111 -0.000109 0.498652
201.664078 -225.796875 -0.000094 0.535907
202.008743 -224.568939 -0.000186 0.501348
199.644867 -232.568695 6.089581 0.653922
199.644867 -232.568726 5.526193 0.528554
199.644882 -232.568695 4.970712 0.751961
199.644867 -232.568695 4.421811 0.739951
199.644867 -232.568695 3.878215 0.414461
199.644882 -232.568695 3.338698 0.600613
199.644867 -232.568695 2.802071 0.678676
199.644867 -232.568695 2.267166 0.647181
199.644867 -232.568695 1.732834 0.741176
199.644867 -232.568695 1.197929 0.450490
199.644867 -232.568695 0.661301 0.635172
199.644867 -232.568695 0.121785 0.630515
200.432098 -229.837570 -0.000192 0.519853
201.122162 -227.443481 -0.000179 0.530882
201.601837 -225.779358 -0.000133 0.565441
201.955139 -224.553665 -0.000179 0.564338
199.556793 -232.464645 6.070745 0.694118
199.556793 -232.464661 5.509950 0.378799
199.556793 -232.464661 4.957029 0.582966
199.556793 -232.464661 4.410657 0.645466
199.556793 -232.464661 3.869565 0.673284
199.556793 -232.464661 3.332533 0.662745
199.556793 -232.464661 2.798376 0.574020
199.556793 -232.464645 2.265935 0.558333
199.556793 -232.464630 1.734065 0.577328
199.556793 -232.464645 1.201624 0.450123
199.556793 -232.464645 0.667467 0.641544
199.556793 -232.464645 0.130436 0.704167
200.341721 -229.811234 -0.000201 0.525368
201.048492 -227.422012 -0.000187 0.554167
201.539734 -225.761368 -0.000165 0.574632
201.901611 -224.538101 -0.000196 0.536397
199.469513 -232.361542 6.052279 0.692279
199.469513 -232.361542 5.494028 0.473529
199.469513 -232.361542 4.943615 0.768627
199.469513 -232.361542 4.399721 0.760784
199.469513 -232.361542 3.861083 0.631250
199.469513 -232.361542 3.326487 0.667647
199.469513 -232.361542 2.794755 0.687255
199.469513 -232.361542 2.264729 0.669485
199.469513 -232.361542 1.735271 0.768015
199.469513 -232.361542 1.205245 0.515809
199.469513 -232.361542 0.673512 0.599510
199.469513 -232.361542 0.138916 0.663725
200.251617 -229.784012 -0.000167 0.540074
200.975037 -227.399811 -0.000155 0.535049
201.477844 -225.742706 -0.000140 0.561029
201.848236 -224.521957 -0.000160 0.539828
199.383026 -232.259354 6.034174 0.650368
199.383026 -232.259354 5.478418 0.498162
199.383026 -232.259338 4.930462 0.768627
199.383026 -232.259338 4.388999 0.760784
199.383026 -232.259338 3.852768 0.598407
199.383026 -232.259338 3.320561 0.575123
199.383026 -232.259338 2.791203 0.654289
199.383026 -232.259338 2.263546 0.671201
199.383026 -232.259338 1.736454 0.768627
199.383026 -232.259338 1.208796 0.504412
199.383026 -232.259338 0.679439 0.588358
199.383026 -232.259338 0.147233 0.748039
200.161591 -229.756470 -0.000183 0.558701
200.901642 -227.377380 -0.000172 0.537255
201.416031 -225.723755 -0.000147 0.570588
201.794861 -224.505920 -0.000252 0.559436
199.297302 -232.158081 6.016428 0.598162
199.297302 -232.158066 5.463116 0.378309
199.297302 -232.158066 4.917572 0.768750
199.297302 -232.158066 4.378489 0.781740
199.297302 -232.158066 3.844618 0.683456
199.297302 -232.158066 3.314752 0.583578
199.297302 -232.158081 2.787723 0.618750
199.297302 -232.158066 2.262387 0.664216
199.297302 -232.158066 1.737613 0.768627
199.297302 -232.158081 1.212276 0.500980
199.297302 -232.158066 0.685248 0.630637
199.297302 -232.158081 0.155382 0.706740
200.071716 -229.728470 -0.000228 0.534191
200.828461 -227.354263 -0.000161 0.517647
201.354370 -225.704300 -0.000141 0.526471
201.741821 -224.488708 -0.000124 0.520833
199.212311 -232.057678 5.999027 0.734191
199.212311 -232.057678 5.448112 0.091176
199.212311 -232.057678 4.904933 0.769485
199.212311 -232.057678 4.368186 0.760784
199.212311 -232.057663 3.836627 0.677574
199.212311 -232.057678 3.309056 0.573039
199.212311 -232.057678 2.784310 0.662500
199.212311 -232.057678 2.261250 0.672304
199.212311 -232.057678 1.738750 0.768627
199.212311 -232.057678 1.215689 0.499510
199.212311 -232.057663 0.690944 0.669118
199.212311 -232.057663 0.163374 0.677451
199.982208 -229.699295 -0.000184 0.517647
200.755432 -227.330719 -0.000164 0.527696
201.292709 -225.684860 -0.000235 0.538113
201.688751 -224.471664 -0.000141 0.555147
199.128067 -231.958145 5.981972 0.696691
199.128067 -231.958145 5.433407 0.131250
199.128067 -231.958145 4.892542 0.768627
199.128067 -231.958145 4.358086 0.760784
199.128067 -231.958145 3.828794 0.705147
199.128052 -231.958145 3.303473 0.607721
199.128067 -231.958145 2.780965 0.549877
199.128082 -231.958145 2.260136 0.664338
199.128067 -231.958145 1.739864 0.768627
199.128067 -231.958145 1.219034 0.494608
199.128067 -231.958145 0.696526 0.632598
199.128067 -231.958145 0.171206 0.666912
199.892914 -229.669525 -0.000147 0.555882
200.682465 -227.306915 -0.000216 0.495956
201.231384 -225.664413 -0.000193 0.522426
201.635880 -224.454010 -0.000097 0.494608
199.044525 -231.859451 5.965254 0.782843
199.044525 -231.859451 5.418992 0.238848
199.044525 -231.859451 4.880399 0.768627
199.044525 -231.859451 4.348186 0.760294
199.044525 -231.859451 3.821116 0.656618
199.044525 -231.859451 3.298001 0.557721
199.044525 -231.859451 2.777687 0.544240
199.044525 -231.859451 2.259044 0.664461
199.044525 -231.859451 1.740956 0.768627
199.044525 -231.859451 1.222313 0.481740
199.044525 -231.859451 0.701999 0.707598
199.044525 -231.859451 0.178885 0.760662
199.803513 -229.639999 -0.000245 0.529779
200.609741 -227.282394 -0.000228 0.542525
201.170181 -225.643539 -0.000155 0.520221
201.583023 -224.436310 -0.000139 0.579289
198.961685 -231.761566 5.948868 0.613235
198.961685 -231.761566 5.404862 0.356618
198.961685 -231.761566 4.868495 0.611029
198.961685 -231.761566 4.338481 0.658701
198.961685 -231.761566 3.813590 0.660294
198.961685 -231.761566 3.292636 0.585294
198.961685 -231.761566 2.774473 0.676471
198.961685 -231.761566 2.257973 0.621201
198.961685 -231.761566 1.742027 0.631127
198.961685 -231.761566 1.225527 0.492892
198.961685 -231.761566 0.707363 0.676348
198.961685 -231.761566 0.186411 0.662745
199.714447 -229.609497 -0.000288 0.543627
200.537231 -227.257233 -0.000214 0.534804
201.109009 -225.622604 -0.000200 0.577941
201.530273 -224.418259 -0.000184 0.548897
198.879517 -231.664505 5.932807 0.549510
198.879517 -231.664505 5.391014 0.379289
198.879517 -231.664505 4.856829 0.876593
198.879517 -231.664505 4.328970 0.813725
198.879517 -231.664505 3.806213 0.649387
198.879517 -231.664505 3.287379 0.616299
198.879517 -231.664505 2.771323 0.705270
198.879517 -231.664505 2.256924 0.846446
198.879517 -231.664505 1.743076 0.872549
198.879517 -231.664505 1.228677 0.478431
198.879517 -231.664505 0.712620 0.671201
198.879517 -231.664505 0.193787 0.624265
199.625793 -229.577850 -0.000246 0.554412
200.464951 -227.231476 -0.000177 0.521936
201.048111 -225.600891 -0.000167 0.549510
201.477753 -224.399536 -0.000149 0.531618
198.798019 -231.568207 5.917067 0.639583
198.798019 -231.568207 5.377443 0.429167
198.798019 -231.568207 4.845395 0.874877
198.798019 -231.568207 4.319649 0.747181
198.798019 -231.568207 3.798985 0.636520
198.798019 -231.568207 3.282227 0.660907
198.798019 -231.568207 2.768236 0.659191
198.798019 -231.568207 2.255896 0.865809
198.798019 -231.568207 1.744104 0.850000
198.798019 -231.568192 1.231764 0.495588
198.798019 -231.568192 0.717773 0.647549
198.798019 -231.568192 0.201016 0.649877
199.537415 -229.545395 -0.000177 0.567892
200.392807 -227.205292 -0.000164 0.538358
200.987335 -225.578842 -0.000152 0.551593
201.425323 -224.380615 -0.000159 0.537745
198.717148 -231.472672 5.901640 0.633701
198.717148 -231.472672 5.364141 0.466054
198.717148 -231.472672 4.834189 0.593137
198.717148 -231.472672 4.310514 0.603922
198.717148 -231.472672 3.791900 0.647181
198.717148 -231.472672 3.277177 0.682843
198.717148 -231.472672 2.765210 0.680392
198.717148 -231.472672 2.254888 0.562500
198.717148 -231.472672 1.745112 0.586029
198.717163 -231.472672 1.234790 0.496569
198.717148 -231.472672 0.722823 0.627083
198.717163 -231.472672 0.208101 0.610784
199.449081 -229.512833 -0.000186 0.510784
200.320801 -227.178757 -0.000174 0.527696
200.926620 -225.556610 -0.000190 0.515441
201.373032 -224.361313 -0.000165 0.503309
198.636932 -231.377884 5.886523 0.661274
198.636932 -231.377884 5.351107 0.530515
198.636917 -231.377884 4.823208 0.590196
198.636932 -231.377884 4.301561 0.605270
198.636932 -231.377884 3.784957 0.709069
198.636932 -231.377884 3.272229 0.725980
198.636917 -231.377884 2.762246 0.655515
198.636932 -231.377884 2.253901 0.575368
198.636932 -231.377884 1.746099 0.578309
198.636917 -231.377884 1.237755 0.573162
198.636917 -231.377884 0.727772 0.655147
198.636917 -231.377884 0.215043 0.633701
199.360931 -229.479858 -0.000228 0.523897
200.248856 -227.152023 -0.000248 0.541544
200.866058 -225.533951 -0.000233 0.550613
201.320801 -224.341843 -0.000218 0.542157
198.557312 -231.283829 5.871712 0.691912
198.557312 -231.283829 5.338336 0.552451
198.557312 -231.283829 4.812449 0.599142
198.557312 -231.283829 4.292791 0.620588
198.557312 -231.283829 3.778155 0.670833
198.557312 -231.283829 3.267380 0.691667
198.557312 -231.283829 2.759341 0.662377
198.557312 -231.283829 2.252933 0.594118
198.557312 -231.283829 1.747067 0.595711
198.557312 -231.283829 1.240659 0.548039
198.557312 -231.283829 0.732620 0.665074
198.557312 -231.283829 0.221845 0.661029
199.272964 -229.446304 -0.000277 0.548897
200.177338 -227.124237 -0.000209 0.547794
200.805801 -225.510559 -0.000201 0.536152
201.268921 -224.321442 -0.000125 0.506373
198.478302 -231.190491 5.857201 0.647181
198.478302 -231.190491 5.325826 0.540319
198.478302 -231.190491 4.801909 0.583088
198.478302 -231.190491 4.284198 0.445098
198.478302 -231.190491 3.771490 0.640809
198.478302 -231.190491 3.262630 0.729044
198.478302 -231.190491 2.756495 0.640319
198.478302 -231.190491 2.251985 0.562623
198.478302 -231.190491 1.748015 0.587377
198.478302 -231.190491 1.243505 0.608456
198.478302 -231.190491 0.737370 0.651716
198.478302 -231.190491 0.228510 0.699755
199.185562 -229.411316 -0.000194 0.538725
200.106094 -227.095688 -0.000122 0.526838
200.745880 -225.486252 -0.000051 0.512623
201.217163 -224.300705 -0.000039 0.533333
198.399872 -231.097824 5.842983 0.721691
198.399857 -231.097824 5.313567 0.778676
198.399857 -231.097824 4.791581 0.837500
198.399857 -231.097824 4.275778 0.481250
198.399857 -231.097824 3.764961 0.619853
198.399872 -231.097824 3.257976 0.759559
198.399857 -231.097824 2.753707 0.550858
198.399857 -231.097824 2.251056 0.623039
198.399857 -231.097824 1.748944 0.838726
198.399857 -231.097824 1.246293 0.583824
198.399872 -231.097824 0.742023 0.619608
198.399872 -231.097824 0.235039 0.753064
199.098099 -229.376511 -0.000240 0.538848
200.034775 -227.067352 -0.000172 0.519608
200.685806 -225.462372 -0.000101 0.531740
201.165237 -224.280411 -0.000169 0.510784
198.322006 -231.005859 5.829058 0.579044
198.322006 -231.005859 5.301558 0.758946
198.322006 -231.005859 4.781465 0.825123
198.322006 -231.005859 4.267531 0.567524
198.322006 -231.005859 3.758565 0.629657
198.322021 -231.005844 3.253417 0.631373
198.322006 -231.005859 2.750975 0.498162
198.322021 -231.005844 2.250146 0.618260
198.322021 -231.005844 1.749854 0.815074
198.322006 -231.005859 1.249025 0.568382
198.322006 -231.005859 0.746582 0.647181
198.322006 -231.005859 0.241435 0.629167
199.011398 -229.339798 -0.000075 0.528431
199.963989 -227.037704 -0.000064 0.546691
200.625992 -225.437805 -0.000089 0.559314
201.113815 -224.258896 -0.000068 0.588235
198.244720 -230.914536 5.815417 0.607843
198.244720 -230.914536 5.289797 0.768873
198.244705 -230.914536 4.771557 0.819363
198.244720 -230.914536 4.259454 0.612868
198.244720 -230.914536 3.752300 0.557966
198.244720 -230.914536 3.248953 0.715319
198.244720 -230.914536 2.748300 0.626961
198.244720 -230.914536 2.249255 0.630515
198.244720 -230.914536 1.750745 0.815686
198.244720 -230.914536 1.251700 0.573897
198.244720 -230.914536 0.751047 0.587868
198.244720 -230.914536 0.247700 0.709804
198.924438 -229.303787 -0.000118 0.537990
199.893188 -227.008057 -0.000054 0.512990
200.566284 -225.413055 -0.000132 0.523162
201.062393 -224.237381 -0.000057 0.513358
198.167969 -230.823837 5.802058 0.673407
198.167969 -230.823837 5.278277 0.743995
198.167969 -230.823837 4.761852 0.741176
198.167969 -230.823837 4.251542 0.600613
198.167969 -230.823837 3.746165 0.634436
198.167969 -230.823837 3.244579 0.640686
198.167969 -230.823837 2.745680 0.597181
198.167969 -230.823837 2.248382 0.644975
198.167969 -230.823853 1.751617 0.741176
198.167984 -230.823837 1.254320 0.602941
198.167969 -230.823837 0.755421 0.616299
198.167969 -230.823837 0.253836 0.635417
198.837723 -229.267151 -0.000163 0.546814
199.822510 -226.978210 -0.000099 0.521324
200.506729 -225.387894 -0.000173 0.531373
201.011032 -224.215698 -0.000106 0.534804
198.091751 -230.733810 5.788978 0.618995
198.091751 -230.733810 5.266999 0.665564
198.091751 -230.733810 4.752349 0.741176
198.091751 -230.733810 4.243796 0.547917
198.091751 -230.733810 3.740157 0.597917
198.091751 -230.733810 3.240297 0.675613
198.091751 -230.733810 2.743114 0.584069
198.091751 -230.733810 2.247528 0.664951
198.091751 -230.733810 1.752472 0.741176
198.091751 -230.733810 1.256885 0.596446
198.091751 -230.733810 0.759702 0.657230
198.091751 -230.733810 0.259843 0.655882
198.751495 -229.229401 -0.000122 0.532475
199.752213 -226.947418 -0.000057 0.587868
200.447601 -225.361725 -0.000075 0.505147
200.959976 -224.193344 -0.000063 0.513480
198.016052 -230.644379 5.776169 0.678064
198.016037 -230.644379 5.255955 0.646324
198.016037 -230.644379 4.743045 0.741176
198.016037 -230.644379 4.236211 0.500735
198.016037 -230.644379 3.734275 0.721814
198.016037 -230.644379 3.236104 0.659559
198.016052 -230.644379 2.740602 0.569118
198.016037 -230.644379 2.246691 0.679902
198.016052 -230.644379 1.753309 0.741176
198.016052 -230.644379 1.259398 0.586029
198.016052 -230.644363 0.763896 0.671814
198.016052 -230.644363 0.265726 0.642647
198.665451 -229.191208 -0.000108 0.530760
199.681885 -226.916718 -0.000130 0.567034
200.388504 -225.335510 -0.000066 0.542892
200.908981 -224.170837 -0.000080 0.504534
197.940857 -230.555527 5.763628 0.717770
197.940857 -230.555527 5.245142 0.583701
197.940857 -230.555527 4.733935 0.593137
197.940857 -230.555527 4.228785 0.500858
197.940857 -230.555527 3.728516 0.646201
197.940857 -230.555527 3.231999 0.748407
197.940857 -230.555527 2.738143 0.582108
197.940857 -230.555527 2.245872 0.578554
197.940857 -230.555527 1.754128 0.599877
197.940872 -230.555527 1.261857 0.626593
197.940857 -230.555527 0.768000 0.612990
197.940857 -230.555527 0.271485 0.697917
198.579498 -229.152802 -0.000158 0.529657
199.611816 -226.885391 -0.000175 0.533824
200.329483 -225.309113 -0.000111 0.553186
200.858093 -224.148056 -0.000122 0.561765
197.866150 -230.467285 5.751354 0.618382
197.866150 -230.467285 5.234560 0.747059
197.866150 -230.467285 4.725019 0.760294
197.866150 -230.467285 4.221517 0.482353
197.866150 -230.467285 3.722878 0.677083
197.866165 -230.467285 3.227982 0.650123
197.866150 -230.467285 2.735736 0.580515
197.866150 -230.467285 2.245070 0.715809
197.866150 -230.467285 1.754930 0.760417
197.866150 -230.467285 1.264264 0.621569
197.866150 -230.467285 0.772018 0.596201
197.866165 -230.467285 0.277122 0.608456
198.493912 -229.113617 -0.000177 0.543260
199.542236 -226.853043 -0.000112 0.506495
200.270767 -225.282043 -0.000095 0.513603
200.807449 -224.124771 -0.000119 0.508578
197.791946 -230.379593 5.739341 0.619485
197.791946 -230.379608 5.224202 0.770833
197.791946 -230.379593 4.716293 0.768627
197.791946 -230.379593 4.214402 0.490809
197.791946 -230.379593 3.717361 0.602696
197.791946 -230.379593 3.224050 0.686887
197.791946 -230.379593 2.733379 0.653922
197.791931 -230.379593 2.244285 0.771936
197.791946 -230.379593 1.755715 0.768627
197.791946 -230.379593 1.266620 0.585539
197.791946 -230.379593 0.775950 0.640074
197.791946 -230.379593 0.282639 0.726838
198.408707 -229.073593 -0.000158 0.537500
199.472778 -226.820404 -0.000093 0.535784
200.212173 -225.254730 -0.000114 0.547672
200.756989 -224.101074 -0.000098 0.570588
197.718185 -230.292465 5.727586 0.633946
197.718185 -230.292465 5.214066 0.782598
197.718185 -230.292465 4.707755 0.768627
197.718185 -230.292465 4.207441 0.499265
197.718185 -230.292465 3.711962 0.615319
197.718185 -230.292465 3.220201 0.608456
197.718185 -230.292465 2.731074 0.620711
197.718185 -230.292465 2.243518 0.778799
197.718185 -230.292465 1.756483 0.768627
197.718185 -230.292465 1.268926 0.573284
197.718185 -230.292465 0.779798 0.613358
197.718185 -230.292465 0.288038 0.639338
198.323853 -229.032837 -0.000116 0.549510
199.403595 -226.787201 -0.000052 0.540441
200.153900 -225.226730 -0.000070 0.520956
200.706833 -224.076767 -0.000005 0.506495
197.644913 -230.205902 5.716085 0.680025
197.644913 -230.205902 5.204149 0.780515
197.644913 -230.205902 4.699401 0.768627
197.644913 -230.205902 4.200630 0.486397
197.644913 -230.205902 3.706680 0.639338
197.644913 -230.205902 3.216437 0.644608
197.644913 -230.205902 2.728819 0.631863
197.644913 -230.205902 2.242766 0.778309
197.644913 -230.205872 1.757234 0.768627
197.644913 -230.205872 1.271182 0.576103
197.644913 -230.205872 0.783563 0.701471
197.644913 -230.205872 0.293320 0.616544
198.239014 -228.992065 -0.000165 0.536397
199.334229 -226.754379 -0.000188 0.547672
200.095627 -225.198715 -0.000117 0.539706
200.656601 -224.052582 -0.000050 0.531250
197.572052 -230.119843 5.704837 0.613480
197.572052 -230.119843 5.194450 0.776593
197.572052 -230.119843 4.691229 0.768627
197.572052 -230.119843 4.193969 0.405270
197.572067 -230.119827 3.701514 0.671324
197.572067 -230.119843 3.212754 0.626471
197.572067 -230.119827 2.726612 0.593627
197.572067 -230.119827 2.242031 0.772549
197.572067 -230.119827 1.757969 0.768627
197.572067 -230.119827 1.273388 0.577696
197.572067 -230.119827 0.787245 0.718260
197.572067 -230.119827 0.298486 0.589338
198.154541 -228.950485 -0.000184 0.540074
199.265381 -226.720490 -0.000205 0.544730
200.037613 -225.170181 -0.000137 0.557966
200.606583 -224.027954 -0.000066 0.499387
197.499649 -230.034286 5.693832 0.708456
197.499649 -230.034302 5.184962 0.776471
197.499649 -230.034302 4.683236 0.768627
197.499649 -230.034302 4.187452 0.186029
197.499649 -230.034302 3.696460 0.691176
197.499649 -230.034286 3.209152 0.612010
197.499649 -230.034286 2.724454 0.652941
197.499649 -230.034302 2.241312 0.769608
197.499664 -230.034286 1.758688 0.768627
197.499664 -230.034286 1.275546 0.580270
197.499664 -230.034286 0.790847 0.699387
197.499664 -230.034286 0.303540 0.603064
198.070572 -228.907959 -0.000140 0.547059
199.196899 -226.685822 -0.000164 0.543995
199.979950 -225.140961 -0.000093 0.512132
200.556702 -224.003098 -0.000110 0.521814
197.427673 -229.949249 5.683076 0.620343
197.427673 -229.949249 5.175687 0.776471
197.427673 -229.949249 4.675421 0.768627
197.427673 -229.949249 4.181081 0.173897
197.427673 -229.949249 3.691519 0.720098
197.427673 -229.949249 3.205631 0.623775
197.427673 -229.949249 2.722344 0.570588
197.427673 -229.949249 2.240609 0.771569
197.427689 -229.949249 1.759391 0.768627
197.427689 -229.949249 1.277656 0.578799
197.427689 -229.949249 0.794369 0.670221
197.427689 -229.949249 0.308481 0.571078
197.986618 -228.865372 -0.000186 0.541667
199.128601 -226.650818 -0.000150 0.530882
199.922409 -225.111481 -0.000082 0.524877
200.506989 -223.977890 -0.000155 0.533456
197.356125 -229.864700 5.672557 0.656373
197.356110 -229.864716 5.166618 0.602941
197.356125 -229.864700 4.667781 0.634804
197.356125 -229.864700 4.174853 0.196324
197.356125 -229.864700 3.686689 0.635662
197.356125 -229.864700 3.202188 0.610049
197.356125 -229.864700 2.720281 0.649755
197.356125 -229.864700 2.239922 0.589093
197.356125 -229.864700 1.760078 0.635662
197.356125 -229.864700 1.279718 0.548284
197.356125 -229.864700 0.797812 0.678064
197.356125 -229.864700 0.313311 0.588726
197.903961 -228.820297 0.000090 0.542279
199.060715 -226.615051 -0.000077 0.552574
199.865204 -225.081375 -0.000014 0.559804
200.457764 -223.951706 -0.000030 0.512255
197.284958 -229.780640 5.662277 0.577206
197.284958 -229.780640 5.157754 0.589461
197.284958 -229.780640 4.660313 0.588480
197.284958 -229.780640 4.168765 0.204902
197.284958 -229.780640 3.681968 0.594853
197.284958 -229.780640 3.198822 0.626716
197.284958 -229.780640 2.718265 0.639216
197.284958 -229.780624 2.239251 0.589583
197.284958 -229.780640 1.760749 0.603309
197.284958 -229.780640 1.281735 0.497059
197.284958 -229.780640 0.801177 0.664338
197.284958 -229.780640 0.318033 0.634191
197.820602 -228.776550 0.000045 0.546201
198.992767 -226.579391 -0.000124 0.550858
199.807953 -225.051331 -0.000058 0.536274
200.408401 -223.925781 -0.000070 0.536274
197.214188 -229.697037 5.652233 0.611274
197.214188 -229.697037 5.149094 0.865074
197.214188 -229.697037 4.653018 0.873652
197.214172 -229.697037 4.162817 0.257966
197.214188 -229.697037 3.677355 0.585907
197.214188 -229.697037 3.195535 0.619485
197.214172 -229.697037 2.716295 0.678799
197.214188 -229.697037 2.238595 0.880637
197.214188 -229.697037 1.761405 0.872304
197.214172 -229.697037 1.283705 0.536274
197.214188 -229.697037 0.804464 0.650735
197.214188 -229.697037 0.322645 0.619118
197.737640 -228.732086 0.000023 0.534559
198.925125 -226.543152 -0.000146 0.509926
199.750778 -225.021149 -0.000167 0.538971
200.359268 -223.899475 -0.000098 0.529534
197.143799 -229.613876 5.642421 0.586152
197.143799 -229.613876 5.140632 0.862745
197.143814 -229.613876 4.645889 0.860662
197.143799 -229.613876 4.157006 0.293627
197.143799 -229.613876 3.672848 0.538235
197.143799 -229.613876 3.192323 0.653431
197.143799 -229.613876 2.714371 0.649755
197.143814 -229.613876 2.237954 0.844975
197.143814 -229.613876 1.762047 0.866544
197.143814 -229.613876 1.285629 0.525490
197.143814 -229.613876 0.807677 0.635172
197.143814 -229.613876 0.327152 0.636887
197.655243 -228.686615 0.000074 0.522426
198.857910 -226.506073 -0.000096 0.548039
199.694168 -224.989914 -0.000118 0.538971
200.310455 -223.872559 -0.000052 0.552819
197.073792 -229.531158 5.632835 0.619976
197.073792 -229.531158 5.132368 0.580270
197.073792 -229.531174 4.638927 0.572549
197.073792 -229.531158 4.151331 0.322549
197.073792 -229.531158 3.668446 0.566422
197.073792 -229.531158 3.189186 0.642647
197.073792 -229.531158 2.712491 0.722304
197.073792 -229.531158 2.237328 0.557966
197.073792 -229.531158 1.762673 0.582475
197.073792 -229.531158 1.287509 0.506985
197.073792 -229.531158 0.810814 0.640564
197.073792 -229.531158 0.331554 0.636275
197.572708 -228.641342 -0.000007 0.529657
198.790619 -226.469177 -0.000181 0.513848
199.637482 -224.958817 -0.000199 0.518137
200.261581 -223.845734 -0.000128 0.557108
197.004150 -229.448883 5.623478 0.663971
197.004150 -229.448883 5.124300 0.589706
197.004150 -229.448883 4.632130 0.586887
197.004150 -229.448883 4.145790 0.355637
197.004150 -229.448883 3.664149 0.599387
197.004150 -229.448883 3.186123 0.678676
197.004150 -229.448883 2.710656 0.609436
197.004150 -229.448883 2.236716 0.573039
197.004150 -229.448883 1.763284 0.587377
197.004150 -229.448883 1.289344 0.615809
197.004150 -229.448883 0.813877 0.730025
197.004150 -229.448868 0.335851 0.693260
197.490784 -228.594986 0.000001 0.543750
198.724121 -226.430893 -0.000069 0.518260
199.581589 -224.926315 -0.000030 0.546569
200.213196 -223.818054 -0.000057 0.587132
196.934845 -229.367020 5.614347 0.652083
196.934845 -229.367020 5.116426 0.602819
196.934845 -229.367020 4.625496 0.597672
196.934845 -229.367020 4.140381 0.382353
196.934845 -229.367020 3.659955 0.677328
196.934845 -229.367020 3.183134 0.755392
196.934845 -229.367020 2.708864 0.640196
196.934845 -229.367020 2.236120 0.596691
196.934845 -229.367020 1.763881 0.599510
196.934845 -229.367020 1.291135 0.611152
196.934845 -229.367020 0.816867 0.677574
196.934845 -229.367020 0.340045 0.676471
197.408905 -228.548538 -0.000078 0.547672
198.657486 -226.392822 -0.000103 0.547917
199.525345 -224.894440 -0.000111 0.511152
200.164703 -223.790558 -0.000137 0.550490
196.865906 -229.285568 5.605435 0.671446
196.865906 -229.285568 5.108742 0.604167
196.865906 -229.285568 4.619022 0.589093
196.865906 -229.285568 4.135104 0.425858
196.865906 -229.285568 3.655862 0.621569
196.865906 -229.285568 3.180216 0.670343
196.865906 -229.285568 2.707117 0.700490
196.865906 -229.285568 2.235538 0.596078
196.865906 -229.285568 1.764463 0.596078
196.865906 -229.285568 1.292883 0.604044
196.865906 -229.285568 0.819784 0.667034
196.865906 -229.285568 0.344139 0.623897
197.327469 -228.501328 -0.000122 0.553676
198.591095 -226.354355 -0.000149 0.534926
199.469406 -224.862030 -0.000159 0.515441
200.116470 -223.762604 -0.000181 0.568015
196.797302 -229.204514 5.596740 0.659804
196.797302 -229.204514 5.101245 0.727206
196.797302 -229.204498 4.612707 0.810049
196.797302 -229.204514 4.129955 0.431740
196.797302 -229.204514 3.651869 0.642157
196.797302 -229.204514 3.177370 0.702328
196.797302 -229.204514 2.705412 0.677451
196.797302 -229.204514 2.234969 0.656005
196.797302 -229.204514 1.765031 0.788358
196.797302 -229.204514 1.294588 0.589461
196.797302 -229.204514 0.822630 0.654289
196.797302 -229.204514 0.348131 0.615441
197.246780 -228.452881 -0.000046 0.549755
198.525299 -226.314865 -0.000079 0.543137
199.414063 -224.828583 -0.000044 0.546201
200.068680 -223.733917 -0.000109 0.513358
196.729019 -229.123825 5.588263 0.640196
196.729019 -229.123825 5.093936 0.760539
196.729019 -229.123825 4.606549 0.878309
196.729019 -229.123825 4.124935 0.503431
196.729019 -229.123825 3.647975 0.632721
196.729019 -229.123825 3.174595 0.580024
196.729019 -229.123825 2.703750 0.653799
196.729004 -229.123825 2.234416 0.672181
196.729019 -229.123825 1.765585 0.823284
196.729019 -229.123825 1.296251 0.578186
196.729019 -229.123825 0.825405 0.690686
196.729019 -229.123825 0.352025 0.645956
197.165970 -228.404572 -0.000096 0.521691
198.459427 -226.275467 -0.000126 0.552696
199.358597 -224.795395 -0.000089 0.530515
200.020844 -223.705292 -0.000152 0.569730
196.661057 -229.043533 5.580001 0.678922
196.661057 -229.043533 5.086811 0.754412
196.661057 -229.043533 4.600547 0.879412
196.661057 -229.043533 4.120042 0.493627
196.661057 -229.043533 3.644181 0.704044
196.661057 -229.043533 3.171890 0.648529
196.661057 -229.043533 2.702129 0.644975
196.661057 -229.043533 2.233876 0.698162
196.661057 -229.043533 1.766124 0.822181
196.661057 -229.043533 1.297871 0.575000
196.661057 -229.043533 0.828109 0.669853
196.661057 -229.043533 0.355819 0.620833
197.085968 -228.354980 -0.000021 0.520221
198.394394 -226.234741 0.000014 0.522426
199.303619 -224.761368 -0.000020 0.508333
199.973465 -223.675919 -0.000076 0.545221
196.593399 -228.963608 5.571948 0.701226
196.593399 -228.963608 5.079869 0.761765
196.593399 -228.963608 4.594698 0.883946
196.593399 -228.963608 4.115273 0.490074
196.593399 -228.963608 3.640483 0.747304
196.593399 -228.963608 3.169255 0.633088
196.593399 -228.963608 2.700550 0.663113
196.593399 -228.963608 2.233350 0.723529
196.593399 -228.963608 1.766650 0.819975
196.593399 -228.963608 1.299451 0.558456
196.593399 -228.963608 0.830745 0.666912
196.593399 -228.963608 0.359517 0.637623
197.005875 -228.305527 -0.000068 0.550368
198.329086 -226.194443 -0.000034 0.521446
199.248627 -224.727371 -0.000062 0.518015
199.926132 -223.646469 -0.000073 0.566789
196.526047 -228.884033 5.564106 0.631618
196.526047 -228.884033 5.073107 0.752941
196.526047 -228.884033 4.589002 0.879167
196.526047 -228.884033 4.110629 0.550000
196.526047 -228.884033 3.636881 0.653676
196.526047 -228.884018 3.166687 0.625980
196.526047 -228.884018 2.699011 0.660294
196.526047 -228.884018 2.232837 0.734191
196.526047 -228.884033 1.767162 0.741176
196.526047 -228.884018 1.300989 0.545833
196.526047 -228.884018 0.833313 0.595466
196.526047 -228.884018 0.363119 0.670098
196.926208 -228.255402 -0.000091 0.526838
198.264145 -226.153549 -0.000054 0.536397
199.193909 -224.692932 -0.000083 0.552083
199.878967 -223.616745 -0.000090 0.490319
196.458969 -228.804794 5.556472 0.589338
196.458969 -228.804794 5.066525 0.752941
196.458969 -228.804794 4.583456 0.873039
196.458969 -228.804794 4.106108 0.557230
196.458969 -228.804794 3.633375 0.673162
196.458969 -228.804794 3.164188 0.582843
196.458969 -228.804794 2.697514 0.659559
196.458969 -228.804794 2.232339 0.740196
196.458969 -228.804794 1.767661 0.741176
196.458969 -228.804794 1.302486 0.558211
196.458969 -228.804794 0.835811 0.691299
196.458969 -228.804794 0.366625 0.641422
196.847031 -228.204483 -0.000076 0.535784
198.199600 -226.112045 -0.000040 0.526103
199.139526 -224.657974 -0.000068 0.513848
199.832077 -223.586609 -0.000077 0.508456
196.392197 -228.725891 5.549042 0.525735
196.392197 -228.725891 5.060118 0.752941
196.392197 -228.725891 4.578059 0.855025
196.392197 -228.725891 4.101709 0.552083
196.392197 -228.725891 3.629963 0.658578
196.392197 -228.725891 3.161756 0.698897
196.392197 -228.725891 2.696057 0.631250
196.392197 -228.725891 2.231853 0.737868
196.392197 -228.725891 1.768147 0.752206
196.392197 -228.725891 1.303943 0.668750
196.392197 -228.725891 0.838244 0.671446
196.392197 -228.725891 0.370038 0.684804
196.768204 -228.153030 -0.000062 0.539583
198.135345 -226.070099 -0.000026 0.532475
199.085388 -224.622650 -0.000058 0.571324
199.785492 -223.556000 -0.000020 0.512010
196.325684 -228.647324 5.541815 0.548284
196.325684 -228.647324 5.053887 0.752819
196.325684 -228.647339 4.572810 0.741054
196.325684 -228.647339 4.097429 0.505882
196.325684 -228.647324 3.626644 0.665074
196.325684 -228.647324 3.159391 0.704534
196.325684 -228.647339 2.694640 0.679534
196.325684 -228.647324 2.231381 0.756127
196.325699 -228.647324 1.768619 0.741176
196.325699 -228.647324 1.305360 0.679044
196.325699 -228.647324 0.840609 0.622549
196.325699 -228.647324 0.373357 0.673652
196.689972 -228.100677 0.000016 0.541054
198.071381 -226.027695 -0.000011 0.530270
199.031494 -224.586914 -0.000041 0.553676
199.739029 -223.525192 -0.000004 0.497794
196.259460 -228.569077 5.534790 0.520711
196.259460 -228.569077 5.047830 0.608333
196.259445 -228.569077 4.567707 0.612132
196.259445 -228.569077 4.093270 0.555147
196.259460 -228.569077 3.623418 0.596691
196.259445 -228.569077 3.157091 0.694363
196.259445 -228.569077 2.693262 0.666912
196.259460 -228.569077 2.230922 0.590441
196.259460 -228.569077 1.769078 0.598652
196.259445 -228.569077 1.306738 0.643627
196.259445 -228.569077 0.842909 0.627328
196.259460 -228.569077 0.376582 0.645221
196.611740 -228.048325 -0.000006 0.553676
198.007599 -225.985046 -0.000038 0.555515
198.977936 -224.550735 -0.000004 0.556495
199.692703 -223.494202 -0.000027 0.522059
196.193466 -228.491119 5.527966 0.515931
196.193466 -228.491119 5.041945 0.769363
196.193466 -228.491119 4.562747 0.760784
196.193466 -228.491119 4.089227 0.552696
196.193466 -228.491119 3.620282 0.660049
196.193466 -228.491119 3.154857 0.684191
196.193466 -228.491119 2.691923 0.758088
196.193466 -228.491119 2.230476 0.770098
196.193466 -228.491119 1.769524 0.768627
196.193466 -228.491119 1.308077 0.691789
196.193466 -228.491119 0.845143 0.618260
196.193466 -228.491119 0.379718 0.644118
196.534042 -227.995193 0.000013 0.542157
197.944244 -225.941757 -0.000021 0.526838
198.924545 -224.514267 0.000011 0.546936
199.646683 -223.462753 -0.000009 0.557843
196.127731 -228.413467 5.521338 0.454657
196.127731 -228.413467 5.036230 0.775245
196.127731 -228.413467 4.557934 0.764461
196.127731 -228.413467 4.085303 0.485172
196.127731 -228.413467 3.617239 0.659559
196.127731 -228.413467 3.152688 0.676593
196.127731 -228.413467 2.690623 0.732476
196.127731 -228.413467 2.230043 0.763480
196.127731 -228.413467 1.769957 0.768627
196.127731 -228.413467 1.309376 0.660417
196.127731 -228.413467 0.847312 0.607721
196.127731 -228.413467 0.382761 0.639338
196.456665 -227.941574 0.000023 0.523775
197.881180 -225.898026 -0.000008 0.546201
198.871429 -224.477417 0.000029 0.549142
199.600876 -223.430984 0.000003 0.544240
196.062256 -228.336105 5.514904 0.468627
196.062256 -228.336105 5.030684 0.774020
196.062256 -228.336105 4.553261 0.788235
196.062256 -228.336105 4.081493 0.583211
196.062256 -228.336105 3.614284 0.661642
196.062256 -228.336105 3.150582 0.687132
196.062256 -228.336105 2.689362 0.693260
196.062256 -228.336105 2.229623 0.786397
196.062256 -228.336105 1.770377 0.768627
196.062256 -228.336105 1.310638 0.673774
196.062256 -228.336105 0.849418 0.631495
196.062256 -228.336105 0.385716 0.649265
196.379715 -227.887375 0.000044 0.538358
197.818451 -225.853821 0.000015 0.555637
198.818573 -224.440216 0.000042 0.590441
199.555283 -223.398911 0.000017 0.555515
195.997009 -228.259018 5.508667 0.412255
195.997009 -228.259003 5.025304 0.768627
195.997009 -228.259018 4.548730 0.783946
195.997009 -228.259003 4.077799 0.562500
195.997009 -228.259018 3.611419 0.694730
195.997009 -228.259018 3.148540 0.639216
195.997009 -228.259018 2.688139 0.706250
195.997009 -228.259018 2.229216 0.786274
195.997009 -228.259018 1.770784 0.768627
195.997009 -228.259018 1.311861 0.683333
195.997009 -228.259003 0.851460 0.669240
195.997009 -228.259003 0.388581 0.600735
196.302979 -227.832886 0.000018 0.559314
197.755753 -225.809570 -0.000049 0.553186
198.765610 -224.403152 -0.000078 0.524387
199.509857 -223.366608 -0.000001 0.551103
195.931992 -228.182190 5.502622 0.375490
195.931992 -228.182190 5.020093 0.771936
195.931992 -228.182190 4.544338 0.768627
195.931992 -228.182190 4.074219 0.568260
195.931992 -228.182190 3.608644 0.658946
195.931992 -228.182190 3.146561 0.667157
195.931992 -228.182190 2.686953 0.600368
195.931992 -228.182190 2.228821 0.784926
195.931992 -228.182190 1.771179 0.768627
195.931992 -228.182190 1.313047 0.655637
195.931992 -228.182190 0.853439 0.608578
195.931992 -228.182190 0.391357 0.637010
196.225983 -227.778717 -0.000164 0.550490
197.693314 -225.764969 -0.000131 0.530025
198.712982 -224.365570 -0.000160 0.544485
199.464493 -223.334198 -0.000080 0.525490
195.867172 -228.105652 5.496768 0.471201
195.867172 -228.105637 5.015044 0.768627
195.867172 -228.105637 4.540086 0.768627
195.867172 -228.105637 4.070752 0.514338
195.867172 -228.105637 3.605955 0.643873
195.867172 -228.105637 3.144644 0.593505
195.867172 -228.105637 2.685805 0.712623
195.867188 -228.105637 2.228438 0.774265
195.867188 -228.105637 1.771562 0.768627
195.867188 -228.105637 1.314195 0.673284
195.867188 -228.105637 0.855355 0.557721
195.867188 -228.105637 0.394046 0.591422
196.150314 -227.722717 -0.000111 0.557721
197.631622 -225.719315 -0.000077 0.500490
198.661026 -224.327103 -0.000103 0.517034
199.419601 -223.301178 -0.000067 0.512745
195.802597 -228.029343 5.491102 0.501225
195.802597 -228.029343 5.010160 0.776471
195.802597 -228.029327 4.535971 0.768627
195.802597 -228.029327 4.067397 0.592157
195.802597 -228.029327 3.603353 0.658333
195.802597 -228.029327 3.142790 0.760294
195.802597 -228.029327 2.684693 0.656495
195.802597 -228.029327 2.228068 0.782966
195.802597 -228.029327 1.771932 0.768627
195.802597 -228.029327 1.315306 0.676348
195.802597 -228.029327 0.857210 0.538603
195.802597 -228.029327 0.396648 0.654044
196.074722 -227.666611 -0.000134 0.536642
197.569992 -225.673615 -0.000105 0.537500
198.609116 -224.288559 -0.000129 0.516176
199.374817 -223.267960 -0.000093 0.523284
195.738205 -227.953278 5.485625 0.486765
195.738205 -227.953278 5.005437 0.772794
195.738205 -227.953278 4.531992 0.768995
195.738205 -227.953278 4.064154 0.624265
195.738205 -227.953278 3.600837 0.740196
195.738205 -227.953278 3.140997 0.694118
195.738205 -227.953278 2.683619 0.697059
195.738205 -227.953278 2.227710 0.774020
195.738205 -227.953278 1.772290 0.768627
195.738205 -227.953278 1.316381 0.706985
195.738205 -227.953278 0.859003 0.457721
195.738205 -227.953278 0.399163 0.567279
195.999939 -227.609451 -0.000057 0.507598
197.509018 -225.626984 -0.000025 0.564216
198.557739 -224.249313 -0.000053 0.531495
199.330536 -223.234116 -0.000018 0.520956
195.674026 -227.877457 5.480333 0.488358
195.674026 -227.877441 5.000875 0.620221
195.674026 -227.877441 4.528149 0.613480
195.674026 -227.877457 4.061021 0.539461
195.674026 -227.877457 3.598407 0.680637
195.674026 -227.877457 3.139265 0.675245
195.674026 -227.877441 2.682581 0.648407
195.674026 -227.877457 2.227365 0.621814
195.674026 -227.877457 1.772635 0.610049
195.674026 -227.877441 1.317418 0.649387
195.674026 -227.877441 0.860735 0.592402
195.674026 -227.877441 0.401593 0.613848
195.924896 -227.552612 -0.000139 0.512500
197.447861 -225.580643 -0.000108 0.527696
198.506393 -224.210052 -0.000072 0.496569
199.286102 -223.200439 -0.000098 0.518137
195.610031 -227.801834 5.475229 0.431250
195.610031 -227.801834 4.996474 0.865196
195.610031 -227.801834 4.524440 0.871324
195.610031 -227.801834 4.057997 0.417647
195.610031 -227.801834 3.596063 0.660417
195.610031 -227.801834 3.137594 0.641299
195.610031 -227.801834 2.681580 0.668505
195.610046 -227.801834 2.227031 0.846691
195.610046 -227.801834 1.772969 0.872794
195.610031 -227.801834 1.318419 0.832598
195.610046 -227.801834 0.862406 0.620588
195.610046 -227.801834 0.403937 0.586765
195.850906 -227.494400 -0.000062 0.535417
197.387558 -225.533188 -0.000028 0.523652
198.455566 -224.170059 0.000005 0.516176
199.242310 -223.165970 -0.000018 0.555392
195.546234 -227.726456 5.470308 0.450980
195.546234 -227.726456 4.992229 0.875000
195.546234 -227.726456 4.520864 0.845588
195.546234 -227.726456 4.055082 0.592770
195.546234 -227.726456 3.593803 0.678186
195.546234 -227.726456 3.135983 0.682598
195.546234 -227.726456 2.680615 0.661029
195.546219 -227.726456 2.226710 0.843750
195.546219 -227.726456 1.773290 0.867034
195.546219 -227.726456 1.319385 0.839828
195.546219 -227.726456 0.864017 0.581740
195.546219 -227.726456 0.406198 0.652083
195.776688 -227.436523 -0.000143 0.544730
197.327026 -225.485992 -0.000110 0.537623
198.404572 -224.130341 -0.000081 0.565686
199.198349 -223.131699 -0.000100 0.555392
195.482590 -227.651276 5.465569 0.432843
195.482590 -227.651291 4.988144 0.853186
195.482590 -227.651276 4.517422 0.841299
195.482590 -227.651291 4.052277 0.610662
195.482590 -227.651291 3.591626 0.618995
195.482590 -227.651276 3.134431 0.640809
195.482590 -227.651276 2.679686 0.592770
195.482590 -227.651276 2.226400 0.856005
195.482590 -227.651276 1.773600 0.864828
195.482590 -227.651276 1.320314 0.822549
195.482590 -227.651276 0.865568 0.549265
195.482590 -227.651276 0.408375 0.631740
195.703537 -227.377258 -0.000063 0.547794
197.267395 -225.437714 -0.000034 0.564951
198.354324 -224.089645 -0.000005 0.548162
199.155014 -223.096619 -0.000026 0.518995
195.419128 -227.576309 5.461009 0.454289
195.419128 -227.576309 4.984213 0.588726
195.419128 -227.576309 4.514112 0.563358
195.419128 -227.576309 4.049577 0.582230
195.419128 -227.576309 3.589532 0.644975
195.419144 -227.576309 3.132939 0.635417
195.419128 -227.576309 2.678792 0.664828
195.419144 -227.576309 2.226102 0.569118
195.419144 -227.576309 1.773898 0.583946
195.419144 -227.576309 1.321208 0.556005
195.419144 -227.576309 0.867060 0.630760
195.419144 -227.576309 0.410468 0.629044
195.630249 -227.318176 -0.000111 0.572304
197.207672 -225.389542 -0.000079 0.553064
198.304001 -224.049072 -0.000053 0.555760
199.111633 -223.061615 -0.000068 0.521446
195.355835 -227.501526 5.456633 0.446446
195.355835 -227.501526 4.980440 0.583211
195.355835 -227.501526 4.510931 0.596446
195.355835 -227.501526 4.046985 0.572426
195.355835 -227.501526 3.587522 0.659804
195.355835 -227.501526 3.131507 0.724877
195.355835 -227.501526 2.677933 0.644853
195.355835 -227.501526 2.225816 0.587623
195.355835 -227.501526 1.774184 0.583824
195.355835 -227.501526 1.322067 0.587990
195.355835 -227.501526 0.868493 0.510784
195.355835 -227.501526 0.412478 0.631373
195.557724 -227.258179 -0.000082 0.541544
197.148346 -225.340851 -0.000107 0.521569
198.254028 -224.008057 -0.000078 0.543505
199.068542 -223.026260 -0.000094 0.549877
195.292709 -227.426941 5.452434 0.416912
195.292709 -227.426941 4.976820 0.606985
195.292709 -227.426941 4.507882 0.606250
195.292709 -227.426941 4.044499 0.579902
195.292709 -227.426941 3.585594 0.582966
195.292709 -227.426941 3.130132 0.762990
195.292709 -227.426941 2.677109 0.662990
195.292709 -227.426941 2.225542 0.599755
195.292694 -227.426941 1.774458 0.605760
195.292694 -227.426941 1.322890 0.586642
195.292694 -227.426941 0.869868 0.630515
195.292694 -227.426941 0.414407 0.628676
195.485580 -227.197708 -0.000059 0.551103
197.089523 -225.291550 -0.000083 0.536887
198.204468 -223.966537 -0.000059 0.517034
199.025818 -222.990433 -0.000070 0.549755
195.229706 -227.352524 5.448415 0.205882
195.229706 -227.352524 4.973352 0.596078
195.229706 -227.352524 4.504961 0.588235
195.229706 -227.352524 4.042118 0.429657
195.229721 -227.352524 3.583747 0.606618
195.229706 -227.352524 3.128816 0.703799
195.229721 -227.352524 2.676321 0.700123
