# This PCD file was generated using the MATLABÂ® pcwrite function
# from Computer Vision ToolboxÂ®.
# .PCD v.7 - Point Cloud Data file format
VERSION .7
FIELDS x y z intensity
SIZE 4 4 4 4
TYPE F F F F
COUNT 1 1 1 1
WIDTH 1316
HEIGHT 1
VIEWPOINT 0 0 0 1 0 0 0
POINTS 1316
DATA ascii
nan nan nan 0.000000
40.817333 -56.440948 10.570450 1.000000
40.817333 -56.440948 8.108588 1.000000
40.817337 -56.440956 5.659913 1.000000
40.817337 -56.440956 3.219098 1.000000
40.817329 -56.440945 0.780900 1.000000
65.008537 -80.032326 0.000085 0.537377
76.691467 -91.425575 0.000085 0.530270
81.707123 -96.316872 0.000043 0.543750
84.500847 -99.041328 0.000057 0.531495
86.284409 -100.780663 0.000072 0.524142
87.523750 -101.989273 -0.000002 0.334191
88.437050 -102.879944 -0.000002 0.329779
nan nan nan 0.000000
nan nan nan 0.000000
nan nan nan 0.000000
nan nan nan 0.000000
41.705666 -56.587971 10.485683 1.000000
41.705666 -56.587971 8.048174 1.000000
41.705677 -56.587982 5.623715 1.000000
41.705677 -56.587982 3.207043 1.000000
41.705700 -56.588005 0.792958 1.000000
65.207298 -79.829185 0.000060 0.537868
76.810555 -91.303871 0.000060 0.538480
81.792000 -96.230118 0.000018 0.530270
84.566673 -98.974052 0.000033 0.528431
86.338074 -100.725815 0.000046 0.540931
87.569084 -101.943192 0.000009 0.512377
88.504501 -102.868248 0.009999 1.000000
nan nan nan 0.000000
nan nan nan 0.000000
nan nan nan 0.000000
nan nan nan 0.000000
42.576740 -56.732227 10.402965 1.000000
42.576756 -56.732239 7.989214 1.000000
42.576748 -56.732227 5.588392 1.000000
42.576756 -56.732239 3.195276 1.000000
42.576740 -56.732224 0.804724 1.000000
65.407715 -79.627670 0.000050 0.537623
76.930634 -91.183136 0.000050 0.537255
81.877594 -96.144066 0.000009 0.535294
84.633049 -98.907303 0.000021 0.540564
86.392181 -100.671410 0.000039 0.555515
87.614677 -101.897362 0.000003 0.518260
88.543640 -102.828941 0.009999 1.000000
nan nan nan 0.000000
nan nan nan 0.000000
nan nan nan 0.000000
nan nan nan 0.000000
43.430946 -56.873608 10.322265 1.000000
43.430946 -56.873608 7.931697 1.000000
43.430946 -56.873611 5.553928 1.000000
43.430962 -56.873627 3.183795 1.000000
43.430962 -56.873631 0.816203 1.000000
65.610275 -79.428329 0.000093 0.536397
77.051987 -91.063690 0.000093 0.538113
81.964096 -96.058937 0.000052 0.532108
84.700127 -98.841286 0.000065 0.550980
86.446854 -100.617569 0.000077 0.525490
87.660736 -101.852005 0.000041 0.553431
88.583046 -102.789917 0.009999 1.000000
nan nan nan 0.000000
nan nan nan 0.000000
nan nan nan 0.000000
nan nan nan 0.000000
44.269043 -57.012390 10.243481 1.000000
44.269043 -57.012390 7.875542 1.000000
44.269054 -57.012413 5.520283 1.000000
44.269051 -57.012402 3.172590 1.000000
44.269035 -57.012390 0.827410 1.000000
65.813477 -79.229614 0.000084 0.531863
77.173744 -90.944649 0.000084 0.532353
82.050873 -95.974091 0.000044 0.535049
84.767426 -98.775475 0.000055 0.539951
86.501717 -100.563919 0.000067 0.539461
87.706963 -101.806801 0.000032 0.549387
88.622734 -102.751167 0.009999 1.000000
nan nan nan 0.000000
nan nan nan 0.000000
nan nan nan 0.000000
nan nan nan 0.000000
45.091412 -57.148552 10.166573 1.000000
45.091404 -57.148552 7.820729 1.000000
45.091393 -57.148533 5.487443 1.000000
45.091404 -57.148552 3.161651 1.000000
45.091415 -57.148552 0.838350 1.000000
66.017845 -79.032120 0.000059 0.536765
77.296173 -90.826302 0.000057 0.542157
82.138145 -95.889740 0.000018 0.552451
84.835106 -98.710060 0.000029 0.546324
86.556900 -100.510597 0.000042 0.543995
87.753448 -101.761871 0.000007 0.541789
88.635086 -102.683838 -0.000002 0.342279
nan nan nan 0.000000
nan nan nan 0.000000
nan nan nan 0.000000
nan nan nan 0.000000
45.898582 -57.282162 10.091486 1.000000
45.898579 -57.282154 7.767210 1.000000
45.898579 -57.282150 5.455378 1.000000
45.898579 -57.282154 3.150970 1.000000
45.898582 -57.282162 0.849030 1.000000
66.223839 -78.836311 0.000052 0.535784
77.419594 -90.708984 0.000051 0.539338
82.226120 -95.806122 0.000011 0.547304
84.903336 -98.645203 0.000022 0.548162
86.612511 -100.457726 0.000035 0.538603
87.800301 -101.717331 -0.000000 0.498039
88.675507 -102.645462 -0.000003 0.328922
nan nan nan 0.000000
nan nan nan 0.000000
nan nan nan 0.000000
nan nan nan 0.000000
46.691120 -57.413380 10.018147 1.000000
46.691116 -57.413368 7.714938 1.000000
46.691128 -57.413387 5.424058 1.000000
46.691132 -57.413391 3.140536 1.000000
46.691132 -57.413391 0.859462 1.000000
66.431839 -78.642654 0.000093 0.537868
77.544220 -90.592949 0.000091 0.546078
82.314934 -95.723412 0.000049 0.547549
84.972221 -98.581070 0.000062 0.536887
86.668671 -100.405434 0.000074 0.552574
87.847672 -101.673340 0.000057 0.500000
88.716270 -102.607437 0.000025 0.559314
nan nan nan 0.000000
nan nan nan 0.000000
nan nan nan 0.000000
nan nan nan 0.000000
47.469433 -57.542221 9.946516 1.000000
47.469440 -57.542225 7.663879 1.000000
47.469429 -57.542213 5.393469 1.000000
47.469433 -57.542221 3.130349 1.000000
47.469433 -57.542221 0.869651 1.000000
66.640564 -78.449768 0.000087 0.538725
77.669258 -90.477371 0.000084 0.534559
82.404068 -95.641037 0.000043 0.538235
85.041344 -98.517181 0.000055 0.535294
86.725021 -100.353348 0.000067 0.538725
87.895142 -101.629456 0.000050 0.539093
88.757202 -102.569595 0.000018 0.520711
nan nan nan 0.000000
nan nan nan 0.000000
nan nan nan 0.000000
nan nan nan 0.000000
48.234009 -57.668800 9.876528 1.000000
48.234009 -57.668800 7.613998 1.000000
48.234001 -57.668789 5.363583 1.000000
48.234009 -57.668800 3.120394 1.000000
48.234039 -57.668823 0.879608 1.000000
66.849739 -78.257347 0.000016 0.539583
77.794662 -90.362183 0.000022 0.531127
82.493469 -95.558952 -0.000014 0.534314
85.110687 -98.453529 -0.000001 0.538480
86.781555 -100.301468 0.000012 0.545466
87.942787 -101.585762 -0.000001 0.515441
88.798279 -102.531914 -0.000036 0.550490
nan nan nan 0.000000
nan nan nan 0.000000
nan nan nan 0.000000
nan nan nan 0.000000
48.985275 -57.793167 9.808142 1.000000
48.985287 -57.793182 7.565254 1.000000
48.985283 -57.793179 5.334378 1.000000
48.985283 -57.793182 3.110666 1.000000
48.985275 -57.793171 0.889334 1.000000
67.061111 -78.067352 0.000008 0.541054
77.921295 -90.248322 0.000013 0.546078
82.583725 -95.477798 -0.000024 0.536152
85.180679 -98.390594 -0.000010 0.527083
86.838623 -100.250160 0.000003 0.585417
87.990868 -101.542549 -0.000009 0.534069
88.839729 -102.494644 -0.000045 0.495833
nan nan nan 0.000000
nan nan nan 0.000000
nan nan nan 0.000000
nan nan nan 0.000000
49.723656 -57.915432 9.741304 1.000000
49.723671 -57.915436 7.517616 1.000000
49.723671 -57.915436 5.305836 1.000000
49.723671 -57.915436 3.101160 1.000000
49.723671 -57.915436 0.898842 1.000000
67.274506 -77.879631 0.000052 0.537010
78.049141 -90.135857 0.000058 0.534191
82.674866 -95.397644 0.000021 0.533211
85.251358 -98.328423 0.000034 0.552941
86.896233 -100.199478 0.000046 0.550245
88.039383 -101.499817 0.000026 0.521569
88.881577 -102.457825 -0.000000 0.561152
nan nan nan 0.000000
nan nan nan 0.000000
nan nan nan 0.000000
50.449516 -58.035564 11.897571 1.000000
50.449516 -58.035568 9.675978 1.000000
50.449509 -58.035564 7.471056 1.000000
50.449528 -58.035583 5.277938 1.000000
50.449528 -58.035583 3.091866 1.000000
50.449528 -58.035583 0.908134 1.000000
67.488289 -77.692352 0.000028 0.537377
78.177223 -90.023636 0.000032 0.538971
82.766151 -95.317665 -0.000003 0.546814
85.322159 -98.266396 0.000009 0.515931
86.953957 -100.148911 0.000023 0.538113
88.088013 -101.457222 0.000003 0.511887
88.923515 -102.421097 -0.000026 0.517034
nan nan nan 0.000000
nan nan nan 0.000000
nan nan nan 0.000000
51.163292 -58.153763 11.815213 1.000000
51.163284 -58.153763 9.612106 1.000000
51.163284 -58.153767 7.425530 1.000000
51.163288 -58.153767 5.250664 1.000000
51.163277 -58.153748 3.082782 1.000000
51.163277 -58.153748 0.917219 1.000000
67.703667 -77.506920 0.000025 0.535539
78.306267 -89.912544 0.000030 0.534559
82.858131 -95.238472 -0.000006 0.542892
85.393494 -98.204987 0.000007 0.561275
87.012009 -100.098740 -0.000005 0.549877
88.137009 -101.415047 0.000003 0.535784
88.965759 -102.384727 -0.000026 0.559191
nan nan nan 0.000000
nan nan nan 0.000000
nan nan nan 0.000000
51.865265 -58.269943 11.734694 1.000000
51.865269 -58.269943 9.549662 1.000000
51.865273 -58.269955 7.381022 1.000000
51.865273 -58.269955 5.223997 1.000000
51.865284 -58.269966 3.073897 1.000000
51.865284 -58.269966 0.926102 1.000000
67.920654 -77.323364 0.000048 0.531863
78.436272 -89.802567 0.000052 0.544118
82.950798 -95.160080 0.000017 0.523652
85.465355 -98.144196 0.000030 0.535907
87.070602 -100.049187 0.000019 0.529657
88.186363 -101.373291 0.000024 0.517647
89.008308 -102.348724 -0.000005 0.526961
nan nan nan 0.000000
nan nan nan 0.000000
nan nan nan 0.000000
52.555923 -58.384300 11.655943 1.000000
52.555923 -58.384300 9.488585 1.000000
52.555923 -58.384315 7.337490 1.000000
52.555923 -58.384300 5.197917 1.000000
52.555923 -58.384300 3.065211 1.000000
52.555923 -58.384304 0.934790 1.000000
68.138626 -77.140961 0.000046 0.541054
78.566864 -89.693283 0.000051 0.531373
83.043877 -95.082191 0.000016 0.531985
85.537544 -98.083786 0.000028 0.522917
87.129456 -99.999947 0.000018 0.538971
88.235947 -101.331810 0.000023 0.526226
89.051064 -102.312958 -0.000005 0.542525
nan nan nan 0.000000
nan nan nan 0.000000
nan nan nan 0.000000
53.235481 -58.496803 11.578924 1.000000
53.235481 -58.496803 9.428855 1.000000
53.235470 -58.496799 7.294920 1.000000
53.235474 -58.496803 5.172407 1.000000
53.235477 -58.496803 3.056715 1.000000
53.235477 -58.496803 0.943286 1.000000
68.357536 -76.959724 0.000022 0.535172
78.698021 -89.584686 0.000025 0.526103
83.137367 -95.004791 -0.000010 0.543750
85.610054 -98.023758 0.000004 0.538848
87.188560 -99.951012 -0.000006 0.548039
88.285751 -101.290588 0.000001 0.535172
89.094040 -102.277458 -0.000014 0.519853
nan nan nan 0.000000
nan nan nan 0.000000
nan nan nan 0.000000
53.904339 -58.607544 11.503581 1.000000
53.904335 -58.607533 9.370424 1.000000
53.904343 -58.607552 7.253271 1.000000
53.904346 -58.607552 5.147453 1.000000
53.904335 -58.607544 3.048403 1.000000
53.904335 -58.607544 0.951598 1.000000
68.577911 -76.780235 0.000011 0.533578
78.830063 -89.477158 0.000016 0.528554
83.231476 -94.928154 -0.000019 0.535049
85.683037 -97.964317 -0.000005 0.522672
87.248039 -99.902519 -0.000024 0.550000
88.335876 -101.249763 -0.000008 0.513235
89.137291 -102.242287 -0.000013 0.553799
nan nan nan 0.000000
nan nan nan 0.000000
nan nan nan 0.000000
54.562775 -58.716557 11.429871 1.000000
54.562759 -58.716537 9.313261 1.000000
54.562778 -58.716557 7.212527 1.000000
54.562775 -58.716557 5.123043 1.000000
54.562790 -58.716568 3.040271 1.000000
54.562790 -58.716568 0.959729 1.000000
68.800041 -76.602943 0.000042 0.534681
78.963142 -89.370926 0.000046 0.540319
83.326332 -94.852440 0.000011 0.545466
85.756477 -97.905434 -0.000007 0.543505
87.308014 -99.854645 0.000006 0.548162
88.386398 -101.209435 0.000022 0.555637
89.180801 -102.207451 -0.000003 0.550858
nan nan nan 0.000000
nan nan nan 0.000000
nan nan nan 0.000000
55.211109 -58.823883 11.357749 1.000000
55.211121 -58.823895 9.257324 1.000000
55.211113 -58.823883 7.172660 1.000000
55.211121 -58.823898 5.099156 1.000000
55.211105 -58.823875 3.032316 1.000000
55.211105 -58.823875 0.967685 1.000000
69.022888 -76.426544 0.000030 0.536887
79.096657 -89.265244 0.000035 0.534559
83.421509 -94.777122 0.000002 0.542892
85.830276 -97.847015 -0.000017 0.547181
87.368187 -99.807030 -0.000004 0.552941
88.437103 -101.169327 0.000014 0.529167
89.224556 -102.172905 0.000001 0.535907
nan nan nan 0.000000
nan nan nan 0.000000
nan nan nan 0.000000
55.849625 -58.929592 11.287170 1.000000
55.849625 -58.929596 9.202589 1.000000
55.849632 -58.929604 7.133646 1.000000
55.849640 -58.929604 5.075783 1.000000
55.849632 -58.929604 3.024529 1.000000
55.849636 -58.929604 0.975472 1.000000
69.247482 -76.252388 0.000061 0.541422
79.231224 -89.160896 0.000066 0.542647
83.517586 -94.702957 0.000064 0.537255
85.904663 -97.789345 0.000015 0.530760
87.428833 -99.760017 0.000030 0.533211
88.488174 -101.129692 0.000042 0.550368
89.268562 -102.138695 0.000017 0.538725
nan nan nan 0.000000
nan nan nan 0.000000
nan nan nan 0.000000
56.478607 -59.033707 11.218099 1.000000
56.478596 -59.033691 9.149021 1.000000
56.478607 -59.033703 7.095465 1.000000
56.478607 -59.033707 5.052908 1.000000
56.478619 -59.033714 3.016910 1.000000
56.478619 -59.033714 0.983091 1.000000
69.472748 -76.079102 0.000050 0.536765
79.366119 -89.056976 0.000044 0.537010
83.613785 -94.628967 0.000053 0.524632
85.979279 -97.731964 0.000005 0.532843
87.489662 -99.713234 0.000019 0.510172
88.539474 -101.090355 0.000049 0.554044
89.312759 -102.104729 0.000011 0.518137
nan nan nan 0.000000
nan nan nan 0.000000
nan nan nan 0.000000
57.098358 -59.136322 11.150481 1.000000
57.098354 -59.136322 9.096580 1.000000
57.098358 -59.136322 7.058090 1.000000
57.098366 -59.136337 5.030512 1.000000
57.098358 -59.136322 3.009449 1.000000
57.098358 -59.136322 0.990550 1.000000
69.699249 -75.907425 0.000039 0.538971
79.501808 -88.954094 0.000031 0.535294
83.710503 -94.555641 0.000040 0.527451
86.054291 -97.675095 -0.000007 0.555882
87.550819 -99.666885 0.000009 0.555392
88.590981 -101.051292 0.000035 0.538725
89.357178 -102.071053 0.000000 0.520343
nan nan nan 0.000000
nan nan nan 0.000000
nan nan nan 0.000000
57.709091 -59.237419 11.084296 1.000000
57.709091 -59.237427 9.045249 1.000000
57.709091 -59.237419 7.021505 1.000000
57.709099 -59.237427 5.008593 1.000000
57.709095 -59.237427 3.002148 1.000000
57.709095 -59.237427 0.997852 1.000000
69.926796 -75.737137 0.000017 0.534804
79.638222 -88.852173 0.000020 0.534926
83.807732 -94.482994 0.000029 0.547794
86.129707 -97.618767 -0.000015 0.551838
87.612289 -99.620956 -0.000001 0.540319
88.642776 -101.012604 0.000027 0.531005
89.401840 -102.037704 -0.000007 0.498897
nan nan nan 0.000000
nan nan nan 0.000000
nan nan nan 0.000000
58.311085 -59.337078 11.019497 1.000000
58.311085 -59.337086 8.994993 1.000000
58.311085 -59.337090 6.985684 1.000000
58.311077 -59.337074 4.987133 1.000000
58.311089 -59.337090 2.994998 1.000000
58.311092 -59.337090 1.005000 1.000000
70.155960 -75.569031 0.000032 0.538603
79.775528 -88.751472 0.000036 0.545956
83.905594 -94.411217 0.000045 0.539093
86.205620 -97.563118 0.000002 0.531740
87.674133 -99.575531 0.000004 0.512868
88.694916 -100.974380 0.000045 0.553431
89.446823 -102.004791 0.000022 0.548774
nan nan nan 0.000000
nan nan nan 0.000000
nan nan nan 0.000000
58.904594 -59.435341 10.956043 1.000000
58.904594 -59.435341 8.945786 1.000000
58.904594 -59.435349 6.950609 1.000000
58.904594 -59.435349 4.966119 1.000000
58.904587 -59.435337 2.988000 1.000000
58.904587 -59.435341 1.012000 1.000000
70.386017 -75.402145 0.000022 0.535539
79.913353 -88.651459 0.000024 0.526471
84.003769 -94.339844 0.000021 0.554412
86.281815 -97.507843 -0.000007 0.539951
87.736328 -99.530586 0.000020 0.545098
88.747200 -100.936378 0.000022 0.543015
89.491882 -101.971970 -0.000012 0.518873
nan nan nan 0.000000
nan nan nan 0.000000
nan nan nan 0.000000
59.489815 -59.532227 10.893910 1.000000
59.489822 -59.532227 8.897598 1.000000
59.489822 -59.532227 6.916265 1.000000
59.489819 -59.532227 4.945542 1.000000
59.489822 -59.532238 2.981145 1.000000
59.489822 -59.532238 1.018854 1.000000
70.617195 -75.236816 0.000010 0.534681
80.051865 -88.552414 0.000012 0.539338
84.102493 -94.269264 0.000010 0.547181
86.358337 -97.453033 -0.000029 0.532230
87.798805 -99.486031 0.000026 0.527083
88.799843 -100.898849 0.000031 0.557843
89.537270 -101.939606 -0.000007 0.574142
nan nan nan 0.000000
nan nan nan 0.000000
nan nan nan 0.000000
60.067039 -59.627808 10.833057 1.000000
60.067039 -59.627808 8.850405 1.000000
60.067039 -59.627800 6.882626 1.000000
60.067043 -59.627808 4.925387 1.000000
60.067043 -59.627808 2.974433 1.000000
60.067043 -59.627808 1.025568 1.000000
70.850029 -75.073822 0.000041 0.532475
80.191368 -88.454758 0.000043 0.522426
84.201935 -94.199661 0.000041 0.521691
86.435455 -97.399063 0.000003 0.520956
87.861580 -99.441902 0.000029 0.541299
88.852768 -100.861717 0.000045 0.560784
89.582901 -101.907593 0.000009 0.544485
nan nan nan 0.000000
nan nan nan 0.000000
nan nan nan 0.000000
60.636414 -59.722061 10.773461 1.000000
60.636417 -59.722061 8.804184 1.000000
60.636421 -59.722061 6.849684 1.000000
60.636421 -59.722061 4.905649 1.000000
60.636425 -59.722061 2.967858 1.000000
60.636425 -59.722061 1.032142 1.000000
71.083351 -74.911530 0.000015 0.536397
80.331070 -88.357384 0.000004 0.537868
84.301567 -94.130356 0.000017 0.547549
86.512726 -97.345306 -0.000024 0.543260
87.924629 -99.398163 0.000022 0.527451
88.905876 -100.824852 0.000036 0.546446
89.628792 -101.875954 0.000043 0.532598
nan nan nan 0.000000
nan nan nan 0.000000
nan nan nan 0.000000
61.198204 -59.815075 10.715081 1.000000
61.198208 -59.815071 8.758909 1.000000
61.198204 -59.815075 6.817413 1.000000
61.198200 -59.815079 4.886315 1.000000
61.198193 -59.815063 2.961418 1.000000
61.198193 -59.815063 1.038582 1.000000
71.318420 -74.751801 0.000046 0.539461
80.471924 -88.261711 0.000037 0.551838
84.401962 -94.062149 0.000048 0.523897
86.590691 -97.292557 0.000035 0.537132
87.988052 -99.354958 0.000035 0.560539
88.959274 -100.788414 0.000038 0.538480
89.674858 -101.844574 0.000056 0.526103
nan nan nan 0.000000
nan nan nan 0.000000
nan nan nan 0.000000
61.752563 -59.906826 10.657899 1.000000
61.752563 -59.906822 8.714563 1.000000
61.752563 -59.906822 6.785806 1.000000
61.752567 -59.906830 4.867377 1.000000
61.752567 -59.906830 2.955109 1.000000
61.752567 -59.906830 1.044890 1.000000
71.554115 -74.592964 0.000032 0.537132
80.613159 -88.166565 0.000026 0.538848
84.502556 -93.994240 0.000022 0.536152
86.668709 -97.239899 0.000012 0.526103
88.051697 -99.312103 0.000027 0.549877
89.012894 -100.752296 0.000027 0.523407
89.721062 -101.813385 0.000032 0.540809
nan nan nan 0.000000
nan nan nan 0.000000
nan nan nan 0.000000
62.299744 -59.997414 10.601875 1.000000
62.299744 -59.997429 8.671113 1.000000
62.299751 -59.997429 6.754836 1.000000
62.299740 -59.997421 4.848823 1.000000
62.299751 -59.997429 2.948930 1.000000
62.299751 -59.997429 1.051070 1.000000
71.790993 -74.435928 0.000025 0.532230
80.755081 -88.072479 0.000020 0.537623
84.603706 -93.927177 0.000017 0.539216
86.747162 -97.187889 0.000005 0.552451
88.115662 -99.269699 0.000022 0.513726
89.066780 -100.716599 0.000024 0.534559
89.767509 -101.782570 0.000023 0.551348
nan nan nan 0.000000
nan nan nan 0.000000
nan nan nan 0.000000
62.839901 -60.086838 10.546988 1.000000
62.839905 -60.086853 8.628546 1.000000
62.839901 -60.086842 6.724496 1.000000
62.839901 -60.086830 4.830644 1.000000
62.839901 -60.086842 2.942874 1.000000
62.839905 -60.086845 1.057126 1.000000
72.029160 -74.280838 0.000037 0.539093
80.897781 -87.979568 0.000032 0.546814
84.705421 -93.860962 0.000029 0.526226
86.826042 -97.136528 0.000018 0.540319
88.179932 -99.227776 0.000021 0.541912
89.120956 -100.681320 0.000037 0.542034
89.814240 -101.752182 0.000042 0.510662
nan nan nan 0.000000
nan nan nan 0.000000
nan nan nan 0.000000
63.373241 -60.175125 10.493205 1.000000
63.373245 -60.175137 8.586834 1.000000
63.373245 -60.175137 6.694767 1.000000
63.373253 -60.175148 4.812831 1.000000
63.373249 -60.175140 2.936940 1.000000
63.373249 -60.175140 1.063059 1.000000
72.267975 -74.126747 0.000011 0.536642
81.040878 -87.887268 0.000007 0.537132
84.807472 -93.795258 0.000016 0.534926
86.905243 -97.085663 0.000019 0.545466
88.244469 -99.186279 0.000016 0.534926
89.175346 -100.646378 0.000037 0.535784
89.861122 -101.722038 0.000038 0.558088
nan nan nan 0.000000
nan nan nan 0.000000
nan nan nan 0.000000
63.899948 -60.262337 10.440502 1.000000
63.899956 -60.262344 8.545959 1.000000
63.899956 -60.262344 6.665635 1.000000
63.899960 -60.262352 4.795377 1.000000
63.899963 -60.262356 2.931126 1.000000
63.899963 -60.262360 1.068873 1.000000
72.508575 -73.975456 0.000048 0.533946
81.185028 -87.796608 0.000044 0.548897
84.910187 -93.730598 0.000047 0.536520
86.984818 -97.035393 0.000029 0.531863
88.309349 -99.145294 0.000026 0.528799
89.230011 -100.611855 0.000049 0.558088
89.908257 -101.692284 0.000051 0.502206
nan nan nan 0.000000
nan nan nan 0.000000
nan nan nan 0.000000
64.420174 -60.348465 10.388858 1.000000
64.420174 -60.348457 8.505909 1.000000
64.420166 -60.348461 6.637088 1.000000
64.420174 -60.348465 4.778275 1.000000
64.420181 -60.348465 2.925429 1.000000
64.420181 -60.348465 1.074571 1.000000
72.749527 -73.824730 0.000022 0.538725
81.329407 -87.706322 0.000019 0.538603
85.013176 -93.666397 0.000043 0.527696
87.064713 -96.985611 0.000026 0.541912
88.374489 -99.104729 0.000028 0.546446
89.284866 -100.577667 0.000046 0.537500
89.955536 -101.662750 0.000031 0.543873
nan nan nan 0.000000
nan nan nan 0.000000
nan nan nan 0.000000
64.934097 -60.433540 10.338245 1.000000
64.934105 -60.433556 8.466654 1.000000
64.934105 -60.433556 6.609109 1.000000
64.934105 -60.433552 4.761512 1.000000
64.934105 -60.433556 2.919847 1.000000
64.934105 -60.433556 1.080154 1.000000
72.991539 -73.675697 -0.000004 0.332108
81.474770 -87.617630 0.000051 0.537010
85.116684 -93.603012 0.000052 0.536274
87.144928 -96.936371 0.000020 0.549142
88.439934 -99.064667 0.000039 0.541299
89.339966 -100.543854 0.000041 0.554289
90.003067 -101.633636 0.000040 0.569853
nan nan nan 0.000000
nan nan nan 0.000000
nan nan nan 0.000000
65.441887 -60.517612 10.288639 1.000000
65.441887 -60.517616 8.428185 1.000000
65.441887 -60.517609 6.581691 1.000000
65.441887 -60.517612 4.745084 1.000000
65.441895 -60.517624 2.914374 1.000000
65.441895 -60.517628 1.085626 1.000000
73.234848 -73.528801 -0.000005 0.332598
81.620560 -87.529648 0.000054 0.534559
85.220573 -93.540268 0.000050 0.542034
87.225502 -96.887711 0.000018 0.526593
88.505630 -99.025024 0.000041 0.516422
89.395302 -100.510422 0.000038 0.562623
90.050789 -101.604843 0.000044 0.506250
nan nan nan 0.000000
nan nan nan 0.000000
nan nan nan 0.000000
65.943687 -60.600685 10.240024 1.000000
65.943695 -60.600681 8.390480 1.000000
65.943687 -60.600681 6.554815 1.000000
65.943695 -60.600693 4.728982 1.000000
65.943695 -60.600693 2.909010 1.000000
65.943695 -60.600693 1.090989 1.000000
73.582413 -73.558731 0.009982 1.000000
81.767006 -87.442764 0.000063 0.529902
85.324989 -93.478394 0.000066 0.523652
87.306458 -96.839684 0.000027 0.555025
88.571632 -98.985870 0.000052 0.565931
89.450912 -100.477463 0.000052 0.517892
90.098732 -101.576393 0.000052 0.517647
nan nan nan 0.000000
nan nan nan 0.000000
nan nan nan 0.000000
66.439651 -60.682796 10.192370 1.000000
66.439659 -60.682800 8.353522 1.000000
66.439667 -60.682808 6.528474 1.000000
66.439659 -60.682800 4.713200 1.000000
66.439667 -60.682800 2.903754 1.000000
66.439667 -60.682800 1.096246 1.000000
73.724525 -73.240143 -0.000004 0.331863
81.913979 -87.356796 0.000062 0.538480
85.429749 -93.417114 0.000064 0.527941
87.387726 -96.792198 0.000034 0.534191
88.637863 -98.947128 0.000051 0.572304
89.506714 -100.444824 0.000052 0.549877
90.146820 -101.548203 0.000036 0.527696
nan nan nan 0.000000
nan nan nan 0.000000
66.929947 -60.763950 11.991867 1.000000
66.929955 -60.763954 10.145658 1.000000
66.929962 -60.763966 8.317296 1.000000
66.929962 -60.763966 6.502655 1.000000
66.929955 -60.763954 4.697731 1.000000
66.929955 -60.763966 2.898602 1.000000
66.929955 -60.763966 1.101399 1.000000
73.970856 -73.098373 -0.000005 0.332843
82.061523 -87.271774 0.000053 0.542647
85.534973 -93.356636 0.000073 0.546201
87.469337 -96.745300 0.000042 0.559681
88.704346 -98.908821 0.000042 0.553064
89.562721 -100.412537 0.000040 0.550858
90.195152 -101.520439 0.000049 0.539828
nan nan nan 0.000000
nan nan nan 0.000000
67.414711 -60.844215 11.935696 1.000000
67.414711 -60.844215 10.099869 1.000000
67.414703 -60.844215 8.281786 1.000000
67.414703 -60.844212 6.477345 1.000000
67.414711 -60.844223 4.682564 1.000000
67.414719 -60.844227 2.893549 1.000000
67.414719 -60.844227 1.106451 1.000000
74.218170 -72.958328 -0.000005 0.331863
82.209618 -87.187729 0.000040 0.540319
85.640457 -93.296616 0.000042 0.543015
87.551193 -96.698837 0.000028 0.518260
88.771080 -98.870949 0.000029 0.581005
89.618965 -100.380661 0.000035 0.537132
90.243629 -101.492943 0.000037 0.527819
nan nan nan 0.000000
nan nan nan 0.000000
67.894081 -60.923576 11.880631 1.000000
67.894081 -60.923576 10.054980 1.000000
67.894081 -60.923576 8.246973 1.000000
67.894081 -60.923576 6.452530 1.000000
67.894089 -60.923588 4.667698 1.000000
67.894081 -60.923576 2.888598 1.000000
67.894081 -60.923576 1.111402 1.000000
74.466476 -72.820015 -0.000005 0.331250
82.358414 -87.104927 0.000046 0.546814
85.746506 -93.237587 0.000047 0.523039
87.633568 -96.653290 0.000072 0.523407
88.838150 -98.833656 0.000041 0.531618
89.675453 -100.349228 0.000041 0.534804
90.292351 -101.465851 0.000048 0.581127
nan nan nan 0.000000
nan nan nan 0.000000
68.368179 -61.002060 11.826657 1.000000
68.368179 -61.002060 10.010978 1.000000
68.368179 -61.002064 8.212847 1.000000
68.368179 -61.002068 6.428206 1.000000
68.368187 -61.002068 4.653126 1.000000
68.368179 -61.002068 2.883742 1.000000
68.368179 -61.002068 1.116256 1.000000
74.715721 -72.683434 -0.000005 0.332230
82.507759 -87.023125 0.000048 0.534069
85.852951 -93.179276 0.000049 0.541789
87.716118 -96.608078 0.000074 0.521936
88.905449 -98.796806 0.000044 0.550368
89.732117 -100.318100 0.000025 0.556863
90.341240 -101.439079 0.000050 0.538971
nan nan nan 0.000000
nan nan nan 0.000000
68.837158 -61.079712 11.773740 1.000000
68.837151 -61.079704 9.967838 1.000000
68.837158 -61.079712 8.179388 1.000000
68.837151 -61.079704 6.404362 1.000000
68.837158 -61.079716 4.638838 1.000000
68.837158 -61.079712 2.878985 1.000000
68.837158 -61.079712 1.121016 1.000000
74.965927 -72.548622 -0.000005 0.331985
82.657738 -86.942490 0.000061 0.528064
85.959808 -93.121735 0.000053 0.539583
87.798996 -96.563454 0.000079 0.534926
88.972969 -98.760345 0.000030 0.570343
89.789032 -100.287453 0.000030 0.615074
90.390282 -101.412582 0.000038 0.516299
nan nan nan 0.000000
nan nan nan 0.000000
69.301132 -61.156540 11.721854 1.000000
69.301132 -61.156540 9.925543 1.000000
69.301132 -61.156532 8.146587 1.000000
69.301132 -61.156540 6.380983 1.000000
69.301132 -61.156525 4.624832 1.000000
69.301125 -61.156525 2.874320 1.000000
69.301125 -61.156525 1.125682 1.000000
75.176392 -72.338150 -0.004300 1.000000
82.808311 -86.862976 0.000081 0.532843
86.067162 -93.065125 0.000082 0.529657
87.882172 -96.519394 0.000080 0.517279
89.040825 -98.724503 0.000049 0.566422
89.846214 -100.257294 0.000057 0.536765
90.439583 -101.386574 0.000062 0.565074
nan nan nan 0.000000
nan nan nan 0.000000
69.760216 -61.232513 11.671000 1.000000
69.760216 -61.232521 9.884081 1.000000
69.760216 -61.232521 8.114433 1.000000
69.760216 -61.232521 6.358063 1.000000
69.760208 -61.232521 4.611099 1.000000
69.760216 -61.232521 2.869744 1.000000
69.760216 -61.232521 1.130255 1.000000
75.469131 -72.284241 -0.000004 0.332475
82.959190 -86.784035 0.000057 0.532843
86.174698 -93.008858 0.000056 0.554657
87.965569 -96.475754 0.000056 0.548529
89.108902 -98.689110 0.000063 0.563848
89.903496 -100.227325 0.000034 0.536397
90.488976 -101.360741 0.000040 0.531618
nan nan nan 0.000000
nan nan nan 0.000000
70.214554 -61.307732 11.621134 1.000000
70.214554 -61.307732 9.843430 1.000000
70.214554 -61.307724 8.082907 1.000000
70.214554 -61.307735 6.335594 1.000000
70.214561 -61.307755 4.597633 1.000000
70.214561 -61.307747 2.865260 1.000000
70.214561 -61.307747 1.134740 1.000000
75.722107 -72.154694 -0.000004 0.331985
83.110855 -86.706635 0.000077 0.542892
86.282806 -92.953697 0.000077 0.548774
88.049431 -96.433022 0.000084 0.534804
89.177254 -98.654221 0.000081 0.522672
89.961143 -100.198074 0.000087 0.544853
90.538582 -101.335320 0.000037 0.517770
nan nan nan 0.000000
nan nan nan 0.000000
70.664261 -61.382187 11.572241 1.000000
70.664253 -61.382195 9.803571 1.000000
70.664261 -61.382202 8.051994 1.000000
70.664253 -61.382191 6.313560 1.000000
70.664261 -61.382202 4.584435 1.000000
70.664253 -61.382195 2.860864 1.000000
70.664253 -61.382195 1.139137 1.000000
75.975967 -72.026901 -0.000004 0.331863
83.262817 -86.629807 0.000052 0.545343
86.391151 -92.899002 0.000061 0.532108
88.122505 -96.368645 -0.003572 1.000000
89.245750 -98.619637 0.000063 0.535172
90.018799 -100.168831 0.000044 0.541789
90.588409 -101.310333 0.000058 0.513603
nan nan nan 0.000000
nan nan nan 0.000000
71.109428 -61.455883 11.524306 1.000000
71.109428 -61.455883 9.764495 1.000000
71.109436 -61.455894 8.021687 1.000000
71.109428 -61.455887 6.291959 1.000000
71.109436 -61.455894 4.571493 1.000000
71.109436 -61.455894 2.856553 1.000000
71.109436 -61.455894 1.143447 1.000000
76.230721 -71.900887 -0.000004 0.332353
83.415596 -86.554588 0.000078 0.535294
86.499992 -92.845291 0.000075 0.542034
88.217773 -96.348755 0.000050 0.551716
89.314560 -98.585670 0.000076 0.536152
90.076767 -100.140213 0.000053 0.578676
90.638405 -101.285683 0.000075 0.506127
nan nan nan 0.000000
nan nan nan 0.000000
71.550186 -61.528866 11.477308 1.000000
71.550186 -61.528866 9.726179 1.000000
71.550186 -61.528870 7.991974 1.000000
71.550186 -61.528862 6.270780 1.000000
71.550186 -61.528866 4.558804 1.000000
71.550186 -61.528870 2.852326 1.000000
71.550186 -61.528870 1.147674 1.000000
76.486351 -71.776657 -0.000003 0.332843
83.568604 -86.479874 0.000052 0.533578
86.609055 -92.792046 0.000049 0.546814
88.302353 -96.307465 0.000025 0.532966
89.383469 -98.551926 0.000033 0.544485
90.134872 -100.111893 0.000038 0.531005
90.688492 -101.261246 0.000054 0.491789
nan nan nan 0.000000
nan nan nan 0.000000
71.986641 -61.601128 11.431231 1.000000
71.986641 -61.601128 9.688616 1.000000
71.986633 -61.601124 7.962842 1.000000
71.986641 -61.601128 6.250015 1.000000
71.986641 -61.601128 4.546364 1.000000
71.986641 -61.601128 2.848182 1.000000
71.986641 -61.601128 1.151819 1.000000
76.742844 -71.654221 -0.000004 0.332353
83.722374 -86.406738 0.000072 0.535784
86.718582 -92.739761 0.000049 0.531985
88.387360 -96.267029 0.000044 0.542892
89.452759 -98.518944 0.000050 0.565931
90.193230 -100.084076 0.000046 0.529779
90.738800 -101.237228 0.000053 0.570833
nan nan nan 0.000000
nan nan nan 0.000000
72.418884 -61.672680 11.386054 1.000000
72.418884 -61.672680 9.651786 1.000000
72.418884 -61.672672 7.934279 1.000000
72.418884 -61.672680 6.229660 1.000000
72.418884 -61.672680 4.534166 1.000000
72.418884 -61.672668 2.844119 1.000000
72.418884 -61.672668 1.155881 1.000000
77.000175 -71.533569 -0.000003 0.332108
83.876556 -86.334465 0.000074 0.536029
86.828461 -92.688232 0.000049 0.545588
88.472618 -96.227142 0.000055 0.569485
89.522255 -98.486427 0.000060 0.550980
90.251762 -100.056641 0.000047 0.499387
90.789284 -101.213600 0.000063 0.523529
nan nan nan 0.000000
nan nan nan 0.000000
72.847031 -61.743553 11.341761 1.000000
72.847031 -61.743553 9.615679 1.000000
72.847031 -61.743557 7.906274 1.000000
72.847031 -61.743557 6.209697 1.000000
72.847038 -61.743565 4.522207 1.000000
72.847031 -61.743553 2.840135 1.000000
72.847031 -61.743553 1.159864 1.000000
77.258339 -71.414688 -0.000004 0.331985
84.031090 -86.262962 0.000047 0.550980
86.938690 -92.637436 0.000043 0.556373
88.558098 -96.187737 0.000048 0.535539
89.591942 -98.454300 0.000053 0.538725
90.310501 -100.029625 0.000052 0.517402
90.839874 -101.190201 0.000036 0.486642
nan nan nan 0.000000
nan nan nan 0.000000
73.271172 -61.813774 11.298338 1.000000
73.271172 -61.813774 9.580276 1.000000
73.271172 -61.813770 7.878821 1.000000
73.271179 -61.813774 6.190129 1.000000
73.271179 -61.813778 4.510482 1.000000
73.271179 -61.813782 2.836230 1.000000
73.271179 -61.813782 1.163770 1.000000
77.517342 -71.297661 -0.000004 0.331863
84.186371 -86.193069 0.000068 0.529534
87.049393 -92.587692 0.000073 0.525980
88.643944 -96.149162 0.000078 0.543137
89.661865 -98.422691 0.000051 0.519240
90.369461 -100.003113 0.000080 0.508456
90.890701 -101.167305 0.000055 0.572672
nan nan nan 0.000000
nan nan nan 0.000000
73.691437 -61.883377 11.255754 1.000000
73.691429 -61.883366 9.545565 1.000000
73.691437 -61.883377 7.851897 1.000000
73.691429 -61.883362 6.170942 1.000000
73.691422 -61.883358 4.498987 1.000000
73.691429 -61.883362 2.832401 1.000000
73.691429 -61.883362 1.167599 1.000000
77.777145 -71.182411 -0.000005 0.332966
84.341965 -86.123901 0.000056 0.538235
87.160301 -92.538391 0.000061 0.544608
88.729958 -96.110916 0.000066 0.501471
89.732002 -98.391571 0.000050 0.540564
90.428535 -99.976860 0.000069 0.516299
90.941643 -101.144699 0.000054 0.590564
nan nan nan 0.000000
nan nan nan 0.000000
74.107849 -61.952293 11.214020 1.000000
74.107857 -61.952293 9.511539 1.000000
74.107857 -61.952293 7.825511 1.000000
74.107849 -61.952293 6.152133 1.000000
74.107849 -61.952282 4.487719 1.000000
74.107849 -61.952282 2.828647 1.000000
74.107849 -61.952282 1.171353 1.000000
78.037720 -71.068939 -0.000008 0.331863
84.498207 -86.056183 0.000077 0.532108
87.271584 -92.489952 0.000060 0.551593
88.816261 -96.073349 0.000064 0.532230
89.802414 -98.361053 0.000069 0.544976
90.487808 -99.951065 0.000068 0.512868
90.992805 -101.122566 0.000082 0.502206
nan nan nan 0.000000
nan nan nan 0.000000
74.520554 -62.020607 11.173102 1.000000
74.520569 -62.020618 9.478180 1.000000
74.520561 -62.020618 7.799640 1.000000
74.520561 -62.020622 6.133696 1.000000
74.520569 -62.020622 4.476670 1.000000
74.520561 -62.020618 2.824967 1.000000
74.520561 -62.020618 1.175033 1.000000
78.299118 -70.957336 -0.000008 0.331495
84.654678 -85.989021 0.000050 0.537377
87.383080 -92.442001 0.000023 0.545466
88.902733 -96.036171 0.000028 0.560907
89.872955 -98.330864 0.000058 0.515441
90.547226 -99.925568 0.000044 0.551716
91.043983 -101.100479 0.000027 0.530025
nan nan nan 0.000000
nan nan nan 0.000000
74.929649 -62.088352 11.132985 1.000000
74.929649 -62.088356 9.445474 1.000000
74.929649 -62.088356 7.774276 1.000000
74.929649 -62.088356 6.115617 1.000000
74.929649 -62.088356 4.465839 1.000000
74.929649 -62.088341 2.821359 1.000000
74.929649 -62.088341 1.178641 1.000000
78.561272 -70.847557 -0.000008 0.332108
84.811844 -85.923492 0.000071 0.541422
87.495094 -92.395287 0.000043 0.550980
88.989632 -96.000008 0.000059 0.531740
89.943733 -98.301224 0.000057 0.530515
90.606850 -99.900597 0.000043 0.527083
91.095436 -101.079048 0.000056 0.520098
nan nan nan 0.000000
nan nan nan 0.000000
75.335190 -62.155479 11.093660 1.000000
75.335190 -62.155483 9.413418 1.000000
75.335190 -62.155483 7.749414 1.000000
75.335190 -62.155487 6.097897 1.000000
75.335190 -62.155487 4.455222 1.000000
75.335190 -62.155495 2.817823 1.000000
75.335190 -62.155495 1.182177 1.000000
78.824181 -70.739586 -0.000010 0.332721
84.969315 -85.858688 0.000059 0.529289
87.607361 -92.349174 0.000041 0.519240
89.076675 -95.964188 0.000046 0.530147
90.014694 -98.272026 0.000045 0.540931
90.666618 -99.875984 0.000027 0.555760
91.146957 -101.057762 0.000022 0.569118
nan nan nan 0.000000
nan nan nan 0.000000
75.737267 -62.222038 11.055113 1.000000
75.737267 -62.222042 9.381994 1.000000
75.737267 -62.222038 7.725044 1.000000
75.737274 -62.222046 6.080526 1.000000
75.737267 -62.222042 4.444814 1.000000
75.737267 -62.222042 2.814357 1.000000
75.737267 -62.222042 1.185643 1.000000
79.087845 -70.633484 -0.000011 0.332721
85.127281 -85.795097 0.000057 0.527819
87.720024 -92.304031 0.000061 0.543382
89.163994 -95.929031 0.000044 0.559804
90.085945 -98.243530 0.000076 0.549877
90.726654 -99.851990 0.000060 0.536152
91.198715 -101.037056 0.000051 0.540441
nan nan nan 0.000000
nan nan nan 0.000000
76.135971 -62.288055 11.017329 1.000000
76.135971 -62.288055 9.351189 1.000000
76.135971 -62.288055 7.701153 1.000000
76.135971 -62.288055 6.063499 1.000000
76.135971 -62.288055 4.434613 1.000000
76.135979 -62.288067 2.810957 1.000000
76.135979 -62.288067 1.189042 1.000000
79.352257 -70.529228 -0.000011 0.332843
85.285690 -85.732635 0.000056 0.530760
87.832962 -92.259598 0.000071 0.537500
89.251556 -95.894485 0.000042 0.525123
90.157288 -98.215263 0.000052 0.544363
90.786804 -99.828323 0.000069 0.545098
91.250580 -101.016663 0.000064 0.522426
nan nan nan 0.000000
nan nan nan 0.000000
76.531380 -62.353512 10.980295 1.000000
76.531387 -62.353512 9.320999 1.000000
76.531387 -62.353512 7.677740 1.000000
76.531387 -62.353516 6.046810 1.000000
76.531387 -62.353516 4.424614 1.000000
76.531387 -62.353516 2.807628 1.000000
76.531387 -62.353516 1.192373 1.000000
79.617363 -70.426788 -0.000013 0.331985
85.444466 -85.671127 0.000042 0.537745
87.946144 -92.215752 0.000057 0.545833
89.339355 -95.860558 0.000039 0.591299
90.228836 -98.187546 0.000038 0.492770
90.847054 -99.804878 0.000034 0.555025
91.302559 -100.996513 0.000048 0.550490
nan nan nan 0.000000
nan nan nan 0.000000
76.923576 -62.418442 10.943996 1.000000
76.923576 -62.418442 9.291409 1.000000
76.923576 -62.418442 7.654792 1.000000
76.923576 -62.418449 6.030453 1.000000
76.923576 -62.418449 4.414813 1.000000
76.923576 -62.418442 2.804364 1.000000
76.923576 -62.418442 1.195637 1.000000
79.883202 -70.326225 -0.000013 0.332721
85.603828 -85.611122 0.000063 0.535662
88.059685 -92.172913 0.000068 0.527451
89.427490 -95.827515 0.000079 0.521814
90.300652 -98.160515 0.000060 0.522672
90.907585 -99.782181 0.000074 0.523039
91.354721 -100.976875 0.000068 0.507966
nan nan nan 0.000000
nan nan nan 0.000000
77.312637 -62.482849 10.908426 1.000000
77.312637 -62.482857 9.262407 1.000000
77.312637 -62.482849 7.632301 1.000000
77.312637 -62.482864 6.014422 1.000000
77.312637 -62.482857 4.405210 1.000000
77.312637 -62.482849 2.801164 1.000000
77.312637 -62.482849 1.198836 1.000000
80.149727 -70.227524 -0.000013 0.331863
85.763451 -85.551826 0.000049 0.537623
88.173393 -92.130463 0.000032 0.530515
89.515717 -95.794739 0.000065 0.553922
90.372643 -98.133957 0.000079 0.490074
90.968185 -99.759666 0.000059 0.528554
91.406967 -100.957458 0.000052 0.505882
nan nan nan 0.000000
nan nan nan 0.000000
77.698624 -62.546745 10.873565 1.000000
77.698631 -62.546753 9.233988 1.000000
77.698631 -62.546757 7.610259 1.000000
77.698639 -62.546761 5.998713 1.000000
77.698631 -62.546761 4.395797 1.000000
77.698639 -62.546761 2.798029 1.000000
77.698639 -62.546761 1.201971 1.000000
80.416954 -70.130722 -0.000012 0.333088
85.923592 -85.493950 0.000061 0.535539
88.287529 -92.089203 0.000042 0.535907
89.604187 -95.762581 0.000052 0.569730
90.444801 -98.107880 0.000090 0.541544
91.028946 -99.737587 0.000047 0.544363
91.459358 -100.938431 0.000043 0.491299
nan nan nan 0.000000
nan nan nan 0.000000
78.081635 -62.610157 10.839405 1.000000
78.081635 -62.610153 9.206142 1.000000
78.081635 -62.610157 7.588662 1.000000
78.081635 -62.610172 5.983319 1.000000
78.081635 -62.610161 4.386575 1.000000
78.081642 -62.610176 2.794956 1.000000
78.081642 -62.610176 1.205044 1.000000
80.684837 -70.035759 -0.000011 0.332230
86.084229 -85.437439 0.000095 0.539583
88.402023 -92.048920 0.000076 0.529534
89.692955 -95.731285 0.000075 0.528431
90.517120 -98.082214 0.000086 0.521814
91.089920 -99.716133 0.000079 0.549877
91.511955 -100.919968 0.000084 0.542892
nan nan nan 0.000000
nan nan nan 0.000000
78.461716 -62.673080 10.805936 1.000000
78.461708 -62.673073 9.178858 1.000000
78.461708 -62.673073 7.567502 1.000000
78.461716 -62.673096 5.968237 1.000000
78.461716 -62.673088 4.377538 1.000000
78.461708 -62.673088 2.791946 1.000000
78.461708 -62.673088 1.208053 1.000000
80.953384 -69.942703 -0.000010 0.331740
86.245010 -85.381386 0.000070 0.540686
88.516609 -92.008942 0.000048 0.529044
89.781891 -95.700485 0.000080 0.505882
90.589600 -98.057014 0.000073 0.549632
91.150986 -99.694893 0.000065 0.528554
91.564545 -100.901512 0.000033 0.526961
nan nan nan 0.000000
nan nan nan 0.000000
78.838959 -62.735542 10.773141 1.000000
78.838959 -62.735542 9.152121 1.000000
78.838959 -62.735550 7.546767 1.000000
78.838959 -62.735550 5.953460 1.000000
78.838959 -62.735550 4.368684 1.000000
78.838959 -62.735550 2.788998 1.000000
78.838959 -62.735550 1.211003 1.000000
81.222580 -69.851509 -0.000009 0.332966
86.406334 -85.326881 0.000082 0.538113
88.631584 -91.970055 0.000056 0.535172
89.871017 -95.670204 0.000069 0.555270
90.662254 -98.032326 0.000060 0.532843
91.212189 -99.674095 0.000053 0.480025
91.617378 -100.883720 0.000058 0.583578
nan nan nan 0.000000
nan nan nan 0.000000
79.213409 -62.797531 10.741018 1.000000
79.213402 -62.797531 9.125935 1.000000
79.213402 -62.797531 7.526458 1.000000
79.213402 -62.797531 5.938985 1.000000
79.213402 -62.797531 4.360012 1.000000
79.213402 -62.797531 2.786108 1.000000
79.213402 -62.797531 1.213892 1.000000
81.492401 -69.762215 -0.000007 0.332843
86.567886 -85.273102 0.000060 0.526593
88.746750 -91.931763 0.000039 0.520466
89.960342 -95.640518 0.000053 0.551103
90.735069 -98.008125 0.000045 0.539461
91.273552 -99.653748 0.000048 0.494485
91.670242 -100.866051 0.000020 0.502451
nan nan nan 0.000000
nan nan nan 0.000000
79.585144 -62.859062 10.709555 1.000000
79.585144 -62.859070 9.100283 1.000000
79.585144 -62.859070 7.506565 1.000000
79.585144 -62.859070 5.924805 1.000000
79.585144 -62.859070 4.351515 1.000000
79.585144 -62.859070 2.783278 1.000000
79.585144 -62.859070 1.216721 1.000000
81.762833 -69.674774 -0.000006 0.332598
86.729958 -85.220840 0.000071 0.533578
88.862297 -91.894623 0.000063 0.562990
90.049950 -95.611710 0.000076 0.506618
90.808121 -97.984650 0.000069 0.569240
91.335052 -99.633820 0.000039 0.563480
91.723335 -100.849068 0.000063 0.596078
nan nan nan 0.000000
nan nan nan 0.000000
79.954239 -62.920166 10.678735 1.000000
79.954239 -62.920177 9.075155 1.000000
79.954239 -62.920174 7.487078 1.000000
79.954239 -62.920181 5.910917 1.000000
79.954239 -62.920181 4.343194 1.000000
79.954247 -62.920189 2.780506 1.000000
79.954247 -62.920189 1.219493 1.000000
82.033875 -69.589233 -0.000006 0.333088
86.892380 -85.169708 0.000082 0.534069
88.978065 -91.858177 0.000074 0.533824
90.139755 -95.583542 0.000101 0.534804
90.881332 -97.961670 0.000093 0.549632
91.396729 -99.614449 0.000059 0.537010
91.776520 -100.832390 0.000088 0.535662
nan nan nan 0.000000
nan nan nan 0.000000
80.320740 -62.980858 10.648552 1.000000
80.320740 -62.980858 9.050552 1.000000
80.320740 -62.980858 7.467999 1.000000
80.320740 -62.980858 5.897316 1.000000
80.320747 -62.980858 4.335045 1.000000
80.320740 -62.980858 2.777792 1.000000
80.320740 -62.980858 1.222207 1.000000
82.305496 -69.505600 -0.000004 0.333088
87.055069 -85.119438 0.000069 0.534436
89.094070 -91.822533 0.000083 0.521814
90.229652 -95.555664 0.000074 0.535784
90.954590 -97.938820 0.000043 0.513358
91.458488 -99.595367 0.000047 0.552328
91.829735 -100.815796 0.000039 0.580024
nan nan nan 0.000000
nan nan nan 0.000000
80.684731 -63.041107 10.618999 1.000000
80.684738 -63.041122 9.026458 1.000000
80.684738 -63.041119 7.449311 1.000000
80.684738 -63.041122 5.883998 1.000000
80.684731 -63.041107 4.327066 1.000000
80.684738 -63.041122 2.775135 1.000000
80.684738 -63.041122 1.224865 1.000000
82.577705 -69.423851 -0.000004 0.332108
87.218193 -85.070587 0.000081 0.537623
89.210342 -91.787727 0.000096 0.505392
90.319778 -95.528503 0.000063 0.643750
91.028114 -97.916870 0.000067 0.537377
91.520393 -99.576721 0.000036 0.572549
91.883141 -100.799850 0.000063 0.519240
nan nan nan 0.000000
nan nan nan 0.000000
81.046249 -63.100964 10.590062 1.000000
81.046249 -63.100952 9.002872 1.000000
81.046249 -63.100967 7.431016 1.000000
81.046249 -63.100967 5.870959 1.000000
81.046249 -63.100967 4.319253 1.000000
81.046257 -63.100979 2.772532 1.000000
81.046257 -63.100979 1.227468 1.000000
82.850464 -69.343971 -0.000005 0.332598
87.381561 -85.022583 0.000068 0.534314
89.326782 -91.753510 0.000082 0.537990
90.410156 -95.502213 0.000087 0.528676
91.101738 -97.895248 0.000055 0.562132
91.582458 -99.558655 0.000058 0.550368
91.936638 -100.784195 0.000065 0.481495
nan nan nan 0.000000
nan nan nan 0.000000
81.405373 -63.160431 10.561734 1.000000
81.405380 -63.160416 8.979778 1.000000
81.405373 -63.160423 7.413106 1.000000
81.405380 -63.160431 5.858194 1.000000
81.405380 -63.160431 4.311606 1.000000
81.405380 -63.160435 2.769985 1.000000
81.405380 -63.160439 1.230015 1.000000
83.123787 -69.266022 -0.000005 0.332598
87.545326 -84.975929 0.000072 0.539951
89.443542 -91.720375 0.000100 0.578064
90.500679 -95.476425 0.000091 0.544118
91.175552 -97.874275 0.000070 0.565809
91.644608 -99.540840 0.000039 0.546569
91.990280 -100.769012 0.000093 0.465931
nan nan nan 0.000000
nan nan nan 0.000000
81.762146 -63.219482 10.534011 1.000000
81.762146 -63.219482 8.957176 1.000000
81.762146 -63.219482 7.395577 1.000000
81.762146 -63.219498 5.845699 1.000000
81.762146 -63.219482 4.304120 1.000000
81.762154 -63.219494 2.767492 1.000000
81.762154 -63.219494 1.232508 1.000000
83.397636 -69.189949 -0.000005 0.332108
87.709305 -84.930054 0.000045 0.546814
89.560417 -91.687675 0.000074 0.553554
90.591286 -95.450920 0.000041 0.531863
91.249458 -97.853615 0.000044 0.551103
91.706924 -99.523659 0.000065 0.525123
92.043930 -100.753922 0.000048 0.528554
nan nan nan 0.000000
nan nan nan 0.000000
82.116638 -63.278168 10.506877 1.000000
82.116646 -63.278172 8.935055 1.000000
82.116646 -63.278183 7.378423 1.000000
82.116638 -63.278168 5.833473 1.000000
82.116638 -63.278168 4.296795 1.000000
82.116646 -63.278175 2.765052 1.000000
82.116646 -63.278183 1.234949 1.000000
83.642014 -69.003220 -0.005730 1.000000
87.873802 -84.886017 0.000078 0.529044
89.677574 -91.655960 0.000067 0.537010
90.682198 -95.426552 0.000070 0.537868
91.323524 -97.833565 0.000039 0.518015
91.769371 -99.506927 0.000094 0.548774
92.097771 -100.739494 0.000076 0.582598
nan nan nan 0.000000
nan nan nan 0.000000
82.468895 -63.336487 10.480330 1.000000
82.468895 -63.336491 8.913411 1.000000
82.468903 -63.336491 7.361639 1.000000
82.468895 -63.336491 5.821509 1.000000
82.468903 -63.336491 4.289627 1.000000
82.468895 -63.336487 2.762664 1.000000
82.468895 -63.336487 1.237336 1.000000
83.947830 -69.047226 0.000178 1.000000
88.038528 -84.842903 0.000090 0.539461
89.794983 -91.625237 0.000080 0.538235
90.773277 -95.402817 0.000098 0.544730
91.397774 -97.814201 0.000063 0.535417
91.831879 -99.490448 0.000083 0.528431
92.151688 -100.725334 0.000076 0.539828
nan nan nan 0.000000
nan nan nan 0.000000
82.818993 -63.394455 10.454355 1.000000
82.818985 -63.394447 8.892237 1.000000
82.818985 -63.394447 7.345218 1.000000
82.818985 -63.394447 5.809806 1.000000
82.818993 -63.394455 4.282614 1.000000
82.818993 -63.394455 2.760327 1.000000
82.818993 -63.394455 1.239672 1.000000
84.222580 -68.974487 0.000054 0.536765
88.203453 -84.800537 0.000068 0.534804
89.912529 -91.595047 0.000059 0.498039
90.864426 -95.379318 0.000064 0.544118
91.472107 -97.795174 0.000054 0.507598
91.894493 -99.474373 0.000063 0.553676
92.205673 -100.711456 0.000054 0.539216
nan nan nan 0.000000
nan nan nan 0.000000
83.166946 -63.452053 10.428951 1.000000
83.166954 -63.452057 8.871528 1.000000
83.166946 -63.452057 7.329156 1.000000
83.166954 -63.452057 5.798357 1.000000
83.166946 -63.452065 4.275755 1.000000
83.166946 -63.452053 2.758044 1.000000
83.166946 -63.452057 1.241956 1.000000
84.498535 -68.906487 0.000073 0.536152
88.368744 -84.759628 0.000073 0.525858
90.030380 -91.566010 0.000079 0.526471
90.955750 -95.356537 0.000043 0.538725
91.546570 -97.776611 0.000035 0.559559
91.957230 -99.458786 0.000055 0.525245
92.259727 -100.697868 0.000006 0.487745
nan nan nan 0.000000
83.512848 -63.509315 11.975554 1.000000
83.512848 -63.509315 10.404110 1.000000
83.512840 -63.509308 8.851276 1.000000
83.512848 -63.509319 7.313449 1.000000
83.512848 -63.509319 5.787161 1.000000
83.512848 -63.509319 4.269047 1.000000
83.512848 -63.509315 2.755810 1.000000
83.512848 -63.509315 1.244191 1.000000
84.774948 -68.840408 0.000091 0.530147
88.534355 -84.720032 0.000091 0.527328
90.148422 -91.537804 0.000098 0.494485
91.047325 -95.334740 0.000074 0.545466
91.621208 -97.758820 0.000063 0.521078
92.020126 -99.443825 0.000089 0.530270
92.313889 -100.684708 -0.000026 0.506495
nan nan nan 0.000000
nan nan nan 0.000000
nan nan nan 0.000000
nan nan nan 0.000000
nan nan nan 0.000000
nan nan nan 0.000000
nan nan nan 0.000000
