# This PCD file was generated using the MATLABÂ® pcwrite function
# from Computer Vision ToolboxÂ®.
# .PCD v.7 - Point Cloud Data file format
VERSION .7
FIELDS x y z intensity
SIZE 4 4 4 4
TYPE F F F F
COUNT 1 1 1 1
WIDTH 1162
HEIGHT 1
VIEWPOINT 0 0 0 1 0 0 0
POINTS 1162
DATA ascii
327.151978 -529.276733 3.248937 0.582843
327.149567 -529.273743 2.415951 0.553186
327.147125 -529.270691 1.584112 0.548284
327.144653 -529.267639 0.751638 0.570833
326.507141 -528.471863 0.000024 0.533088
322.126526 -523.003906 0.000015 0.536397
319.686676 -519.958374 0.000028 0.525980
318.129211 -518.014282 -0.000007 0.500858
317.046539 -516.662903 0.000007 0.561642
316.248901 -515.667297 0.000019 0.557966
326.971710 -529.334839 8.351332 0.565686
326.969208 -529.331665 7.475478 0.604412
326.966675 -529.328491 6.612195 0.568995
326.964233 -529.325378 5.759407 0.514706
326.961792 -529.322327 4.915124 0.555882
326.959351 -529.319214 4.077435 0.579779
326.956970 -529.316162 3.244488 0.601103
326.954559 -529.313171 2.414470 0.481863
326.952209 -529.310120 1.585593 0.651471
326.949768 -529.307068 0.756082 0.585907
326.373962 -528.577942 0.000013 0.537010
322.031616 -523.079529 0.000003 0.532475
319.613068 -520.017029 0.000017 0.530760
318.069092 -518.062012 0.000010 0.507353
316.995972 -516.703186 -0.000003 0.523652
316.205353 -515.702087 -0.000011 0.550613
326.777802 -529.373962 8.329073 0.573162
326.775330 -529.370789 7.456290 0.594730
326.772888 -529.367615 6.596037 0.516176
326.770447 -529.364502 5.746239 0.569730
326.768066 -529.361389 4.904915 0.526348
326.765656 -529.358398 4.070160 0.637377
326.763306 -529.355286 3.240130 0.598897
326.760925 -529.352295 2.413018 0.609191
326.758575 -529.349243 1.587045 0.619363
326.756195 -529.346191 0.760436 0.618750
326.239899 -528.682983 0.000022 0.529779
321.936035 -523.154297 0.000013 0.531495
319.539001 -520.075195 0.000006 0.524020
318.008667 -518.109314 0.000019 0.516667
316.945038 -516.742981 0.000014 0.553922
316.161469 -515.736450 -0.000001 0.558824
326.585297 -529.412842 8.307281 0.589461
326.582855 -529.409607 7.437508 0.558088
326.580414 -529.406494 6.580218 0.583456
326.578033 -529.403381 5.733345 0.239828
326.575653 -529.400269 4.894917 0.293995
326.573334 -529.397217 4.063038 0.624755
326.644043 -529.489380 3.241758 0.631005
326.641693 -529.486328 2.413561 0.717525
326.639374 -529.483276 1.586502 0.692892
326.637024 -529.480225 0.758807 0.665564
326.105286 -528.787292 0.000005 0.531618
321.840088 -523.228699 -0.000004 0.534681
319.464600 -520.132813 -0.000010 0.542647
317.947998 -518.156250 0.000004 0.555147
316.893951 -516.782654 -0.000003 0.561520
316.117401 -515.770569 -0.000016 0.539461
326.394073 -529.451416 8.285950 0.526961
326.391693 -529.448181 7.419118 0.593015
326.389282 -529.445068 6.564730 0.573897
326.386932 -529.441956 5.720722 0.758946
326.384613 -529.438904 4.885130 0.684191
326.382294 -529.435852 4.056064 0.587623
326.452118 -529.528198 3.237561 0.523529
326.449829 -529.525146 2.412163 0.703922
326.447540 -529.522095 1.587899 0.701471
326.445251 -529.519043 0.763000 0.678799
325.969757 -528.890381 0.000015 0.554902
321.743500 -523.302185 0.000006 0.541667
319.389709 -520.189819 -0.000001 0.557966
317.886902 -518.202759 0.000013 0.536029
316.842499 -516.821777 0.000007 0.505637
316.072998 -515.804260 0.000000 0.534314
326.204132 -529.489807 8.265063 0.551961
326.201782 -529.486572 7.401118 0.629902
326.199463 -529.483459 6.549569 0.535662
326.197144 -529.480347 5.708369 0.534069
326.194824 -529.477234 4.875554 0.563603
326.192596 -529.474243 4.049240 0.611152
326.261536 -529.566711 3.233453 0.539951
326.259247 -529.563660 2.410795 0.680760
326.256989 -529.560669 1.589267 0.689951
326.254730 -529.557617 0.767104 0.672549
325.833496 -528.992493 0.000025 0.548774
321.646393 -523.374939 0.000016 0.545711
319.314392 -520.246277 0.000009 0.515931
317.825531 -518.248840 0.000023 0.537623
316.790771 -516.860535 0.000017 0.537868
316.028412 -515.837769 0.000010 0.562868
326.015442 -529.527771 8.244614 0.583088
326.013123 -529.524658 7.383488 0.565564
326.010803 -529.521484 6.534719 0.613358
326.008545 -529.518372 5.696266 0.625245
326.006287 -529.515381 4.866171 0.594853
326.004059 -529.512268 4.042553 0.560539
326.072144 -529.604980 3.229432 0.484436
326.069916 -529.601929 2.409456 0.678186
326.067719 -529.598938 1.590605 0.692157
326.065460 -529.595947 0.771123 0.669853
325.696747 -529.093933 0.000007 0.535417
321.548920 -523.447266 -0.000002 0.540931
319.238800 -520.302307 -0.000007 0.535539
317.763947 -518.294617 -0.000013 0.534804
316.738831 -516.899048 0.000001 0.566667
315.983643 -515.870972 -0.000006 0.565809
325.827972 -529.565613 8.224601 0.499387
325.825684 -529.562439 7.366240 0.598407
325.823425 -529.559387 6.520195 0.583088
325.821167 -529.556274 5.684428 0.537377
325.818970 -529.553223 4.856993 0.503431
325.816742 -529.550171 4.036014 0.632843
325.884003 -529.643005 3.225495 0.622794
325.881805 -529.640015 2.408145 0.694240
325.879608 -529.636963 1.591915 0.703676
325.877441 -529.633972 0.775055 0.668015
325.559082 -529.194214 0.000016 0.539216
321.450806 -523.518738 0.000008 0.521446
319.162689 -520.357788 0.000002 0.516667
317.701935 -518.339783 -0.000004 0.538358
316.686646 -516.937195 -0.000009 0.556985
315.938599 -515.903748 0.000003 0.525858
325.641693 -529.603271 8.205021 0.478064
325.639465 -529.600098 7.349365 0.619118
325.637207 -529.596985 6.505984 0.567279
325.635040 -529.593872 5.672847 0.183946
325.632843 -529.590820 4.848011 0.300980
325.630676 -529.587769 4.029615 0.601593
325.697052 -529.680847 3.221644 0.822672
325.694885 -529.677795 2.406863 0.715931
325.692749 -529.674805 1.593198 0.690196
325.690582 -529.671753 0.778903 0.665074
325.420807 -529.293579 0.000015 0.535784
321.352112 -523.589355 0.000035 0.527328
319.086151 -520.412537 0.000028 0.527206
317.639526 -518.384399 0.000022 0.550368
316.634155 -516.974915 -0.000011 0.551471
315.893372 -515.936340 -0.000016 0.532843
325.456573 -529.640625 8.185867 0.534926
325.454376 -529.637451 7.332853 0.544118
325.452209 -529.634338 6.492077 0.581863
325.450012 -529.631287 5.661514 0.587623
325.447876 -529.628174 4.839226 0.596569
325.445709 -529.625122 4.023355 0.545221
325.443604 -529.622131 3.212095 0.586275
325.441467 -529.619141 2.403683 0.587990
325.439362 -529.616150 1.596377 0.576471
325.437256 -529.613159 0.788445 0.601348
325.281982 -529.392151 -0.000004 0.524142
321.253143 -523.659607 0.000016 0.529289
319.009399 -520.467041 0.000010 0.538725
317.576965 -518.428894 0.000005 0.553064
316.581360 -517.012268 -0.000002 0.559069
315.847900 -515.968628 -0.000035 0.540809
325.272614 -529.677795 8.167129 0.516299
325.270416 -529.674622 7.316700 0.582721
325.268250 -529.671509 6.478470 0.490196
325.266113 -529.668335 5.650422 0.589216
325.264008 -529.665344 4.830628 0.527328
325.261932 -529.662292 4.017229 0.569363
325.259827 -529.659302 3.208427 0.550613
325.257751 -529.656250 2.402462 0.456250
325.255676 -529.653320 1.597598 0.579779
325.253601 -529.650330 0.792111 0.583088
325.142365 -529.489624 -0.000011 0.523407
321.153564 -523.729004 0.000027 0.529779
318.932159 -520.520813 0.000020 0.538848
317.514008 -518.472717 0.000015 0.554657
316.528290 -517.049194 0.000009 0.515809
315.802124 -516.000366 0.000004 0.557108
325.089722 -529.714661 8.148803 0.532353
325.087585 -529.711548 7.300906 0.616544
325.085449 -529.708435 6.465169 0.577819
325.083374 -529.705322 5.639583 0.576716
325.081268 -529.702271 4.822224 0.534804
325.079193 -529.699280 4.011241 0.595221
325.077148 -529.696228 3.204840 0.572794
325.075104 -529.693237 2.401267 0.574265
325.073059 -529.690186 1.598792 0.621936
325.071014 -529.687195 0.795695 0.547426
325.001953 -529.585999 -0.000002 0.531127
321.053467 -523.797668 0.000037 0.528309
318.854553 -520.574097 0.000030 0.539583
317.450775 -518.516174 0.000005 0.546446
316.475006 -517.085754 0.000019 0.568627
315.756134 -516.031921 0.000014 0.547181
324.907928 -529.751404 8.130886 0.613848
324.905792 -529.748230 7.285458 0.606740
324.903687 -529.745056 6.452159 0.617892
324.901642 -529.742004 5.628980 0.428309
324.899597 -529.738953 4.814002 0.401716
324.897583 -529.735962 4.005383 0.587623
324.895538 -529.732910 3.201331 0.615319
324.893524 -529.729980 2.400099 0.732598
324.891510 -529.726929 1.599960 0.305025
324.889526 -529.723999 0.799199 0.452206
324.887512 -529.720947 -0.003904 1.000000
320.952881 -523.865540 0.000055 0.525245
318.776611 -520.626892 0.000029 0.526103
317.387177 -518.559143 0.000023 0.545221
316.421478 -517.122009 0.000017 0.554044
315.709930 -516.063110 0.000030 0.526716
324.727142 -529.787842 8.113365 0.572181
324.725067 -529.784729 7.270356 0.630637
324.722992 -529.781555 6.439440 0.598039
324.720978 -529.778503 5.618614 0.192279
324.718964 -529.775452 4.805964 0.308824
324.716949 -529.772461 3.999656 0.557721
324.714966 -529.769470 3.197902 0.582598
324.713013 -529.766479 2.398957 0.703064
324.711029 -529.763489 1.601102 0.391422
324.709045 -529.760498 0.802626 0.559804
324.707031 -529.757507 0.001814 1.000000
320.852234 -523.933411 -0.000014 0.552451
318.698364 -520.679260 0.000010 0.541176
317.323395 -518.601807 0.000005 0.567157
316.367706 -517.157898 0.000000 0.532843
315.663666 -516.094177 -0.000007 0.508946
324.547424 -529.824097 8.096241 0.540564
324.545349 -529.820984 7.255598 0.588726
324.543335 -529.817871 6.427009 0.554657
324.541321 -529.814819 5.608483 0.552941
324.539337 -529.811768 4.798110 0.547672
324.537354 -529.808716 3.994059 0.562990
324.535431 -529.805786 3.194548 0.527451
324.533478 -529.802795 2.397840 0.532966
324.531555 -529.799805 1.602218 0.612990
324.529602 -529.796814 0.805975 0.531985
324.527649 -529.793823 0.007402 1.000000
320.750763 -524.000000 -0.000004 0.543505
318.619659 -520.730835 0.000019 0.533578
317.259247 -518.643921 0.000014 0.560294
316.313690 -517.193420 0.000010 0.577206
315.617035 -516.124695 0.000004 0.560049
324.368652 -529.860229 8.079508 0.604412
324.366669 -529.857056 7.241174 0.586029
324.364655 -529.854004 6.414861 0.625000
324.362701 -529.850891 5.598583 0.635049
324.360748 -529.847839 4.790435 0.584069
324.358795 -529.844849 3.988592 0.604779
324.356873 -529.841858 3.191273 0.640441
324.354980 -529.838867 2.396749 0.595833
324.353058 -529.835876 1.603308 0.574387
324.351166 -529.832886 0.809247 0.583824
324.349213 -529.829895 0.012862 1.000000
320.648834 -524.065918 -0.000005 0.539093
318.540649 -520.781921 0.000019 0.527574
317.194824 -518.685608 0.000012 0.522794
316.259399 -517.228516 0.000008 0.555515
315.570251 -516.155029 0.000002 0.533701
324.190918 -529.896118 8.063169 0.619363
324.188934 -529.892944 7.227090 0.638480
324.186951 -529.889893 6.402999 0.644730
324.184998 -529.886780 5.588916 0.583824
324.183105 -529.883789 4.782941 0.557843
324.181213 -529.880737 3.983249 0.632843
324.179291 -529.877747 3.188075 0.584191
324.177399 -529.874756 2.395684 0.549265
324.175537 -529.871765 1.604374 0.598774
324.173645 -529.868835 0.812445 0.577941
324.171783 -529.865845 0.018197 1.000000
320.546448 -524.131042 0.000005 0.530270
318.461243 -520.832458 0.000028 0.550245
317.130066 -518.726746 0.000024 0.538358
316.204834 -517.263184 0.000019 0.557353
315.523224 -516.184937 0.000011 0.559681
324.014099 -529.931763 8.047205 0.541667
324.012115 -529.928711 7.213331 0.544608
324.010193 -529.925598 6.391414 0.605515
324.008301 -529.922546 5.579473 0.368505
324.006409 -529.919495 4.775620 0.359191
324.004517 -529.916504 3.978035 0.535784
324.002686 -529.913513 3.184950 0.538971
324.000824 -529.910522 2.394644 0.730270
323.998962 -529.907532 1.605414 0.297304
323.997101 -529.904541 0.815567 0.372672
323.995270 -529.901550 0.023406 1.000000
320.443634 -524.195557 0.000003 0.544730
318.381470 -520.882507 0.000027 0.528431
317.065063 -518.767578 0.000022 0.551103
316.150024 -517.297485 0.000043 0.533333
315.475922 -516.214417 0.000039 0.548652
323.838165 -529.967285 8.031626 0.544363
323.836273 -529.964233 7.199899 0.579412
323.834351 -529.961121 6.380101 0.575490
323.832489 -529.958069 5.570252 0.229534
323.830597 -529.955017 4.768470 0.329167
323.828796 -529.952026 3.972940 0.588848
323.826965 -529.948975 3.181900 0.606495
323.825134 -529.946045 2.393629 0.705515
323.823303 -529.943054 1.606429 0.465196
323.821472 -529.940063 0.818615 0.486275
323.819641 -529.937073 0.028493 1.000000
320.340454 -524.259460 -0.000017 0.528799
318.301453 -520.932129 0.000007 0.525735
316.999786 -518.807922 0.000012 0.490196
316.095062 -517.331482 0.000025 0.539461
315.428558 -516.243835 0.000021 0.524387
323.663147 -530.002686 8.016413 0.613235
323.661285 -529.999573 7.186790 0.599387
323.659424 -529.996460 6.369058 0.610049
323.657593 -529.993408 5.561255 0.583088
323.655731 -529.990295 4.761493 0.534559
323.653931 -529.987305 3.967967 0.586887
323.652130 -529.984375 3.178921 0.615441
323.650360 -529.981384 2.392637 0.577083
323.648560 -529.978455 1.607420 0.566912
323.646759 -529.975403 0.821590 0.569485
323.644928 -529.972412 0.033458 1.000000
320.236786 -524.322571 -0.000019 0.538971
318.221039 -520.981018 0.000005 0.542034
316.934235 -518.847778 0.000012 0.506373
316.039856 -517.365112 0.000024 0.544853
315.380920 -516.272827 0.000019 0.600000
323.489044 -530.037781 8.001561 0.539828
323.487152 -530.034668 7.173988 0.543995
323.485321 -530.031616 6.358278 0.643750
323.483521 -530.028564 5.552470 0.582230
323.481720 -530.025513 4.754685 0.515196
323.479950 -530.022522 3.963118 0.566422
323.478210 -530.019531 3.176015 0.506985
323.476410 -530.016541 2.391669 0.502083
323.474670 -530.013611 1.608388 0.519853
323.472900 -530.010620 0.824493 0.550000
323.471100 -530.007629 0.038302 1.000000
320.132568 -524.384766 -0.000009 0.529534
318.140320 -521.029419 -0.000005 0.538725
316.868347 -518.887146 0.000023 0.531863
315.984375 -517.398315 0.000015 0.532843
315.333099 -516.301453 0.000011 0.530270
323.315735 -530.072754 7.987085 0.551838
323.313904 -530.069641 7.161509 0.551103
323.312103 -530.066589 6.347768 0.581127
323.310333 -530.063538 5.543904 0.587132
323.308563 -530.060486 4.748044 0.610049
323.306793 -530.057495 3.958385 0.624387
323.305054 -530.054565 3.173180 0.545956
323.303345 -530.051575 2.390725 0.602574
323.301605 -530.048645 1.609332 0.608456
323.299866 -530.045593 0.827325 0.619118
323.298126 -530.042664 0.043028 1.000000
320.028015 -524.446411 -0.000010 0.529902
318.059204 -521.077209 -0.000005 0.547181
316.802246 -518.926086 0.000020 0.558824
315.928711 -517.431152 0.000014 0.533333
315.285095 -516.329712 0.000010 0.555270
323.143280 -530.107666 7.972977 0.593627
323.141479 -530.104492 7.149343 0.595343
323.139709 -530.101379 6.337519 0.686642
323.137970 -530.098389 5.535552 0.440809
323.136200 -530.095337 4.741567 0.443995
323.134491 -530.092346 3.953768 0.584191
323.132782 -530.089355 3.170416 0.585172
323.131104 -530.086365 2.389805 0.709681
323.129364 -530.083496 1.610252 0.310907
323.127686 -530.080444 0.830086 0.365441
323.125946 -530.077515 0.047636 1.000000
319.923096 -524.507385 -0.000031 0.514706
317.977844 -521.124512 -0.000026 0.534069
316.735931 -518.964661 0.000000 0.534804
315.872803 -517.463684 -0.000004 0.522304
315.236877 -516.357788 -0.000010 0.526471
322.971649 -530.142273 7.959210 0.588848
322.969849 -530.139160 7.137480 0.516422
322.968109 -530.136047 6.327529 0.697181
322.966400 -530.133057 5.527410 0.190564
322.964691 -530.130005 4.735255 0.395098
322.963013 -530.127014 3.949271 0.591176
322.961304 -530.124023 3.167722 0.570098
322.959625 -530.121094 2.388906 0.677819
322.957947 -530.118103 1.611148 0.326716
322.956299 -530.115173 0.832778 0.444118
322.954590 -530.112183 0.052127 1.000000
319.817657 -524.567566 -0.000032 0.543995
317.896057 -521.171143 -0.000027 0.527819
316.669250 -519.002747 -0.000000 0.553922
315.816650 -517.495667 -0.000007 0.532843
315.188477 -516.385376 -0.000012 0.524142
322.800751 -530.176758 7.945797 0.564216
322.799011 -530.173645 7.125919 0.527574
322.797302 -530.170532 6.317792 0.590564
322.795593 -530.167542 5.519474 0.577696
322.793945 -530.164490 4.729103 0.562132
322.792236 -530.161560 3.944888 0.614093
322.790619 -530.158569 3.165098 0.576103
322.788971 -530.155579 2.388033 0.568015
322.787323 -530.152649 1.612023 0.614093
322.785675 -530.149658 0.835402 0.549142
322.783997 -530.146667 0.056503 1.000000
319.711456 -524.626282 0.000053 0.544118
317.813965 -521.217163 -0.000017 0.550735
316.602295 -519.040161 0.000010 0.550123
315.760254 -517.527283 0.000003 0.533456
315.139832 -516.412598 -0.000002 0.518382
322.630615 -530.211121 7.932738 0.231373
322.628906 -530.208008 7.114659 0.225368
322.627228 -530.204895 6.308312 0.216789
322.625549 -530.201904 5.511748 0.213113
322.623932 -530.198914 4.723112 0.210539
322.622284 -530.195862 3.940619 0.212745
322.620667 -530.192932 3.162540 0.214828
322.619049 -530.190002 2.387182 0.207843
322.617432 -530.187012 1.612874 0.208701
322.615814 -530.184021 0.837956 0.210662
322.614166 -530.181091 0.060764 0.204779
319.605194 -524.684937 0.000053 0.529534
317.731567 -521.262634 -0.000019 0.522426
316.535217 -519.077454 -0.000026 0.550245
315.703644 -517.558533 0.000003 0.548529
315.091034 -516.439575 -0.000004 0.476961
322.461273 -530.245422 7.920035 0.571936
322.459595 -530.242249 7.103709 0.541176
322.457947 -530.239136 6.299085 0.594363
322.456268 -530.236145 5.504227 0.638235
322.454681 -530.233093 4.717279 0.568015
322.453033 -530.230103 3.936463 0.585417
322.451447 -530.227112 3.160051 0.572426
322.449860 -530.224182 2.386353 0.570343
322.448273 -530.221252 1.613702 0.599387
322.446655 -530.218262 0.840444 0.530392
322.445068 -530.215332 0.064914 1.000000
319.498627 -524.743042 0.000032 0.552451
317.648804 -521.307495 -0.000009 0.543137
316.467773 -519.114014 -0.000015 0.535907
315.646820 -517.589355 0.000012 0.532966
315.042023 -516.466064 0.000021 0.543260
322.292603 -530.279419 7.907658 0.536887
322.290955 -530.276306 7.093045 0.563725
322.289307 -530.273193 6.290106 0.486520
322.287720 -530.270142 5.496908 0.543873
322.286102 -530.267212 4.711605 0.538480
322.284546 -530.264221 3.932420 0.522059
322.282959 -530.261230 3.157629 0.507721
322.281403 -530.258240 2.385546 0.668873
322.279816 -530.255310 1.614509 0.468137
322.278259 -530.252319 0.842864 0.464093
322.276703 -530.249390 0.068953 1.000000
319.391510 -524.800049 0.000048 0.529779
317.565826 -521.351929 -0.000023 0.538358
316.400085 -519.150208 -0.000031 0.537377
315.589783 -517.619812 0.000009 0.508946
314.992859 -516.492432 0.000006 0.535417
322.124603 -530.313293 7.895620 0.579902
322.122986 -530.310242 7.082670 0.528064
322.121429 -530.307190 6.281367 0.418260
322.119812 -530.304138 5.489786 0.181127
322.118256 -530.301086 4.706084 0.620833
322.116730 -530.298096 3.928487 0.571324
322.115173 -530.295166 3.155273 0.561642
322.113617 -530.292175 2.384762 0.622059
322.112091 -530.289246 1.615293 0.186642
322.110565 -530.286316 0.845217 0.403186
322.109009 -530.283325 0.072880 1.000000
319.284027 -524.856506 0.000048 0.523284
317.482483 -521.395691 -0.000025 0.541544
316.332153 -519.185913 -0.000032 0.521078
315.532562 -517.649841 0.000009 0.541912
314.943512 -516.518311 0.000004 0.529289
321.957336 -530.347107 7.883920 0.581618
321.955750 -530.343994 7.072581 0.544363
321.954163 -530.340942 6.272872 0.586275
321.952637 -530.337891 5.482864 0.610784
321.951080 -530.334900 4.700717 0.585172
321.949554 -530.331909 3.924662 0.566299
321.948029 -530.328918 3.152983 0.564583
321.946533 -530.325989 2.383999 0.585172
321.945038 -530.323059 1.616055 0.562377
321.943512 -530.320129 0.847505 0.574020
321.941986 -530.317139 0.076699 1.000000
319.176147 -524.912109 0.000058 0.537010
317.398590 -521.438416 0.000051 0.535172
316.263947 -519.221069 -0.000022 0.545221
315.475067 -517.679443 0.000021 0.535907
314.893982 -516.543884 0.000013 0.532843
321.790680 -530.380737 7.872551 0.601348
321.789124 -530.377625 7.062783 0.479044
321.787598 -530.374573 6.264621 0.579779
321.786072 -530.371521 5.476139 0.569853
321.784546 -530.368530 4.695504 0.539216
321.783051 -530.365601 3.920948 0.550490
321.781555 -530.362610 3.150758 0.591789
321.780060 -530.359619 2.383257 0.537868
321.778595 -530.356689 1.616796 0.536887
321.777130 -530.353760 0.849728 0.597181
321.775635 -530.350769 0.080408 1.000000
319.067902 -524.967041 0.000058 0.538480
317.314728 -521.481079 0.000031 0.532230
316.195496 -519.255737 -0.000009 0.559069
315.417450 -517.708740 0.000020 0.524265
314.844269 -516.569031 0.000013 0.527696
321.624725 -530.414246 7.861516 0.556005
321.623169 -530.411194 7.053270 0.554289
321.621643 -530.408081 6.256608 0.629044
321.620148 -530.405090 5.469610 0.535784
321.618683 -530.402100 4.690441 0.548897
321.617218 -530.399048 3.917340 0.617647
321.615723 -530.396118 3.148597 0.559559
321.614288 -530.393188 2.382539 0.543505
321.612823 -530.390259 1.617515 0.620466
321.611359 -530.387268 0.851888 0.580392
321.609894 -530.384338 0.084011 1.000000
318.959290 -525.021179 0.000056 0.537623
317.230499 -521.523071 0.000030 0.536887
316.126831 -519.289978 -0.000010 0.519118
315.359650 -517.737732 -0.000017 0.536152
314.794373 -516.593933 0.000011 0.510417
321.459320 -530.447693 7.850806 0.599387
321.457794 -530.444580 7.044038 0.615196
321.456329 -530.441528 6.248831 0.510662
321.454834 -530.438477 5.463270 0.530025
321.453369 -530.435486 4.685526 0.585049
321.451935 -530.432495 3.913838 0.583088
321.450500 -530.429565 3.146499 0.548529
321.449066 -530.426636 2.381840 0.447794
321.447632 -530.423645 1.618214 0.519485
321.446198 -530.420715 0.853983 0.506373
321.444763 -530.417786 0.087507 1.000000
318.850311 -525.074524 0.000055 0.526593
317.145966 -521.564514 0.000029 0.546078
316.057892 -519.323669 -0.000010 0.524877
315.301575 -517.766174 -0.000018 0.550000
314.744324 -516.618469 0.000010 0.538358
321.294556 -530.481018 7.840418 0.587500
321.293060 -530.477844 7.035083 0.551471
321.291565 -530.474792 6.241290 0.353554
321.290131 -530.471802 5.457124 0.232721
321.288696 -530.468750 4.680763 0.643505
321.287292 -530.465820 3.910443 0.594240
321.285858 -530.462769 3.144464 0.517034
321.284454 -530.459839 2.381163 0.374510
321.283051 -530.456970 1.618891 0.206618
321.281647 -530.453979 0.856015 0.353922
321.280243 -530.451050 0.090897 1.000000
318.741028 -525.127380 0.000033 0.541667
317.061188 -521.605469 0.000008 0.525123
315.988678 -519.356812 0.000034 0.509681
315.243347 -517.794128 -0.000007 0.490441
314.694092 -516.642700 0.000004 0.477083
321.130310 -530.514160 7.830354 0.535294
321.128845 -530.511047 7.026406 0.510784
321.127441 -530.507935 6.233980 0.512132
321.126007 -530.504944 5.451169 0.536029
321.124603 -530.501953 4.676146 0.643015
321.123230 -530.498962 3.907154 0.557598
321.121826 -530.495972 3.142494 0.504289
321.120422 -530.493042 2.380506 0.710294
321.119049 -530.490051 1.619547 0.698652
321.117676 -530.487183 0.857985 0.641544
321.116272 -530.484192 0.094183 1.000000
318.631317 -525.179260 0.000033 0.514216
316.976105 -521.645691 0.000007 0.547181
315.919281 -519.389587 0.000034 0.542034
315.184937 -517.821899 -0.000040 0.554167
314.643768 -516.666565 -0.000027 0.511887
320.966675 -530.547241 7.820610 0.598039
320.965240 -530.544128 7.018010 0.534069
320.963806 -530.541077 6.226910 0.565809
320.962433 -530.538025 5.445403 0.551471
320.961029 -530.534973 4.671672 0.539951
320.959656 -530.532043 3.903968 0.564828
320.958344 -530.529114 3.140588 0.570221
320.956970 -530.526062 2.379871 0.540441
320.955597 -530.523193 1.620182 0.562500
320.954254 -530.520203 0.859892 0.573652
320.952881 -530.517273 0.097365 1.000000
318.521179 -525.230225 0.000047 0.525490
316.890686 -521.685242 0.000023 0.533824
315.849640 -519.421814 0.000046 0.505760
315.126312 -517.849121 -0.000043 0.565074
314.593201 -516.690063 -0.000015 0.539951
320.803558 -530.580200 7.811174 0.638358
320.802124 -530.577026 7.009875 0.595466
320.800751 -530.574036 6.220059 0.588971
320.799408 -530.570984 5.439822 0.565809
320.798035 -530.567932 4.667347 0.594608
320.796692 -530.565002 3.900886 0.604167
320.795349 -530.562012 3.138741 0.565564
320.794037 -530.559082 2.379256 0.591667
320.792694 -530.556152 1.620797 0.577083
320.791351 -530.553162 0.861736 0.567402
320.790039 -530.550171 0.100444 1.000000
318.410706 -525.280579 0.000047 0.531863
316.804932 -521.724060 0.000053 0.661274
315.779846 -519.453674 0.000044 0.531618
315.067474 -517.875977 -0.000045 0.496201
314.542480 -516.713135 -0.000015 0.504044
320.640961 -530.612976 7.802053 0.544608
320.639587 -530.609924 7.002013 0.524020
320.638184 -530.606812 6.213436 0.532108
320.636871 -530.603821 5.434425 0.594975
320.635529 -530.600830 4.663161 0.557721
320.634216 -530.597839 3.897901 0.530270
320.632904 -530.594849 3.136954 0.593382
320.631592 -530.591919 2.378661 0.681985
320.630310 -530.588989 1.621391 0.676471
320.628998 -530.585999 0.863520 0.605637
320.627686 -530.583069 0.103420 1.000000
318.299927 -525.330017 0.000058 0.545956
316.718994 -521.762390 0.000064 0.531373
315.709778 -519.484924 0.000055 0.542647
315.008453 -517.902283 -0.000033 0.518873
314.491577 -516.735901 -0.000010 0.508456
320.478851 -530.645813 7.793253 0.532966
320.477539 -530.642700 6.994425 0.550368
320.476166 -530.639587 6.207042 0.403799
320.474854 -530.636536 5.429213 0.432353
320.473541 -530.633545 4.659120 0.624387
320.472229 -530.630554 3.895022 0.599877
320.470978 -530.627625 3.135229 0.565564
320.469666 -530.624634 2.378087 0.352206
320.468414 -530.621704 1.621966 0.309436
320.467133 -530.618835 0.865243 0.419730
320.465851 -530.615845 0.106295 1.000000
318.188751 -525.378845 0.000058 0.531985
316.632813 -521.800293 0.000064 0.548407
315.639496 -519.515808 0.000055 0.551838
314.949127 -517.927979 0.000033 0.510049
314.440521 -516.758301 -0.000010 0.560784
320.317261 -530.678467 7.784750 0.584069
320.315918 -530.675293 6.987100 0.631495
320.314636 -530.672302 6.200874 0.357108
320.313324 -530.669250 5.424185 0.199510
320.312042 -530.666199 4.655221 0.667525
320.310760 -530.663208 3.892244 0.618627
320.309509 -530.660278 3.133566 0.572426
320.308258 -530.657288 2.377533 0.350858
320.307007 -530.654358 1.622519 0.219853
320.305756 -530.651428 0.866905 0.479289
320.304474 -530.648499 0.109070 1.000000
318.077301 -525.426819 0.000057 0.523284
316.546356 -521.837524 0.000064 0.532721
315.569000 -519.546143 0.000056 0.554289
314.889771 -517.953552 0.000034 0.537745
314.389343 -516.780334 -0.000010 0.488235
320.156097 -530.710999 7.776552 0.571078
320.154816 -530.707886 6.980034 0.588113
320.153534 -530.704773 6.194929 0.614216
320.152252 -530.701782 5.419339 0.524265
320.151031 -530.698792 4.651464 0.616054
320.149750 -530.695801 3.889568 0.618505
320.148499 -530.692871 3.131962 0.503309
320.147308 -530.689941 2.376999 0.604289
320.146057 -530.686951 1.623053 0.596201
320.144836 -530.684021 0.868508 0.524387
320.143585 -530.681030 0.111744 1.000000
317.965668 -525.474426 0.000005 0.542525
316.459717 -521.874329 0.000030 0.530760
315.498383 -519.576172 0.000022 0.562500
314.830200 -517.978760 0.000029 0.509069
314.338013 -516.802002 -0.000010 0.502206
319.995422 -530.743469 7.768662 0.494730
319.994141 -530.740356 6.973233 0.526716
319.992889 -530.737305 6.189198 0.588971
319.991638 -530.734253 5.414671 0.509926
319.990417 -530.731262 4.647846 0.537132
319.989197 -530.728271 3.886990 0.586520
319.987976 -530.725342 3.130417 0.511029
319.986786 -530.722412 2.376484 0.528186
319.985565 -530.719421 1.623567 0.563480
319.984344 -530.716431 0.870051 0.505882
319.983124 -530.713501 0.114320 1.000000
317.853546 -525.520874 0.000005 0.531863
316.372772 -521.910400 0.000029 0.538358
315.427551 -519.605652 0.000004 0.541176
314.770477 -518.003479 0.000029 0.551838
314.286469 -516.823303 0.000000 0.542157
319.835175 -530.775879 7.761078 0.572672
319.833893 -530.772766 6.966693 0.519608
319.832672 -530.769714 6.183691 0.594118
319.831451 -530.766663 5.410182 0.637990
319.830261 -530.763611 4.644366 0.550980
319.829041 -530.760620 3.884509 0.590196
319.827850 -530.757690 3.128932 0.612745
319.826660 -530.754761 2.375990 0.532966
319.825500 -530.751831 1.624062 0.581250
319.824310 -530.748840 0.871536 0.551471
319.823120 -530.745911 0.116796 1.000000
317.741028 -525.566467 0.000018 0.549020
316.285522 -521.945679 0.000043 0.533088
315.356415 -519.634399 0.000016 0.530637
314.710541 -518.027771 0.000043 0.546446
314.234772 -516.844177 0.000033 0.530025
319.675293 -530.808105 7.753790 0.563480
319.674103 -530.804993 6.960413 0.604902
319.672852 -530.801941 6.178400 0.518627
319.671661 -530.798950 5.405869 0.543995
319.670502 -530.795898 4.641021 0.549142
319.669312 -530.792969 3.882126 0.578554
319.668121 -530.789978 3.127505 0.614706
319.666992 -530.787048 2.375514 0.419975
319.665833 -530.784119 1.624537 0.504657
319.664642 -530.781128 0.872962 0.501838
319.663513 -530.778198 0.119174 1.000000
317.628296 -525.611328 0.000018 0.532108
316.198059 -521.980530 0.000043 0.575858
315.285126 -519.662781 0.000016 0.524877
314.650482 -518.051636 0.000044 0.505515
314.182983 -516.864746 0.000033 0.546691
319.515869 -530.840393 7.746799 0.590319
319.514648 -530.837280 6.954385 0.565319
319.513458 -530.834167 6.173324 0.348407
319.512299 -530.831116 5.401731 0.239216
319.511108 -530.828125 4.637815 0.648652
319.509979 -530.825195 3.879841 0.558211
319.508820 -530.822144 3.126136 0.589461
319.507690 -530.819214 2.375059 0.356863
319.506592 -530.816284 1.624993 0.222672
319.505432 -530.813293 0.874329 0.400490
319.504303 -530.810364 0.121456 1.000000
317.515167 -525.655334 0.000030 0.551103
316.110352 -522.014648 0.000054 0.518260
315.213593 -519.690613 0.000028 0.530025
314.590271 -518.075073 0.000055 0.508578
314.131042 -516.885010 0.000044 0.540196
319.356781 -530.872559 7.740110 0.556495
319.355591 -530.869385 6.948617 0.546936
319.354462 -530.866272 6.168463 0.580515
319.353302 -530.863281 5.397772 0.542157
319.352142 -530.860291 4.634745 0.624387
319.351013 -530.857300 3.877654 0.596078
319.349915 -530.854309 3.124825 0.572549
319.348816 -530.851379 2.374623 0.722794
319.347656 -530.848389 1.625429 0.697426
319.346558 -530.845459 0.875638 0.620343
319.345459 -530.842529 0.123640 1.000000
317.401794 -525.698608 0.000030 0.531373
316.022430 -522.048218 0.000049 0.537990
315.141907 -519.717957 0.000029 0.534804
314.529877 -518.098145 0.000054 0.513726
314.078979 -516.904846 0.000044 0.568137
319.198059 -530.904663 7.733718 0.604657
319.196930 -530.901489 6.943113 0.621569
319.195770 -530.898438 6.163826 0.604412
319.194641 -530.895386 5.393989 0.606618
319.193542 -530.892334 4.631810 0.588726
319.192444 -530.889343 3.875562 0.607843
319.191345 -530.886353 3.123573 0.610784
319.190247 -530.883423 2.374205 0.603431
319.189148 -530.880493 1.625846 0.601593
319.188080 -530.877563 0.876890 0.571691
319.186951 -530.874634 0.125728 1.000000
317.288116 -525.741150 0.000030 0.536887
315.934265 -522.081238 0.000049 0.540686
315.070038 -519.744873 0.000029 0.486397
314.469299 -518.120789 0.000055 0.565441
314.026764 -516.924377 0.000043 0.528676
319.039734 -530.936584 7.727614 0.595588
319.038574 -530.933472 6.937849 0.619240
319.037476 -530.930420 6.159395 0.636520
319.036346 -530.927368 5.390380 0.595221
319.035278 -530.924377 4.629012 0.608701
319.034210 -530.921387 3.873569 0.635907
319.033142 -530.918396 3.122378 0.586765
319.032043 -530.915405 2.373807 0.582108
319.030975 -530.912537 1.626244 0.625735
319.029907 -530.909546 0.878084 0.589706
319.028839 -530.906616 0.127720 1.000000
317.174103 -525.782837 0.000030 0.554044
315.845886 -522.113586 0.000049 0.529289
314.997955 -519.771179 0.000029 0.512010
314.408600 -518.143127 0.000037 0.538358
313.974426 -516.943604 0.000028 0.564338
318.881653 -530.968567 7.721800 0.534436
318.880585 -530.965454 6.932838 0.505147
318.879486 -530.962341 6.155175 0.563848
318.878418 -530.959351 5.386942 0.558333
318.877319 -530.956299 4.626348 0.507108
318.876282 -530.953308 3.871670 0.549755
318.875214 -530.950378 3.121242 0.545956
318.874176 -530.947388 2.373429 0.518873
318.873138 -530.944458 1.626623 0.515809
318.872070 -530.941467 0.879221 0.507353
318.871033 -530.938538 0.129617 1.000000
317.059845 -525.823730 0.000030 0.539093
315.757263 -522.145264 0.000050 0.526593
314.925751 -519.797058 0.000029 0.545098
314.347778 -518.164917 0.000037 0.548897
313.921936 -516.962341 0.000029 0.551716
318.723938 -531.000488 7.716284 0.595221
318.722870 -530.997314 6.928081 0.557721
318.721771 -530.994202 6.151166 0.459436
318.720764 -530.991211 5.383674 0.447672
318.719696 -530.988159 4.623814 0.566422
318.718658 -530.985168 3.869864 0.573897
318.717621 -530.982178 3.120160 0.589461
318.716614 -530.979248 2.373069 0.361275
318.715607 -530.976318 1.626982 0.318627
318.714569 -530.973328 0.880301 0.421569
318.713531 -530.970337 0.131419 1.000000
316.945251 -525.863770 0.000043 0.525980
315.668396 -522.176331 0.000062 0.525000
314.853210 -519.822205 0.000071 0.559804
314.286713 -518.186218 0.000049 0.530147
313.869324 -516.980774 0.000040 0.559804
318.566528 -531.032227 7.711051 0.570466
318.565460 -531.029175 6.923572 0.622672
318.564423 -531.026062 6.147368 0.362623
318.563385 -531.023010 5.380579 0.229779
318.562378 -531.020020 4.621414 0.562745
318.561340 -531.016968 3.868154 0.599755
318.560364 -531.013977 3.119135 0.568137
318.559357 -531.011047 2.372727 0.356005
318.558380 -531.008118 1.627323 0.209436
318.557343 -531.005127 0.881324 0.468873
318.556335 -531.002136 0.133127 1.000000
316.830536 -525.903381 0.000008 0.531127
315.579407 -522.206970 0.000027 0.539706
314.780701 -519.847229 0.000036 0.534314
314.225616 -518.207275 0.000016 0.503554
313.816620 -516.998901 0.000007 0.534436
318.409363 -531.064026 7.706102 0.497794
318.408356 -531.060852 6.919307 0.600858
318.407318 -531.057800 6.143782 0.550490
318.406311 -531.054810 5.377656 0.539338
318.405334 -531.051758 4.619147 0.598162
318.404327 -531.048767 3.866539 0.571569
318.403351 -531.045715 3.118167 0.495588
318.402344 -531.042847 2.372405 0.572059
318.401367 -531.039856 1.627646 0.593505
318.400421 -531.036926 0.882291 0.548897
318.399445 -531.033936 0.134741 1.000000
316.715454 -525.941833 0.000008 0.536887
315.490143 -522.236877 0.000027 0.550858
314.707916 -519.871582 0.000037 0.530760
314.164307 -518.227783 0.000016 0.550490
313.763794 -517.016663 0.000007 0.532966
318.252502 -531.095703 7.701444 0.513726
318.251495 -531.092590 6.915293 0.553554
318.250488 -531.089478 6.140398 0.576593
318.249512 -531.086426 5.374898 0.533333
318.248535 -531.083435 4.617010 0.560539
318.247559 -531.080505 3.865017 0.586642
318.246613 -531.077515 3.117256 0.497059
318.245636 -531.074524 2.372102 0.559191
318.244690 -531.071533 1.627949 0.595343
318.243744 -531.068604 0.883202 0.556863
318.242798 -531.065613 0.136261 1.000000
316.600067 -525.979553 0.000008 0.529289
315.400696 -522.266113 0.000027 0.544118
314.635010 -519.895447 0.000036 0.560049
314.102844 -518.247803 0.000017 0.539216
313.710785 -517.033936 0.000007 0.483088
318.095886 -531.127380 7.697073 0.600000
318.094879 -531.124268 6.911520 0.539338
318.093903 -531.121155 6.137220 0.572672
318.092957 -531.118103 5.372309 0.606127
318.091980 -531.115051 4.615000 0.546446
318.091064 -531.112061 3.863586 0.570221
318.090088 -531.109131 3.116400 0.609314
318.089172 -531.106140 2.371816 0.547181
318.088257 -531.103210 1.628234 0.564828
318.087311 -531.100220 0.884058 0.580760
318.086395 -531.097229 0.137689 1.000000
316.484467 -526.016479 0.000009 0.527206
315.311005 -522.294739 0.000028 0.542770
314.561890 -519.918762 0.000036 0.542034
314.041260 -518.267517 0.000016 0.529044
313.657684 -517.050903 0.000007 0.505147
317.939453 -531.158997 7.692984 0.605882
317.938507 -531.155884 6.907997 0.621569
317.937561 -531.152771 6.134255 0.712255
317.936615 -531.149719 5.369893 0.680147
317.935699 -531.146729 4.613129 0.622059
317.934753 -531.143738 3.862250 0.595466
317.933838 -531.140686 3.115598 0.588113
317.932922 -531.137756 2.371549 0.540319
317.932037 -531.134766 1.628501 0.551348
317.931122 -531.131836 0.884858 0.519118
317.930176 -531.128845 0.139023 1.000000
316.368530 -526.052490 0.000020 0.535172
315.221130 -522.322693 0.000039 0.540809
314.488617 -519.941528 0.000048 0.531495
313.979523 -518.286682 0.000027 0.559926
313.604431 -517.067444 0.000018 0.522917
317.783295 -531.190552 7.689178 0.582598
317.782349 -531.187439 6.904716 0.569485
317.781433 -531.184326 6.131492 0.357353
317.780487 -531.181274 5.367640 0.318505
317.779602 -531.178284 4.611382 0.564461
317.778687 -531.175293 3.861007 0.542892
317.777802 -531.172302 3.114854 0.587255
317.776917 -531.169312 2.371301 0.350980
317.776001 -531.166321 1.628749 0.239216
317.775116 -531.163391 0.885602 0.491667
317.774231 -531.160400 0.140265 1.000000
316.252350 -526.087524 0.000049 0.537132
315.131073 -522.350037 0.000039 0.517892
314.415192 -519.963806 0.000048 0.527819
313.917694 -518.305481 0.000028 0.531985
313.551117 -517.083618 0.000012 0.536642
317.627319 -531.222107 7.685658 0.604289
317.626404 -531.218994 6.901681 0.568382
317.625488 -531.215881 6.128934 0.398407
317.624603 -531.212830 5.365555 0.353186
317.623688 -531.209839 4.609766 0.561152
317.622833 -531.206787 3.859855 0.585294
317.621948 -531.203796 3.114165 0.583946
317.621094 -531.200806 2.371072 0.410662
317.620209 -531.197876 1.628979 0.465809
317.619324 -531.194885 0.886292 0.598897
317.618469 -531.191956 0.141414 1.000000
316.135956 -526.121948 0.000050 0.535662
315.040833 -522.376770 0.000039 0.503309
314.341614 -519.985657 0.000049 0.531005
313.855682 -518.323853 0.000028 0.528186
313.497650 -517.099487 0.000013 0.554412
317.471527 -531.253601 7.682422 0.588113
317.470612 -531.250488 6.898892 0.574510
317.469727 -531.247375 6.126584 0.598529
317.468872 -531.244324 5.363640 0.563603
317.467987 -531.241272 4.608279 0.569975
317.467163 -531.238281 3.858795 0.608088
317.466278 -531.235291 3.113530 0.598529
317.465424 -531.232300 2.370861 0.596201
317.464600 -531.229370 1.629190 0.617770
317.463745 -531.226318 0.886926 0.570221
317.462891 -531.223389 0.142473 1.000000
316.019379 -526.155640 0.000050 0.538725
314.950378 -522.402832 0.000039 0.534804
314.267883 -520.006897 0.000049 0.544976
313.793579 -518.341797 0.000023 0.542157
313.444122 -517.114929 0.000013 0.525368
317.315887 -531.285095 7.679455 0.622304
317.315002 -531.281982 6.896337 0.592034
317.314148 -531.278809 6.124434 0.622059
317.313293 -531.275757 5.361887 0.632721
317.312469 -531.272766 4.606922 0.586642
317.311646 -531.269714 3.857829 0.636397
317.310791 -531.266724 3.112951 0.304289
317.309967 -531.263794 2.370668 0.318873
317.309143 -531.260803 1.629383 0.327083
317.308319 -531.257813 0.887504 0.323652
317.307617 -531.255249 0.143402 1.000000
315.902527 -526.188477 0.000051 0.539583
314.859772 -522.428345 0.000039 0.526593
314.194031 -520.027710 0.000049 0.543015
313.731354 -518.359253 0.000024 0.528431
313.390442 -517.130066 0.000013 0.545956
317.160400 -531.316528 7.676779 0.587377
317.159576 -531.313416 6.894029 0.518505
317.158722 -531.310242 6.122488 0.582966
317.157898 -531.307190 5.360303 0.614951
317.157104 -531.304199 4.605693 0.525980
317.156281 -531.301147 3.856952 0.574265
317.155457 -531.298157 3.112425 0.584681
317.154663 -531.295166 2.370493 0.526348
317.153870 -531.292175 1.629557 0.520956
317.153046 -531.289246 0.888029 0.512745
317.152252 -531.286194 0.144315 1.000000
315.785431 -526.220459 0.000051 0.536397
314.768982 -522.453247 0.000024 0.532230
314.119995 -520.047913 0.000050 0.521936
313.668976 -518.376343 0.000025 0.519853
313.336670 -517.144714 0.000014 0.566789
317.005096 -531.347961 7.674377 0.635784
317.004272 -531.344788 6.891960 0.569853
317.003448 -531.341675 6.120745 0.568873
317.002655 -531.338562 5.358882 0.640931
317.001862 -531.335571 4.604591 0.574755
317.001038 -531.332520 3.856167 0.578186
317.000275 -531.329529 3.111955 0.617157
316.999481 -531.326599 2.370337 0.571446
316.998718 -531.323547 1.629714 0.595098
316.997925 -531.320618 0.888499 0.605147
316.997131 -531.317566 0.145100 1.000000
315.668152 -526.251587 0.000062 0.537010
314.678009 -522.477417 0.000034 0.505024
314.045837 -520.067566 0.000059 0.527696
313.606506 -518.392944 0.000034 0.549755
313.282806 -517.158997 0.000022 0.535539
316.849884 -531.379333 7.672255 0.544608
316.849091 -531.376160 6.890129 0.575858
316.848297 -531.373047 6.119204 0.603186
316.847504 -531.369934 5.357625 0.527328
316.846710 -531.366943 4.603616 0.583456
316.845947 -531.363892 3.855473 0.598529
316.845184 -531.360901 3.111540 0.556127
316.844452 -531.357910 2.370198 0.620711
316.843689 -531.354919 1.629852 0.608333
316.842896 -531.351929 0.888914 0.611642
316.842133 -531.348938 0.145793 1.000000
315.550629 -526.281982 0.000062 0.548407
314.586884 -522.500977 0.000035 0.541667
313.971558 -520.086792 0.000059 0.529289
313.543915 -518.409058 0.000034 0.525368
313.228851 -517.172974 0.000023 0.523529
316.402100 -530.227844 7.365198 0.465441
316.395355 -530.200684 6.620022 0.563971
316.388702 -530.173889 5.887204 0.556863
316.382111 -530.147156 5.164883 0.567157
316.375549 -530.120605 4.451355 0.578554
316.369049 -530.094360 3.744984 0.575980
316.362640 -530.068542 3.044185 0.567034
316.356293 -530.042847 2.347380 0.570221
316.349976 -530.017273 1.653051 0.581373
316.343658 -529.991760 0.959701 0.581005
316.337311 -529.966125 0.265844 0.572917
315.432922 -526.311523 0.000063 0.549755
314.495575 -522.523865 0.000035 0.534314
313.897125 -520.105530 0.000061 0.531127
313.481201 -518.424805 0.000036 0.558824
313.174774 -517.186584 0.000024 0.525000
315.601685 -527.534424 6.662241 0.568873
315.596710 -527.513794 6.015359 0.565686
315.591827 -527.493347 5.379008 0.587623
315.587006 -527.473267 4.751601 0.578186
315.582245 -527.453491 4.131634 0.566054
315.577545 -527.433838 3.517671 0.586887
315.572815 -527.414185 2.908308 0.580515
315.568146 -527.394714 2.302225 0.569118
315.563446 -527.375244 1.698103 0.588358
315.558807 -527.355774 1.094644 0.580392
315.554138 -527.336365 0.490554 0.574265
315.315002 -526.340271 0.000064 0.538480
314.404144 -522.546143 0.000036 0.515441
313.822571 -520.123657 0.000062 0.528309
313.418396 -518.440125 0.000036 0.602819
313.120605 -517.199768 0.000025 0.557598
314.986725 -525.465088 6.122343 0.557476
314.982941 -525.448853 5.550843 0.566299
314.979218 -525.432861 4.988498 0.552696
314.975586 -525.417175 4.433913 0.563725
314.971985 -525.401611 3.885771 0.562377
314.968414 -525.386230 3.342787 0.550245
314.964783 -525.370850 2.803743 0.571814
314.961243 -525.355469 2.267465 0.544853
314.957672 -525.340271 1.732791 0.564338
314.954132 -525.324951 1.198570 0.551348
314.950562 -525.309753 0.663656 0.549632
315.196960 -526.368469 0.000028 0.532843
314.312592 -522.567993 0.000001 0.536274
313.747955 -520.141541 0.000027 0.521201
313.355530 -518.455139 0.000002 0.534191
313.066437 -517.212708 -0.000009 0.534436
314.499359 -523.825012 5.694638 0.550858
314.496399 -523.811768 5.182730 0.554779
314.493500 -523.798889 4.678953 0.563480
314.490631 -523.786255 4.182037 0.547059
314.487793 -523.773743 3.690785 0.574632
314.485016 -523.761353 3.204064 0.549387
314.482208 -523.748962 2.720784 0.581005
314.479462 -523.736694 2.239884 0.552206
314.476715 -523.724487 1.760321 0.584436
314.473969 -523.712280 1.281064 0.555760
314.471222 -523.700073 0.801086 0.585784
314.468445 -523.687805 0.319353 0.559926
314.220856 -522.589050 0.000002 0.526103
313.673126 -520.158630 0.000028 0.530147
313.292511 -518.469604 0.000003 0.529167
313.012054 -517.225159 -0.000009 0.517524
314.103668 -522.493469 5.347554 0.579657
314.101318 -522.482727 4.884017 0.548529
314.099030 -522.472229 4.427734 0.580882
314.096741 -522.461792 3.977580 0.551593
314.094482 -522.451416 3.532483 0.582966
314.092285 -522.441223 3.091420 0.554412
314.090057 -522.431091 2.653405 0.586887
314.087860 -522.421021 2.217477 0.556005
314.085663 -522.410889 1.782692 0.592402
314.083466 -522.400879 1.348116 0.556985
314.081268 -522.390747 0.912817 0.599877
314.079071 -522.380615 0.475857 0.558946
314.128937 -522.609375 0.000011 0.507230
313.598206 -520.175171 0.000037 0.549020
313.229401 -518.483582 0.000011 0.525000
312.957672 -517.237183 0.000000 0.527574
313.775848 -521.390198 5.060135 0.530147
313.773956 -521.381226 4.636580 0.586029
313.772095 -521.372375 4.219594 0.530270
313.770233 -521.363647 3.808156 0.572672
313.768433 -521.354980 3.401284 0.547181
313.766632 -521.346436 2.998049 0.532598
313.764832 -521.337952 2.597546 0.553064
313.763031 -521.329529 2.198898 0.537990
313.761261 -521.321045 1.801243 0.564583
313.759491 -521.312683 1.403723 0.532475
313.757721 -521.304260 1.005487 0.564093
313.755951 -521.295837 0.605676 0.545466
313.754150 -521.287354 0.203416 0.536397
313.523193 -520.191223 0.000038 0.547794
313.166199 -518.497131 0.000012 0.552574
312.903137 -517.248901 0.000000 0.578431
313.499969 -520.461975 4.818443 0.576226
313.498413 -520.454407 4.428501 0.570833
313.496887 -520.446899 4.044542 0.563848
313.495361 -520.439453 3.665646 0.575123
313.493866 -520.432129 3.290913 0.557230
313.492371 -520.424805 2.919487 0.555270
313.490906 -520.417542 2.550539 0.555025
313.489441 -520.410278 2.183261 0.561397
313.487976 -520.403076 1.816859 0.562990
313.486511 -520.395874 1.450546 0.538848
313.485046 -520.388672 1.083537 0.553922
313.483551 -520.381409 0.715040 0.558456
313.482086 -520.374084 0.344250 0.569363
313.448029 -520.206726 0.000049 0.539583
313.102875 -518.510132 0.000023 0.525735
312.848541 -517.260132 0.000011 0.546691
313.264404 -519.669373 4.612188 0.595833
313.263123 -519.662781 4.250873 0.557966
313.261841 -519.656250 3.895094 0.593382
313.260590 -519.649902 3.543969 0.581985
313.259338 -519.643555 3.196669 0.572794
313.258118 -519.637268 2.852401 0.602696
313.256866 -519.631042 2.510396 0.587990
313.255646 -519.624817 2.169907 0.585662
313.254456 -519.618591 1.830197 0.599755
313.253204 -519.612366 1.490537 0.569975
313.252014 -519.606140 1.150199 0.604657
313.250763 -519.599915 0.808448 0.583946
313.249573 -519.593628 0.464537 0.600735
313.372772 -520.221802 0.000049 0.547549
313.039459 -518.522827 0.000025 0.548774
312.793884 -517.271057 0.000013 0.537255
313.060944 -518.984680 4.434146 0.543137
313.059875 -518.979004 4.097557 0.580760
313.058807 -518.973389 3.766088 0.585172
313.057770 -518.967773 3.438925 0.523652
313.056732 -518.962280 3.115301 0.593505
313.055695 -518.956848 2.794475 0.610417
313.054626 -518.951416 2.475732 0.510907
313.053619 -518.945923 2.158374 0.588235
313.052582 -518.940552 1.841716 0.618995
313.051605 -518.935181 1.525079 0.510049
313.050568 -518.929749 1.207783 0.578309
313.049530 -518.924316 0.889144 0.605515
313.048492 -518.918823 0.568465 0.508211
313.047455 -518.913330 0.245031 0.557598
312.975983 -518.535034 0.000025 0.527206
312.739136 -517.281555 0.000014 0.542157
312.883453 -518.387390 4.278938 0.553799
312.882538 -518.382446 3.963886 0.585172
312.881653 -518.377502 3.653602 0.585417
312.880768 -518.372559 3.347327 0.549387
312.879883 -518.367737 3.044342 0.581373
312.879028 -518.362976 2.743955 0.593260
312.878143 -518.358154 2.445497 0.559069
312.877289 -518.353394 2.148314 0.575245
312.876404 -518.348694 1.851765 0.603922
312.875580 -518.343933 1.555214 0.587990
312.874695 -518.339172 1.258025 0.568382
312.873810 -518.334412 0.959556 0.607721
312.872925 -518.329590 0.659154 0.598897
312.872070 -518.324768 0.356149 0.565441
312.912415 -518.546814 0.000027 0.545343
312.684357 -517.291748 0.000015 0.486275
312.727264 -517.861755 4.142437 0.590441
312.726471 -517.857300 3.846318 0.613235
312.725708 -517.852905 3.554658 0.618137
312.724945 -517.848633 3.266751 0.566176
312.724182 -517.844299 2.981918 0.583333
312.723450 -517.840027 2.699508 0.602574
312.722717 -517.835876 2.418894 0.554534
312.721985 -517.831604 2.139462 0.578922
312.721252 -517.827454 1.860608 0.607843
312.720520 -517.823181 1.581734 0.551716
312.719757 -517.819031 1.302242 0.585049
312.719025 -517.814819 1.021528 0.591544
312.718292 -517.810547 0.738979 0.585784
312.717560 -517.806274 0.453963 0.594975
312.716797 -517.801941 0.165828 0.562255
312.629456 -517.301453 0.000021 0.549510
