# This PCD file was generated using the MATLABÂ® pcwrite function
# from Computer Vision ToolboxÂ®.
# .PCD v.7 - Point Cloud Data file format
VERSION .7
FIELDS x y z intensity
SIZE 4 4 4 4
TYPE F F F F
COUNT 1 1 1 1
WIDTH 1162
HEIGHT 1
VIEWPOINT 0 0 0 1 0 0 0
POINTS 1162
DATA ascii
-105.166534 -13.660007 1.081247 1.000000
-105.166534 -13.660007 0.710975 1.000000
-105.166534 -13.660007 0.337903 1.000000
-105.370819 -13.720464 -0.000044 0.549877
-107.031372 -14.211901 -0.000003 0.490931
-108.254616 -14.573916 -0.000005 0.535294
-105.180397 -13.745415 4.797361 1.000000
-105.180397 -13.745415 4.411990 1.000000
-105.180397 -13.745415 4.032030 1.000000
-105.180397 -13.745415 3.656570 1.000000
-105.180397 -13.745415 3.284739 1.000000
-105.180389 -13.745414 2.915699 1.000000
-105.180397 -13.745416 2.548633 1.000000
-105.180397 -13.745415 2.182747 1.000000
-105.180397 -13.745416 1.817253 1.000000
-105.180397 -13.745415 1.451367 1.000000
-105.180397 -13.745415 1.084301 1.000000
-105.180397 -13.745415 0.715261 1.000000
-105.180397 -13.745416 0.343430 1.000000
-105.349251 -13.794109 -0.000054 0.523407
-107.012955 -14.273872 -0.000068 0.542157
-108.238945 -14.627411 -0.000016 0.570221
-105.194160 -13.830263 4.788226 1.000000
-105.194168 -13.830261 4.404113 1.000000
-105.194160 -13.830263 4.025394 1.000000
-105.194168 -13.830261 3.651161 1.000000
-105.194160 -13.830263 3.280544 1.000000
-105.194168 -13.830261 2.912708 1.000000
-105.194168 -13.830263 2.546842 1.000000
-105.194168 -13.830263 2.182150 1.000000
-105.194168 -13.830263 1.817850 1.000000
-105.194168 -13.830263 1.453158 1.000000
-105.194168 -13.830261 1.087292 1.000000
-105.194168 -13.830263 0.719456 1.000000
-105.194168 -13.830261 0.348839 1.000000
-105.328568 -13.868006 0.000007 0.507353
-106.995430 -14.336100 -0.000030 0.566054
-108.223892 -14.681081 0.000037 0.555147
-105.207840 -13.914560 4.779285 1.000000
-105.207840 -13.914562 4.396405 1.000000
-105.207840 -13.914562 4.018900 1.000000
-105.207840 -13.914561 3.645866 1.000000
-105.207840 -13.914560 3.276438 1.000000
-105.207840 -13.914561 2.909781 1.000000
-105.207840 -13.914560 2.545088 1.000000
-105.207840 -13.914561 2.181566 1.000000
-105.207840 -13.914562 1.818434 1.000000
-105.207840 -13.914562 1.454912 1.000000
-105.207840 -13.914562 1.090218 1.000000
-105.207840 -13.914560 0.723562 1.000000
-105.207840 -13.914561 0.354134 1.000000
-105.308022 -13.941942 -0.000003 0.536029
-106.978188 -14.398407 -0.000024 0.511765
-108.208969 -14.734790 0.000028 0.550368
-105.221443 -13.998326 4.770536 1.000000
-105.221443 -13.998327 4.388861 1.000000
-105.221443 -13.998327 4.012545 1.000000
-105.221443 -13.998327 3.640685 1.000000
-105.221443 -13.998326 3.272420 1.000000
-105.221443 -13.998326 2.906918 1.000000
-105.221443 -13.998327 2.543372 1.000000
-105.221443 -13.998327 2.180995 1.000000
-105.221443 -13.998327 1.819005 1.000000
-105.221443 -13.998327 1.456628 1.000000
-105.221443 -13.998327 1.093082 1.000000
-105.221443 -13.998327 0.727580 1.000000
-105.221443 -13.998327 0.359315 1.000000
-105.288002 -14.016018 -0.000014 0.541176
-106.961342 -14.460823 -0.000029 0.549265
-108.194229 -14.788547 -0.000033 0.543505
-105.234955 -14.081570 4.761977 1.000000
-105.234955 -14.081569 4.381481 1.000000
-105.234955 -14.081570 4.006327 1.000000
-105.234955 -14.081570 3.635616 1.000000
-105.234955 -14.081570 3.268488 1.000000
-105.234955 -14.081570 2.904115 1.000000
-105.234955 -14.081570 2.541694 1.000000
-105.234955 -14.081570 2.180435 1.000000
-105.234955 -14.081570 1.819564 1.000000
-105.234955 -14.081570 1.458306 1.000000
-105.234955 -14.081570 1.095884 1.000000
-105.234955 -14.081570 0.731512 1.000000
-105.234955 -14.081570 0.364384 1.000000
-105.234955 -14.081570 -0.006327 1.000000
-106.944916 -14.523352 -0.000036 0.534436
-108.180046 -14.842455 -0.000046 0.545711
-105.248375 -14.164303 4.753604 1.000000
-105.248375 -14.164303 4.374261 1.000000
-105.248375 -14.164304 4.000244 1.000000
-105.248375 -14.164303 3.630658 1.000000
-105.248375 -14.164304 3.264643 1.000000
-105.248375 -14.164303 2.901375 1.000000
-105.248375 -14.164303 2.540051 1.000000
-105.248375 -14.164303 2.179888 1.000000
-105.248375 -14.164304 1.820112 1.000000
-105.248375 -14.164303 1.459948 1.000000
-105.248375 -14.164303 1.098625 1.000000
-105.248375 -14.164304 0.735357 1.000000
-105.248375 -14.164303 0.369342 1.000000
-105.248375 -14.164304 -0.000244 1.000000
-106.897240 -14.578038 -0.007102 1.000000
-108.166451 -14.896513 -0.000005 0.557843
-105.261726 -14.246541 4.745415 1.000000
-105.261726 -14.246542 4.367200 1.000000
-105.261726 -14.246540 3.994296 1.000000
-105.261726 -14.246542 3.625808 1.000000
-105.261726 -14.246542 3.260882 1.000000
-105.261726 -14.246542 2.898694 1.000000
-105.261726 -14.246541 2.538445 1.000000
-105.261726 -14.246542 2.179353 1.000000
-105.261726 -14.246542 1.820646 1.000000
-105.261726 -14.246541 1.461555 1.000000
-105.261726 -14.246542 1.101306 1.000000
-105.261726 -14.246542 0.739118 1.000000
-105.261726 -14.246542 0.374192 1.000000
-105.261726 -14.246541 0.005704 1.000000
-106.913704 -14.648824 0.000022 0.586029
-108.153107 -14.950636 0.000005 0.513971
-105.274986 -14.328294 4.737408 1.000000
-105.274986 -14.328295 4.360296 1.000000
-105.274986 -14.328295 3.988479 1.000000
-105.274986 -14.328295 3.621066 1.000000
-105.274986 -14.328295 3.257205 1.000000
-105.274986 -14.328295 2.896073 1.000000
-105.274986 -14.328296 2.536875 1.000000
-105.274986 -14.328296 2.178830 1.000000
-105.274986 -14.328296 1.821169 1.000000
-105.274986 -14.328296 1.463125 1.000000
-105.274986 -14.328294 1.103927 1.000000
-105.274986 -14.328295 0.742796 1.000000
-105.274986 -14.328295 0.378934 1.000000
-105.274986 -14.328296 0.011521 1.000000
-106.855301 -14.701458 -0.009593 1.000000
-108.140091 -15.004836 -0.000001 0.546446
-105.288185 -14.409576 4.729578 1.000000
-105.288185 -14.409576 4.353546 1.000000
-105.288185 -14.409576 3.982792 1.000000
-105.288185 -14.409576 3.616430 1.000000
-105.288185 -14.409577 3.253608 1.000000
-105.288185 -14.409576 2.893510 1.000000
-105.288185 -14.409576 2.535339 1.000000
-105.288185 -14.409576 2.178319 1.000000
-105.288185 -14.409576 1.821681 1.000000
-105.288185 -14.409576 1.464660 1.000000
-105.288185 -14.409576 1.106490 1.000000
-105.288185 -14.409577 0.746391 1.000000
-105.288185 -14.409576 0.383570 1.000000
-105.288185 -14.409576 0.017208 1.000000
-106.883469 -14.774536 -0.000095 0.560049
-108.127098 -15.059045 -0.000096 0.574755
-105.301300 -14.490398 4.721928 1.000000
-105.301300 -14.490398 4.346949 1.000000
-105.301300 -14.490398 3.977234 1.000000
-105.301300 -14.490398 3.611899 1.000000
-105.301300 -14.490399 3.250095 1.000000
-105.301300 -14.490398 2.891005 1.000000
-105.301300 -14.490399 2.533839 1.000000
-105.301300 -14.490399 2.177819 1.000000
-105.301300 -14.490399 1.822181 1.000000
-105.301300 -14.490399 1.466161 1.000000
-105.301300 -14.490398 1.108994 1.000000
-105.301308 -14.490399 0.749905 1.000000
-105.301308 -14.490399 0.388101 1.000000
-105.301300 -14.490399 0.022765 1.000000
-106.869644 -14.837691 -0.000014 0.563971
-108.115158 -15.113497 -0.000019 0.522549
-105.314346 -14.570775 4.714450 1.000000
-105.314346 -14.570774 4.340502 1.000000
-105.314346 -14.570774 3.971804 1.000000
-105.314346 -14.570775 3.607471 1.000000
-105.314346 -14.570775 3.246661 1.000000
-105.314346 -14.570775 2.888558 1.000000
-105.314346 -14.570775 2.532372 1.000000
-105.314346 -14.570775 2.177331 1.000000
-105.314346 -14.570775 1.822669 1.000000
-105.314346 -14.570774 1.467627 1.000000
-105.314346 -14.570775 1.111442 1.000000
-105.314346 -14.570776 0.753339 1.000000
-105.314346 -14.570775 0.392528 1.000000
-105.314346 -14.570775 0.028197 1.000000
-106.855820 -14.900845 -0.000027 0.508946
-108.103180 -15.167938 -0.000048 0.504412
-105.327316 -14.650713 4.707147 1.000000
-105.327316 -14.650714 4.334204 1.000000
-105.327316 -14.650713 3.966497 1.000000
-105.327316 -14.650713 3.603146 1.000000
-105.327316 -14.650714 3.243306 1.000000
-105.327316 -14.650714 2.886167 1.000000
-105.327316 -14.650713 2.530940 1.000000
-105.327316 -14.650713 2.176854 1.000000
-105.327316 -14.650714 1.823146 1.000000
-105.327316 -14.650713 1.469060 1.000000
-105.327316 -14.650714 1.113833 1.000000
-105.327316 -14.650713 0.756693 1.000000
-105.327316 -14.650714 0.396854 1.000000
-105.327316 -14.650714 0.033503 1.000000
-106.842461 -14.964098 -0.000038 0.569853
-108.091682 -15.222481 -0.000053 0.576348
-105.340218 -14.730227 4.700012 1.000000
-105.340218 -14.730227 4.328053 1.000000
-105.340225 -14.730227 3.961315 1.000000
-105.340218 -14.730227 3.598922 1.000000
-105.340225 -14.730227 3.240030 1.000000
-105.340225 -14.730227 2.883832 1.000000
-105.340225 -14.730227 2.529541 1.000000
-105.340225 -14.730227 2.176388 1.000000
-105.340225 -14.730227 1.823612 1.000000
-105.340225 -14.730227 1.470459 1.000000
-105.340225 -14.730227 1.116168 1.000000
-105.340225 -14.730227 0.759970 1.000000
-105.340225 -14.730227 0.401078 1.000000
-105.340225 -14.730228 0.038685 1.000000
-106.829773 -15.027491 0.000003 0.554044
-108.080727 -15.277138 -0.000015 0.545833
-105.353058 -14.809325 4.693048 1.000000
-105.353058 -14.809325 4.322047 1.000000
-105.353058 -14.809326 3.956256 1.000000
-105.353058 -14.809326 3.594797 1.000000
-105.353058 -14.809326 3.236831 1.000000
-105.353058 -14.809326 2.881552 1.000000
-105.353058 -14.809325 2.528175 1.000000
-105.353058 -14.809326 2.175933 1.000000
-105.353058 -14.809326 1.824067 1.000000
-105.353058 -14.809325 1.471825 1.000000
-105.353058 -14.809326 1.118448 1.000000
-105.353058 -14.809326 0.763169 1.000000
-105.353058 -14.809326 0.405203 1.000000
-105.353058 -14.809327 0.043745 1.000000
-106.817375 -15.090937 0.000009 0.532598
-108.070091 -15.331855 0.000005 0.501348
-105.365829 -14.888021 4.686249 1.000000
-105.365829 -14.888021 4.316185 1.000000
-105.365829 -14.888022 3.951317 1.000000
-105.365829 -14.888021 3.590771 1.000000
-105.365829 -14.888022 3.233709 1.000000
-105.365829 -14.888021 2.879327 1.000000
-105.365829 -14.888021 2.526841 1.000000
-105.365829 -14.888022 2.175488 1.000000
-105.365829 -14.888021 1.824512 1.000000
-105.365829 -14.888021 1.473158 1.000000
-105.365829 -14.888021 1.120673 1.000000
-105.365829 -14.888021 0.766291 1.000000
-105.365829 -14.888021 0.409229 1.000000
-105.365829 -14.888021 0.048683 1.000000
-106.805176 -15.154425 -0.000036 0.537132
-108.059578 -15.386597 -0.000041 0.564338
-105.378532 -14.966325 4.679615 1.000000
-105.378532 -14.966326 4.310465 1.000000
-105.378532 -14.966326 3.946498 1.000000
-105.378532 -14.966326 3.586843 1.000000
-105.378532 -14.966324 3.230662 1.000000
-105.378532 -14.966326 2.877155 1.000000
-105.378532 -14.966326 2.525540 1.000000
-105.378532 -14.966326 2.175055 1.000000
-105.378532 -14.966324 1.824945 1.000000
-105.378532 -14.966326 1.474460 1.000000
-105.378532 -14.966326 1.122845 1.000000
-105.378532 -14.966324 0.769338 1.000000
-105.378532 -14.966326 0.413158 1.000000
-105.378540 -14.966325 0.053503 1.000000
-106.793640 -15.218039 -0.000033 0.537990
-108.049629 -15.441446 -0.000040 0.513971
-105.391174 -15.044245 4.673142 1.000000
-105.391182 -15.044245 4.304884 1.000000
-105.391174 -15.044245 3.941797 1.000000
-105.391174 -15.044245 3.583009 1.000000
-105.391182 -15.044246 3.227690 1.000000
-105.391182 -15.044246 2.875036 1.000000
-105.391182 -15.044246 2.524271 1.000000
-105.391182 -15.044246 2.174632 1.000000
-105.391182 -15.044246 1.825368 1.000000
-105.391182 -15.044246 1.475729 1.000000
-105.391182 -15.044245 1.124964 1.000000
-105.391182 -15.044246 0.772310 1.000000
-105.391182 -15.044245 0.416991 1.000000
-105.391182 -15.044246 0.058203 1.000000
-106.782867 -15.281780 0.000037 0.537010
-108.039940 -15.496340 -0.000069 0.517034
-105.403763 -15.121796 4.666831 1.000000
-105.403763 -15.121795 4.299443 1.000000
-105.403763 -15.121796 3.937212 1.000000
-105.403763 -15.121796 3.579272 1.000000
-105.403770 -15.121796 3.224791 1.000000
-105.403770 -15.121796 2.872970 1.000000
-105.403770 -15.121796 2.523033 1.000000
-105.403770 -15.121796 2.174220 1.000000
-105.403770 -15.121796 1.825780 1.000000
-105.403770 -15.121796 1.476967 1.000000
-105.403770 -15.121796 1.127029 1.000000
-105.403770 -15.121797 0.775209 1.000000
-105.403770 -15.121796 0.420728 1.000000
-105.403770 -15.121796 0.062788 1.000000
-106.772194 -15.345540 0.000034 0.539583
-108.030746 -15.551320 -0.000070 0.558578
-105.416298 -15.198984 4.660680 1.000000
-105.416298 -15.198985 4.294138 1.000000
-105.416298 -15.198985 3.932744 1.000000
-105.416298 -15.198985 3.575629 1.000000
-105.416298 -15.198984 3.221966 1.000000
-105.416290 -15.198984 2.870957 1.000000
-105.416298 -15.198985 2.521827 1.000000
-105.416298 -15.198985 2.173818 1.000000
-105.416290 -15.198984 1.826182 1.000000
-105.416298 -15.198983 1.478173 1.000000
-105.416298 -15.198985 1.129043 1.000000
-105.416298 -15.198985 0.778034 1.000000
-105.416298 -15.198984 0.424371 1.000000
-105.416298 -15.198985 0.067256 1.000000
-106.762146 -15.409402 0.000067 0.534191
-108.022095 -15.606388 -0.000033 0.505147
-105.428757 -15.275821 4.654686 1.000000
-105.428764 -15.275822 4.288970 1.000000
-105.428764 -15.275821 3.928390 1.000000
-105.428764 -15.275820 3.572079 1.000000
-105.428764 -15.275821 3.219213 1.000000
-105.428764 -15.275819 2.868994 1.000000
-105.428764 -15.275821 2.520651 1.000000
-105.428764 -15.275822 2.173427 1.000000
-105.428764 -15.275820 1.826574 1.000000
-105.428764 -15.275820 1.479349 1.000000
-105.428764 -15.275819 1.131005 1.000000
-105.428764 -15.275821 0.780787 1.000000
-105.428764 -15.275820 0.427921 1.000000
-105.428764 -15.275820 0.071611 1.000000
-106.752357 -15.473303 0.000063 0.552819
-108.013725 -15.661501 -0.000019 0.555147
-105.441177 -15.352316 4.648847 1.000000
-105.441177 -15.352316 4.283936 1.000000
-105.441177 -15.352315 3.924149 1.000000
-105.441177 -15.352316 3.568622 1.000000
-105.441177 -15.352316 3.216532 1.000000
-105.441185 -15.352316 2.867083 1.000000
-105.441177 -15.352316 2.519506 1.000000
-105.441185 -15.352316 2.173045 1.000000
-105.441177 -15.352316 1.826955 1.000000
-105.441185 -15.352316 1.480494 1.000000
-105.441185 -15.352316 1.132917 1.000000
-105.441185 -15.352316 0.783468 1.000000
-105.441185 -15.352316 0.431378 1.000000
-105.441177 -15.352316 0.075851 1.000000
-106.742943 -15.537259 0.000041 0.539093
-108.005569 -15.716642 -0.000051 0.539338
-105.453537 -15.428477 4.643162 1.000000
-105.453537 -15.428477 4.279035 1.000000
-105.453537 -15.428477 3.920019 1.000000
-105.453537 -15.428478 3.565255 1.000000
-105.453537 -15.428477 3.213921 1.000000
-105.453537 -15.428477 2.865222 1.000000
-105.453537 -15.428477 2.518391 1.000000
-105.453537 -15.428478 2.172674 1.000000
-105.453537 -15.428477 1.827326 1.000000
-105.453537 -15.428477 1.481609 1.000000
-105.453537 -15.428477 1.134777 1.000000
-105.453537 -15.428477 0.786079 1.000000
-105.453537 -15.428478 0.434744 1.000000
-105.453537 -15.428477 0.079981 1.000000
-106.734238 -15.601316 0.000077 0.550245
-107.998039 -15.771875 -0.000020 0.504044
-105.465843 -15.504318 4.637631 1.000000
-105.465851 -15.504317 4.274265 1.000000
-105.465843 -15.504319 3.916001 1.000000
-105.465843 -15.504319 3.561980 1.000000
-105.465843 -15.504319 3.211381 1.000000
-105.465851 -15.504317 2.863411 1.000000
-105.465843 -15.504319 2.517306 1.000000
-105.465843 -15.504318 2.172312 1.000000
-105.465843 -15.504319 1.827688 1.000000
-105.465843 -15.504319 1.482694 1.000000
-105.465851 -15.504317 1.136588 1.000000
-105.465843 -15.504319 0.788619 1.000000
-105.465851 -15.504317 0.438020 1.000000
-105.465843 -15.504319 0.083999 1.000000
-106.725777 -15.665407 0.000069 0.536520
-107.991180 -15.827193 0.000082 0.543627
-105.478104 -15.579845 4.632251 1.000000
-105.478104 -15.579845 4.269626 1.000000
-105.478104 -15.579844 3.912093 1.000000
-105.478104 -15.579845 3.558793 1.000000
-105.478104 -15.579845 3.208909 1.000000
-105.478104 -15.579845 2.861650 1.000000
-105.478104 -15.579845 2.516251 1.000000
-105.478104 -15.579845 2.171961 1.000000
-105.478104 -15.579845 1.828039 1.000000
-105.478104 -15.579845 1.483749 1.000000
-105.478104 -15.579845 1.138350 1.000000
-105.478104 -15.579845 0.791091 1.000000
-105.478104 -15.579845 0.441207 1.000000
-105.478104 -15.579845 0.087908 1.000000
-106.717613 -15.729536 0.000027 0.522181
-107.984146 -15.882488 0.000041 0.538848
-105.490311 -15.655068 4.627019 1.000000
-105.490311 -15.655067 4.265116 1.000000
-105.490311 -15.655067 3.908293 1.000000
-105.490311 -15.655067 3.555696 1.000000
-105.490311 -15.655067 3.206507 1.000000
-105.490311 -15.655068 2.859938 1.000000
-105.490311 -15.655068 2.515225 1.000000
-105.490311 -15.655068 2.171619 1.000000
-105.490311 -15.655068 1.828381 1.000000
-105.490311 -15.655068 1.484775 1.000000
-105.490311 -15.655068 1.140062 1.000000
-105.490311 -15.655067 0.793493 1.000000
-105.490311 -15.655067 0.444304 1.000000
-105.490311 -15.655067 0.091707 1.000000
-106.710388 -15.793777 0.000093 0.523284
-107.977798 -15.937867 0.000077 0.489461
-105.502472 -15.729998 4.621937 1.000000
-105.502472 -15.729998 4.260733 1.000000
-105.502472 -15.729998 3.904600 1.000000
-105.502480 -15.729998 3.552686 1.000000
-105.502472 -15.729998 3.204172 1.000000
-105.502480 -15.729998 2.858274 1.000000
-105.502472 -15.729998 2.514228 1.000000
-105.502480 -15.729998 2.171287 1.000000
-105.502480 -15.729998 1.828713 1.000000
-105.502480 -15.729998 1.485772 1.000000
-105.502472 -15.729998 1.141726 1.000000
-105.502472 -15.729998 0.795828 1.000000
-105.502480 -15.729998 0.447315 1.000000
-105.502480 -15.729998 0.095400 1.000000
-106.703125 -15.858013 0.000053 0.573775
-107.971558 -15.993257 0.000042 0.566544
-105.514587 -15.804639 4.617001 1.000000
-105.514587 -15.804640 4.256477 1.000000
-105.514587 -15.804640 3.901015 1.000000
-105.514587 -15.804639 3.549763 1.000000
-105.514587 -15.804640 3.201906 1.000000
-105.514587 -15.804640 2.856659 1.000000
-105.514587 -15.804640 2.513260 1.000000
-105.514587 -15.804640 2.170964 1.000000
-105.514587 -15.804640 1.829035 1.000000
-105.514587 -15.804639 1.486740 1.000000
-105.514587 -15.804639 1.143341 1.000000
-105.514587 -15.804640 0.798094 1.000000
-105.514587 -15.804639 0.450237 1.000000
-105.514595 -15.804639 0.098985 1.000000
-106.696472 -15.922315 0.000048 0.553186
-107.965599 -16.048677 -0.000019 0.568137
-105.526649 -15.879004 4.612210 1.000000
-105.526649 -15.879004 4.252347 1.000000
-105.526649 -15.879006 3.897535 1.000000
-105.526657 -15.879004 3.546926 1.000000
-105.526649 -15.879004 3.199705 1.000000
-105.526649 -15.879004 2.855091 1.000000
-105.526649 -15.879004 2.512321 1.000000
-105.526649 -15.879004 2.170651 1.000000
-105.526657 -15.879004 1.829348 1.000000
-105.526657 -15.879004 1.487679 1.000000
-105.526649 -15.879004 1.144909 1.000000
-105.526657 -15.879004 0.800295 1.000000
-105.526657 -15.879005 0.453074 1.000000
-105.526649 -15.879004 0.102465 1.000000
-106.690453 -15.986681 0.000083 0.502328
-107.960411 -16.104177 0.000016 0.489338
-105.538681 -15.953104 4.607565 1.000000
-105.538681 -15.953104 4.248341 1.000000
-105.538681 -15.953105 3.894161 1.000000
-105.538681 -15.953105 3.544175 1.000000
-105.538681 -15.953105 3.197572 1.000000
-105.538681 -15.953105 2.853570 1.000000
-105.538681 -15.953105 2.511410 1.000000
-105.538681 -15.953105 2.170348 1.000000
-105.538681 -15.953105 1.829652 1.000000
-105.538681 -15.953105 1.488590 1.000000
-105.538681 -15.953105 1.146430 1.000000
-105.538681 -15.953105 0.802428 1.000000
-105.538681 -15.953105 0.455825 1.000000
-105.538681 -15.953104 0.105840 1.000000
-106.684288 -16.051037 -0.000011 0.498407
-107.955322 -16.159689 -0.000020 0.531618
-105.550667 -16.026941 4.603062 1.000000
-105.550667 -16.026941 4.244459 1.000000
-105.550667 -16.026941 3.890890 1.000000
-105.550667 -16.026943 3.541508 1.000000
-105.550667 -16.026941 3.195504 1.000000
-105.550667 -16.026941 2.852096 1.000000
-105.550667 -16.026941 2.510527 1.000000
-105.550667 -16.026941 2.170054 1.000000
-105.550667 -16.026941 1.829946 1.000000
-105.550667 -16.026941 1.489473 1.000000
-105.550667 -16.026941 1.147904 1.000000
-105.550667 -16.026941 0.804496 1.000000
-105.550667 -16.026943 0.458492 1.000000
-105.550667 -16.026943 0.109110 1.000000
-106.679184 -16.115482 0.000028 0.519730
-107.950928 -16.215258 0.000020 0.556985
-105.562599 -16.100529 4.598701 1.000000
-105.562607 -16.100531 4.240698 1.000000
-105.562607 -16.100529 3.887722 1.000000
-105.562607 -16.100529 3.538926 1.000000
-105.562607 -16.100529 3.193502 1.000000
-105.562607 -16.100531 2.850668 1.000000
-105.562607 -16.100529 2.509671 1.000000
-105.562607 -16.100529 2.169769 1.000000
-105.562607 -16.100529 1.830231 1.000000
-105.562607 -16.100529 1.490329 1.000000
-105.562607 -16.100531 1.149331 1.000000
-105.562607 -16.100529 0.806499 1.000000
-105.562607 -16.100531 0.461074 1.000000
-105.562607 -16.100531 0.112278 1.000000
-106.674324 -16.179945 0.000021 0.531618
-107.946800 -16.270845 0.000030 0.506250
-105.574501 -16.173874 4.594482 1.000000
-105.574509 -16.173874 4.237061 1.000000
-105.574509 -16.173874 3.884657 1.000000
-105.574509 -16.173874 3.536427 1.000000
-105.574509 -16.173874 3.191564 1.000000
-105.574509 -16.173874 2.849287 1.000000
-105.574509 -16.173874 2.508843 1.000000
-105.574509 -16.173874 2.169493 1.000000
-105.574509 -16.173874 1.830507 1.000000
-105.574509 -16.173874 1.491156 1.000000
-105.574509 -16.173874 1.150713 1.000000
-105.574509 -16.173874 0.808437 1.000000
-105.574509 -16.173874 0.463573 1.000000
-105.574509 -16.173874 0.115343 1.000000
-106.670097 -16.244453 0.000054 0.510294
-107.943184 -16.326469 0.000071 0.547426
-105.586372 -16.246984 4.590402 1.000000
-105.586372 -16.246984 4.233541 1.000000
-105.586380 -16.246984 3.881693 1.000000
-105.586372 -16.246984 3.534011 1.000000
-105.586372 -16.246983 3.189689 1.000000
-105.586372 -16.246984 2.847951 1.000000
-105.586372 -16.246984 2.508044 1.000000
-105.586380 -16.246984 2.169227 1.000000
-105.586372 -16.246983 1.830773 1.000000
-105.586372 -16.246984 1.491956 1.000000
-105.586380 -16.246984 1.152048 1.000000
-105.586380 -16.246984 0.810311 1.000000
-105.586372 -16.246984 0.465989 1.000000
-105.586380 -16.246984 0.118308 1.000000
-106.665977 -16.308969 0.000014 0.546078
-107.939644 -16.382095 0.000032 0.555392
-105.598198 -16.319868 4.586460 1.000000
-105.598198 -16.319868 4.230144 1.000000
-105.598198 -16.319868 3.878830 1.000000
-105.598198 -16.319868 3.531677 1.000000
-105.598206 -16.319868 3.187879 1.000000
-105.598198 -16.319868 2.846661 1.000000
-105.598206 -16.319868 2.507270 1.000000
-105.598198 -16.319868 2.168969 1.000000
-105.598198 -16.319868 1.831031 1.000000
-105.598206 -16.319868 1.492730 1.000000
-105.598206 -16.319868 1.153339 1.000000
-105.598206 -16.319868 0.812121 1.000000
-105.598206 -16.319868 0.468323 1.000000
-105.598198 -16.319868 0.121170 1.000000
-106.662781 -16.373537 0.000074 0.539828
-107.936783 -16.437763 0.000068 0.558211
-105.609993 -16.392536 4.582656 1.000000
-105.609993 -16.392536 4.226864 1.000000
-105.609993 -16.392536 3.876067 1.000000
-105.609993 -16.392536 3.529424 1.000000
-105.609993 -16.392536 3.186132 1.000000
-105.609993 -16.392536 2.845416 1.000000
-105.609993 -16.392536 2.506524 1.000000
-105.609993 -16.392536 2.168721 1.000000
-105.609993 -16.392536 1.831279 1.000000
-105.609993 -16.392536 1.493475 1.000000
-105.609993 -16.392536 1.154584 1.000000
-105.609993 -16.392536 0.813868 1.000000
-105.609993 -16.392536 0.470576 1.000000
-105.609993 -16.392536 0.123933 1.000000
-106.659592 -16.438105 0.000041 0.586765
-107.934090 -16.493439 0.000046 0.546446
-105.621750 -16.464991 4.578990 1.000000
-105.621750 -16.464991 4.223701 1.000000
-105.621750 -16.464991 3.873403 1.000000
-105.621750 -16.464991 3.527253 1.000000
-105.621750 -16.464991 3.184449 1.000000
-105.621758 -16.464993 2.844216 1.000000
-105.621750 -16.464991 2.505805 1.000000
-105.621750 -16.464991 2.168481 1.000000
-105.621750 -16.464991 1.831519 1.000000
-105.621750 -16.464991 1.494195 1.000000
-105.621758 -16.464993 1.155784 1.000000
-105.621750 -16.464991 0.815552 1.000000
-105.621750 -16.464991 0.472747 1.000000
-105.621758 -16.464993 0.126597 1.000000
-106.657181 -16.502705 0.000077 0.538971
-107.932007 -16.549139 0.000081 0.530270
-105.633484 -16.537247 4.575459 1.000000
-105.633484 -16.537247 4.220657 1.000000
-105.633484 -16.537247 3.870838 1.000000
-105.633484 -16.537247 3.525162 1.000000
-105.633484 -16.537247 3.182826 1.000000
-105.633484 -16.537247 2.843060 1.000000
-105.633484 -16.537247 2.505113 1.000000
-105.633484 -16.537247 2.168250 1.000000
-105.633484 -16.537247 1.831749 1.000000
-105.633484 -16.537247 1.494887 1.000000
-105.633484 -16.537247 1.156940 1.000000
-105.633484 -16.537247 0.817174 1.000000
-105.633484 -16.537247 0.474838 1.000000
-105.633484 -16.537247 0.129162 1.000000
-106.654861 -16.567310 0.000035 0.517892
-107.930046 -16.604847 0.000051 0.512500
-105.645180 -16.609306 4.572061 1.000000
-105.645180 -16.609306 4.217729 1.000000
-105.645180 -16.609306 3.868371 1.000000
-105.645180 -16.609306 3.523150 1.000000
-105.645172 -16.609306 3.181266 1.000000
-105.645180 -16.609306 2.841948 1.000000
-105.645180 -16.609306 2.504446 1.000000
-105.645180 -16.609306 2.168029 1.000000
-105.645180 -16.609306 1.831971 1.000000
-105.645180 -16.609306 1.495553 1.000000
-105.645180 -16.609306 1.158052 1.000000
-105.645180 -16.609306 0.818734 1.000000
-105.645180 -16.609306 0.476850 1.000000
-105.645180 -16.609306 0.131630 1.000000
-106.653175 -16.631935 0.000033 0.549265
-107.928589 -16.660566 0.000048 0.510784
-105.656845 -16.681181 4.568799 1.000000
-105.656845 -16.681181 4.214915 1.000000
-105.656845 -16.681181 3.866001 1.000000
-105.656845 -16.681181 3.521218 1.000000
-105.656845 -16.681181 3.179768 1.000000
-105.656845 -16.681181 2.840880 1.000000
-105.656845 -16.681181 2.503806 1.000000
-105.656845 -16.681181 2.167816 1.000000
-105.656845 -16.681181 1.832184 1.000000
-105.656845 -16.681181 1.496193 1.000000
-105.656845 -16.681181 1.159120 1.000000
-105.656845 -16.681181 0.820232 1.000000
-105.656845 -16.681181 0.478782 1.000000
-105.656845 -16.681181 0.133999 1.000000
-106.652115 -16.696573 0.000068 0.559314
-107.927666 -16.716301 0.000080 0.534069
-105.668472 -16.752876 4.565669 1.000000
-105.668472 -16.752876 4.212217 1.000000
-105.668472 -16.752876 3.863727 1.000000
-105.668472 -16.752876 3.519365 1.000000
-105.668480 -16.752876 3.178330 1.000000
-105.668472 -16.752876 2.839855 1.000000
-105.668472 -16.752876 2.503192 1.000000
-105.668480 -16.752876 2.167611 1.000000
-105.668480 -16.752876 1.832389 1.000000
-105.668472 -16.752876 1.496807 1.000000
-105.668472 -16.752876 1.160144 1.000000
-105.668480 -16.752876 0.821669 1.000000
-105.668472 -16.752876 0.480635 1.000000
-105.668472 -16.752876 0.136273 1.000000
-106.651176 -16.761213 0.000032 0.540564
-107.926849 -16.772036 0.000044 0.557598
-105.680084 -16.824402 4.562673 1.000000
-105.680077 -16.824402 4.209634 1.000000
-105.680084 -16.824402 3.861550 1.000000
-105.680084 -16.824402 3.517590 1.000000
-105.680084 -16.824402 3.176954 1.000000
-105.680084 -16.824402 2.838874 1.000000
-105.680084 -16.824402 2.502605 1.000000
-105.680084 -16.824402 2.167415 1.000000
-105.680084 -16.824402 1.832585 1.000000
-105.680084 -16.824402 1.497395 1.000000
-105.680084 -16.824402 1.161125 1.000000
-105.680084 -16.824402 0.823046 1.000000
-105.680084 -16.824402 0.482410 1.000000
-105.680084 -16.824402 0.138450 1.000000
-106.650772 -16.825859 0.000017 0.540196
-107.926514 -16.827774 0.000029 0.562010
-105.691666 -16.895761 4.559808 1.000000
-105.691666 -16.895761 4.207162 1.000000
-105.691666 -16.895761 3.859469 1.000000
-105.691666 -16.895761 3.515893 1.000000
-105.691666 -16.895763 3.175638 1.000000
-105.691666 -16.895761 2.837937 1.000000
-105.691666 -16.895761 2.502043 1.000000
-105.691666 -16.895761 2.167228 1.000000
-105.691666 -16.895761 1.832772 1.000000
-105.691666 -16.895761 1.497957 1.000000
-105.691666 -16.895761 1.162063 1.000000
-105.691666 -16.895763 0.824362 1.000000
-105.691666 -16.895763 0.484107 1.000000
-105.691666 -16.895763 0.140531 1.000000
-106.650742 -16.890507 -0.000019 0.551348
-107.926483 -16.883516 -0.000005 0.577083
-105.703217 -16.966969 4.557073 1.000000
-105.703217 -16.966969 4.204804 1.000000
-105.703217 -16.966969 3.857482 1.000000
-105.703217 -16.966969 3.514274 1.000000
-105.703217 -16.966969 3.174383 1.000000
-105.703217 -16.966969 2.837041 1.000000
-105.703217 -16.966969 2.501507 1.000000
-105.703217 -16.966969 2.167050 1.000000
-105.703217 -16.966969 1.832950 1.000000
-105.703217 -16.966969 1.498493 1.000000
-105.703217 -16.966969 1.162958 1.000000
-105.703217 -16.966969 0.825618 1.000000
-105.703217 -16.966969 0.485726 1.000000
-105.703224 -16.966969 0.142518 1.000000
-106.651482 -16.955153 0.000015 0.547549
-107.927101 -16.939255 0.000024 0.552206
-105.714752 -17.038027 4.554468 1.000000
-105.714752 -17.038027 4.202559 1.000000
-105.714760 -17.038027 3.855590 1.000000
-105.714752 -17.038027 3.512732 1.000000
-105.714752 -17.038025 3.173186 1.000000
-105.714760 -17.038027 2.836189 1.000000
-105.714752 -17.038025 2.500996 1.000000
-105.714760 -17.038027 2.166879 1.000000
-105.714752 -17.038027 1.833121 1.000000
-105.714760 -17.038027 1.499004 1.000000
-105.714760 -17.038027 1.163811 1.000000
-105.714760 -17.038027 0.826814 1.000000
-105.714752 -17.038025 0.487268 1.000000
-105.714760 -17.038027 0.144410 1.000000
-106.652344 -17.019794 -0.000020 0.540441
-107.927864 -16.994991 -0.000009 0.508456
-105.726265 -17.108942 4.551993 1.000000
-105.726257 -17.108940 4.200426 1.000000
-105.726257 -17.108940 3.853794 1.000000
-105.726257 -17.108942 3.511266 1.000000
-105.726265 -17.108942 3.172050 1.000000
-105.726265 -17.108942 2.835379 1.000000
-105.726257 -17.108940 2.500510 1.000000
-105.726265 -17.108942 2.166718 1.000000
-105.726265 -17.108942 1.833282 1.000000
-105.726257 -17.108940 1.499489 1.000000
-105.726265 -17.108942 1.164621 1.000000
-105.726265 -17.108942 0.827950 1.000000
-105.726265 -17.108942 0.488734 1.000000
-105.726265 -17.108940 0.146207 1.000000
-106.653999 -17.084421 0.000017 0.578676
-107.929276 -17.050714 0.000025 0.576226
-105.737747 -17.179722 4.549648 1.000000
-105.737747 -17.179724 4.198402 1.000000
-105.737747 -17.179724 3.852089 1.000000
-105.737747 -17.179722 3.509877 1.000000
-105.737747 -17.179724 3.170972 1.000000
-105.737747 -17.179724 2.834611 1.000000
-105.737747 -17.179722 2.500051 1.000000
-105.737747 -17.179724 2.166564 1.000000
-105.737747 -17.179724 1.833436 1.000000
-105.737747 -17.179722 1.499949 1.000000
-105.737747 -17.179724 1.165389 1.000000
-105.737747 -17.179724 0.829028 1.000000
-105.737747 -17.179724 0.490123 1.000000
-105.737747 -17.179724 0.147911 1.000000
-106.655785 -17.149044 -0.000015 0.567279
-107.930809 -17.106434 -0.000009 0.545098
-105.749214 -17.250378 4.547430 1.000000
-105.749214 -17.250378 4.196490 1.000000
-105.749214 -17.250378 3.850478 1.000000
-105.749214 -17.250378 3.508564 1.000000
-105.749214 -17.250378 3.169954 1.000000
-105.749214 -17.250378 2.833885 1.000000
-105.749214 -17.250378 2.499615 1.000000
-105.749214 -17.250378 2.166420 1.000000
-105.749214 -17.250378 1.833580 1.000000
-105.749214 -17.250378 1.500384 1.000000
-105.749214 -17.250378 1.166115 1.000000
-105.749214 -17.250378 0.830046 1.000000
-105.749214 -17.250378 0.491436 1.000000
-105.749214 -17.250378 0.149522 1.000000
-106.658333 -17.213640 0.000019 0.544853
-107.933006 -17.162134 0.000027 0.557721
-105.760666 -17.320913 4.545341 1.000000
-105.760666 -17.320913 4.194688 1.000000
-105.760666 -17.320913 3.848960 1.000000
-105.760666 -17.320913 3.507327 1.000000
-105.760666 -17.320913 3.168994 1.000000
-105.760666 -17.320913 2.833201 1.000000
-105.760666 -17.320913 2.499206 1.000000
-105.760666 -17.320913 2.166283 1.000000
-105.760666 -17.320913 1.833717 1.000000
-105.760666 -17.320913 1.500794 1.000000
-105.760666 -17.320913 1.166799 1.000000
-105.760674 -17.320913 0.831006 1.000000
-105.760666 -17.320913 0.492674 1.000000
-105.760666 -17.320913 0.151040 1.000000
-106.661011 -17.278234 -0.000015 0.547426
-107.935310 -17.217829 -0.000008 0.550490
-105.772095 -17.391338 4.543378 1.000000
-105.772095 -17.391338 4.192997 1.000000
-105.772095 -17.391338 3.847535 1.000000
-105.772095 -17.391338 3.506164 1.000000
-105.772095 -17.391338 3.168093 1.000000
-105.772095 -17.391338 2.832559 1.000000
-105.772095 -17.391338 2.498821 1.000000
-105.772095 -17.391338 2.166155 1.000000
-105.772095 -17.391338 1.833845 1.000000
-105.772095 -17.391338 1.501179 1.000000
-105.772095 -17.391338 1.167441 1.000000
-105.772095 -17.391338 0.831907 1.000000
-105.772095 -17.391336 0.493836 1.000000
-105.772095 -17.391336 0.152465 1.000000
-106.664444 -17.342793 0.000017 0.552328
-107.938347 -17.273487 0.000044 0.539216
-105.783508 -17.461655 4.541543 1.000000
-105.783508 -17.461655 4.191415 1.000000
-105.783508 -17.461655 3.846201 1.000000
-105.783508 -17.461655 3.505078 1.000000
-105.783508 -17.461657 3.167251 1.000000
-105.783508 -17.461657 2.831958 1.000000
-105.783508 -17.461657 2.498461 1.000000
-105.783508 -17.461655 2.166035 1.000000
-105.783508 -17.461655 1.833965 1.000000
-105.783508 -17.461657 1.501539 1.000000
-105.783508 -17.461657 1.168042 1.000000
-105.783508 -17.461657 0.832750 1.000000
-105.783508 -17.461655 0.494923 1.000000
-105.783508 -17.461655 0.153798 1.000000
-106.668030 -17.407339 -0.000015 0.537500
-107.941452 -17.329142 0.000013 0.551225
-105.794899 -17.531876 4.539834 1.000000
-105.794899 -17.531876 4.189940 1.000000
-105.794899 -17.531876 3.844960 1.000000
-105.794899 -17.531876 3.504065 1.000000
-105.794899 -17.531876 3.166465 1.000000
-105.794899 -17.531876 2.831398 1.000000
-105.794899 -17.531876 2.498126 1.000000
-105.794907 -17.531876 2.165923 1.000000
-105.794907 -17.531876 1.834077 1.000000
-105.794899 -17.531876 1.501874 1.000000
-105.794907 -17.531876 1.168602 1.000000
-105.794907 -17.531876 0.833535 1.000000
-105.794899 -17.531876 0.495935 1.000000
-105.794907 -17.531876 0.155040 1.000000
-106.672455 -17.471834 0.000035 0.515074
-107.945206 -17.384758 0.000048 0.543995
-105.806282 -17.602005 4.538250 1.000000
-105.806282 -17.602005 4.188575 1.000000
-105.806282 -17.602005 3.843810 1.000000
-105.806282 -17.602005 3.503127 1.000000
-105.806282 -17.602005 3.165738 1.000000
-105.806282 -17.602005 2.830880 1.000000
-105.806282 -17.602005 2.497815 1.000000
-105.806282 -17.602005 2.165820 1.000000
-105.806282 -17.602005 1.834180 1.000000
-105.806282 -17.602005 1.502185 1.000000
-105.806282 -17.602005 1.169120 1.000000
-105.806282 -17.602005 0.834262 1.000000
-105.806282 -17.602005 0.496873 1.000000
-105.806282 -17.602005 0.156190 1.000000
-106.676926 -17.536327 0.000001 0.550735
-107.949059 -17.440365 0.000012 0.540196
-105.817650 -17.672052 4.536792 1.000000
-105.817650 -17.672050 4.187318 1.000000
-105.817650 -17.672050 3.842751 1.000000
-105.817650 -17.672050 3.502264 1.000000
-105.817650 -17.672052 3.165069 1.000000
-105.817650 -17.672050 2.830403 1.000000
-105.817650 -17.672050 2.497529 1.000000
-105.817650 -17.672050 2.165725 1.000000
-105.817650 -17.672050 1.834275 1.000000
-105.817650 -17.672050 1.502471 1.000000
-105.817650 -17.672050 1.169597 1.000000
-105.817650 -17.672052 0.834932 1.000000
-105.817650 -17.672052 0.497736 1.000000
-105.817650 -17.672052 0.157249 1.000000
-106.682198 -17.600760 0.000041 0.507598
-107.953583 -17.495920 0.000049 0.507843
-105.829002 -17.742022 4.535460 1.000000
-105.829002 -17.742022 4.186170 1.000000
-105.829002 -17.742022 3.841783 1.000000
-105.829002 -17.742020 3.501475 1.000000
-105.829002 -17.742020 3.164457 1.000000
-105.829002 -17.742020 2.829967 1.000000
-105.829002 -17.742022 2.497268 1.000000
-105.829002 -17.742020 2.165638 1.000000
-105.829002 -17.742020 1.834362 1.000000
-105.829002 -17.742020 1.502732 1.000000
-105.829002 -17.742022 1.170033 1.000000
-105.829002 -17.742020 0.835544 1.000000
-105.829002 -17.742020 0.498525 1.000000
-105.829002 -17.742020 0.158217 1.000000
-106.687569 -17.665184 0.000004 0.554534
-107.944771 -17.552671 -0.003368 1.000000
-105.840347 -17.811920 4.534253 1.000000
-105.840347 -17.811920 4.185128 1.000000
-105.840347 -17.811920 3.840905 1.000000
-105.840355 -17.811920 3.500760 1.000000
-105.840347 -17.811920 3.163902 1.000000
-105.840347 -17.811920 2.829571 1.000000
-105.840347 -17.811920 2.497031 1.000000
-105.840347 -17.811920 2.165559 1.000000
-105.840347 -17.811920 1.834441 1.000000
-105.840347 -17.811920 1.502969 1.000000
-105.840347 -17.811920 1.170429 1.000000
-105.840347 -17.811920 0.836098 1.000000
-105.840355 -17.811920 0.499240 1.000000
-105.840347 -17.811920 0.159094 1.000000
-106.693710 -17.729540 0.000037 0.527574
-107.963516 -17.606956 0.000046 0.519118
-105.851685 -17.881754 4.533170 1.000000
-105.851685 -17.881754 4.184194 1.000000
-105.851685 -17.881754 3.840119 1.000000
-105.851685 -17.881754 3.500118 1.000000
-105.851685 -17.881754 3.163404 1.000000
-105.851685 -17.881754 2.829217 1.000000
-105.851685 -17.881754 2.496819 1.000000
-105.851685 -17.881754 2.165488 1.000000
-105.851685 -17.881754 1.834512 1.000000
-105.851685 -17.881754 1.503181 1.000000
-105.851685 -17.881754 1.170783 1.000000
-105.851685 -17.881754 0.836596 1.000000
-105.851685 -17.881754 0.499882 1.000000
-105.851685 -17.881754 0.159882 1.000000
-106.700012 -17.793880 0.000007 0.547181
-107.968941 -17.662434 0.000016 0.550980
-105.862999 -17.951534 4.532210 1.000000
-105.862999 -17.951534 4.183367 1.000000
-105.863007 -17.951534 3.839422 1.000000
-105.862999 -17.951534 3.499551 1.000000
-105.863007 -17.951534 3.162964 1.000000
-105.863007 -17.951534 2.828903 1.000000
-105.862999 -17.951534 2.496631 1.000000
-105.862999 -17.951534 2.165425 1.000000
-105.862999 -17.951534 1.834575 1.000000
-105.862999 -17.951534 1.503369 1.000000
-105.863007 -17.951532 1.171097 1.000000
-105.863007 -17.951534 0.837036 1.000000
-105.863007 -17.951532 0.500450 1.000000
-105.863007 -17.951532 0.160578 1.000000
-106.707024 -17.858147 0.000036 0.602696
-107.975006 -17.717846 0.000046 0.555270
-105.874321 -18.021263 4.531375 1.000000
-105.874321 -18.021263 4.182648 1.000000
-105.874321 -18.021263 3.838816 1.000000
-105.874321 -18.021263 3.499056 1.000000
-105.874321 -18.021263 3.162581 1.000000
-105.874321 -18.021263 2.828630 1.000000
-105.874321 -18.021263 2.496467 1.000000
-105.874321 -18.021263 2.165371 1.000000
-105.874321 -18.021263 1.834629 1.000000
-105.874321 -18.021263 1.503533 1.000000
-105.874321 -18.021263 1.171370 1.000000
-105.874321 -18.021263 0.837419 1.000000
-105.874321 -18.021263 0.500944 1.000000
-105.874321 -18.021263 0.161185 1.000000
-106.714226 -17.922390 0.000006 0.556618
-107.981194 -17.773241 0.000013 0.523897
-105.885635 -18.090952 4.530664 1.000000
-105.885635 -18.090952 4.182034 1.000000
-105.885635 -18.090952 3.838299 1.000000
-105.885635 -18.090952 3.498635 1.000000
-105.885635 -18.090952 3.162254 1.000000
-105.885628 -18.090952 2.828397 1.000000
-105.885635 -18.090952 2.496327 1.000000
-105.885635 -18.090952 2.165324 1.000000
-105.885635 -18.090952 1.834676 1.000000
-105.885635 -18.090952 1.503672 1.000000
-105.885635 -18.090952 1.171603 1.000000
-105.885635 -18.090952 0.837746 1.000000
-105.885635 -18.090952 0.501365 1.000000
-105.885635 -18.090952 0.161701 1.000000
-106.722160 -17.986549 0.000039 0.542525
-107.988045 -17.828562 0.000047 0.563971
-105.896935 -18.160603 4.530077 1.000000
-105.896935 -18.160603 4.181528 1.000000
-105.896935 -18.160603 3.837872 1.000000
-105.896935 -18.160603 3.498287 1.000000
-105.896935 -18.160603 3.161984 1.000000
-105.896935 -18.160603 2.828205 1.000000
-105.896935 -18.160603 2.496212 1.000000
-105.896935 -18.160603 2.165286 1.000000
-105.896935 -18.160603 1.834714 1.000000
-105.896935 -18.160603 1.503788 1.000000
-105.896935 -18.160603 1.171795 1.000000
-105.896935 -18.160603 0.838016 1.000000
-105.896935 -18.160603 0.501713 1.000000
-105.896935 -18.160603 0.162127 1.000000
-106.730240 -18.050690 0.000006 0.567279
-107.995018 -17.883863 0.000018 0.559314
-105.908234 -18.230225 4.529613 1.000000
-105.908234 -18.230225 4.181128 1.000000
-105.908241 -18.230225 3.837535 1.000000
-105.908234 -18.230225 3.498013 1.000000
-105.908234 -18.230225 3.161771 1.000000
-105.908234 -18.230225 2.828053 1.000000
-105.908234 -18.230225 2.496121 1.000000
-105.908234 -18.230225 2.165256 1.000000
-105.908234 -18.230225 1.834744 1.000000
-105.908234 -18.230225 1.503879 1.000000
-105.908234 -18.230225 1.171947 1.000000
-105.908234 -18.230225 0.838229 1.000000
-105.908234 -18.230225 0.501987 1.000000
-105.908241 -18.230225 0.162465 1.000000
-106.739044 -18.114735 0.000034 0.550000
-108.002609 -17.939085 0.000044 0.516422
-105.919533 -18.299826 4.529273 1.000000
-105.919533 -18.299824 4.180834 1.000000
-105.919533 -18.299824 3.837288 1.000000
-105.919533 -18.299824 3.497811 1.000000
-105.919533 -18.299824 3.161615 1.000000
-105.919533 -18.299824 2.827941 1.000000
-105.919533 -18.299824 2.496054 1.000000
-105.919533 -18.299824 2.165233 1.000000
-105.919533 -18.299824 1.834767 1.000000
-105.919533 -18.299824 1.503945 1.000000
-105.919533 -18.299824 1.172058 1.000000
-105.919533 -18.299824 0.838385 1.000000
-105.919533 -18.299824 0.502189 1.000000
-105.919533 -18.299824 0.162712 1.000000
-106.748146 -18.178736 0.000030 0.518015
-108.010468 -17.994268 0.000042 0.527574
-105.930824 -18.369410 4.529056 1.000000
-105.930824 -18.369410 4.180648 1.000000
-105.930824 -18.369410 3.837131 1.000000
-105.930824 -18.369410 3.497683 1.000000
-105.930824 -18.369410 3.161515 1.000000
-105.930824 -18.369410 2.827870 1.000000
-105.930824 -18.369410 2.496012 1.000000
-105.930824 -18.369410 2.165219 1.000000
-105.930824 -18.369410 1.834781 1.000000
-105.930824 -18.369410 1.503988 1.000000
-105.930824 -18.369410 1.172129 1.000000
-105.930824 -18.369410 0.838485 1.000000
-105.930824 -18.369410 0.502317 1.000000
-105.930824 -18.369410 0.162870 1.000000
-106.757584 -18.242691 0.000001 0.516176
-108.018585 -18.049416 0.000010 0.522181
-105.942116 -18.438988 4.528962 1.000000
-105.942116 -18.438988 4.180567 1.000000
-105.942116 -18.438988 3.837062 1.000000
-105.942116 -18.438988 3.497627 1.000000
-105.942116 -18.438988 3.161473 1.000000
-105.942116 -18.438988 2.827840 1.000000
-105.942116 -18.438988 2.495993 1.000000
-105.942116 -18.438988 2.165213 1.000000
-105.942116 -18.438988 1.834787 1.000000
-105.942116 -18.438988 1.504006 1.000000
-105.942116 -18.438988 1.172160 1.000000
-105.942116 -18.438988 0.838528 1.000000
-105.942116 -18.438988 0.502373 1.000000
-105.942123 -18.438988 0.162938 1.000000
-106.767746 -18.306536 0.000034 0.564828
-108.027367 -18.104462 0.000044 0.537010
-105.953400 -18.508562 4.528992 1.000000
-105.953407 -18.508560 4.180592 1.000000
-105.953407 -18.508560 3.837084 1.000000
-105.953407 -18.508560 3.497645 1.000000
-105.953400 -18.508562 3.161486 1.000000
-105.953407 -18.508562 2.827849 1.000000
-105.953407 -18.508560 2.495999 1.000000
-105.953400 -18.508562 2.165215 1.000000
-105.953400 -18.508562 1.834785 1.000000
-105.953407 -18.508560 1.504001 1.000000
-105.953407 -18.508562 1.172150 1.000000
-105.953400 -18.508562 0.838514 1.000000
-105.953407 -18.508560 0.502355 1.000000
-105.953407 -18.508560 0.162916 1.000000
-106.778069 -18.370354 0.000002 0.531985
-108.036255 -18.159491 0.000011 0.521201
-105.964699 -18.578140 4.529144 1.000000
-105.964699 -18.578140 4.180724 1.000000
-105.964699 -18.578140 3.837195 1.000000
-105.964699 -18.578140 3.497735 1.000000
-105.964699 -18.578140 3.161556 1.000000
-105.964699 -18.578140 2.827899 1.000000
-105.964699 -18.578140 2.496029 1.000000
-105.964699 -18.578140 2.165225 1.000000
-105.964699 -18.578140 1.834775 1.000000
-105.964699 -18.578140 1.503971 1.000000
-105.964699 -18.578140 1.172101 1.000000
-105.964699 -18.578140 0.838444 1.000000
-105.964699 -18.578140 0.502265 1.000000
-105.964699 -18.578140 0.162805 1.000000
-106.789093 -18.434053 0.000028 0.560662
-108.045769 -18.214413 0.000039 0.543627
-105.975990 -18.647734 4.529420 1.000000
-105.975990 -18.647734 4.180962 1.000000
-105.975990 -18.647734 3.837395 1.000000
-105.975990 -18.647734 3.497899 1.000000
-105.975990 -18.647734 3.161683 1.000000
-105.975990 -18.647734 2.827990 1.000000
-105.975990 -18.647734 2.496083 1.000000
-105.975990 -18.647734 2.165243 1.000000
-105.975990 -18.647734 1.834757 1.000000
-105.975990 -18.647734 1.503917 1.000000
-105.975990 -18.647734 1.172010 1.000000
-105.975990 -18.647734 0.838317 1.000000
-105.975990 -18.647734 0.502102 1.000000
-105.975990 -18.647734 0.162605 1.000000
-106.800346 -18.497715 0.000006 0.549020
-108.055458 -18.269304 0.000013 0.582475
-105.987289 -18.717342 4.529819 1.000000
-105.987289 -18.717344 4.181306 1.000000
-105.987289 -18.717344 3.837686 1.000000
-105.987289 -18.717344 3.498135 1.000000
-105.987289 -18.717344 3.161866 1.000000
-105.987289 -18.717342 2.828120 1.000000
-105.987289 -18.717342 2.496162 1.000000
-105.987289 -18.717342 2.165269 1.000000
-105.987297 -18.717342 1.834731 1.000000
-105.987289 -18.717342 1.503838 1.000000
-105.987297 -18.717342 1.171879 1.000000
-105.987289 -18.717342 0.838134 1.000000
-105.987297 -18.717342 0.501865 1.000000
-105.987289 -18.717342 0.162314 1.000000
-106.812263 -18.561255 0.000032 0.546569
-108.065750 -18.324089 0.000044 0.569608
-105.998596 -18.786978 4.530344 1.000000
-105.998596 -18.786978 4.181757 1.000000
-105.998596 -18.786978 3.838066 1.000000
-105.998596 -18.786978 3.498445 1.000000
-105.998596 -18.786978 3.162106 1.000000
-105.998596 -18.786978 2.828292 1.000000
-105.998596 -18.786978 2.496264 1.000000
-105.998596 -18.786978 2.165303 1.000000
-105.998596 -18.786978 1.834697 1.000000
-105.998596 -18.786978 1.503735 1.000000
-105.998596 -18.786978 1.171708 1.000000
-105.998596 -18.786978 0.837894 1.000000
-105.998596 -18.786978 0.501555 1.000000
-105.998596 -18.786978 0.161934 1.000000
-106.824356 -18.624762 0.000000 0.514951
-108.076164 -18.378849 0.000008 0.568505
-106.009895 -18.856646 4.530990 1.000000
-106.009895 -18.856646 4.182315 1.000000
-106.009895 -18.856646 3.838536 1.000000
-106.009895 -18.856646 3.498828 1.000000
-106.009895 -18.856646 3.162404 1.000000
-106.009895 -18.856646 2.828503 1.000000
-106.009895 -18.856646 2.496391 1.000000
-106.009895 -18.856646 2.165346 1.000000
-106.009895 -18.856646 1.834654 1.000000
-106.009895 -18.856646 1.503608 1.000000
-106.009895 -18.856646 1.171497 1.000000
-106.009895 -18.856646 0.837597 1.000000
-106.009895 -18.856646 0.501172 1.000000
-106.009895 -18.856646 0.161465 1.000000
-106.837204 -18.688120 0.000035 0.545466
-108.087234 -18.433477 0.000044 0.494730
-106.021210 -18.926353 4.531760 1.000000
-106.021210 -18.926353 4.182979 1.000000
-106.021210 -18.926353 3.839095 1.000000
-106.021210 -18.926353 3.499284 1.000000
-106.021210 -18.926353 3.162757 1.000000
-106.021210 -18.926353 2.828755 1.000000
-106.021210 -18.926353 2.496542 1.000000
-106.021210 -18.926353 2.165396 1.000000
-106.021210 -18.926353 1.834604 1.000000
-106.021210 -18.926353 1.503458 1.000000
-106.021210 -18.926353 1.171244 1.000000
-106.021210 -18.926353 0.837243 1.000000
-106.021210 -18.926353 0.500716 1.000000
-106.021210 -18.926353 0.160905 1.000000
-106.850189 -18.751450 0.000005 0.529044
-108.098427 -18.488085 0.000011 0.536152
-106.032524 -18.996107 4.532654 1.000000
-106.032524 -18.996107 4.183750 1.000000
-106.032524 -18.996105 3.839745 1.000000
-106.032524 -18.996107 3.499814 1.000000
-106.032524 -18.996107 3.163168 1.000000
-106.032524 -18.996107 2.829048 1.000000
-106.032524 -18.996107 2.496718 1.000000
-106.032524 -18.996107 2.165454 1.000000
-106.032524 -18.996107 1.834546 1.000000
-106.032524 -18.996107 1.503282 1.000000
-106.032532 -18.996103 1.170952 1.000000
-106.032532 -18.996105 0.836832 1.000000
-106.032524 -18.996105 0.500186 1.000000
-106.032532 -18.996103 0.160256 1.000000
-106.863876 -18.814629 0.000032 0.527574
-108.110237 -18.542562 0.000039 0.535172
-106.043861 -19.065912 4.533673 1.000000
-106.043861 -19.065910 4.184628 1.000000
-106.043861 -19.065910 3.840484 1.000000
-106.043861 -19.065912 3.500417 1.000000
