# This PCD file was generated using the MATLABÂ® pcwrite function
# from Computer Vision ToolboxÂ®.
# .PCD v.7 - Point Cloud Data file format
VERSION .7
FIELDS x y z intensity
SIZE 4 4 4 4
TYPE F F F F
COUNT 1 1 1 1
WIDTH 1192
HEIGHT 1
VIEWPOINT 0 0 0 1 0 0 0
POINTS 1192
DATA ascii
-35.884407 -55.520477 2.285300 1.000000
-35.884407 -55.520477 2.095032 1.000000
-35.884407 -55.520477 1.904968 1.000000
-35.884407 -55.520477 1.714699 1.000000
-35.884407 -55.520477 1.523818 1.000000
-35.884407 -55.520477 1.331909 1.000000
-35.884407 -55.520477 1.138549 1.000000
-35.884407 -55.520477 0.943302 1.000000
-35.884407 -55.520477 0.745715 1.000000
-35.884407 -55.520477 0.545314 1.000000
-35.840778 -55.527531 3.450244 1.000000
-35.840778 -55.527531 3.250454 1.000000
-35.840778 -55.527531 3.053471 1.000000
-35.840778 -55.527531 2.858820 1.000000
-35.840778 -55.527531 2.666051 1.000000
-35.840778 -55.527531 2.474728 1.000000
-35.840778 -55.527534 2.284429 1.000000
-35.840778 -55.527531 2.094742 1.000000
-35.840778 -55.527531 1.905258 1.000000
-35.840778 -55.527534 1.715570 1.000000
-35.840778 -55.527531 1.525272 1.000000
-35.840778 -55.527531 1.333949 1.000000
-35.840778 -55.527531 1.141180 1.000000
-35.840778 -55.527531 0.946529 1.000000
-35.840778 -55.527534 0.749546 1.000000
-35.840778 -55.527531 0.549756 1.000000
-35.797413 -55.534550 3.445898 1.000000
-35.797413 -55.534550 3.246708 1.000000
-35.797413 -55.534550 3.050315 1.000000
-35.797413 -55.534550 2.856247 1.000000
-35.797413 -55.534546 2.664056 1.000000
-35.797413 -55.534546 2.473306 1.000000
-35.797413 -55.534550 2.283577 1.000000
-35.797413 -55.534550 2.094458 1.000000
-35.797413 -55.534550 1.905542 1.000000
-35.797413 -55.534550 1.716423 1.000000
-35.797413 -55.534550 1.526694 1.000000
-35.797413 -55.534550 1.335944 1.000000
-35.797413 -55.534550 1.143753 1.000000
-35.797413 -55.534550 0.949685 1.000000
-35.797413 -55.534550 0.753292 1.000000
-35.797413 -55.534550 0.554102 1.000000
-35.754303 -55.541519 3.441649 1.000000
-35.754303 -55.541523 3.243045 1.000000
-35.754303 -55.541519 3.047228 1.000000
-35.754303 -55.541523 2.853731 1.000000
-35.754303 -55.541523 2.662104 1.000000
-35.754303 -55.541523 2.471915 1.000000
-35.754303 -55.541519 2.282744 1.000000
-35.754303 -55.541523 2.094181 1.000000
-35.754303 -55.541523 1.905819 1.000000
-35.754303 -55.541519 1.717256 1.000000
-35.754303 -55.541519 1.528085 1.000000
-35.754303 -55.541523 1.337896 1.000000
-35.754303 -55.541523 1.146269 1.000000
-35.754303 -55.541523 0.952772 1.000000
-35.754303 -55.541523 0.756955 1.000000
-35.754303 -55.541523 0.558351 1.000000
-35.711449 -55.548454 3.437495 1.000000
-35.711449 -55.548454 3.239463 1.000000
-35.711449 -55.548454 3.044211 1.000000
-35.711449 -55.548454 2.851271 1.000000
-35.711449 -55.548454 2.660196 1.000000
-35.711449 -55.548454 2.470555 1.000000
-35.711449 -55.548454 2.281929 1.000000
-35.711449 -55.548454 2.093909 1.000000
-35.711449 -55.548454 1.906091 1.000000
-35.711449 -55.548454 1.718071 1.000000
-35.711449 -55.548454 1.529445 1.000000
-35.711449 -55.548454 1.339804 1.000000
-35.711449 -55.548454 1.148729 1.000000
-35.711449 -55.548454 0.955789 1.000000
-35.711449 -55.548454 0.760537 1.000000
-35.711449 -55.548454 0.562505 1.000000
-35.668835 -55.555347 3.433435 1.000000
-35.668835 -55.555347 3.235961 1.000000
-35.668835 -55.555347 3.041261 1.000000
-35.668831 -55.555344 2.848867 1.000000
-35.668835 -55.555347 2.658331 1.000000
-35.668835 -55.555347 2.469226 1.000000
-35.668835 -55.555347 2.281133 1.000000
-35.668835 -55.555347 2.093644 1.000000
-35.668835 -55.555347 1.906356 1.000000
-35.668835 -55.555347 1.718867 1.000000
-35.668835 -55.555347 1.530774 1.000000
-35.668835 -55.555347 1.341669 1.000000
-35.668835 -55.555347 1.151133 1.000000
-35.668835 -55.555347 0.958739 1.000000
-35.668835 -55.555347 0.764039 1.000000
-35.668835 -55.555347 0.566565 1.000000
-35.626457 -55.562202 3.429467 1.000000
-35.626457 -55.562202 3.232540 1.000000
-35.626457 -55.562202 3.038379 1.000000
-35.626457 -55.562202 2.846516 1.000000
-35.626457 -55.562202 2.656509 1.000000
-35.626457 -55.562202 2.467927 1.000000
-35.626457 -55.562202 2.280354 1.000000
-35.626457 -55.562202 2.093385 1.000000
-35.626457 -55.562202 1.906615 1.000000
-35.626457 -55.562202 1.719645 1.000000
-35.626457 -55.562202 1.532073 1.000000
-35.626457 -55.562202 1.343491 1.000000
-35.626457 -55.562202 1.153484 1.000000
-35.626457 -55.562202 0.961622 1.000000
-35.626457 -55.562202 0.767460 1.000000
-35.626457 -55.562202 0.570533 1.000000
-35.584316 -55.569019 3.425590 1.000000
-35.584316 -55.569019 3.229198 1.000000
-35.584316 -55.569019 3.035562 1.000000
-35.584316 -55.569019 2.844220 1.000000
-35.584316 -55.569019 2.654728 1.000000
-35.584316 -55.569019 2.466658 1.000000
-35.584316 -55.569019 2.279594 1.000000
-35.584316 -55.569019 2.093132 1.000000
-35.584316 -55.569019 1.906869 1.000000
-35.584316 -55.569019 1.720406 1.000000
-35.584316 -55.569019 1.533342 1.000000
-35.584316 -55.569019 1.345272 1.000000
-35.584316 -55.569019 1.155780 1.000000
-35.584316 -55.569019 0.964438 1.000000
-35.584316 -55.569019 0.770803 1.000000
-35.584316 -55.569019 0.574410 1.000000
-35.542400 -55.575802 3.421803 1.000000
-35.542400 -55.575802 3.225932 1.000000
-35.542397 -55.575802 3.032811 1.000000
-35.542400 -55.575802 2.841978 1.000000
-35.542400 -55.575802 2.652989 1.000000
-35.542400 -55.575802 2.465418 1.000000
-35.542400 -55.575802 2.278852 1.000000
-35.542400 -55.575802 2.092884 1.000000
-35.542400 -55.575802 1.907116 1.000000
-35.542400 -55.575802 1.721148 1.000000
-35.542400 -55.575802 1.534582 1.000000
-35.542397 -55.575802 1.347011 1.000000
-35.542400 -55.575802 1.158022 1.000000
-35.542397 -55.575802 0.967189 1.000000
-35.542397 -55.575802 0.774068 1.000000
-35.542400 -55.575802 0.578197 1.000000
-35.500702 -55.582542 3.418105 1.000000
-35.500702 -55.582542 3.222744 1.000000
-35.500702 -55.582542 3.030125 1.000000
-35.500702 -55.582542 2.839788 1.000000
-35.500702 -55.582542 2.651291 1.000000
-35.500702 -55.582542 2.464208 1.000000
-35.500702 -55.582542 2.278126 1.000000
-35.500702 -55.582542 2.092643 1.000000
-35.500702 -55.582542 1.907357 1.000000
-35.500702 -55.582542 1.721874 1.000000
-35.500702 -55.582542 1.535792 1.000000
-35.500702 -55.582542 1.348709 1.000000
-35.500702 -55.582542 1.160212 1.000000
-35.500702 -55.582542 0.969875 1.000000
-35.500702 -55.582542 0.777257 1.000000
-35.500702 -55.582546 0.581896 1.000000
-35.459217 -55.589256 3.414495 1.000000
-35.459217 -55.589252 3.219631 1.000000
-35.459217 -55.589252 3.027503 1.000000
-35.459217 -55.589256 2.837650 1.000000
-35.459217 -55.589256 2.649633 1.000000
-35.459217 -55.589256 2.463026 1.000000
-35.459217 -55.589256 2.277418 1.000000
-35.459217 -55.589256 2.092407 1.000000
-35.459217 -55.589256 1.907593 1.000000
-35.459217 -55.589256 1.722582 1.000000
-35.459217 -55.589256 1.536974 1.000000
-35.459217 -55.589256 1.350367 1.000000
-35.459217 -55.589256 1.162350 1.000000
-35.459217 -55.589256 0.972497 1.000000
-35.459217 -55.589256 0.780369 1.000000
-35.459217 -55.589256 0.585505 1.000000
-35.417946 -55.595932 3.410972 1.000000
-35.417946 -55.595932 3.216593 1.000000
-35.417946 -55.595932 3.024943 1.000000
-35.417946 -55.595932 2.835564 1.000000
-35.417946 -55.595936 2.648015 1.000000
-35.417946 -55.595932 2.461873 1.000000
-35.417946 -55.595936 2.276727 1.000000
-35.417946 -55.595932 2.092176 1.000000
-35.417946 -55.595936 1.907823 1.000000
-35.417946 -55.595936 1.723273 1.000000
-35.417946 -55.595932 1.538127 1.000000
-35.417946 -55.595936 1.351985 1.000000
-35.417946 -55.595936 1.164436 1.000000
-35.417946 -55.595936 0.975056 1.000000
-35.417946 -55.595936 0.783407 1.000000
-35.417946 -55.595936 0.589028 1.000000
-35.376873 -55.602573 3.407535 1.000000
-35.376873 -55.602573 3.213630 1.000000
-35.376873 -55.602573 3.022447 1.000000
-35.376873 -55.602573 2.833529 1.000000
-35.376873 -55.602573 2.646436 1.000000
-35.376873 -55.602573 2.460747 1.000000
-35.376873 -55.602573 2.276053 1.000000
-35.376873 -55.602573 2.091952 1.000000
-35.376873 -55.602573 1.908048 1.000000
-35.376873 -55.602573 1.723947 1.000000
-35.376873 -55.602573 1.539252 1.000000
-35.376873 -55.602577 1.353564 1.000000
-35.376873 -55.602573 1.166471 1.000000
-35.376873 -55.602573 0.977553 1.000000
-35.376873 -55.602573 0.786371 1.000000
-35.376873 -55.602573 0.592466 1.000000
-35.335999 -55.609188 3.404182 1.000000
-35.335999 -55.609188 3.210739 1.000000
-35.335999 -55.609188 3.020011 1.000000
-35.335999 -55.609188 2.831543 1.000000
-35.335999 -55.609188 2.644896 1.000000
-35.335999 -55.609188 2.459650 1.000000
-35.335999 -55.609188 2.275396 1.000000
-35.335999 -55.609188 2.091733 1.000000
-35.335999 -55.609188 1.908267 1.000000
-35.335999 -55.609188 1.724604 1.000000
-35.335999 -55.609188 1.540350 1.000000
-35.335999 -55.609188 1.355103 1.000000
-35.335999 -55.609188 1.168457 1.000000
-35.335999 -55.609188 0.979988 1.000000
-35.335999 -55.609188 0.789261 1.000000
-35.335999 -55.609188 0.595818 1.000000
-35.295315 -55.615768 3.400915 1.000000
-35.295315 -55.615772 3.207921 1.000000
-35.295315 -55.615772 3.017638 1.000000
-35.295315 -55.615772 2.829608 1.000000
-35.295315 -55.615772 2.643395 1.000000
-35.295315 -55.615772 2.458580 1.000000
-35.295315 -55.615768 2.274755 1.000000
-35.295315 -55.615772 2.091520 1.000000
-35.295315 -55.615772 1.908481 1.000000
-35.295315 -55.615768 1.725245 1.000000
-35.295315 -55.615772 1.541420 1.000000
-35.295315 -55.615772 1.356604 1.000000
-35.295319 -55.615772 1.170392 1.000000
-35.295319 -55.615772 0.982362 1.000000
-35.295315 -55.615772 0.792079 1.000000
-35.295315 -55.615768 0.599086 1.000000
-35.254826 -55.622322 3.397729 1.000000
-35.254826 -55.622322 3.205175 1.000000
-35.254822 -55.622322 3.015324 1.000000
-35.254826 -55.622318 2.827722 1.000000
-35.254826 -55.622322 2.641933 1.000000
-35.254826 -55.622322 2.457538 1.000000
-35.254826 -55.622322 2.274130 1.000000
-35.254826 -55.622318 2.091311 1.000000
-35.254826 -55.622318 1.908689 1.000000
-35.254826 -55.622322 1.725870 1.000000
-35.254826 -55.622322 1.542462 1.000000
-35.254826 -55.622322 1.358067 1.000000
-35.254826 -55.622322 1.172278 1.000000
-35.254822 -55.622322 0.984676 1.000000
-35.254826 -55.622322 0.794825 1.000000
-35.254822 -55.622322 0.602271 1.000000
-35.214512 -55.628841 3.394627 1.000000
-35.214512 -55.628841 3.202499 1.000000
-35.214512 -55.628841 3.013070 1.000000
-35.214512 -55.628841 2.825885 1.000000
-35.214512 -55.628841 2.640508 1.000000
-35.214512 -55.628841 2.456522 1.000000
-35.214512 -55.628841 2.273522 1.000000
-35.214512 -55.628841 2.091109 1.000000
-35.214512 -55.628841 1.908891 1.000000
-35.214512 -55.628841 1.726478 1.000000
-35.214512 -55.628841 1.543478 1.000000
-35.214512 -55.628841 1.359492 1.000000
-35.214512 -55.628841 1.174116 1.000000
-35.214512 -55.628841 0.986930 1.000000
-35.214512 -55.628841 0.797501 1.000000
-35.214512 -55.628841 0.605374 1.000000
-35.174374 -55.635334 3.391605 1.000000
-35.174374 -55.635334 3.199895 1.000000
-35.174374 -55.635334 3.010876 1.000000
-35.174374 -55.635334 2.824095 1.000000
-35.174374 -55.635334 2.639120 1.000000
-35.174374 -55.635334 2.455533 1.000000
-35.174374 -55.635334 2.272929 1.000000
-35.174374 -55.635338 2.090911 1.000000
-35.174374 -55.635338 1.909089 1.000000
-35.174374 -55.635334 1.727071 1.000000
-35.174374 -55.635334 1.544467 1.000000
-35.174374 -55.635334 1.360880 1.000000
-35.174374 -55.635338 1.175905 1.000000
-35.174374 -55.635338 0.989125 1.000000
-35.174374 -55.635334 0.800105 1.000000
-35.174374 -55.635338 0.608395 1.000000
-35.134411 -55.641796 3.388664 1.000000
-35.134411 -55.641796 3.197359 1.000000
-35.134411 -55.641796 3.008739 1.000000
-35.134411 -55.641796 2.822354 1.000000
-35.134411 -55.641796 2.637770 1.000000
-35.134411 -55.641796 2.454570 1.000000
-35.134411 -55.641796 2.272352 1.000000
-35.134411 -55.641796 2.090719 1.000000
-35.134411 -55.641796 1.909281 1.000000
-35.134411 -55.641796 1.727648 1.000000
-35.134411 -55.641796 1.545429 1.000000
-35.134411 -55.641796 1.362230 1.000000
-35.134411 -55.641800 1.177646 1.000000
-35.134411 -55.641800 0.991261 1.000000
-35.134411 -55.641800 0.802641 1.000000
-35.134411 -55.641796 0.611336 1.000000
-35.094612 -55.648235 3.385804 1.000000
-35.094612 -55.648239 3.194892 1.000000
-35.094612 -55.648239 3.006661 1.000000
-35.094612 -55.648239 2.820660 1.000000
-35.094612 -55.648239 2.636456 1.000000
-35.094612 -55.648239 2.453634 1.000000
-35.094612 -55.648239 2.271791 1.000000
-35.094612 -55.648235 2.090532 1.000000
-35.094612 -55.648235 1.909468 1.000000
-35.094612 -55.648239 1.728209 1.000000
-35.094612 -55.648239 1.546366 1.000000
-35.094612 -55.648239 1.363544 1.000000
-35.094612 -55.648239 1.179340 1.000000
-35.094612 -55.648239 0.993339 1.000000
-35.094612 -55.648239 0.805108 1.000000
-35.094612 -55.648239 0.614196 1.000000
-35.054977 -55.654648 3.383022 1.000000
-35.054977 -55.654648 3.192494 1.000000
-35.054977 -55.654648 3.004640 1.000000
-35.054977 -55.654648 2.819012 1.000000
-35.054977 -55.654648 2.635178 1.000000
-35.054977 -55.654648 2.452723 1.000000
-35.054977 -55.654648 2.271245 1.000000
-35.054977 -55.654648 2.090351 1.000000
-35.054977 -55.654648 1.909649 1.000000
-35.054977 -55.654648 1.728754 1.000000
-35.054977 -55.654648 1.547276 1.000000
-35.054977 -55.654648 1.364822 1.000000
-35.054977 -55.654648 1.180988 1.000000
-35.054977 -55.654648 0.995360 1.000000
-35.054977 -55.654648 0.807507 1.000000
-35.054977 -55.654648 0.616978 1.000000
-35.015495 -55.661037 3.380318 1.000000
-35.015495 -55.661037 3.190162 1.000000
-35.015495 -55.661037 3.002676 1.000000
-35.015495 -55.661037 2.817411 1.000000
-35.015495 -55.661037 2.633937 1.000000
-35.015495 -55.661037 2.451838 1.000000
-35.015495 -55.661037 2.270715 1.000000
-35.015495 -55.661037 2.090174 1.000000
-35.015495 -55.661037 1.909826 1.000000
-35.015495 -55.661037 1.729285 1.000000
-35.015495 -55.661037 1.548162 1.000000
-35.015495 -55.661037 1.366063 1.000000
-35.015495 -55.661037 1.182589 1.000000
-35.015495 -55.661037 0.997323 1.000000
-35.015495 -55.661037 0.809838 1.000000
-35.015495 -55.661037 0.619682 1.000000
-34.976170 -55.667397 3.377692 1.000000
-34.976170 -55.667397 3.187898 1.000000
-34.976170 -55.667397 3.000769 1.000000
-34.976170 -55.667397 2.815856 1.000000
-34.976170 -55.667397 2.632730 1.000000
-34.976170 -55.667397 2.450979 1.000000
-34.976170 -55.667397 2.270200 1.000000
-34.976170 -55.667397 2.090002 1.000000
-34.976170 -55.667397 1.909998 1.000000
-34.976170 -55.667397 1.729800 1.000000
-34.976170 -55.667397 1.549021 1.000000
-34.976170 -55.667397 1.367270 1.000000
-34.976170 -55.667397 1.184144 1.000000
-34.976170 -55.667397 0.999231 1.000000
-34.976170 -55.667397 0.812102 1.000000
-34.976170 -55.667397 0.622308 1.000000
-34.936993 -55.673737 3.375143 1.000000
-34.936993 -55.673737 3.185700 1.000000
-34.936993 -55.673737 2.998917 1.000000
-34.936993 -55.673737 2.814347 1.000000
-34.936993 -55.673737 2.631560 1.000000
-34.936993 -55.673737 2.450144 1.000000
-34.936993 -55.673737 2.269700 1.000000
-34.936993 -55.673737 2.089836 1.000000
-34.936993 -55.673737 1.910164 1.000000
-34.936993 -55.673737 1.730299 1.000000
-34.936993 -55.673737 1.549856 1.000000
-34.936993 -55.673737 1.368440 1.000000
-34.936993 -55.673737 1.185654 1.000000
-34.936993 -55.673737 1.001083 1.000000
-34.936993 -55.673737 0.814300 1.000000
-34.936993 -55.673737 0.624857 1.000000
-34.897957 -55.680050 3.372670 1.000000
-34.897957 -55.680050 3.183568 1.000000
-34.897953 -55.680050 2.997121 1.000000
-34.897957 -55.680050 2.812882 1.000000
-34.897957 -55.680050 2.630424 1.000000
-34.897957 -55.680050 2.449335 1.000000
-34.897953 -55.680050 2.269215 1.000000
-34.897957 -55.680050 2.089674 1.000000
-34.897957 -55.680050 1.910326 1.000000
-34.897953 -55.680050 1.730785 1.000000
-34.897953 -55.680050 1.550665 1.000000
-34.897957 -55.680050 1.369576 1.000000
-34.897957 -55.680050 1.187118 1.000000
-34.897957 -55.680050 1.002879 1.000000
-34.897957 -55.680050 0.816432 1.000000
-34.897953 -55.680050 0.627330 1.000000
-34.859055 -55.686340 3.370273 1.000000
-34.859055 -55.686340 3.181501 1.000000
-34.859055 -55.686340 2.995379 1.000000
-34.859055 -55.686340 2.811462 1.000000
-34.859055 -55.686340 2.629323 1.000000
-34.859055 -55.686340 2.448550 1.000000
-34.859055 -55.686340 2.268745 1.000000
-34.859055 -55.686344 2.089518 1.000000
-34.859055 -55.686344 1.910482 1.000000
-34.859055 -55.686340 1.731255 1.000000
-34.859055 -55.686340 1.551450 1.000000
-34.859055 -55.686340 1.370677 1.000000
-34.859055 -55.686340 1.188538 1.000000
-34.859055 -55.686344 1.004621 1.000000
-34.859055 -55.686340 0.818499 1.000000
-34.859055 -55.686340 0.629727 1.000000
-34.820293 -55.692612 3.367950 1.000000
-34.820293 -55.692612 3.179498 1.000000
-34.820293 -55.692612 2.993692 1.000000
-34.820293 -55.692612 2.810087 1.000000
-34.820293 -55.692612 2.628256 1.000000
-34.820293 -55.692612 2.447790 1.000000
-34.820293 -55.692612 2.268290 1.000000
-34.820293 -55.692616 2.089366 1.000000
-34.820293 -55.692616 1.910634 1.000000
-34.820293 -55.692612 1.731710 1.000000
-34.820293 -55.692612 1.552210 1.000000
-34.820293 -55.692612 1.371744 1.000000
-34.820293 -55.692612 1.189913 1.000000
-34.820293 -55.692612 1.006308 1.000000
-34.820293 -55.692616 0.820502 1.000000
-34.820293 -55.692612 0.632050 1.000000
-34.781654 -55.698860 3.365702 1.000000
-34.781654 -55.698860 3.177560 1.000000
-34.781654 -55.698860 2.992059 1.000000
-34.781654 -55.698860 2.808756 1.000000
-34.781654 -55.698860 2.627224 1.000000
-34.781654 -55.698860 2.447054 1.000000
-34.781654 -55.698860 2.267849 1.000000
-34.781654 -55.698864 2.089219 1.000000
-34.781654 -55.698864 1.910781 1.000000
-34.781654 -55.698860 1.732151 1.000000
-34.781654 -55.698860 1.552946 1.000000
-34.781654 -55.698864 1.372776 1.000000
-34.781654 -55.698864 1.191244 1.000000
-34.781654 -55.698860 1.007941 1.000000
-34.781654 -55.698860 0.822440 1.000000
-34.781654 -55.698860 0.634298 1.000000
-34.743145 -55.705093 3.363528 1.000000
-34.743145 -55.705093 3.175685 1.000000
-34.743145 -55.705093 2.990479 1.000000
-34.743145 -55.705093 2.807468 1.000000
-34.743145 -55.705093 2.626225 1.000000
-34.743145 -55.705093 2.446342 1.000000
-34.743145 -55.705093 2.267422 1.000000
-34.743145 -55.705093 2.089077 1.000000
-34.743145 -55.705093 1.910923 1.000000
-34.743145 -55.705093 1.732578 1.000000
-34.743145 -55.705093 1.553658 1.000000
-34.743145 -55.705093 1.373775 1.000000
-34.743145 -55.705093 1.192532 1.000000
-34.743145 -55.705093 1.009520 1.000000
-34.743145 -55.705093 0.824315 1.000000
-34.743145 -55.705093 0.636473 1.000000
-34.704754 -55.711304 3.361426 1.000000
-34.704754 -55.711304 3.173873 1.000000
-34.704758 -55.711304 2.988953 1.000000
-34.704754 -55.711304 2.806224 1.000000
-34.704758 -55.711304 2.625260 1.000000
-34.704754 -55.711304 2.445654 1.000000
-34.704758 -55.711304 2.267010 1.000000
-34.704754 -55.711304 2.088940 1.000000
-34.704754 -55.711304 1.911060 1.000000
-34.704758 -55.711304 1.732990 1.000000
-34.704758 -55.711304 1.554346 1.000000
-34.704758 -55.711304 1.374740 1.000000
-34.704754 -55.711304 1.193776 1.000000
-34.704758 -55.711304 1.011047 1.000000
-34.704758 -55.711304 0.826127 1.000000
-34.704758 -55.711304 0.638574 1.000000
-34.666481 -55.717491 3.359398 1.000000
-34.666481 -55.717491 3.172124 1.000000
-34.666481 -55.717491 2.987480 1.000000
-34.666481 -55.717491 2.805022 1.000000
-34.666481 -55.717491 2.624328 1.000000
-34.666481 -55.717491 2.444990 1.000000
-34.666481 -55.717495 2.266612 1.000000
-34.666481 -55.717491 2.088807 1.000000
-34.666481 -55.717491 1.911193 1.000000
-34.666481 -55.717495 1.733388 1.000000
-34.666481 -55.717491 1.555010 1.000000
-34.666481 -55.717491 1.375672 1.000000
-34.666481 -55.717491 1.194978 1.000000
-34.666481 -55.717495 1.012520 1.000000
-34.666481 -55.717495 0.827876 1.000000
-34.666481 -55.717495 0.640602 1.000000
-34.628319 -55.723667 3.357441 1.000000
-34.628319 -55.723671 3.170437 1.000000
-34.628319 -55.723667 2.986058 1.000000
-34.628319 -55.723667 2.803864 1.000000
-34.628319 -55.723667 2.623430 1.000000
-34.628319 -55.723667 2.444350 1.000000
-34.628319 -55.723667 2.266229 1.000000
-34.628319 -55.723667 2.088680 1.000000
-34.628319 -55.723667 1.911320 1.000000
-34.628319 -55.723671 1.733771 1.000000
-34.628319 -55.723667 1.555650 1.000000
-34.628319 -55.723671 1.376570 1.000000
-34.628319 -55.723667 1.196136 1.000000
-34.628319 -55.723671 1.013942 1.000000
-34.628319 -55.723671 0.829563 1.000000
-34.628319 -55.723671 0.642559 1.000000
-34.590267 -55.729824 3.355556 1.000000
-34.590267 -55.729824 3.168811 1.000000
-34.590267 -55.729824 2.984689 1.000000
-34.590267 -55.729824 2.802747 1.000000
-34.590267 -55.729824 2.622564 1.000000
-34.590267 -55.729824 2.443733 1.000000
-34.590267 -55.729824 2.265859 1.000000
-34.590267 -55.729824 2.088556 1.000000
-34.590267 -55.729824 1.911444 1.000000
-34.590267 -55.729824 1.734141 1.000000
-34.590267 -55.729824 1.556267 1.000000
-34.590267 -55.729824 1.377436 1.000000
-34.590267 -55.729824 1.197253 1.000000
-34.590267 -55.729824 1.015311 1.000000
-34.590267 -55.729824 0.831189 1.000000
-34.590267 -55.729824 0.644444 1.000000
-34.552315 -55.735962 3.353742 1.000000
-34.552315 -55.735962 3.167247 1.000000
-34.552315 -55.735962 2.983372 1.000000
-34.552315 -55.735962 2.801673 1.000000
-34.552315 -55.735962 2.621731 1.000000
-34.552315 -55.735962 2.443139 1.000000
-34.552315 -55.735962 2.265503 1.000000
-34.552315 -55.735962 2.088438 1.000000
-34.552315 -55.735962 1.911562 1.000000
-34.552315 -55.735962 1.734497 1.000000
-34.552315 -55.735962 1.556861 1.000000
-34.552315 -55.735962 1.378269 1.000000
-34.552315 -55.735962 1.198327 1.000000
-34.552315 -55.735962 1.016629 1.000000
-34.552315 -55.735962 0.832753 1.000000
-34.552315 -55.735962 0.646258 1.000000
-34.514462 -55.742088 3.351999 1.000000
-34.514462 -55.742088 3.165744 1.000000
-34.514462 -55.742088 2.982105 1.000000
-34.514462 -55.742088 2.800641 1.000000
-34.514462 -55.742088 2.620930 1.000000
-34.514462 -55.742088 2.442568 1.000000
-34.514462 -55.742088 2.265161 1.000000
-34.514462 -55.742088 2.088324 1.000000
-34.514462 -55.742088 1.911676 1.000000
-34.514462 -55.742088 1.734839 1.000000
-34.514462 -55.742088 1.557432 1.000000
-34.514462 -55.742088 1.379070 1.000000
-34.514462 -55.742088 1.199359 1.000000
-34.514462 -55.742088 1.017895 1.000000
-34.514462 -55.742088 0.834256 1.000000
-34.514462 -55.742088 0.648001 1.000000
-34.476707 -55.748192 3.350326 1.000000
-34.476707 -55.748192 3.164302 1.000000
-34.476707 -55.748192 2.980890 1.000000
-34.476707 -55.748192 2.799650 1.000000
-34.476707 -55.748192 2.620162 1.000000
-34.476707 -55.748192 2.442021 1.000000
-34.476707 -55.748192 2.264833 1.000000
-34.476707 -55.748192 2.088215 1.000000
-34.476707 -55.748192 1.911785 1.000000
-34.476707 -55.748192 1.735167 1.000000
-34.476707 -55.748192 1.557979 1.000000
-34.476707 -55.748192 1.379838 1.000000
-34.476707 -55.748192 1.200350 1.000000
-34.476707 -55.748192 1.019110 1.000000
-34.476707 -55.748192 0.835698 1.000000
-34.476707 -55.748192 0.649674 1.000000
-34.439049 -55.754288 3.348723 1.000000
-34.439049 -55.754288 3.162920 1.000000
-34.439049 -55.754288 2.979725 1.000000
-34.439049 -55.754288 2.798701 1.000000
-34.439049 -55.754288 2.619426 1.000000
-34.439049 -55.754288 2.441496 1.000000
-34.439049 -55.754288 2.264519 1.000000
-34.439049 -55.754288 2.088110 1.000000
-34.439049 -55.754288 1.911890 1.000000
-34.439049 -55.754288 1.735481 1.000000
-34.439049 -55.754288 1.558504 1.000000
-34.439049 -55.754288 1.380574 1.000000
-34.439049 -55.754288 1.201299 1.000000
-34.439049 -55.754288 1.020275 1.000000
-34.439049 -55.754288 0.837081 1.000000
-34.439049 -55.754288 0.651277 1.000000
-34.401470 -55.760365 3.347189 1.000000
-34.401470 -55.760365 3.161597 1.000000
-34.401470 -55.760365 2.978611 1.000000
-34.401470 -55.760365 2.797792 1.000000
-34.401470 -55.760365 2.618721 1.000000
-34.401470 -55.760365 2.440994 1.000000
-34.401470 -55.760365 2.264218 1.000000
-34.401470 -55.760365 2.088010 1.000000
-34.401470 -55.760365 1.911990 1.000000
-34.401470 -55.760365 1.735782 1.000000
-34.401470 -55.760365 1.559006 1.000000
-34.401470 -55.760365 1.381279 1.000000
-34.401470 -55.760365 1.202208 1.000000
-34.401470 -55.760365 1.021389 1.000000
-34.401470 -55.760365 0.838403 1.000000
-34.401470 -55.760365 0.652811 1.000000
-34.363976 -55.766430 3.345724 1.000000
-34.363976 -55.766430 3.160334 1.000000
-34.363976 -55.766430 2.977547 1.000000
-34.363976 -55.766430 2.796925 1.000000
-34.363976 -55.766430 2.618049 1.000000
-34.363976 -55.766430 2.440514 1.000000
-34.363976 -55.766430 2.263931 1.000000
-34.363976 -55.766430 2.087914 1.000000
-34.363976 -55.766430 1.912086 1.000000
-34.363976 -55.766430 1.736069 1.000000
-34.363976 -55.766430 1.559486 1.000000
-34.363976 -55.766430 1.381952 1.000000
-34.363976 -55.766430 1.203075 1.000000
-34.363976 -55.766430 1.022453 1.000000
-34.363976 -55.766430 0.839666 1.000000
-34.363976 -55.766430 0.654276 1.000000
-34.326565 -55.772484 3.344328 1.000000
-34.326565 -55.772484 3.159131 1.000000
-34.326565 -55.772484 2.976533 1.000000
-34.326565 -55.772484 2.796098 1.000000
-34.326565 -55.772484 2.617407 1.000000
-34.326565 -55.772484 2.440057 1.000000
-34.326565 -55.772484 2.263657 1.000000
-34.326565 -55.772484 2.087823 1.000000
-34.326565 -55.772484 1.912177 1.000000
-34.326565 -55.772484 1.736343 1.000000
-34.326565 -55.772484 1.559943 1.000000
-34.326565 -55.772484 1.382593 1.000000
-34.326565 -55.772484 1.203902 1.000000
-34.326565 -55.772484 1.023467 1.000000
-34.326565 -55.772484 0.840870 1.000000
-34.326565 -55.772484 0.655672 1.000000
-34.289227 -55.778519 3.343000 1.000000
-34.289227 -55.778522 3.157985 1.000000
-34.289227 -55.778519 2.975568 1.000000
-34.289227 -55.778522 2.795312 1.000000
-34.289227 -55.778522 2.616797 1.000000
-34.289227 -55.778522 2.439622 1.000000
-34.289227 -55.778519 2.263396 1.000000
-34.289227 -55.778522 2.087736 1.000000
-34.289227 -55.778522 1.912264 1.000000
-34.289227 -55.778522 1.736603 1.000000
-34.289227 -55.778522 1.560377 1.000000
-34.289227 -55.778522 1.383203 1.000000
-34.289227 -55.778522 1.204688 1.000000
-34.289227 -55.778522 1.024432 1.000000
-34.289227 -55.778522 0.842015 1.000000
-34.289227 -55.778519 0.657000 1.000000
-34.251961 -55.784546 3.341740 1.000000
-34.251961 -55.784550 3.156899 1.000000
-34.251961 -55.784550 2.974653 1.000000
-34.251961 -55.784550 2.794565 1.000000
-34.251961 -55.784550 2.616219 1.000000
-34.251961 -55.784550 2.439210 1.000000
-34.251961 -55.784550 2.263149 1.000000
-34.251961 -55.784550 2.087654 1.000000
-34.251961 -55.784550 1.912346 1.000000
-34.251961 -55.784550 1.736851 1.000000
-34.251961 -55.784550 1.560790 1.000000
-34.251961 -55.784550 1.383781 1.000000
-34.251961 -55.784550 1.205434 1.000000
-34.251961 -55.784550 1.025347 1.000000
-34.251961 -55.784550 0.843101 1.000000
-34.251961 -55.784550 0.658260 1.000000
-34.214764 -55.790565 3.340548 1.000000
-34.214764 -55.790565 3.155871 1.000000
-34.214764 -55.790565 2.973787 1.000000
-34.214764 -55.790565 2.793859 1.000000
-34.214764 -55.790565 2.615671 1.000000
-34.214764 -55.790565 2.438820 1.000000
-34.214764 -55.790565 2.262915 1.000000
-34.214764 -55.790565 2.087576 1.000000
-34.214764 -55.790565 1.912424 1.000000
-34.214764 -55.790565 1.737085 1.000000
-34.214764 -55.790565 1.561180 1.000000
-34.214764 -55.790565 1.384329 1.000000
-34.214764 -55.790565 1.206141 1.000000
-34.214764 -55.790565 1.026213 1.000000
-34.214764 -55.790565 0.844129 1.000000
-34.214764 -55.790565 0.659452 1.000000
-34.177635 -55.796574 3.339423 1.000000
-34.177635 -55.796574 3.154901 1.000000
-34.177635 -55.796574 2.972970 1.000000
-34.177635 -55.796574 2.793193 1.000000
-34.177635 -55.796574 2.615155 1.000000
-34.177635 -55.796574 2.438452 1.000000
-34.177635 -55.796574 2.262695 1.000000
-34.177635 -55.796574 2.087502 1.000000
-34.177635 -55.796574 1.912498 1.000000
-34.177635 -55.796574 1.737305 1.000000
-34.177635 -55.796574 1.561548 1.000000
-34.177635 -55.796574 1.384845 1.000000
-34.177635 -55.796574 1.206807 1.000000
-34.177635 -55.796574 1.027030 1.000000
-34.177635 -55.796574 0.845099 1.000000
-34.177635 -55.796574 0.660578 1.000000
-34.140560 -55.802574 3.338365 1.000000
-34.140560 -55.802574 3.153989 1.000000
-34.140560 -55.802574 2.972201 1.000000
-34.140560 -55.802574 2.792567 1.000000
-34.140560 -55.802570 2.614669 1.000000
-34.140560 -55.802574 2.438105 1.000000
-34.140560 -55.802570 2.262487 1.000000
-34.140560 -55.802570 2.087433 1.000000
-34.140560 -55.802570 1.912567 1.000000
-34.140560 -55.802570 1.737513 1.000000
-34.140560 -55.802574 1.561895 1.000000
-34.140560 -55.802570 1.385331 1.000000
-34.140560 -55.802574 1.207433 1.000000
-34.140560 -55.802574 1.027799 1.000000
-34.140560 -55.802574 0.846012 1.000000
-34.140560 -55.802574 0.661636 1.000000
-34.103542 -55.808559 3.337374 1.000000
-34.103542 -55.808559 3.153134 1.000000
-34.103542 -55.808559 2.971481 1.000000
-34.103546 -55.808559 2.791980 1.000000
-34.103542 -55.808559 2.614213 1.000000
-34.103542 -55.808559 2.437781 1.000000
-34.103546 -55.808559 2.262293 1.000000
-34.103546 -55.808559 2.087368 1.000000
-34.103546 -55.808559 1.912632 1.000000
-34.103546 -55.808559 1.737707 1.000000
-34.103546 -55.808559 1.562219 1.000000
-34.103546 -55.808559 1.385787 1.000000
-34.103546 -55.808559 1.208020 1.000000
-34.103542 -55.808559 1.028518 1.000000
-34.103546 -55.808559 0.846866 1.000000
-34.103546 -55.808559 0.662627 1.000000
-34.066582 -55.814537 3.336449 1.000000
-34.066582 -55.814537 3.152337 1.000000
-34.066582 -55.814537 2.970810 1.000000
-34.066582 -55.814537 2.791433 1.000000
-34.066582 -55.814537 2.613789 1.000000
-34.066582 -55.814537 2.437478 1.000000
-34.066582 -55.814537 2.262111 1.000000
-34.066582 -55.814537 2.087308 1.000000
-34.066582 -55.814537 1.912692 1.000000
-34.066582 -55.814537 1.737888 1.000000
-34.066582 -55.814537 1.562522 1.000000
-34.066582 -55.814537 1.386211 1.000000
-34.066582 -55.814537 1.208567 1.000000
-34.066582 -55.814537 1.029190 1.000000
-34.066582 -55.814537 0.847663 1.000000
-34.066582 -55.814537 0.663551 1.000000
-34.029667 -55.820511 3.335591 1.000000
-34.029667 -55.820511 3.151597 1.000000
-34.029667 -55.820511 2.970186 1.000000
-34.029667 -55.820511 2.790924 1.000000
-34.029667 -55.820511 2.613394 1.000000
-34.029667 -55.820511 2.437197 1.000000
-34.029667 -55.820511 2.261943 1.000000
-34.029667 -55.820511 2.087252 1.000000
-34.029667 -55.820511 1.912748 1.000000
-34.029667 -55.820511 1.738057 1.000000
-34.029667 -55.820511 1.562803 1.000000
-34.029667 -55.820511 1.386605 1.000000
-34.029667 -55.820511 1.209076 1.000000
-34.029667 -55.820511 1.029814 1.000000
-34.029667 -55.820511 0.848404 1.000000
-34.029667 -55.820511 0.664409 1.000000
-33.992798 -55.826473 3.334799 1.000000
-33.992798 -55.826473 3.150914 1.000000
-33.992798 -55.826477 2.969611 1.000000
-33.992798 -55.826473 2.790455 1.000000
-33.992798 -55.826473 2.613031 1.000000
-33.992798 -55.826473 2.436938 1.000000
-33.992798 -55.826473 2.261788 1.000000
-33.992798 -55.826473 2.087200 1.000000
-33.992798 -55.826473 1.912800 1.000000
-33.992798 -55.826473 1.738212 1.000000
-33.992798 -55.826473 1.563062 1.000000
-33.992798 -55.826473 1.386969 1.000000
-33.992798 -55.826473 1.209545 1.000000
-33.992798 -55.826477 1.030389 1.000000
-33.992798 -55.826477 0.849086 1.000000
-33.992798 -55.826477 0.665202 1.000000
-33.955971 -55.832428 3.334073 1.000000
-33.955971 -55.832428 3.150288 1.000000
-33.955971 -55.832428 2.969083 1.000000
-33.955971 -55.832428 2.790025 1.000000
-33.955971 -55.832428 2.612697 1.000000
-33.955971 -55.832428 2.436700 1.000000
-33.955971 -55.832428 2.261645 1.000000
-33.955971 -55.832428 2.087153 1.000000
-33.955971 -55.832428 1.912847 1.000000
-33.955971 -55.832428 1.738354 1.000000
-33.955971 -55.832428 1.563300 1.000000
-33.955971 -55.832428 1.387303 1.000000
-33.955971 -55.832428 1.209975 1.000000
-33.955971 -55.832428 1.030917 1.000000
-33.955971 -55.832428 0.849712 1.000000
-33.955971 -55.832428 0.665928 1.000000
-33.919182 -55.838383 3.333412 1.000000
-33.919182 -55.838383 3.149718 1.000000
-33.919182 -55.838383 2.968604 1.000000
-33.919182 -55.838383 2.789634 1.000000
-33.919182 -55.838383 2.612394 1.000000
-33.919182 -55.838383 2.436484 1.000000
-33.919182 -55.838383 2.261516 1.000000
-33.919182 -55.838383 2.087110 1.000000
-33.919182 -55.838383 1.912890 1.000000
-33.919182 -55.838383 1.738484 1.000000
-33.919182 -55.838383 1.563516 1.000000
-33.919182 -55.838383 1.387606 1.000000
-33.919182 -55.838383 1.210366 1.000000
-33.919182 -55.838383 1.031396 1.000000
-33.919182 -55.838387 0.850282 1.000000
-33.919182 -55.838383 0.666588 1.000000
-33.882431 -55.844326 3.332817 1.000000
-33.882431 -55.844326 3.149205 1.000000
-33.882431 -55.844326 2.968172 1.000000
-33.882431 -55.844326 2.789282 1.000000
-33.882431 -55.844326 2.612121 1.000000
-33.882431 -55.844330 2.436289 1.000000
-33.882431 -55.844326 2.261399 1.000000
-33.882431 -55.844326 2.087071 1.000000
-33.882431 -55.844326 1.912929 1.000000
-33.882431 -55.844326 1.738601 1.000000
-33.882431 -55.844330 1.563711 1.000000
-33.882431 -55.844326 1.387879 1.000000
-33.882431 -55.844326 1.210718 1.000000
-33.882431 -55.844326 1.031829 1.000000
-33.882431 -55.844330 0.850795 1.000000
-33.882431 -55.844330 0.667183 1.000000
-33.845707 -55.850269 3.332288 1.000000
-33.845707 -55.850269 3.148749 1.000000
-33.845707 -55.850269 2.967787 1.000000
-33.845707 -55.850266 2.788968 1.000000
-33.845707 -55.850269 2.611878 1.000000
-33.845707 -55.850266 2.436116 1.000000
-33.845707 -55.850269 2.261295 1.000000
-33.845707 -55.850266 2.087036 1.000000
-33.845707 -55.850266 1.912964 1.000000
-33.845707 -55.850269 1.738705 1.000000
-33.845707 -55.850269 1.563884 1.000000
-33.845707 -55.850269 1.388122 1.000000
-33.845707 -55.850269 1.211032 1.000000
-33.845707 -55.850269 1.032213 1.000000
-33.845707 -55.850269 0.851251 1.000000
-33.845707 -55.850269 0.667712 1.000000
-33.809013 -55.856205 3.331824 1.000000
-33.809013 -55.856201 3.148349 1.000000
-33.809013 -55.856201 2.967450 1.000000
-33.809013 -55.856205 2.788693 1.000000
-33.809013 -55.856205 2.611664 1.000000
-33.809013 -55.856205 2.435964 1.000000
-33.809013 -55.856205 2.261204 1.000000
-33.809013 -55.856205 2.087006 1.000000
-33.809013 -55.856205 1.912994 1.000000
-33.809013 -55.856205 1.738796 1.000000
-33.809013 -55.856205 1.564036 1.000000
-33.809013 -55.856205 1.388336 1.000000
-33.809013 -55.856205 1.211307 1.000000
-33.809013 -55.856205 1.032550 1.000000
-33.809013 -55.856205 0.851651 1.000000
-33.809013 -55.856205 0.668177 1.000000
-33.772343 -55.862133 3.331425 1.000000
-33.772343 -55.862137 3.148005 1.000000
-33.772343 -55.862137 2.967160 1.000000
-33.772343 -55.862137 2.788457 1.000000
-33.772343 -55.862137 2.611481 1.000000
-33.772343 -55.862137 2.435833 1.000000
-33.772343 -55.862133 2.261126 1.000000
-33.772343 -55.862137 2.086980 1.000000
-33.772343 -55.862137 1.913020 1.000000
-33.772343 -55.862137 1.738874 1.000000
-33.772343 -55.862137 1.564167 1.000000
-33.772343 -55.862137 1.388519 1.000000
-33.772343 -55.862137 1.211543 1.000000
-33.772343 -55.862137 1.032840 1.000000
-33.772343 -55.862137 0.851995 1.000000
-33.772343 -55.862137 0.668575 1.000000
-33.735695 -55.868065 3.331091 1.000000
-33.735695 -55.868065 3.147717 1.000000
-33.735695 -55.868065 2.966917 1.000000
-33.735695 -55.868065 2.788260 1.000000
-33.735695 -55.868065 2.611328 1.000000
-33.735695 -55.868065 2.435724 1.000000
-33.735695 -55.868065 2.261060 1.000000
-33.735695 -55.868069 2.086958 1.000000
-33.735695 -55.868069 1.913042 1.000000
-33.735695 -55.868065 1.738939 1.000000
-33.735695 -55.868065 1.564276 1.000000
-33.735695 -55.868069 1.388672 1.000000
-33.735695 -55.868065 1.211741 1.000000
-33.735695 -55.868065 1.033082 1.000000
-33.735695 -55.868065 0.852283 1.000000
-33.735695 -55.868065 0.668909 1.000000
-33.699059 -55.873989 3.330822 1.000000
-33.699059 -55.873989 3.147485 1.000000
-33.699059 -55.873989 2.966722 1.000000
-33.699059 -55.873989 2.788100 1.000000
-33.699059 -55.873993 2.611205 1.000000
-33.699059 -55.873989 2.435636 1.000000
-33.699059 -55.873989 2.261008 1.000000
-33.699059 -55.873993 2.086941 1.000000
-33.699059 -55.873993 1.913059 1.000000
-33.699059 -55.873993 1.738992 1.000000
-33.699059 -55.873993 1.564364 1.000000
-33.699059 -55.873993 1.388795 1.000000
-33.699059 -55.873993 1.211900 1.000000
-33.699059 -55.873989 1.033278 1.000000
-33.699059 -55.873993 0.852515 1.000000
-33.699059 -55.873993 0.669178 1.000000
-33.662437 -55.879917 3.330618 1.000000
-33.662437 -55.879917 3.147309 1.000000
-33.662437 -55.879917 2.966574 1.000000
-33.662437 -55.879913 2.787980 1.000000
-33.662437 -55.879917 2.611111 1.000000
-33.662437 -55.879917 2.435569 1.000000
-33.662437 -55.879917 2.260968 1.000000
-33.662437 -55.879917 2.086927 1.000000
-33.662437 -55.879917 1.913073 1.000000
-33.662437 -55.879917 1.739032 1.000000
-33.662437 -55.879917 1.564430 1.000000
-33.662437 -55.879917 1.388889 1.000000
-33.662437 -55.879917 1.212020 1.000000
-33.662437 -55.879917 1.033426 1.000000
-33.662437 -55.879917 0.852691 1.000000
-33.662437 -55.879917 0.669382 1.000000
-33.625824 -55.885838 3.330479 1.000000
-33.625824 -55.885838 3.147190 1.000000
-33.625824 -55.885841 2.966473 1.000000
-33.625824 -55.885838 2.787897 1.000000
-33.625824 -55.885838 2.611047 1.000000
-33.625824 -55.885838 2.435524 1.000000
-33.625824 -55.885838 2.260941 1.000000
-33.625824 -55.885838 2.086918 1.000000
-33.625824 -55.885838 1.913082 1.000000
-33.625824 -55.885838 1.739059 1.000000
-33.625824 -55.885838 1.564476 1.000000
-33.625824 -55.885838 1.388953 1.000000
-33.625824 -55.885838 1.212103 1.000000
-33.625824 -55.885841 1.033527 1.000000
-33.625824 -55.885841 0.852811 1.000000
-33.625824 -55.885838 0.669521 1.000000
-33.589218 -55.891758 3.330405 1.000000
-33.589218 -55.891758 3.147126 1.000000
-33.589218 -55.891758 2.966419 1.000000
-33.589218 -55.891758 2.787853 1.000000
-33.589218 -55.891758 2.611013 1.000000
-33.589218 -55.891758 2.435500 1.000000
-33.589218 -55.891758 2.260926 1.000000
-33.589218 -55.891758 2.086913 1.000000
-33.589218 -55.891758 1.913087 1.000000
-33.589218 -55.891758 1.739074 1.000000
-33.589218 -55.891758 1.564500 1.000000
-33.589218 -55.891758 1.388987 1.000000
-33.589218 -55.891758 1.212147 1.000000
-33.589218 -55.891758 1.033581 1.000000
-33.589218 -55.891758 0.852874 1.000000
-33.589218 -55.891758 0.669595 1.000000
-33.552616 -55.897678 3.330396 1.000000
-33.552616 -55.897682 3.147117 1.000000
-33.552616 -55.897682 2.966413 1.000000
-33.552616 -55.897682 2.787848 1.000000
-33.552616 -55.897682 2.611009 1.000000
-33.552616 -55.897682 2.435497 1.000000
-33.552616 -55.897682 2.260924 1.000000
-33.552616 -55.897682 2.086913 1.000000
-33.552616 -55.897682 1.913087 1.000000
-33.552616 -55.897682 1.739076 1.000000
-33.552616 -55.897682 1.564503 1.000000
-33.552616 -55.897682 1.388991 1.000000
-33.552616 -55.897682 1.212152 1.000000
-33.552616 -55.897682 1.033587 1.000000
-33.552616 -55.897682 0.852883 1.000000
-33.552616 -55.897682 0.669604 1.000000
-33.516010 -55.903599 3.330451 1.000000
-33.516010 -55.903599 3.147165 1.000000
-33.516010 -55.903599 2.966453 1.000000
-33.516010 -55.903599 2.787880 1.000000
-33.516010 -55.903599 2.611034 1.000000
-33.516010 -55.903599 2.435515 1.000000
-33.516010 -55.903599 2.260935 1.000000
-33.516010 -55.903599 2.086916 1.000000
-33.516010 -55.903599 1.913084 1.000000
-33.516010 -55.903599 1.739065 1.000000
-33.516010 -55.903599 1.564485 1.000000
-33.516010 -55.903599 1.388966 1.000000
-33.516010 -55.903599 1.212120 1.000000
-33.516010 -55.903599 1.033547 1.000000
-33.516010 -55.903599 0.852835 1.000000
-33.516010 -55.903599 0.669549 1.000000
-33.479401 -55.909523 3.330572 1.000000
-33.479401 -55.909523 3.147269 1.000000
-33.479401 -55.909523 2.966540 1.000000
-33.479401 -55.909523 2.787952 1.000000
-33.479401 -55.909523 2.611089 1.000000
-33.479401 -55.909523 2.435554 1.000000
-33.479401 -55.909523 2.260959 1.000000
-33.479401 -55.909523 2.086924 1.000000
-33.479401 -55.909523 1.913076 1.000000
-33.479401 -55.909523 1.739041 1.000000
-33.479401 -55.909523 1.564446 1.000000
-33.479401 -55.909523 1.388911 1.000000
-33.479401 -55.909523 1.212048 1.000000
-33.479401 -55.909523 1.033460 1.000000
-33.479401 -55.909523 0.852731 1.000000
-33.479401 -55.909523 0.669428 1.000000
-33.442783 -55.915447 3.330757 1.000000
-33.442783 -55.915447 3.147429 1.000000
-33.442783 -55.915447 2.966675 1.000000
-33.442783 -55.915447 2.788062 1.000000
-33.442783 -55.915447 2.611175 1.000000
-33.442783 -55.915447 2.435615 1.000000
-33.442783 -55.915447 2.260995 1.000000
-33.442783 -55.915447 2.086936 1.000000
-33.442783 -55.915447 1.913064 1.000000
-33.442783 -55.915447 1.739005 1.000000
-33.442783 -55.915447 1.564385 1.000000
-33.442783 -55.915447 1.388825 1.000000
-33.442783 -55.915447 1.211938 1.000000
-33.442783 -55.915447 1.033325 1.000000
-33.442783 -55.915447 0.852571 1.000000
-33.442783 -55.915447 0.669243 1.000000
-33.406155 -55.921371 3.331007 1.000000
-33.406155 -55.921371 3.147645 1.000000
-33.406155 -55.921371 2.966857 1.000000
-33.406155 -55.921371 2.788210 1.000000
-33.406155 -55.921371 2.611290 1.000000
-33.406155 -55.921371 2.435697 1.000000
-33.406155 -55.921371 2.261044 1.000000
-33.406155 -55.921371 2.086952 1.000000
-33.406155 -55.921371 1.913047 1.000000
-33.406155 -55.921375 1.738956 1.000000
-33.406155 -55.921371 1.564303 1.000000
-33.406155 -55.921371 1.388710 1.000000
-33.406155 -55.921371 1.211790 1.000000
-33.406155 -55.921371 1.033143 1.000000
-33.406155 -55.921375 0.852355 1.000000
-33.406155 -55.921371 0.668993 1.000000
-33.369511 -55.927303 3.331323 1.000000
-33.369511 -55.927303 3.147917 1.000000
-33.369507 -55.927303 2.967086 1.000000
-33.369507 -55.927303 2.788396 1.000000
-33.369507 -55.927303 2.611434 1.000000
-33.369511 -55.927303 2.435800 1.000000
-33.369507 -55.927303 2.261106 1.000000
-33.369511 -55.927303 2.086973 1.000000
-33.369511 -55.927303 1.913027 1.000000
-33.369511 -55.927303 1.738894 1.000000
-33.369511 -55.927303 1.564200 1.000000
-33.369511 -55.927303 1.388566 1.000000
-33.369507 -55.927303 1.211603 1.000000
-33.369511 -55.927303 1.032914 1.000000
-33.369511 -55.927303 0.852084 1.000000
-33.369511 -55.927303 0.668678 1.000000
-33.332840 -55.933231 3.331703 1.000000
-33.332840 -55.933231 3.148244 1.000000
-33.332840 -55.933231 2.967362 1.000000
-33.332840 -55.933231 2.788622 1.000000
-33.332840 -55.933231 2.611609 1.000000
-33.332840 -55.933231 2.435925 1.000000
-33.332840 -55.933231 2.261181 1.000000
-33.332840 -55.933231 2.086998 1.000000
-33.332840 -55.933231 1.913002 1.000000
-33.332840 -55.933231 1.738819 1.000000
-33.332840 -55.933231 1.564075 1.000000
-33.332840 -55.933231 1.388391 1.000000
-33.332840 -55.933231 1.211378 1.000000
-33.332840 -55.933231 1.032638 1.000000
-33.332840 -55.933231 0.851756 1.000000
-33.332840 -55.933231 0.668297 1.000000
-33.296154 -55.939171 3.332148 1.000000
-33.296154 -55.939167 3.148629 1.000000
-33.296154 -55.939167 2.967685 1.000000
-33.296154 -55.939171 2.788886 1.000000
-33.296154 -55.939171 2.611814 1.000000
-33.296154 -55.939171 2.436070 1.000000
-33.296154 -55.939171 2.261268 1.000000
-33.296154 -55.939167 2.087027 1.000000
-33.296154 -55.939171 1.912973 1.000000
-33.296154 -55.939171 1.738732 1.000000
-33.296154 -55.939171 1.563930 1.000000
-33.296154 -55.939171 1.388186 1.000000
-33.296154 -55.939171 1.211115 1.000000
-33.296154 -55.939171 1.032315 1.000000
-33.296154 -55.939171 0.851372 1.000000
-33.296154 -55.939171 0.667852 1.000000
-33.259441 -55.945103 3.332659 1.000000
-33.259441 -55.945103 3.149069 1.000000
-33.259441 -55.945103 2.968057 1.000000
-33.259441 -55.945103 2.789188 1.000000
-33.259441 -55.945107 2.612048 1.000000
-33.259441 -55.945107 2.436237 1.000000
-33.259441 -55.945103 2.261368 1.000000
-33.259441 -55.945107 2.087060 1.000000
-33.259441 -55.945107 1.912939 1.000000
-33.259441 -55.945107 1.738632 1.000000
-33.259441 -55.945107 1.563762 1.000000
-33.259441 -55.945107 1.387952 1.000000
-33.259441 -55.945107 1.210812 1.000000
-33.259441 -55.945103 1.031943 1.000000
-33.259441 -55.945107 0.850931 1.000000
-33.259441 -55.945107 0.667341 1.000000
-33.222694 -55.951054 3.333235 1.000000
-33.222694 -55.951054 3.149566 1.000000
-33.222694 -55.951054 2.968475 1.000000
-33.222694 -55.951054 2.789529 1.000000
-33.222694 -55.951054 2.612313 1.000000
-33.222694 -55.951054 2.436426 1.000000
-33.222694 -55.951054 2.261481 1.000000
-33.222694 -55.951054 2.087098 1.000000
-33.222694 -55.951054 1.912902 1.000000
-33.222694 -55.951054 1.738519 1.000000
-33.222694 -55.951054 1.563574 1.000000
-33.222694 -55.951054 1.387687 1.000000
-33.222694 -55.951054 1.210471 1.000000
-33.222694 -55.951054 1.031525 1.000000
-33.222694 -55.951054 0.850434 1.000000
-33.222694 -55.951054 0.666765 1.000000
-33.185921 -55.956997 3.333877 1.000000
-33.185921 -55.956997 3.150119 1.000000
-33.185921 -55.956997 2.968941 1.000000
-33.185921 -55.956997 2.789909 1.000000
-33.185921 -55.956997 2.612607 1.000000
-33.185921 -55.956997 2.436636 1.000000
-33.185921 -55.956997 2.261607 1.000000
-33.185921 -55.956997 2.087140 1.000000
-33.185921 -55.956997 1.912860 1.000000
-33.185921 -55.956997 1.738393 1.000000
-33.185921 -55.956997 1.563364 1.000000
-33.185921 -55.957001 1.387393 1.000000
-33.185921 -55.956997 1.210091 1.000000
-33.185921 -55.956997 1.031059 1.000000
-33.185921 -55.957001 0.849881 1.000000
-33.185921 -55.957001 0.666123 1.000000
-33.149105 -55.962955 3.334584 1.000000
-33.149105 -55.962955 3.150729 1.000000
-33.149101 -55.962955 2.969455 1.000000
-33.149105 -55.962955 2.790328 1.000000
-33.149105 -55.962955 2.612932 1.000000
-33.149105 -55.962955 2.436868 1.000000
-33.149101 -55.962955 2.261746 1.000000
-33.149105 -55.962955 2.087186 1.000000
-33.149105 -55.962955 1.912814 1.000000
-33.149101 -55.962955 1.738254 1.000000
-33.149105 -55.962955 1.563132 1.000000
-33.149105 -55.962955 1.387068 1.000000
-33.149105 -55.962955 1.209672 1.000000
-33.149105 -55.962955 1.030545 1.000000
-33.149105 -55.962955 0.849271 1.000000
-33.149105 -55.962955 0.665416 1.000000
-33.112247 -55.968918 3.335358 1.000000
-33.112247 -55.968918 3.151396 1.000000
-33.112247 -55.968918 2.970017 1.000000
-33.112247 -55.968918 2.790786 1.000000
-33.112247 -55.968918 2.613287 1.000000
-33.112247 -55.968918 2.437121 1.000000
-33.112247 -55.968918 2.261898 1.000000
-33.112247 -55.968918 2.087237 1.000000
-33.112247 -55.968918 1.912763 1.000000
-33.112247 -55.968918 1.738102 1.000000
-33.112247 -55.968918 1.562879 1.000000
-33.112247 -55.968918 1.386713 1.000000
-33.112247 -55.968918 1.209214 1.000000
-33.112247 -55.968918 1.029983 1.000000
-33.112247 -55.968918 0.848604 1.000000
-33.112247 -55.968918 0.664642 1.000000
-33.075352 -55.974888 3.336197 1.000000
-33.075352 -55.974888 3.152119 1.000000
-33.075352 -55.974888 2.970626 1.000000
-33.075352 -55.974888 2.791283 1.000000
-33.075352 -55.974888 2.613673 1.000000
-33.075352 -55.974888 2.437396 1.000000
-33.075352 -55.974888 2.262062 1.000000
-33.075352 -55.974888 2.087292 1.000000
-33.075352 -55.974888 1.912708 1.000000
-33.075352 -55.974888 1.737938 1.000000
-33.075352 -55.974888 1.562604 1.000000
-33.075352 -55.974888 1.386327 1.000000
-33.075352 -55.974888 1.208717 1.000000
-33.075352 -55.974888 1.029374 1.000000
-33.075352 -55.974888 0.847881 1.000000
-33.075352 -55.974888 0.663803 1.000000
-33.038403 -55.980865 3.337102 1.000000
-33.038399 -55.980865 3.152900 1.000000
-33.038399 -55.980865 2.971284 1.000000
-33.038403 -55.980865 2.791819 1.000000
-33.038399 -55.980862 2.614089 1.000000
-33.038403 -55.980865 2.437692 1.000000
-33.038403 -55.980865 2.262240 1.000000
-33.038399 -55.980862 2.087351 1.000000
-33.038399 -55.980862 1.912649 1.000000
-33.038403 -55.980865 1.737760 1.000000
-33.038403 -55.980865 1.562308 1.000000
-33.038403 -55.980865 1.385911 1.000000
-33.038403 -55.980865 1.208181 1.000000
-33.038403 -55.980865 1.028716 1.000000
