# This PCD file was generated using the MATLABÂ® pcwrite function
# from Computer Vision ToolboxÂ®.
# .PCD v.7 - Point Cloud Data file format
VERSION .7
FIELDS x y z intensity
SIZE 4 4 4 4
TYPE F F F F
COUNT 1 1 1 1
WIDTH 1224
HEIGHT 1
VIEWPOINT 0 0 0 1 0 0 0
POINTS 1224
DATA ascii
265.379089 -290.808838 0.977249 1.000000
265.379089 -290.808838 0.565065 1.000000
265.379089 -290.808838 0.149764 1.000000
265.057251 -292.255035 -0.000007 0.541422
264.681091 -293.945282 0.000006 0.546078
264.403992 -295.190430 -0.000010 0.516054
265.419495 -291.021667 5.074630 1.000000
265.419495 -291.021667 4.651062 1.000000
265.419525 -291.021667 4.233444 1.000000
265.419525 -291.021667 3.820767 1.000000
265.419495 -291.021667 3.412080 1.000000
265.419495 -291.021698 3.006461 1.000000
265.419525 -291.021667 2.603014 1.000000
265.419525 -291.021667 2.200861 1.000000
265.419525 -291.021667 1.799139 1.000000
265.419525 -291.021667 1.396987 1.000000
265.419525 -291.021667 0.993539 1.000000
265.419525 -291.021667 0.587918 1.000000
265.419525 -291.021667 0.179232 1.000000
265.132111 -292.271942 -0.000019 0.563848
264.744171 -293.959412 -0.000023 0.538971
264.458374 -295.202698 -0.000022 0.557721
265.458679 -291.227814 5.026580 1.000000
265.458679 -291.227814 4.609630 1.000000
265.458679 -291.227814 4.198536 1.000000
265.458679 -291.227844 3.792309 1.000000
265.458679 -291.227844 3.390011 1.000000
265.458679 -291.227844 2.990730 1.000000
265.458679 -291.227814 2.593588 1.000000
265.458679 -291.227814 2.197721 1.000000
265.458679 -291.227814 1.802278 1.000000
265.458679 -291.227814 1.406411 1.000000
265.458679 -291.227814 1.009269 1.000000
265.458679 -291.227814 0.609989 1.000000
265.458679 -291.227814 0.207689 1.000000
265.206818 -292.289459 -0.000006 0.546446
264.807129 -293.974182 -0.000007 0.569608
264.512634 -295.215424 -0.000008 0.535539
265.496613 -291.427704 4.980131 1.000000
265.496613 -291.427704 4.569582 1.000000
265.496613 -291.427704 4.164795 1.000000
265.496613 -291.427704 3.764804 1.000000
265.496613 -291.427704 3.368679 1.000000
265.496613 -291.427704 2.975527 1.000000
265.496613 -291.427704 2.584479 1.000000
265.496613 -291.427704 2.194687 1.000000
265.496613 -291.427704 1.805313 1.000000
265.496613 -291.427704 1.415520 1.000000
265.496613 -291.427704 1.024473 1.000000
265.496613 -291.427704 0.631321 1.000000
265.496613 -291.427704 0.235196 1.000000
265.281403 -292.307343 -0.000019 0.526593
264.869995 -293.989258 -0.000022 0.558701
264.566833 -295.228424 -0.000022 0.485417
265.533447 -291.621490 4.935242 1.000000
265.533417 -291.621490 4.530879 1.000000
265.533447 -291.621490 4.132190 1.000000
265.533447 -291.621490 3.738223 1.000000
265.533447 -291.621490 3.348064 1.000000
265.533447 -291.621490 2.960833 1.000000
265.533447 -291.621490 2.575675 1.000000
265.533417 -291.621490 2.191755 1.000000
265.533447 -291.621490 1.808245 1.000000
265.533417 -291.621490 1.424324 1.000000
265.533447 -291.621490 1.039167 1.000000
265.533447 -291.621490 0.651937 1.000000
265.533447 -291.621490 0.261779 1.000000
265.355896 -292.325836 -0.000019 0.541299
264.932739 -294.004791 -0.000035 0.526716
264.620941 -295.241852 -0.000025 0.513971
265.569122 -291.809540 4.891822 1.000000
265.569122 -291.809570 4.493436 1.000000
265.569122 -291.809540 4.100648 1.000000
265.569122 -291.809540 3.712509 1.000000
265.569122 -291.809570 3.328122 1.000000
265.569122 -291.809570 2.946619 1.000000
265.569122 -291.809570 2.567159 1.000000
265.569122 -291.809540 2.188918 1.000000
265.569122 -291.809540 1.811082 1.000000
265.569122 -291.809540 1.432840 1.000000
265.569122 -291.809540 1.053380 1.000000
265.569122 -291.809570 0.671879 1.000000
265.569122 -291.809570 0.287492 1.000000
265.430237 -292.344849 -0.000017 0.533211
264.995331 -294.020874 -0.000020 0.503799
264.674957 -295.255707 -0.000022 0.528309
265.603821 -291.992157 4.849801 1.000000
265.603821 -291.992157 4.457203 1.000000
265.603821 -291.992157 4.070121 1.000000
265.603821 -291.992157 3.687625 1.000000
265.603821 -291.992157 3.308823 1.000000
265.603821 -291.992157 2.932864 1.000000
265.603821 -291.992157 2.558918 1.000000
265.603821 -291.992157 2.186173 1.000000
265.603821 -291.992157 1.813827 1.000000
265.603821 -291.992157 1.441082 1.000000
265.603821 -291.992157 1.067135 1.000000
265.603821 -291.992157 0.691177 1.000000
265.603821 -291.992157 0.312375 1.000000
265.504486 -292.364319 -0.000034 0.543873
265.057892 -294.037262 -0.000036 0.503064
264.728882 -295.269806 -0.000037 0.545098
265.637512 -292.169495 4.809123 1.000000
265.637512 -292.169495 4.422134 1.000000
265.637512 -292.169495 4.040574 1.000000
265.637512 -292.169495 3.663536 1.000000
265.637512 -292.169495 3.290141 1.000000
265.637512 -292.169495 2.919549 1.000000
265.637512 -292.169495 2.550941 1.000000
265.637512 -292.169495 2.183516 1.000000
265.637512 -292.169495 1.816484 1.000000
265.637512 -292.169495 1.449059 1.000000
265.637512 -292.169495 1.080450 1.000000
265.637512 -292.169495 0.709857 1.000000
265.637512 -292.169495 0.336463 1.000000
265.578522 -292.384430 -0.000017 0.519853
265.120300 -294.054230 -0.000020 0.509314
264.782654 -295.284454 -0.000020 0.525245
265.670258 -292.341858 4.769726 1.000000
265.670227 -292.341858 4.388161 1.000000
265.670258 -292.341858 4.011956 1.000000
265.670258 -292.341858 3.640204 1.000000
265.670258 -292.341858 3.272046 1.000000
265.670227 -292.341858 2.906652 1.000000
265.670258 -292.341858 2.543214 1.000000
265.670258 -292.341858 2.180942 1.000000
265.670258 -292.341858 1.819058 1.000000
265.670258 -292.341858 1.456786 1.000000
265.670258 -292.341858 1.093347 1.000000
265.670258 -292.341858 0.727952 1.000000
265.670258 -292.341858 0.359796 1.000000
265.652496 -292.404938 -0.000036 0.532966
265.182587 -294.071442 -0.000038 0.556127
264.836365 -295.299408 -0.000018 0.560294
265.702087 -292.509460 4.731546 1.000000
265.702087 -292.509491 4.355239 1.000000
265.702087 -292.509460 3.984221 1.000000
265.702087 -292.509460 3.617595 1.000000
265.702087 -292.509491 3.254511 1.000000
265.702087 -292.509491 2.894153 1.000000
265.702087 -292.509460 2.535725 1.000000
265.702087 -292.509460 2.178448 1.000000
265.702087 -292.509460 1.821553 1.000000
265.702087 -292.509460 1.464274 1.000000
265.702087 -292.509460 1.105846 1.000000
265.702087 -292.509491 0.745489 1.000000
265.702087 -292.509491 0.382406 1.000000
265.702087 -292.509491 0.015779 1.000000
265.244690 -294.089386 0.000001 0.550858
264.889954 -295.314758 -0.000010 0.533578
265.733063 -292.672577 4.694527 1.000000
265.733063 -292.672577 4.323324 1.000000
265.733063 -292.672577 3.957330 1.000000
265.733063 -292.672577 3.595675 1.000000
265.733063 -292.672577 3.237512 1.000000
265.733063 -292.672577 2.882036 1.000000
265.733063 -292.672577 2.528466 1.000000
265.733063 -292.672577 2.176029 1.000000
265.733063 -292.672577 1.823971 1.000000
265.733063 -292.672577 1.471534 1.000000
265.733063 -292.672577 1.117963 1.000000
265.733063 -292.672577 0.762489 1.000000
265.733063 -292.672577 0.404325 1.000000
265.733063 -292.672577 0.042668 1.000000
265.306763 -294.107513 -0.000016 0.537868
264.943451 -295.330383 -0.000027 0.583578
265.763214 -292.831268 4.658638 1.000000
265.763184 -292.831268 4.292377 1.000000
265.763184 -292.831299 3.931260 1.000000
265.763214 -292.831268 3.574420 1.000000
265.763184 -292.831268 3.221028 1.000000
265.763184 -292.831299 2.870287 1.000000
265.763214 -292.831268 2.521426 1.000000
265.763214 -292.831268 2.173685 1.000000
265.763214 -292.831268 1.826315 1.000000
265.763184 -292.831299 1.478574 1.000000
265.763184 -292.831299 1.129712 1.000000
265.763184 -292.831299 0.778973 1.000000
265.763184 -292.831268 0.425580 1.000000
265.763214 -292.831268 0.068738 1.000000
265.368622 -294.126221 0.000001 0.567892
264.996826 -295.346466 -0.000013 0.503309
265.792572 -292.985840 4.623809 1.000000
265.792572 -292.985840 4.262346 1.000000
265.792542 -292.985809 3.905962 1.000000
265.792572 -292.985840 3.553794 1.000000
265.792542 -292.985809 3.205033 1.000000
265.792542 -292.985840 2.858887 1.000000
265.792542 -292.985809 2.514596 1.000000
265.792542 -292.985809 2.171410 1.000000
265.792542 -292.985809 1.828591 1.000000
265.792572 -292.985840 1.485404 1.000000
265.792572 -292.985840 1.141112 1.000000
265.792542 -292.985809 0.794966 1.000000
265.792542 -292.985840 0.446205 1.000000
265.792542 -292.985809 0.094037 1.000000
265.430420 -294.145325 0.000006 0.530270
265.050079 -295.362915 -0.000008 0.555760
265.821136 -293.136414 4.590007 1.000000
265.821167 -293.136414 4.233203 1.000000
265.821167 -293.136414 3.881407 1.000000
265.821136 -293.136414 3.533777 1.000000
265.821136 -293.136414 3.189508 1.000000
265.821167 -293.136414 2.847823 1.000000
265.821167 -293.136383 2.507967 1.000000
265.821167 -293.136414 2.169201 1.000000
265.821167 -293.136414 1.830799 1.000000
265.821167 -293.136414 1.492034 1.000000
265.821136 -293.136414 1.152177 1.000000
265.821167 -293.136414 0.810491 1.000000
265.821136 -293.136414 0.466223 1.000000
265.821167 -293.136414 0.118593 1.000000
265.492096 -294.164642 -0.000028 0.459804
265.103241 -295.379639 -0.000038 0.561275
265.849030 -293.283142 4.557196 1.000000
265.849030 -293.283142 4.204911 1.000000
265.849030 -293.283142 3.857570 1.000000
265.849030 -293.283142 3.514347 1.000000
265.849030 -293.283142 3.174438 1.000000
265.849030 -293.283142 2.837081 1.000000
265.849030 -293.283142 2.501531 1.000000
265.849030 -293.283142 2.167058 1.000000
265.849030 -293.283142 1.832942 1.000000
265.849030 -293.283142 1.498469 1.000000
265.849030 -293.283142 1.162918 1.000000
265.849030 -293.283142 0.825561 1.000000
265.849030 -293.283142 0.485654 1.000000
265.849030 -293.283142 0.142429 1.000000
265.553558 -294.184662 -0.000010 0.534804
265.156281 -295.396790 -0.000036 0.531127
265.876190 -293.426208 4.525317 1.000000
265.876190 -293.426208 4.177423 1.000000
265.876190 -293.426208 3.834417 1.000000
265.876190 -293.426208 3.495470 1.000000
265.876190 -293.426208 3.159799 1.000000
265.876190 -293.426208 2.826647 1.000000
265.876190 -293.426208 2.495279 1.000000
265.876190 -293.426208 2.164975 1.000000
265.876190 -293.426208 1.835025 1.000000
265.876190 -293.426208 1.504721 1.000000
265.876190 -293.426208 1.173352 1.000000
265.876190 -293.426208 0.840202 1.000000
265.876190 -293.426208 0.504530 1.000000
265.876190 -293.426208 0.165583 1.000000
265.614960 -294.204865 -0.000042 0.542279
265.209198 -295.414276 -0.000055 0.521814
265.902710 -293.565735 4.494352 1.000000
265.902710 -293.565735 4.150724 1.000000
265.902710 -293.565735 3.811921 1.000000
265.902710 -293.565765 3.477130 1.000000
265.902710 -293.565735 3.145577 1.000000
265.902710 -293.565765 2.816509 1.000000
265.902710 -293.565735 2.489205 1.000000
265.902710 -293.565735 2.162952 1.000000
265.902710 -293.565735 1.837048 1.000000
265.902710 -293.565735 1.510795 1.000000
265.902710 -293.565735 1.183489 1.000000
265.902710 -293.565735 0.854424 1.000000
265.902710 -293.565735 0.522869 1.000000
265.902710 -293.565735 0.188079 1.000000
265.676178 -294.225708 -0.000024 0.531005
265.261993 -295.432251 -0.000036 0.560907
265.928589 -293.701965 4.464244 1.000000
265.928589 -293.701965 4.124764 1.000000
265.928589 -293.701965 3.790051 1.000000
265.928589 -293.701965 3.459302 1.000000
265.928589 -293.701965 3.131750 1.000000
265.928589 -293.701965 2.806654 1.000000
265.928589 -293.701965 2.483301 1.000000
265.928589 -293.701965 2.160985 1.000000
265.928589 -293.701965 1.839015 1.000000
265.928589 -293.701965 1.516699 1.000000
265.928589 -293.701965 1.193344 1.000000
265.928589 -293.701965 0.868250 1.000000
265.928589 -293.701965 0.540698 1.000000
265.928589 -293.701965 0.209948 1.000000
265.737305 -294.246765 -0.000058 0.513113
265.314636 -295.450623 -0.000017 0.508333
265.953827 -293.834869 4.434982 1.000000
265.953827 -293.834869 4.099534 1.000000
265.953827 -293.834869 3.768795 1.000000
265.953827 -293.834869 3.441974 1.000000
265.953827 -293.834869 3.118311 1.000000
265.953827 -293.834869 2.797076 1.000000
265.953827 -293.834869 2.477562 1.000000
265.953827 -293.834869 2.159074 1.000000
265.953827 -293.834869 1.840927 1.000000
265.953827 -293.834869 1.522438 1.000000
265.953827 -293.834869 1.202924 1.000000
265.953827 -293.834869 0.881689 1.000000
265.953827 -293.834900 0.558027 1.000000
265.953827 -293.834869 0.231203 1.000000
265.798187 -294.268463 -0.000039 0.539461
265.367157 -295.469269 -0.000011 0.512132
265.978485 -293.964722 4.406519 1.000000
265.978485 -293.964722 4.074992 1.000000
265.978485 -293.964722 3.748119 1.000000
265.978485 -293.964722 3.425117 1.000000
265.978485 -293.964722 3.105237 1.000000
265.978485 -293.964722 2.787758 1.000000
265.978485 -293.964722 2.471979 1.000000
265.978485 -293.964722 2.157214 1.000000
265.978485 -293.964722 1.842786 1.000000
265.978485 -293.964722 1.528020 1.000000
265.978485 -293.964722 1.212241 1.000000
265.978485 -293.964722 0.894762 1.000000
265.978485 -293.964722 0.574883 1.000000
265.978485 -293.964722 0.251882 1.000000
265.858948 -294.290558 -0.000033 0.513358
265.419556 -295.488220 -0.000031 0.541176
266.002594 -294.091553 4.378830 1.000000
266.002594 -294.091553 4.051118 1.000000
266.002594 -294.091553 3.728005 1.000000
266.002594 -294.091553 3.408721 1.000000
266.002594 -294.091553 3.092521 1.000000
266.002594 -294.091553 2.778696 1.000000
266.002594 -294.091553 2.466549 1.000000
266.002594 -294.091553 2.155405 1.000000
266.002594 -294.091553 1.844595 1.000000
266.002594 -294.091553 1.533451 1.000000
266.002594 -294.091553 1.221305 1.000000
266.002594 -294.091553 0.907478 1.000000
266.002594 -294.091553 0.591279 1.000000
266.002594 -294.091553 0.271994 1.000000
265.919525 -294.313141 -0.000011 0.561152
265.471832 -295.507629 -0.000026 0.525980
266.026123 -294.215515 4.351884 1.000000
266.026123 -294.215515 4.027883 1.000000
266.026123 -294.215515 3.708429 1.000000
266.026123 -294.215515 3.392762 1.000000
266.026123 -294.215515 3.080145 1.000000
266.026123 -294.215515 2.769874 1.000000
266.026123 -294.215546 2.461263 1.000000
266.026123 -294.215515 2.153645 1.000000
266.026123 -294.215515 1.846355 1.000000
266.026123 -294.215515 1.538736 1.000000
266.026123 -294.215515 1.230126 1.000000
266.026123 -294.215546 0.919856 1.000000
266.026123 -294.215546 0.607239 1.000000
266.026123 -294.215515 0.291569 1.000000
265.980042 -294.335938 -0.000033 0.543260
265.523987 -295.527283 -0.000046 0.529534
266.049133 -294.336700 4.325653 1.000000
266.049133 -294.336700 4.005268 1.000000
266.049133 -294.336700 3.689378 1.000000
266.049133 -294.336700 3.377231 1.000000
266.049133 -294.336700 3.068099 1.000000
266.049133 -294.336700 2.761288 1.000000
266.049133 -294.336700 2.456119 1.000000
266.049133 -294.336700 2.151931 1.000000
266.049133 -294.336700 1.848069 1.000000
266.049133 -294.336700 1.543880 1.000000
266.049133 -294.336700 1.238711 1.000000
266.049133 -294.336700 0.931901 1.000000
266.049133 -294.336700 0.622771 1.000000
266.049133 -294.336700 0.310623 1.000000
266.049133 -294.336700 -0.005266 1.000000
265.575958 -295.547485 -0.000026 0.574142
266.071655 -294.455200 4.300108 1.000000
266.071655 -294.455200 3.983242 1.000000
266.071655 -294.455200 3.670823 1.000000
266.071655 -294.455200 3.362103 1.000000
266.071655 -294.455200 3.056367 1.000000
266.071655 -294.455200 2.752926 1.000000
266.071655 -294.455200 2.451110 1.000000
266.071655 -294.455200 2.150263 1.000000
266.071655 -294.455200 1.849738 1.000000
266.071655 -294.455200 1.548890 1.000000
266.071655 -294.455200 1.247073 1.000000
266.071655 -294.455200 0.943632 1.000000
266.071655 -294.455200 0.637896 1.000000
266.071655 -294.455200 0.329177 1.000000
266.071655 -294.455200 0.016757 1.000000
265.627838 -295.567841 -0.000058 0.548652
266.093689 -294.571167 4.275235 1.000000
266.093689 -294.571136 3.961795 1.000000
266.093689 -294.571167 3.652753 1.000000
266.093689 -294.571167 3.347373 1.000000
266.093689 -294.571167 3.044944 1.000000
266.093689 -294.571167 2.744784 1.000000
266.093689 -294.571167 2.446231 1.000000
266.093689 -294.571136 2.148638 1.000000
266.093689 -294.571167 1.851362 1.000000
266.093689 -294.571167 1.553769 1.000000
266.093689 -294.571167 1.255216 1.000000
266.093689 -294.571136 0.955056 1.000000
266.093689 -294.571167 0.652628 1.000000
266.093689 -294.571136 0.347245 1.000000
266.093689 -294.571167 0.038206 1.000000
265.679474 -295.588806 -0.000024 0.518873
266.115234 -294.684631 4.250996 1.000000
266.115234 -294.684631 3.940894 1.000000
266.115234 -294.684631 3.635148 1.000000
266.115234 -294.684631 3.333020 1.000000
266.115234 -294.684631 3.033812 1.000000
266.115234 -294.684631 2.736849 1.000000
266.115234 -294.684631 2.441478 1.000000
266.115234 -294.684631 2.147054 1.000000
266.115234 -294.684631 1.852946 1.000000
266.115234 -294.684631 1.558522 1.000000
266.115234 -294.684631 1.263150 1.000000
266.115234 -294.684631 0.966188 1.000000
266.115234 -294.684631 0.666981 1.000000
266.115234 -294.684631 0.364853 1.000000
266.115234 -294.684631 0.059104 1.000000
265.731079 -295.609924 -0.000046 0.531863
266.136322 -294.795715 4.227377 1.000000
266.136322 -294.795715 3.920530 1.000000
266.136322 -294.795715 3.617989 1.000000
266.136322 -294.795715 3.319033 1.000000
266.136322 -294.795715 3.022964 1.000000
266.136322 -294.795715 2.729118 1.000000
266.136322 -294.795715 2.436845 1.000000
266.136322 -294.795715 2.145511 1.000000
266.136322 -294.795715 1.854489 1.000000
266.136322 -294.795715 1.563155 1.000000
266.136322 -294.795715 1.270882 1.000000
266.136322 -294.795715 0.977036 1.000000
266.136322 -294.795715 0.680968 1.000000
266.136322 -294.795715 0.382011 1.000000
266.136322 -294.795715 0.079469 1.000000
265.782410 -295.631622 0.000004 0.514583
266.156982 -294.904480 4.204357 1.000000
266.156982 -294.904480 3.900681 1.000000
266.156982 -294.904480 3.601269 1.000000
266.156982 -294.904480 3.305400 1.000000
266.156982 -294.904480 3.012393 1.000000
266.156982 -294.904480 2.721583 1.000000
266.156982 -294.904480 2.432331 1.000000
266.156982 -294.904480 2.144007 1.000000
266.156982 -294.904480 1.855993 1.000000
266.156982 -294.904480 1.567669 1.000000
266.156982 -294.904480 1.278416 1.000000
266.156982 -294.904480 0.987607 1.000000
266.156982 -294.904480 0.694599 1.000000
266.156982 -294.904480 0.398731 1.000000
266.156982 -294.904480 0.099318 1.000000
265.833679 -295.653503 -0.000016 0.542279
266.177216 -295.011047 4.181911 1.000000
266.177216 -295.011047 3.881329 1.000000
266.177216 -295.011047 3.584963 1.000000
266.177216 -295.011047 3.292108 1.000000
266.177216 -295.011078 3.002083 1.000000
266.177216 -295.011047 2.714236 1.000000
266.177216 -295.011047 2.427928 1.000000
266.177216 -295.011047 2.142541 1.000000
266.177216 -295.011047 1.857459 1.000000
266.177216 -295.011047 1.572071 1.000000
266.177216 -295.011047 1.285764 1.000000
266.177216 -295.011047 0.997916 1.000000
266.177216 -295.011047 0.707892 1.000000
266.177216 -295.011047 0.415037 1.000000
266.177216 -295.011047 0.118671 1.000000
265.884796 -295.675751 -0.000010 0.606985
266.197052 -295.115479 4.160025 1.000000
266.197052 -295.115479 3.862457 1.000000
266.197052 -295.115479 3.569064 1.000000
266.197052 -295.115479 3.279148 1.000000
266.197052 -295.115479 2.992032 1.000000
266.197052 -295.115479 2.707071 1.000000
266.197052 -295.115479 2.423636 1.000000
266.197052 -295.115479 2.141111 1.000000
266.197052 -295.115479 1.858889 1.000000
266.197052 -295.115479 1.576364 1.000000
266.197052 -295.115479 1.292928 1.000000
266.197052 -295.115479 1.007968 1.000000
266.197052 -295.115479 0.720852 1.000000
266.197052 -295.115479 0.430934 1.000000
266.197052 -295.115479 0.137544 1.000000
265.935760 -295.698334 -0.000029 0.514951
266.216492 -295.217804 4.138676 1.000000
266.216492 -295.217804 3.844047 1.000000
266.216492 -295.217804 3.553556 1.000000
266.216492 -295.217804 3.266503 1.000000
266.216492 -295.217804 2.982226 1.000000
266.216492 -295.217804 2.700082 1.000000
266.216492 -295.217804 2.419448 1.000000
266.216492 -295.217804 2.139716 1.000000
266.216492 -295.217804 1.860284 1.000000
266.216492 -295.217804 1.580551 1.000000
266.216492 -295.217804 1.299918 1.000000
266.216492 -295.217804 1.017774 1.000000
266.216492 -295.217804 0.733497 1.000000
266.216492 -295.217804 0.446444 1.000000
266.216492 -295.217804 0.155952 1.000000
265.986572 -295.721283 -0.000040 0.514706
266.235565 -295.318207 4.117844 1.000000
266.235565 -295.318146 3.826086 1.000000
266.235565 -295.318207 3.538423 1.000000
266.235565 -295.318207 3.254167 1.000000
266.235565 -295.318176 2.972659 1.000000
266.235565 -295.318207 2.693263 1.000000
266.235565 -295.318207 2.415363 1.000000
266.235565 -295.318176 2.138355 1.000000
266.235565 -295.318146 1.861645 1.000000
266.235565 -295.318146 1.584637 1.000000
266.235565 -295.318207 1.306737 1.000000
266.235565 -295.318146 1.027341 1.000000
266.235565 -295.318207 0.745833 1.000000
266.235565 -295.318207 0.461577 1.000000
266.235565 -295.318207 0.173915 1.000000
266.037231 -295.744507 -0.000064 0.517647
266.254242 -295.416595 4.097518 1.000000
266.254242 -295.416595 3.808560 1.000000
266.254242 -295.416595 3.523659 1.000000
266.254242 -295.416595 3.242131 1.000000
266.254242 -295.416595 2.963324 1.000000
266.254242 -295.416595 2.686610 1.000000
266.254242 -295.416595 2.411376 1.000000
266.254242 -295.416595 2.137028 1.000000
266.254242 -295.416595 1.862972 1.000000
266.254242 -295.416595 1.588623 1.000000
266.254242 -295.416595 1.313390 1.000000
266.254242 -295.416595 1.036676 1.000000
266.254242 -295.416595 0.757869 1.000000
266.254242 -295.416595 0.476340 1.000000
266.254242 -295.416595 0.191439 1.000000
266.087646 -295.768280 -0.000041 0.505882
266.272583 -295.513123 4.077678 1.000000
266.272583 -295.513123 3.791453 1.000000
266.272614 -295.513123 3.509246 1.000000
266.272583 -295.513123 3.230381 1.000000
266.272583 -295.513184 2.954211 1.000000
266.272583 -295.513123 2.680115 1.000000
266.272583 -295.513184 2.407485 1.000000
266.272583 -295.513123 2.135731 1.000000
266.272614 -295.513123 1.864268 1.000000
266.272583 -295.513123 1.592515 1.000000
266.272583 -295.513123 1.319885 1.000000
266.272583 -295.513123 1.045789 1.000000
266.272583 -295.513123 0.769619 1.000000
266.272583 -295.513123 0.490754 1.000000
266.272583 -295.513123 0.208548 1.000000
266.137878 -295.792419 -0.000015 0.490319
266.290588 -295.607941 4.058305 1.000000
266.290588 -295.607910 3.774751 1.000000
266.290588 -295.607910 3.495174 1.000000
266.290588 -295.607910 3.218910 1.000000
266.290588 -295.607880 2.945316 1.000000
266.290588 -295.607910 2.673774 1.000000
266.290588 -295.607910 2.403686 1.000000
266.290588 -295.607910 2.134466 1.000000
266.290588 -295.607880 1.865534 1.000000
266.290588 -295.607910 1.596314 1.000000
266.290588 -295.607880 1.326226 1.000000
266.290588 -295.607910 1.054685 1.000000
266.290588 -295.607880 0.781089 1.000000
266.290588 -295.607880 0.504824 1.000000
266.290588 -295.607880 0.225248 1.000000
266.188080 -295.816711 -0.000039 0.508088
266.308258 -295.700897 4.039393 1.000000
266.308258 -295.700897 3.758443 1.000000
266.308258 -295.700897 3.481436 1.000000
266.308258 -295.700897 3.207711 1.000000
266.308258 -295.700897 2.936629 1.000000
266.308258 -295.700897 2.667582 1.000000
266.308258 -295.700897 2.399977 1.000000
266.308258 -295.700897 2.133230 1.000000
266.308258 -295.700897 1.866770 1.000000
266.308258 -295.700897 1.600023 1.000000
266.308258 -295.700897 1.332418 1.000000
266.308258 -295.700897 1.063371 1.000000
266.308258 -295.700897 0.792290 1.000000
266.308258 -295.700897 0.518565 1.000000
266.308258 -295.700897 0.241558 1.000000
266.237976 -295.841492 -0.000027 0.496936
266.325592 -295.792236 4.020922 1.000000
266.325592 -295.792236 3.742516 1.000000
266.325562 -295.792236 3.468019 1.000000
266.325562 -295.792236 3.196772 1.000000
266.325592 -295.792236 2.928146 1.000000
266.325592 -295.792236 2.661536 1.000000
266.325562 -295.792236 2.396355 1.000000
266.325562 -295.792236 2.132024 1.000000
266.325562 -295.792236 1.867976 1.000000
266.325592 -295.792236 1.603646 1.000000
266.325562 -295.792236 1.338463 1.000000
266.325562 -295.792236 1.071854 1.000000
266.325562 -295.792236 0.803228 1.000000
266.325562 -295.792236 0.531980 1.000000
266.325562 -295.792236 0.257483 1.000000
266.287842 -295.866486 -0.000052 0.510907
266.342621 -295.881897 4.002883 1.000000
266.342621 -295.881897 3.726961 1.000000
266.342621 -295.881897 3.454915 1.000000
266.342621 -295.881897 3.186089 1.000000
266.342621 -295.881897 2.919861 1.000000
266.342621 -295.881897 2.655631 1.000000
266.342621 -295.881897 2.392816 1.000000
266.342621 -295.881897 2.130845 1.000000
266.342621 -295.881897 1.869155 1.000000
266.342621 -295.881897 1.607183 1.000000
266.342621 -295.881897 1.344369 1.000000
266.342621 -295.881897 1.080139 1.000000
266.342621 -295.881897 0.813911 1.000000
266.342621 -295.881897 0.545085 1.000000
266.342621 -295.881897 0.273039 1.000000
266.342621 -295.881897 -0.002884 1.000000
266.359344 -295.969971 3.985257 1.000000
266.359344 -295.969971 3.711764 1.000000
266.359344 -295.969971 3.442110 1.000000
266.359344 -295.969971 3.175651 1.000000
266.359344 -295.969971 2.911766 1.000000
266.359344 -295.969971 2.649861 1.000000
266.359344 -295.969971 2.389359 1.000000
266.359344 -295.969971 2.129694 1.000000
266.359344 -295.969971 1.870306 1.000000
266.359344 -295.969971 1.610641 1.000000
266.359344 -295.969971 1.350138 1.000000
266.359344 -295.969971 1.088234 1.000000
266.359344 -295.969971 0.824349 1.000000
266.359344 -295.969971 0.557890 1.000000
266.359344 -295.969971 0.288235 1.000000
266.359344 -295.969971 0.014743 1.000000
266.375793 -296.056549 3.968030 1.000000
266.375793 -296.056549 3.696911 1.000000
266.375793 -296.056549 3.429598 1.000000
266.375793 -296.056549 3.165449 1.000000
266.375793 -296.056549 2.903854 1.000000
266.375793 -296.056549 2.644222 1.000000
266.375793 -296.056549 2.385981 1.000000
266.375793 -296.056549 2.128568 1.000000
266.375793 -296.056549 1.871432 1.000000
266.375793 -296.056549 1.614019 1.000000
266.375793 -296.056549 1.355777 1.000000
266.375793 -296.056549 1.096145 1.000000
266.375793 -296.056549 0.834549 1.000000
266.375793 -296.056549 0.570401 1.000000
266.375793 -296.056549 0.303089 1.000000
266.375793 -296.056549 0.031969 1.000000
266.391937 -296.141632 3.951197 1.000000
266.391937 -296.141632 3.682396 1.000000
266.391937 -296.141632 3.417368 1.000000
266.391937 -296.141632 3.155480 1.000000
266.391937 -296.141632 2.896122 1.000000
266.391937 -296.141632 2.638711 1.000000
266.391968 -296.141632 2.382679 1.000000
266.391937 -296.141632 2.127469 1.000000
266.391937 -296.141632 1.872531 1.000000
266.391937 -296.141632 1.617321 1.000000
266.391937 -296.141632 1.361288 1.000000
266.391937 -296.141632 1.103878 1.000000
266.391937 -296.141632 0.844519 1.000000
266.391937 -296.141632 0.582632 1.000000
266.391937 -296.141632 0.317604 1.000000
266.391937 -296.141632 0.048803 1.000000
266.407837 -296.225281 3.934743 1.000000
266.407837 -296.225281 3.668208 1.000000
266.407837 -296.225281 3.405416 1.000000
266.407837 -296.225281 3.145736 1.000000
266.407837 -296.225281 2.888566 1.000000
266.407837 -296.225250 2.633326 1.000000
266.407837 -296.225281 2.379452 1.000000
266.407837 -296.225250 2.126394 1.000000
266.407837 -296.225250 1.873606 1.000000
266.407837 -296.225281 1.620548 1.000000
266.407837 -296.225281 1.366674 1.000000
266.407837 -296.225281 1.111434 1.000000
266.407837 -296.225281 0.854264 1.000000
266.407837 -296.225250 0.594583 1.000000
266.407837 -296.225281 0.331791 1.000000
266.407837 -296.225281 0.065257 1.000000
266.423462 -296.307526 3.918654 1.000000
266.423462 -296.307526 3.654337 1.000000
266.423462 -296.307526 3.393729 1.000000
266.423462 -296.307526 3.136210 1.000000
266.423462 -296.307526 2.881177 1.000000
266.423462 -296.307526 2.628059 1.000000
266.423462 -296.307526 2.376297 1.000000
266.423462 -296.307526 2.125343 1.000000
266.423462 -296.307526 1.874657 1.000000
266.423462 -296.307526 1.623703 1.000000
266.423462 -296.307526 1.371940 1.000000
266.423462 -296.307526 1.118822 1.000000
266.423462 -296.307526 0.863790 1.000000
266.423462 -296.307526 0.606270 1.000000
266.423462 -296.307526 0.345664 1.000000
266.423462 -296.307526 0.081345 1.000000
nan nan nan 0.000000
nan nan nan 0.000000
nan nan nan 0.000000
nan nan nan 0.000000
nan nan nan 0.000000
244.694336 -334.439301 4.970592 1.000000
244.694336 -334.439301 3.779807 1.000000
244.694336 -334.439301 2.592846 1.000000
244.694336 -334.439301 1.407155 1.000000
244.694336 -334.439301 0.220193 1.000000
250.567261 -324.162201 -0.000031 0.537010
254.043716 -318.078735 -0.000014 0.503309
255.979813 -314.690765 -0.000030 0.531495
257.215881 -312.527740 -0.000029 0.549142
258.074951 -311.024414 -0.000046 0.550000
258.727814 -309.881989 0.010001 1.000000
nan nan nan 0.000000
nan nan nan 0.000000
nan nan nan 0.000000
nan nan nan 0.000000
nan nan nan 0.000000
244.623062 -334.058411 4.946447 1.000000
244.623062 -334.058411 3.765341 1.000000
244.623062 -334.058411 2.588027 1.000000
244.623062 -334.058411 1.411973 1.000000
244.623062 -334.058411 0.234659 1.000000
250.419678 -324.077240 -0.000035 0.539828
253.938538 -318.018188 -0.000018 0.549020
255.898193 -314.643860 -0.000046 0.532108
257.149384 -312.489410 -0.000028 0.544730
258.018921 -310.992157 -0.000047 0.576348
258.659729 -309.888824 -0.000003 0.333578
nan nan nan 0.000000
nan nan nan 0.000000
nan nan nan 0.000000
nan nan nan 0.000000
nan nan nan 0.000000
244.552948 -333.683624 4.922832 1.000000
244.552948 -333.683624 3.751192 1.000000
244.552948 -333.683624 2.583313 1.000000
244.552948 -333.683624 1.416686 1.000000
244.552948 -333.683624 0.248809 1.000000
250.272812 -323.991058 -0.000020 0.541789
253.833786 -317.956848 -0.000017 0.556250
255.817032 -314.596161 -0.000026 0.542770
257.083160 -312.450653 -0.000026 0.508701
257.963135 -310.959473 -0.000040 0.534681
258.611603 -309.860626 0.000001 0.338235
nan nan nan 0.000000
nan nan nan 0.000000
nan nan nan 0.000000
nan nan nan 0.000000
nan nan nan 0.000000
244.483932 -333.314789 4.899733 1.000000
244.483932 -333.314789 3.737352 1.000000
244.483948 -333.314789 2.578703 1.000000
244.483948 -333.314789 1.421297 1.000000
244.483948 -333.314789 0.262649 1.000000
250.126465 -323.903992 -0.000020 0.548529
253.729492 -317.894775 -0.000015 0.519730
255.736099 -314.548126 -0.000034 0.525735
257.017212 -312.411407 -0.000026 0.540319
257.907593 -310.926422 -0.000041 0.538971
258.563690 -309.832153 0.000000 0.346078
nan nan nan 0.000000
nan nan nan 0.000000
nan nan nan 0.000000
nan nan nan 0.000000
nan nan nan 0.000000
244.416016 -332.951721 4.877135 1.000000
244.416000 -332.951721 3.723813 1.000000
244.416016 -332.951721 2.574194 1.000000
244.416016 -332.951721 1.425806 1.000000
244.416016 -332.951721 0.276187 1.000000
249.980682 -323.815979 -0.000027 0.529902
253.625580 -317.832062 -0.000023 0.545711
255.655472 -314.499512 -0.000052 0.566299
256.951538 -312.371735 -0.000027 0.521814
257.852295 -310.892914 -0.000027 0.535907
258.515900 -309.803467 -0.000041 0.503431
nan nan nan 0.000000
nan nan nan 0.000000
nan nan nan 0.000000
nan nan nan 0.000000
nan nan nan 0.000000
244.349121 -332.594238 4.855024 1.000000
244.349121 -332.594238 3.710565 1.000000
244.349121 -332.594238 2.569781 1.000000
244.349121 -332.594238 1.430219 1.000000
244.349121 -332.594238 0.289434 1.000000
249.835449 -323.727112 -0.000046 0.530392
253.522141 -317.768555 -0.000021 0.541912
255.575256 -314.450287 -0.000051 0.558456
256.886078 -312.331665 -0.000046 0.511765
257.797211 -310.859100 -0.000029 0.536397
258.468414 -309.774323 -0.000042 0.534191
nan nan nan 0.000000
nan nan nan 0.000000
nan nan nan 0.000000
nan nan nan 0.000000
244.283249 -332.242188 5.975289 1.000000
244.283249 -332.242188 4.833388 1.000000
244.283249 -332.242188 3.697601 1.000000
244.283249 -332.242188 2.565463 1.000000
244.283249 -332.242188 1.434537 1.000000
244.283249 -332.242188 0.302397 1.000000
249.691193 -323.636566 -0.000006 0.536397
253.419220 -317.704254 -0.000010 0.559559
255.495438 -314.400360 -0.000034 0.561520
256.821014 -312.291016 -0.000034 0.534191
257.742401 -310.824829 -0.000010 0.556985
258.421082 -309.744812 -0.000043 0.487745
nan nan nan 0.000000
nan nan nan 0.000000
nan nan nan 0.000000
nan nan nan 0.000000
244.218353 -331.895447 5.945581 1.000000
244.218369 -331.895447 4.812214 1.000000
244.218369 -331.895447 3.684915 1.000000
244.218369 -331.895416 2.561237 1.000000
244.218369 -331.895416 1.438763 1.000000
244.218369 -331.895447 0.315084 1.000000
249.547318 -323.545502 -0.000010 0.548284
253.316589 -317.639435 -0.000028 0.534926
255.415894 -314.350037 -0.000039 0.542525
256.756195 -312.249939 -0.000034 0.558333
257.687744 -310.790314 -0.000028 0.553064
258.374023 -309.714966 -0.000037 0.548774
nan nan nan 0.000000
nan nan nan 0.000000
nan nan nan 0.000000
nan nan nan 0.000000
244.154449 -331.553802 5.916503 1.000000
244.154449 -331.553802 4.791488 1.000000
244.154449 -331.553802 3.672498 1.000000
244.154449 -331.553802 2.557101 1.000000
244.154449 -331.553802 1.442899 1.000000
244.154449 -331.553802 0.327502 1.000000
249.404221 -323.453217 0.000008 0.535049
253.214493 -317.573792 -0.000030 0.528676
255.336639 -314.299225 -0.000062 0.561275
256.691559 -312.208527 -0.000056 0.565809
257.633362 -310.755371 -0.000031 0.539216
258.327087 -309.684875 -0.000057 0.505147
nan nan nan 0.000000
nan nan nan 0.000000
nan nan nan 0.000000
nan nan nan 0.000000
244.091461 -331.217163 5.888038 1.000000
244.091461 -331.217163 4.771199 1.000000
244.091461 -331.217163 3.660342 1.000000
244.091461 -331.217163 2.553052 1.000000
244.091461 -331.217163 1.446948 1.000000
244.091461 -331.217163 0.339657 1.000000
249.261581 -323.360199 0.000000 0.535172
253.113068 -317.507172 0.000008 0.535294
255.257904 -314.247681 -0.000043 0.539583
256.627380 -312.166504 -0.000039 0.518382
257.579224 -310.720001 -0.000031 0.505515
258.280457 -309.654358 -0.000042 0.502696
nan nan nan 0.000000
nan nan nan 0.000000
nan nan nan 0.000000
nan nan nan 0.000000
244.029373 -330.885345 5.860170 1.000000
244.029373 -330.885345 4.751338 1.000000
244.029388 -330.885345 3.648442 1.000000
244.029388 -330.885345 2.549088 1.000000
244.029388 -330.885345 1.450912 1.000000
244.029388 -330.885345 0.351557 1.000000
249.119553 -323.266296 -0.000017 0.533824
253.011810 -317.440216 -0.000009 0.545956
255.179413 -314.195709 -0.000051 0.533578
256.563416 -312.124084 -0.000038 0.555637
257.525330 -310.684265 -0.000035 0.537868
258.233948 -309.623596 -0.000061 0.506373
nan nan nan 0.000000
nan nan nan 0.000000
nan nan nan 0.000000
nan nan nan 0.000000
243.968170 -330.558258 5.832886 1.000000
243.968170 -330.558258 4.731891 1.000000
243.968170 -330.558258 3.636790 1.000000
243.968170 -330.558258 2.545207 1.000000
243.968170 -330.558258 1.454793 1.000000
243.968170 -330.558258 0.363209 1.000000
248.978226 -323.171265 -0.000026 0.537377
252.911087 -317.372498 -0.000017 0.525123
255.101395 -314.143036 -0.000033 0.523039
256.499695 -312.081329 -0.000057 0.549265
257.471710 -310.648193 -0.000032 0.539338
258.187775 -309.592377 -0.000026 0.553186
nan nan nan 0.000000
nan nan nan 0.000000
nan nan nan 0.000000
nan nan nan 0.000000
243.907822 -330.235718 5.806169 1.000000
243.907822 -330.235718 4.712848 1.000000
243.907822 -330.235718 3.625381 1.000000
243.907822 -330.235718 2.541406 1.000000
243.907822 -330.235718 1.458594 1.000000
243.907822 -330.235718 0.374619 1.000000
248.837708 -323.075073 -0.000013 0.530760
252.810974 -317.303894 0.000001 0.547181
255.023682 -314.089935 -0.000033 0.574265
256.436340 -312.038055 -0.000059 0.545221
257.418274 -310.611786 -0.000053 0.513235
258.141754 -309.560913 -0.000029 0.535907
nan nan nan 0.000000
nan nan nan 0.000000
nan nan nan 0.000000
nan nan nan 0.000000
243.761856 -330.041351 5.797367 1.000000
243.761856 -330.041351 4.706574 1.000000
243.761856 -330.041351 3.621622 1.000000
243.761856 -330.041351 2.540155 1.000000
243.761856 -330.041351 1.459846 1.000000
243.761856 -330.041351 0.378377 1.000000
248.697891 -322.977844 0.000002 0.534559
252.711288 -317.234650 0.000010 0.521201
254.946381 -314.036224 -0.000019 0.539216
256.373291 -311.994263 -0.000050 0.506618
257.365234 -310.574829 -0.000022 0.495833
258.095978 -309.529114 -0.000018 0.579167
nan nan nan 0.000000
nan nan nan 0.000000
nan nan nan 0.000000
nan nan nan 0.000000
243.436234 -330.102142 5.824649 1.000000
243.436234 -330.102142 4.726019 1.000000
243.436234 -330.102142 3.633273 1.000000
243.436234 -330.102142 2.544035 1.000000
243.436234 -330.102142 1.455964 1.000000
243.436234 -330.102142 0.366727 1.000000
248.558487 -322.880066 -0.000022 0.541054
252.611954 -317.164917 -0.000007 0.537500
254.869354 -313.982117 -0.000037 0.566912
256.310638 -311.950012 -0.000031 0.545956
257.312347 -310.537598 -0.000024 0.544976
258.050415 -309.496979 0.000001 0.532353
nan nan nan 0.000000
nan nan nan 0.000000
nan nan nan 0.000000
nan nan nan 0.000000
243.105881 -330.163818 5.852514 1.000000
243.105881 -330.163818 4.745881 1.000000
243.105881 -330.163818 3.645173 1.000000
243.105881 -330.163818 2.547999 1.000000
243.105881 -330.163818 1.452001 1.000000
243.105881 -330.163818 0.354827 1.000000
248.420013 -322.780975 -0.000010 0.536642
252.513260 -317.094269 0.000006 0.550980
254.792755 -313.927399 -0.000039 0.556740
256.248169 -311.905426 -0.000036 0.541912
257.259766 -310.500031 -0.000025 0.573407
258.005035 -309.464661 -0.000021 0.549265
nan nan nan 0.000000
nan nan nan 0.000000
nan nan nan 0.000000
nan nan nan 0.000000
242.770645 -330.226379 5.880981 1.000000
242.770660 -330.226379 4.766170 1.000000
242.770660 -330.226379 3.657328 1.000000
242.770645 -330.226379 2.552049 1.000000
242.770645 -330.226379 1.447951 1.000000
242.770660 -330.226379 0.342670 1.000000
248.282288 -322.680847 0.000007 0.533824
252.414978 -317.023071 -0.000001 0.540931
254.716599 -313.872101 -0.000029 0.540441
256.186188 -311.860199 0.000005 0.518627
257.207428 -310.462097 -0.000027 0.582353
257.959900 -309.431885 -0.000016 0.495588
nan nan nan 0.000000
nan nan nan 0.000000
nan nan nan 0.000000
nan nan nan 0.000000
242.430420 -330.289886 5.910063 1.000000
242.430420 -330.289886 4.786898 1.000000
242.430420 -330.289886 3.669749 1.000000
242.430420 -330.289886 2.556185 1.000000
242.430435 -330.289886 1.443815 1.000000
242.430420 -330.289886 0.330251 1.000000
248.145065 -322.579987 -0.000002 0.522672
252.317184 -316.951172 -0.000007 0.528186
254.640915 -313.816101 0.000008 0.537010
256.124329 -311.814758 -0.000002 0.538603
257.155334 -310.423798 -0.000029 0.513848
257.915039 -309.398865 -0.000018 0.577451
nan nan nan 0.000000
nan nan nan 0.000000
nan nan nan 0.000000
nan nan nan 0.000000
242.085037 -330.354340 5.939778 1.000000
242.085037 -330.354340 4.808078 1.000000
242.085037 -330.354340 3.682437 1.000000
242.085037 -330.354340 2.560412 1.000000
242.085037 -330.354340 1.439588 1.000000
242.085037 -330.354340 0.317563 1.000000
248.008545 -322.478180 -0.000010 0.541299
252.219925 -316.878571 -0.000009 0.530147
254.565475 -313.759827 0.000001 0.534681
256.062775 -311.768921 -0.000025 0.515441
257.103516 -310.385132 -0.000039 0.490319
257.870331 -309.365570 -0.000028 0.570711
nan nan nan 0.000000
nan nan nan 0.000000
nan nan nan 0.000000
nan nan nan 0.000000
241.734344 -330.419800 5.970140 1.000000
241.734344 -330.419800 4.829720 1.000000
241.734344 -330.419800 3.695404 1.000000
241.734344 -330.419800 2.564731 1.000000
241.734344 -330.419800 1.435269 1.000000
241.734344 -330.419800 0.304596 1.000000
247.872650 -322.375580 -0.000032 0.525858
252.123138 -316.805328 -0.000017 0.557108
254.490417 -313.703033 -0.000004 0.529534
256.001617 -311.722595 -0.000027 0.536887
257.051971 -310.346100 -0.000038 0.539706
257.825897 -309.331879 -0.000026 0.514828
nan nan nan 0.000000
nan nan nan 0.000000
nan nan nan 0.000000
nan nan nan 0.000000
nan nan nan 0.000000
241.378174 -330.486298 4.851838 1.000000
241.378174 -330.486298 3.708656 1.000000
241.378189 -330.486298 2.569145 1.000000
241.378189 -330.486298 1.430855 1.000000
241.378189 -330.486298 0.291343 1.000000
247.737732 -322.271698 -0.000021 0.532475
252.026962 -316.731293 -0.000006 0.531985
254.415848 -313.645569 0.000013 0.547794
255.940796 -311.675781 -0.000018 0.542279
257.000824 -310.306580 0.000002 0.558456
257.781677 -309.297913 -0.000032 0.578431
nan nan nan 0.000000
nan nan nan 0.000000
nan nan nan 0.000000
nan nan nan 0.000000
nan nan nan 0.000000
241.016403 -330.553833 4.874447 1.000000
241.016403 -330.553833 3.722201 1.000000
241.016388 -330.553833 2.573658 1.000000
241.016388 -330.553833 1.426342 1.000000
241.016388 -330.553833 0.277798 1.000000
247.603363 -322.167053 -0.000029 0.542770
251.931122 -316.656830 -0.000030 0.535662
254.341599 -313.587738 0.000005 0.568505
255.880264 -311.628632 -0.000020 0.502451
256.949799 -310.266907 -0.000022 0.509926
257.737762 -309.263611 -0.000014 0.507966
nan nan nan 0.000000
nan nan nan 0.000000
nan nan nan 0.000000
nan nan nan 0.000000
nan nan nan 0.000000
240.648804 -330.622437 4.897559 1.000000
240.648819 -330.622437 3.736049 1.000000
240.648819 -330.622437 2.578269 1.000000
240.648819 -330.622437 1.421731 1.000000
240.648819 -330.622437 0.263951 1.000000
247.469940 -322.061279 -0.000013 0.535172
251.835983 -316.581451 -0.000019 0.532230
254.267853 -313.529266 0.000021 0.522181
255.820084 -311.581024 -0.000022 0.525123
256.899139 -310.226746 -0.000005 0.530515
257.694000 -309.229095 -0.000037 0.549020
nan nan nan 0.000000
nan nan nan 0.000000
nan nan nan 0.000000
nan nan nan 0.000000
nan nan nan 0.000000
240.275238 -330.692169 4.921188 1.000000
240.275238 -330.692169 3.750206 1.000000
240.275238 -330.692169 2.582985 1.000000
240.275238 -330.692169 1.417015 1.000000
240.275238 -330.692169 0.249793 1.000000
247.337067 -321.954773 -0.000022 0.539338
251.741318 -316.505493 -0.000021 0.556250
254.194397 -313.470367 0.000013 0.520588
255.760193 -311.533051 -0.000033 0.537010
256.848694 -310.186279 -0.000015 0.539093
257.650513 -309.194214 -0.000039 0.536029
nan nan nan 0.000000
nan nan nan 0.000000
nan nan nan 0.000000
nan nan nan 0.000000
nan nan nan 0.000000
239.895508 -330.763062 4.945351 1.000000
239.895508 -330.763062 3.764684 1.000000
239.895508 -330.763062 2.587808 1.000000
239.895508 -330.763062 1.412192 1.000000
239.895508 -330.763062 0.235315 1.000000
247.205078 -321.847137 -0.000010 0.554044
251.647263 -316.428802 -0.000010 0.544485
254.121368 -313.410980 0.000009 0.549510
255.700745 -311.484528 -0.000016 0.531985
256.798523 -310.145477 -0.000017 0.535539
257.607361 -309.158905 -0.000001 0.568260
nan nan nan 0.000000
nan nan nan 0.000000
nan nan nan 0.000000
nan nan nan 0.000000
nan nan nan 0.000000
239.509445 -330.835083 4.970063 1.000000
239.509445 -330.835144 3.779490 1.000000
239.509445 -330.835114 2.592739 1.000000
239.509445 -330.835114 1.407260 1.000000
239.509445 -330.835144 0.220509 1.000000
247.073761 -321.738770 -0.000013 0.535662
251.553604 -316.351563 -0.000019 0.557353
254.048767 -313.351074 0.000001 0.541299
255.641632 -311.435608 0.000002 0.568873
256.748688 -310.104340 -0.000021 0.545221
257.564392 -309.123413 -0.000004 0.525245
nan nan nan 0.000000
nan nan nan 0.000000
nan nan nan 0.000000
nan nan nan 0.000000
nan nan nan 0.000000
239.116806 -330.908386 4.995341 1.000000
239.116806 -330.908386 3.794635 1.000000
239.116806 -330.908386 2.597785 1.000000
239.116806 -330.908386 1.402215 1.000000
239.116806 -330.908386 0.205364 1.000000
246.943115 -321.629547 -0.000024 0.527451
251.460541 -316.273682 -0.000023 0.551225
253.976593 -313.290680 -0.000003 0.528186
255.582764 -311.386383 -0.000011 0.504044
256.699097 -310.062866 -0.000026 0.578064
257.521606 -309.087708 -0.000028 0.489216
nan nan nan 0.000000
nan nan nan 0.000000
nan nan nan 0.000000
nan nan nan 0.000000
nan nan nan 0.000000
238.717422 -330.982941 5.021202 1.000000
238.717422 -330.982941 3.810129 1.000000
238.717422 -330.982941 2.602946 1.000000
238.717422 -330.982941 1.397054 1.000000
238.717422 -330.982941 0.189870 1.000000
246.813431 -321.519165 -0.000011 0.531127
251.368088 -316.195038 -0.000012 0.548039
253.904892 -313.229675 0.000008 0.529902
255.524338 -311.336609 0.000008 0.536642
256.649872 -310.020966 -0.000012 0.519608
257.479156 -309.051544 -0.000011 0.515196
nan nan nan 0.000000
nan nan nan 0.000000
nan nan nan 0.000000
nan nan nan 0.000000
nan nan nan 0.000000
238.311035 -331.058777 5.047662 1.000000
238.311035 -331.058777 3.825983 1.000000
238.311050 -331.058777 2.608226 1.000000
238.311050 -331.058777 1.391773 1.000000
238.311035 -331.058777 0.174017 1.000000
246.684341 -321.408081 -0.000021 0.539216
251.276123 -316.115845 -0.000016 0.548529
253.833466 -313.168365 -0.000016 0.527206
255.466202 -311.286560 0.000005 0.539338
256.600800 -309.978851 -0.000037 0.528676
257.436890 -309.015198 -0.000020 0.521569
nan nan nan 0.000000
198.756592 -375.616852 22.895765 1.000000
198.756592 -375.616852 19.604063 1.000000
198.756592 -375.616852 16.351345 1.000000
198.756592 -375.616852 13.130069 1.000000
237.897461 -331.135986 5.074743 1.000000
237.897476 -331.135986 3.842207 1.000000
237.897476 -331.135986 2.613631 1.000000
237.897476 -331.135986 1.386369 1.000000
237.897476 -331.135986 0.157792 1.000000
246.556076 -321.296112 -0.000026 0.531740
251.184784 -316.035919 -0.000005 0.542647
253.762634 -313.106354 -0.000004 0.530760
255.408463 -311.235992 0.000016 0.544363
256.552185 -309.936249 -0.000020 0.524877
257.394897 -308.978516 -0.000024 0.567157
nan nan nan 0.000000
198.383011 -375.021027 22.852966 1.000000
198.383026 -375.021027 19.568005 1.000000
198.383011 -375.021027 16.321953 1.000000
198.383041 -375.021027 13.107267 1.000000
237.476471 -331.214569 5.102459 1.000000
237.476471 -331.214569 3.858814 1.000000
237.476471 -331.214569 2.619163 1.000000
237.476471 -331.214569 1.380838 1.000000
237.476471 -331.214569 0.141185 1.000000
246.428543 -321.183258 -0.000037 0.548284
251.093887 -315.955505 -0.000016 0.547426
253.692169 -313.043945 -0.000010 0.521691
255.350922 -311.185211 -0.000010 0.551348
256.503754 -309.893433 -0.000031 0.538725
257.353180 -308.941589 -0.000029 0.544608
nan nan nan 0.000000
198.010986 -374.427612 22.811348 1.000000
198.010986 -374.427612 19.532948 1.000000
198.010971 -374.427612 16.293371 1.000000
198.010986 -374.427612 13.085106 1.000000
237.047775 -331.294586 5.130835 1.000000
237.047791 -331.294586 3.875814 1.000000
237.047775 -331.294586 2.624825 1.000000
237.047775 -331.294586 1.375175 1.000000
237.047791 -331.294586 0.124185 1.000000
246.301971 -321.069336 -0.000026 0.538235
251.003723 -315.874237 0.000002 0.537623
253.622208 -312.980957 0.000003 0.533701
255.293900 -311.133911 0.000001 0.548284
256.455780 -309.850067 0.000005 0.546324
257.311768 -308.904266 -0.000011 0.561642
nan nan nan 0.000000
197.640396 -373.836517 22.770916 1.000000
197.640381 -373.836548 19.498882 1.000000
197.640366 -373.836548 16.265602 1.000000
197.640396 -373.836517 13.063565 1.000000
236.611160 -331.376099 5.159889 1.000000
236.611160 -331.376068 3.893223 1.000000
236.611160 -331.376068 2.630624 1.000000
236.611160 -331.376099 1.369377 1.000000
236.611160 -331.376068 0.106776 1.000000
246.176025 -320.954742 -0.000037 0.545588
250.913940 -315.792572 -0.000010 0.532475
253.552582 -312.917633 -0.000010 0.527451
255.237167 -311.082214 -0.000002 0.557598
256.407990 -309.806519 -0.000002 0.537868
257.270538 -308.866760 -0.000023 0.545098
nan nan nan 0.000000
197.271194 -373.247742 22.731647 1.000000
197.271210 -373.247742 19.465794 1.000000
197.271210 -373.247711 16.238625 1.000000
197.271210 -373.247711 13.042645 1.000000
236.166336 -331.459137 5.189648 1.000000
236.166351 -331.459106 3.911051 1.000000
236.166336 -331.459137 2.636563 1.000000
236.166336 -331.459106 1.363438 1.000000
236.166336 -331.459106 0.088948 1.000000
246.051117 -320.838989 -0.000020 0.553554
250.824875 -315.710114 0.000002 0.584559
253.483551 -312.853638 0.000009 0.535294
255.180862 -311.030060 0.000008 0.530882
256.360565 -309.762604 0.000011 0.500245
257.229614 -308.828949 -0.000028 0.558701
nan nan nan 0.000000
196.903397 -372.661133 22.693531 1.000000
