# This PCD file was generated using the MATLABÂ® pcwrite function
# from Computer Vision ToolboxÂ®.
# .PCD v.7 - Point Cloud Data file format
VERSION .7
FIELDS x y z intensity
SIZE 4 4 4 4
TYPE F F F F
COUNT 1 1 1 1
WIDTH 1226
HEIGHT 1
VIEWPOINT 0 0 0 1 0 0 0
POINTS 1226
DATA ascii
350.476105 -321.890869 4.054280 1.000000
350.554443 -321.779297 2.686502 0.568995
350.554413 -321.779358 1.313499 0.701348
349.730652 -322.952576 0.009449 1.000000
340.464020 -336.150391 -0.000064 0.530882
336.438171 -341.884125 -0.000153 0.558578
334.195465 -345.078247 -0.000107 0.579412
332.763611 -347.117554 -0.000041 0.552083
331.768860 -348.534271 -0.000139 0.539828
331.035614 -349.578583 -0.000085 0.527574
nan nan nan 0.000000
nan nan nan 0.000000
350.630829 -322.176758 9.582445 0.625245
350.630798 -322.176819 8.181417 0.689338
350.630737 -322.176910 6.793936 0.616054
350.630707 -322.176971 5.416873 0.679289
350.630676 -322.177002 4.047188 0.661887
350.630615 -322.177094 2.681908 0.580760
350.630585 -322.177155 1.318094 0.669853
350.073761 -322.958527 -0.000046 0.538725
340.602570 -336.249390 0.000003 0.551593
336.536926 -341.954681 -0.000087 0.538603
334.271973 -345.133087 -0.000027 0.562500
332.826019 -347.162140 0.000027 0.528799
331.821442 -348.571899 -0.000063 0.550245
331.080963 -349.611023 -0.000008 0.508456
nan nan nan 0.000000
nan nan nan 0.000000
350.705994 -322.569305 9.532394 0.598897
350.705963 -322.569366 8.140617 0.551348
350.705902 -322.569458 6.762293 0.612010
350.705841 -322.569489 5.394320 0.667402
350.705811 -322.569550 4.033675 0.638113
350.705750 -322.569641 2.677407 0.618873
350.705719 -322.569672 1.322595 0.735539
350.305389 -323.123230 -0.000109 0.541299
340.741272 -336.348206 -0.000049 0.528554
336.635803 -342.025085 -0.000144 0.543260
334.348694 -345.187622 -0.000088 0.536887
332.888855 -347.206238 -0.000120 0.527206
331.874115 -348.609375 -0.000121 0.528309
331.126343 -349.643341 -0.000063 0.508088
nan nan nan 0.000000
nan nan nan 0.000000
350.780182 -322.956696 9.483366 0.608701
350.780121 -322.956787 8.100647 0.542770
350.780060 -322.956818 6.731297 0.589216
350.780029 -322.956909 5.372225 0.675368
350.779968 -322.956970 4.020437 0.557598
350.779907 -322.957031 2.672997 0.599877
350.779877 -322.957092 1.327004 0.644485
350.535278 -323.290405 -0.000121 0.532475
340.879089 -336.448242 -0.000073 0.542279
336.734039 -342.096375 -0.000167 0.532230
334.424866 -345.242950 -0.000107 0.539461
332.950928 -347.251373 -0.000138 0.502819
331.926422 -348.647400 -0.000138 0.582966
331.171448 -349.676117 -0.000081 0.502451
nan nan nan 0.000000
nan nan nan 0.000000
350.745789 -323.483582 9.402554 1.000000
350.853333 -323.339203 8.061485 0.627206
350.778839 -323.439178 6.686593 1.000000
350.853210 -323.339325 5.350580 0.672794
350.763275 -323.460114 4.000073 1.000000
350.853119 -323.339447 2.668677 0.629044
350.853058 -323.339508 1.331324 0.655637
350.763489 -323.459808 -0.000093 0.532108
341.015778 -336.549744 -0.000045 0.549632
336.831482 -342.168762 -0.000137 0.541789
334.500427 -345.299072 -0.000079 0.541422
333.012543 -347.297119 -0.000103 0.571691
331.978302 -348.685944 -0.000102 0.559559
331.216400 -349.709106 -0.000129 0.530637
nan nan nan 0.000000
nan nan nan 0.000000
350.895752 -323.756256 9.379244 1.000000
350.925598 -323.716736 8.023117 0.656863
350.895691 -323.756317 6.665473 1.000000
350.925507 -323.716888 5.329370 0.639461
350.895569 -323.756500 3.992327 1.000000
350.925415 -323.717010 2.664445 0.733333
350.925354 -323.717041 1.335557 0.650613
350.991150 -323.630005 -0.000116 0.534069
341.152130 -336.651764 -0.000062 0.528186
336.928650 -342.241516 -0.000148 0.516544
334.575775 -345.355469 -0.000093 0.529412
333.073975 -347.343079 -0.000122 0.538358
332.030090 -348.724670 -0.000119 0.590931
331.261047 -349.742462 -0.000147 0.534436
nan nan nan 0.000000
nan nan nan 0.000000
350.967041 -324.128601 9.333180 1.000000
350.996948 -324.089569 7.985520 0.598039
350.966980 -324.128693 6.636352 1.000000
350.996887 -324.089722 5.308588 0.686887
350.966858 -324.128876 3.979890 1.000000
350.996765 -324.089844 2.660297 0.620833
350.996735 -324.089874 1.339704 0.661520
351.216461 -323.803253 -0.000046 0.540074
341.287170 -336.755554 0.000006 0.530025
337.024872 -342.315491 -0.000080 0.525613
334.650391 -345.412872 -0.000020 0.555147
333.134796 -347.389893 -0.000051 0.558946
332.081329 -348.764099 -0.000051 0.570098
331.305237 -349.776489 -0.000072 0.556618
nan nan nan 0.000000
nan nan nan 0.000000
351.037445 -324.496399 9.288044 1.000000
351.067474 -324.457825 7.948678 0.578064
351.037415 -324.496460 6.607813 1.000000
351.067352 -324.457947 5.288223 0.581373
351.037262 -324.496613 3.967705 1.000000
351.067261 -324.458038 2.656232 0.606127
351.067230 -324.458099 1.343768 0.651838
351.441650 -323.976654 -0.000065 0.534926
341.422089 -336.859436 -0.000014 0.526348
337.120697 -342.389954 -0.000036 0.537010
334.724976 -345.470276 -0.000041 0.556863
333.195587 -347.436737 -0.000061 0.533578
332.132355 -348.803772 -0.000003 0.549020
331.349396 -349.810486 -0.000090 0.564338
nan nan nan 0.000000
nan nan nan 0.000000
351.106995 -324.859680 9.243810 1.000000
351.137085 -324.821533 7.912574 0.730392
351.106934 -324.859772 6.579847 1.000000
351.136963 -324.821655 5.268266 0.677206
351.106812 -324.859924 3.955762 1.000000
351.136902 -324.821777 2.652249 0.646569
351.136841 -324.821838 1.347751 0.698407
351.665710 -324.151581 -0.000087 0.539216
341.556305 -336.964233 -0.000035 0.542157
337.216370 -342.464661 -0.000059 0.546078
334.799530 -345.527771 -0.000151 0.541667
333.256042 -347.483978 -0.000079 0.547426
332.183563 -348.843262 -0.000108 0.539583
331.393311 -349.844818 -0.000111 0.512745
nan nan nan 0.000000
nan nan nan 0.000000
351.175690 -325.218597 9.200458 1.000000
351.205872 -325.180908 7.877189 0.611152
351.175659 -325.218689 6.552438 1.000000
351.205780 -325.181030 5.248707 0.592402
351.175507 -325.218842 3.944058 1.000000
351.205719 -325.181152 2.648346 0.633088
351.205658 -325.181183 1.351655 0.631127
351.888489 -324.328064 -0.000110 0.529779
341.689789 -337.069977 -0.000056 0.535049
337.311523 -342.540039 -0.000078 0.557476
334.873291 -345.586273 -0.000160 0.532475
333.316193 -347.531647 -0.000100 0.520833
332.234222 -348.883423 -0.000127 0.539216
331.436981 -349.879456 -0.000114 0.546936
nan nan nan 0.000000
nan nan nan 0.000000
351.273926 -325.535950 9.166723 0.672426
351.273865 -325.536011 7.842508 0.659559
351.273804 -325.536041 6.531102 0.616667
351.273773 -325.536133 5.229537 0.616789
351.273712 -325.536163 3.934948 0.649755
351.273682 -325.536224 2.644521 0.581250
351.273621 -325.536285 1.355480 0.616422
352.109528 -324.506775 -0.000090 0.533701
341.822815 -337.176300 -0.000116 0.534926
337.405884 -342.616364 -0.000060 0.516544
334.946503 -345.645447 -0.000142 0.533946
333.375854 -347.579895 -0.000078 0.529657
332.284485 -348.924103 -0.000097 0.508088
331.480316 -349.914520 -0.000095 0.566912
nan nan nan 0.000000
nan nan nan 0.000000
351.341095 -325.886871 9.125025 0.532598
351.341034 -325.886963 7.808519 0.573775
351.341003 -325.887024 6.504738 0.573897
351.340942 -325.887054 5.210747 0.567279
351.340912 -325.887115 3.923691 0.581373
351.340881 -325.887177 2.640770 0.537132
351.340820 -325.887207 1.359230 0.648529
352.329834 -324.686340 -0.000112 0.532721
341.954803 -337.283875 -0.000139 0.552206
337.499908 -342.693146 -0.000067 0.527328
335.019440 -345.704956 -0.000160 0.525368
333.435303 -347.628418 -0.000089 0.551471
332.334564 -348.964966 -0.000114 0.527451
331.523529 -349.949738 -0.000114 0.535172
nan nan nan 0.000000
nan nan nan 0.000000
351.407501 -326.233826 9.084154 0.659436
351.407440 -326.233856 7.775200 0.681495
351.407410 -326.233917 6.478899 0.665319
351.407349 -326.233978 5.192331 0.653431
351.407318 -326.234009 3.912657 0.674755
351.407288 -326.234070 2.637095 0.590686
351.407227 -326.234131 1.362906 0.610784
351.407166 -326.234192 0.087354 0.641544
342.085358 -337.393250 -0.000069 0.531985
337.592957 -342.771057 -0.000001 0.530392
335.091583 -345.765411 -0.000089 0.558578
333.494141 -347.677704 -0.000019 0.561397
332.384125 -349.006470 -0.000046 0.513971
331.566254 -349.985596 -0.000038 0.525735
nan nan nan 0.000000
nan nan nan 0.000000
351.610229 -326.414948 9.082682 0.650000
351.608063 -326.417542 7.773504 0.642524
351.605865 -326.420105 6.477206 0.686275
351.603729 -326.422668 5.190855 0.696569
351.601563 -326.425201 3.911612 0.660784
351.599426 -326.427734 2.636695 0.636029
351.597290 -326.430267 1.363359 0.658578
351.595093 -326.432831 0.088878 0.613603
342.216125 -337.502319 -0.000128 0.533946
337.686127 -342.848816 -0.000058 0.530025
335.163910 -345.825684 -0.000150 0.538480
333.553040 -347.726868 -0.000078 0.532843
332.433746 -349.047943 -0.000095 0.574265
331.609100 -350.021179 -0.000123 0.586029
nan nan nan 0.000000
nan nan nan 0.000000
352.034515 -326.338196 9.143415 0.646691
352.032257 -326.340820 7.823008 0.630147
352.030060 -326.343414 6.515592 0.583824
352.027832 -326.345978 5.218211 0.599510
352.025604 -326.348541 3.928000 0.655760
352.023438 -326.351105 2.642152 0.584314
352.021210 -326.353699 1.357903 0.629412
352.018982 -326.356293 0.072500 0.658824
342.345123 -337.613525 -0.000059 0.550613
337.778107 -342.928040 0.000010 0.561765
335.235138 -345.887207 -0.000069 0.535784
333.611206 -347.776978 -0.000010 0.549877
332.482727 -349.090118 -0.000027 0.577328
331.651306 -350.057617 -0.000044 0.512255
nan nan nan 0.000000
nan nan nan 0.000000
352.466156 -326.260101 9.205557 0.621446
352.463837 -326.262756 7.873659 0.601716
352.461548 -326.265381 6.554867 0.641544
352.459290 -326.267975 5.246200 0.689093
352.457031 -326.270599 3.944765 0.608211
352.454773 -326.273163 2.647737 0.604044
352.452515 -326.275787 1.352321 0.649755
352.450195 -326.278381 0.055744 0.655637
342.474457 -337.724274 -0.000130 0.554657
337.870239 -343.007050 -0.000059 0.525735
335.306641 -345.948456 -0.000139 0.522304
333.669739 -347.826569 -0.000154 0.518873
332.531799 -349.132233 -0.000094 0.538358
331.693634 -350.093903 -0.000113 0.540196
nan nan nan 0.000000
nan nan nan 0.000000
352.905396 -326.180634 9.269144 0.612990
352.903015 -326.183319 7.925488 0.635907
352.900635 -326.185974 6.595055 0.600613
352.898346 -326.188599 5.274839 0.616299
352.896027 -326.191223 3.961922 0.627941
352.893677 -326.193848 2.653450 0.662132
352.891357 -326.196472 1.346608 0.643505
352.889038 -326.199127 0.038597 0.644730
342.601837 -337.837280 -0.000058 0.546201
337.961060 -343.087524 0.000011 0.531005
335.377045 -346.010925 -0.000067 0.520588
333.727142 -347.877502 -0.000082 0.566299
332.580170 -349.175079 -0.000023 0.527941
331.735352 -350.130859 -0.000042 0.539461
nan nan nan 0.000000
nan nan nan 0.000000
353.352448 -326.099762 9.334225 0.567157
353.350006 -326.102448 7.978535 0.625735
353.347595 -326.105133 6.636187 0.598162
353.345215 -326.107788 5.304152 0.610539
353.342865 -326.110474 3.979481 0.597549
353.340454 -326.113129 2.659297 0.632108
353.338043 -326.115814 1.340761 0.562745
353.335663 -326.118469 0.021047 0.634436
342.729614 -337.949860 -0.000129 0.534926
338.052155 -343.167786 -0.000059 0.534436
335.447418 -346.073456 -0.000076 0.538235
333.784729 -347.928223 -0.000152 0.540931
332.628632 -349.217896 -0.000080 0.551961
331.777161 -350.167755 -0.000107 0.542525
nan nan nan 0.000000
nan nan nan 0.000000
353.807617 -326.017365 9.400848 0.597917
353.805145 -326.020111 8.032838 0.567524
353.802673 -326.022858 6.678295 0.668260
353.800201 -326.025543 5.334157 0.629412
353.797760 -326.028229 3.997455 0.591299
353.795319 -326.030914 2.665283 0.568873
353.792877 -326.033630 1.334776 0.653799
353.790405 -326.036346 0.003083 0.684069
342.855865 -338.064148 -0.000109 0.538480
338.142578 -343.248749 -0.000117 0.514706
335.517181 -346.136627 -0.000057 0.506740
333.841614 -347.979736 -0.000130 0.547672
332.676575 -349.261261 -0.000061 0.519608
331.818451 -350.205200 -0.000076 0.520466
nan nan nan 0.000000
nan nan nan 0.000000
354.271149 -325.933502 9.469059 0.623039
354.268616 -325.936279 8.088434 0.663235
354.266083 -325.939026 6.721405 0.680760
354.263550 -325.941772 5.364878 0.668505
354.261047 -325.944489 4.015857 0.685417
354.258514 -325.947235 2.671412 0.681618
354.255981 -325.949982 1.328649 0.638726
354.042969 -326.181030 -0.000052 0.536887
342.981232 -338.179443 -0.000076 0.532230
338.231995 -343.330811 -0.000097 0.522059
335.586487 -346.200348 -0.000026 0.563358
333.898102 -348.031677 -0.000101 0.534314
332.724152 -349.305023 -0.000029 0.517524
331.859497 -350.242889 -0.000057 0.564828
nan nan nan 0.000000
nan nan nan 0.000000
354.743347 -325.848083 9.538910 0.666299
354.740723 -325.850891 8.145369 0.603309
354.738129 -325.853668 6.765552 0.669608
354.735535 -325.856445 5.396338 0.684069
354.676910 -325.919128 4.030674 1.000000
354.647980 -325.950104 2.675714 1.000000
354.727783 -325.864746 1.322375 0.635172
354.250946 -326.374756 -0.000031 0.536397
343.105865 -338.295502 -0.000056 0.539706
338.320801 -343.413544 -0.000075 0.523407
335.655396 -346.264465 -0.000006 0.521201
333.954285 -348.083984 -0.000081 0.544976
332.771484 -349.349091 -0.000009 0.560049
331.900299 -350.280884 -0.000034 0.499877
nan nan nan 0.000000
nan nan nan 0.000000
355.224487 -325.761017 9.610455 0.601961
355.221771 -325.763885 8.203684 0.628064
355.219116 -325.766693 6.810768 0.589216
355.216431 -325.769470 5.428557 0.585784
355.156830 -325.832367 4.049936 1.000000
355.127380 -325.863434 2.682124 1.000000
355.208466 -325.777893 1.315948 0.698284
354.458862 -326.568542 -0.000101 0.533211
343.230438 -338.411591 -0.000128 0.547672
338.409576 -343.496338 -0.000145 0.539951
335.724213 -346.328674 -0.000070 0.565686
334.010376 -348.136322 -0.000144 0.518873
332.819000 -349.392914 -0.000160 0.527696
331.941040 -350.318939 -0.000089 0.504289
nan nan nan 0.000000
nan nan nan 0.000000
355.714874 -325.672272 9.683747 0.645343
355.712067 -325.675171 8.263422 0.660539
355.709351 -325.678040 6.857090 0.677328
355.706573 -325.680908 5.461566 0.672917
355.645935 -325.743988 4.069670 1.000000
355.615967 -325.775146 2.688689 1.000000
355.698425 -325.689392 1.309363 0.636397
354.664154 -326.765106 -0.000081 0.538971
343.353394 -338.529419 -0.000103 0.548897
338.497253 -343.580292 -0.000125 0.550368
335.792206 -346.393768 -0.000053 0.530637
334.065796 -348.189392 -0.000124 0.514951
332.865723 -349.437622 -0.000138 0.573775
331.981293 -350.357513 -0.000067 0.536520
nan nan nan 0.000000
nan nan nan 0.000000
356.214783 -325.581848 9.758847 0.611274
356.211975 -325.584747 8.324636 0.655270
356.209106 -325.587646 6.904553 0.684436
356.206299 -325.590546 5.495389 0.630147
356.130402 -325.668365 4.088895 0.366912
356.130341 -325.668457 2.695799 0.357108
356.197906 -325.599152 1.302617 0.615686
354.868042 -326.963135 -0.000059 0.534681
343.475555 -338.648041 -0.000084 0.536520
338.584320 -343.664825 -0.000101 0.527574
335.859741 -346.459351 -0.000030 0.534191
334.120880 -348.242828 -0.000107 0.538235
332.912079 -349.482697 -0.000108 0.540319
332.021301 -350.396301 -0.000047 0.600245
nan nan nan 0.000000
nan nan nan 0.000000
356.724640 -325.489563 9.835819 0.651103
356.721680 -325.492523 8.387371 0.601838
356.718781 -325.495483 6.953195 0.607843
356.715881 -325.498413 5.530052 0.604534
356.712982 -325.501312 4.114801 0.614951
356.710114 -325.504242 2.704364 0.604412
356.707245 -325.507141 1.295703 0.687868
355.070587 -327.162537 -0.000039 0.534436
343.596924 -338.767517 -0.000064 0.551716
338.670807 -343.750000 -0.000083 0.548407
335.926788 -346.525391 -0.000010 0.527083
334.175262 -348.296997 -0.000015 0.560294
332.958130 -349.528046 -0.000089 0.522059
332.061249 -350.435242 -0.000103 0.596814
nan nan nan 0.000000
nan nan nan 0.000000
357.244690 -325.395447 9.914720 0.630760
357.241699 -325.398468 8.451683 0.645343
357.238708 -325.401459 7.003060 0.670833
357.235718 -325.404419 5.565586 0.670343
357.232727 -325.407379 4.136088 0.642892
357.229797 -325.410339 2.711452 0.629167
357.226837 -325.413269 1.288616 0.661152
355.271698 -327.363373 -0.000018 0.532966
343.717407 -338.887848 -0.000043 0.542034
338.756622 -343.835846 -0.000049 0.534681
335.993774 -346.591553 -0.000067 0.527083
334.229584 -348.351166 0.000004 0.541544
333.003876 -349.573761 -0.000064 0.528799
332.100647 -350.474640 -0.000077 0.510172
nan nan nan 0.000000
nan nan nan 0.000000
357.775360 -325.299438 9.995619 0.616912
357.772278 -325.302490 8.517616 0.577328
357.769196 -325.305511 7.054187 0.615931
357.766144 -325.308533 5.602022 0.594608
357.763092 -325.311523 4.157912 0.652206
357.760040 -325.314514 2.718721 0.572794
357.757019 -325.317505 1.281349 0.637010
355.472687 -327.564331 -0.000087 0.540686
343.837860 -339.008240 -0.000111 0.547181
338.842438 -343.921661 -0.000116 0.554779
336.060333 -346.658142 -0.000133 0.542034
334.283844 -348.405457 -0.000062 0.510784
333.049561 -349.619446 -0.000130 0.499755
332.140076 -350.514069 -0.000141 0.560662
nan nan nan 0.000000
nan nan nan 0.000000
358.317047 -325.201447 10.078588 0.639828
358.313873 -325.204529 8.585242 0.612132
358.310669 -325.207611 7.106621 0.627819
358.307556 -325.210632 5.639385 0.628431
358.304413 -325.213684 4.180295 0.597181
358.301270 -325.216705 2.726175 0.598529
358.298187 -325.219727 1.273896 0.662500
355.670410 -327.768524 -0.000026 0.537255
343.956329 -339.130585 -0.000051 0.536397
338.926880 -344.008850 -0.000058 0.526961
336.125824 -346.725739 -0.000073 0.575490
334.337219 -348.460571 0.000000 0.535294
333.094543 -349.665894 -0.000071 0.576838
332.178864 -350.554077 -0.000088 0.561642
nan nan nan 0.000000
nan nan nan 0.000000
358.717957 -325.246887 10.125390 0.612377
358.717896 -325.246948 8.624045 0.699020
358.717834 -325.246979 7.137215 0.639828
358.717804 -325.247040 5.661544 0.617525
358.717743 -325.247101 4.193781 0.708211
358.717682 -325.247131 2.730737 0.641667
358.717621 -325.247192 1.269264 0.654412
355.868591 -327.972260 -0.000094 0.541422
344.075043 -339.252655 -0.000119 0.544853
339.011505 -344.095856 -0.000124 0.547059
336.191467 -346.793213 -0.000140 0.546446
334.390747 -348.515594 -0.000069 0.525123
333.139587 -349.712311 -0.000122 0.513726
332.217682 -350.594086 -0.000139 0.562132
nan nan nan 0.000000
nan nan nan 0.000000
358.787445 -325.609894 10.089069 0.648162
358.787354 -325.609955 8.594435 0.656373
358.787323 -325.609985 7.114249 0.662990
358.787262 -325.610046 5.645175 0.624265
358.787201 -325.610077 4.183975 0.672304
358.787140 -325.610168 2.727471 0.621324
358.787140 -325.610199 1.272531 0.675123
356.063446 -328.179199 -0.000034 0.536765
344.191803 -339.376617 -0.000059 0.527819
339.094727 -344.184235 -0.000063 0.516667
336.256012 -346.861755 -0.000082 0.542279
334.443268 -348.571503 0.000004 0.556863
333.183899 -349.759369 -0.000064 0.537623
332.255890 -350.634674 -0.000079 0.524265
nan nan nan 0.000000
nan nan nan 0.000000
358.856323 -325.969696 10.053460 0.622059
358.856262 -325.969727 8.565405 0.566054
358.856201 -325.969788 7.091737 0.531863
358.856140 -325.969849 5.629132 0.626225
358.856079 -325.969879 4.174361 0.569975
358.856049 -325.969940 2.724269 0.571936
358.855988 -325.969971 1.275733 0.615074
356.257416 -328.386932 -0.000013 0.539706
344.307922 -339.501190 -0.000025 0.558456
339.177582 -344.272919 -0.000044 0.518382
336.320160 -346.930603 -0.000046 0.514828
334.495667 -348.627594 0.000020 0.545343
333.228058 -349.806610 -0.000045 0.554289
332.293945 -350.675415 -0.000058 0.518995
nan nan nan 0.000000
nan nan nan 0.000000
359.215729 -326.059296 10.090444 0.643260
359.212311 -326.062469 8.594875 0.642402
359.208923 -326.065552 7.114073 0.671078
359.205566 -326.068634 5.644681 0.656618
359.202209 -326.071716 4.183458 0.658946
359.198883 -326.074768 2.727226 0.616054
359.195557 -326.077820 1.272848 0.663971
356.450684 -328.595337 -0.000042 0.534926
344.423706 -339.626068 -0.000053 0.530515
339.260071 -344.361938 -0.000069 0.524510
336.384186 -346.999634 -0.000077 0.540564
334.548187 -348.683533 -0.000089 0.553064
333.271790 -349.854218 -0.000017 0.558456
332.331848 -350.716278 -0.000082 0.569608
nan nan nan 0.000000
nan nan nan 0.000000
359.794281 -325.954620 10.181095 0.595588
359.790741 -325.957794 8.668762 0.587500
359.787262 -325.960938 7.171364 0.609559
359.783783 -325.964081 5.685507 0.610784
359.780365 -325.967194 4.207914 0.589951
359.776917 -325.970276 2.735370 0.615809
359.773499 -325.973389 1.264705 0.635784
356.641754 -328.805725 -0.000022 0.538603
344.538177 -339.752106 -0.000033 0.539461
339.341705 -344.451813 -0.000049 0.557353
336.447449 -347.069336 -0.000053 0.541176
334.599762 -348.740326 -0.000070 0.544363
333.315216 -349.902069 0.000014 0.568873
332.369293 -350.757568 -0.000053 0.492647
nan nan nan 0.000000
nan nan nan 0.000000
360.385956 -325.847534 10.274214 0.627083
359.929840 -326.254272 8.654732 1.000000
359.929840 -326.254272 7.161021 1.000000
359.929840 -326.254272 5.678519 1.000000
359.929840 -326.254272 4.203955 1.000000
359.929840 -326.254272 2.734128 1.000000
359.929840 -326.254272 1.265873 1.000000
356.832092 -329.016815 -0.000049 0.537500
344.652222 -339.878571 -0.000062 0.537623
339.422974 -344.541931 -0.000078 0.534559
336.510498 -347.139221 -0.000083 0.528431
334.651154 -348.797333 -0.000094 0.509069
333.358521 -349.950104 -0.000012 0.527819
332.406616 -350.799011 -0.000077 0.524510
nan nan nan 0.000000
nan nan nan 0.000000
nan nan nan 0.000000
359.994324 -326.614655 8.626451 1.000000
359.994324 -326.614655 7.139086 1.000000
359.994324 -326.614655 5.662886 1.000000
359.994324 -326.614655 4.194590 1.000000
359.994324 -326.614655 2.731008 1.000000
359.994324 -326.614655 1.268993 1.000000
357.020233 -329.229858 -0.000029 0.534559
344.764923 -340.006256 -0.000042 0.546078
339.503204 -344.633026 -0.000044 0.528309
336.572784 -347.209808 -0.000059 0.542402
334.701935 -348.854858 -0.000074 0.575123
333.401306 -349.998566 0.000008 0.554289
332.443512 -350.840790 -0.000056 0.537990
nan nan nan 0.000000
nan nan nan 0.000000
nan nan nan 0.000000
360.058197 -326.972015 8.598724 1.000000
360.058197 -326.972015 7.117587 1.000000
360.058228 -326.971985 5.647561 1.000000
360.058197 -326.971985 4.185408 1.000000
360.058197 -326.972015 2.727948 1.000000
360.058197 -326.972015 1.272051 1.000000
357.207397 -329.443756 -0.000044 0.531618
344.887939 -340.124939 -0.001237 1.000000
339.583160 -344.724365 -0.000058 0.531495
336.634766 -347.280670 -0.000073 0.547304
334.752441 -348.912689 -0.000074 0.508456
333.443909 -350.047211 -0.000009 0.552574
332.480194 -350.882751 -0.000068 0.536887
nan nan nan 0.000000
nan nan nan 0.000000
nan nan nan 0.000000
360.121613 -327.326385 8.571552 1.000000
360.121613 -327.326385 7.096512 1.000000
360.121613 -327.326385 5.632540 1.000000
360.121613 -327.326385 4.176408 1.000000
360.121613 -327.326385 2.724952 1.000000
360.121613 -327.326385 1.275048 1.000000
357.393250 -329.658783 -0.000071 0.542157
344.988403 -340.263245 -0.000082 0.533701
339.662506 -344.816162 -0.000087 0.535784
336.696350 -347.351837 -0.000102 0.513971
334.802582 -348.970734 -0.000102 0.561887
333.486450 -350.095886 -0.000118 0.502083
332.516663 -350.924927 -0.000097 0.532721
nan nan nan 0.000000
nan nan nan 0.000000
nan nan nan 0.000000
360.184448 -327.677917 8.544920 1.000000
360.184448 -327.677917 7.075859 1.000000
360.184479 -327.677917 5.617819 1.000000
360.184479 -327.677917 4.167587 1.000000
360.184448 -327.677917 2.722013 1.000000
360.184448 -327.677917 1.277987 1.000000
357.576019 -329.876434 0.000002 0.535417
345.098053 -340.393524 -0.000023 0.528064
339.740662 -344.909027 -0.000028 0.536274
336.756866 -347.423920 -0.000029 0.534314
334.851990 -349.029449 -0.000043 0.529289
333.528076 -350.145325 -0.000058 0.517279
332.552399 -350.967743 0.000022 0.535662
nan nan nan 0.000000
nan nan nan 0.000000
nan nan nan 0.000000
360.246826 -328.026581 8.518819 1.000000
360.246826 -328.026581 7.055616 1.000000
360.246826 -328.026581 5.603392 1.000000
360.246826 -328.026581 4.158942 1.000000
360.246826 -328.026581 2.719135 1.000000
360.246826 -328.026581 1.280866 1.000000
357.759460 -330.093567 -0.000063 0.538725
345.207977 -340.523621 -0.000088 0.540441
339.818970 -345.001770 -0.000090 0.545466
336.817627 -347.495850 -0.000093 0.522426
334.901550 -349.088074 -0.000108 0.506863
333.569733 -350.194763 -0.000106 0.536765
332.588348 -351.010284 -0.000040 0.539338
nan nan nan 0.000000
nan nan nan 0.000000
nan nan nan 0.000000
360.308685 -328.372498 8.493239 1.000000
360.308685 -328.372528 7.035778 1.000000
360.308685 -328.372528 5.589252 1.000000
360.308685 -328.372528 4.150472 1.000000
360.308685 -328.372498 2.716312 1.000000
360.308685 -328.372498 1.283688 1.000000
357.939423 -330.313507 -0.000005 0.536029
345.315796 -340.655426 -0.000028 0.546569
339.895844 -345.095703 -0.000033 0.539216
336.877228 -347.568695 -0.000036 0.523407
334.950134 -349.147461 -0.000050 0.524510
333.610687 -350.244812 -0.000050 0.524510
332.623901 -351.053223 -0.000064 0.526838
nan nan nan 0.000000
nan nan nan 0.000000
nan nan nan 0.000000
360.370087 -328.715729 8.468176 1.000000
360.370056 -328.715729 7.016339 1.000000
360.370056 -328.715729 5.575396 1.000000
360.370087 -328.715729 4.142171 1.000000
360.370056 -328.715729 2.713546 1.000000
360.370056 -328.715729 1.286453 1.000000
358.119202 -330.533661 -0.000032 0.533088
345.423492 -340.787323 -0.000056 0.544485
339.972595 -345.189697 -0.000059 0.535172
336.936768 -347.641602 -0.000062 0.509681
334.998688 -349.206909 -0.000075 0.536274
333.651581 -350.294891 -0.000076 0.562990
332.659149 -351.096436 -0.000086 0.552819
nan nan nan 0.000000
nan nan nan 0.000000
nan nan nan 0.000000
360.431030 -329.056335 8.443616 1.000000
360.431030 -329.056335 6.997293 1.000000
360.431030 -329.056335 5.561822 1.000000
360.431030 -329.056335 4.134038 1.000000
360.431000 -329.056366 2.710838 1.000000
360.431000 -329.056366 1.289162 1.000000
358.297455 -330.755066 -0.000059 0.535907
345.530273 -340.919983 -0.000083 0.536152
340.048737 -345.284241 -0.000086 0.544730
336.995789 -347.714966 -0.000089 0.523039
335.046814 -349.266693 -0.000101 0.565441
333.692108 -350.345245 -0.000100 0.542034
332.694092 -351.139862 -0.000113 0.496936
nan nan nan 0.000000
nan nan nan 0.000000
nan nan nan 0.000000
360.491455 -329.394409 8.419554 1.000000
360.491455 -329.394409 6.978632 1.000000
360.491455 -329.394409 5.548521 1.000000
360.491455 -329.394409 4.126069 1.000000
360.491455 -329.394409 2.708184 1.000000
360.491455 -329.394409 1.291817 1.000000
358.472748 -330.978760 -0.000001 0.536152
345.635345 -341.054016 -0.000025 0.536642
340.123596 -345.379791 -0.000028 0.535784
337.053864 -347.789032 -0.000032 0.524510
335.094086 -349.327118 -0.000031 0.549877
333.732025 -350.396149 -0.000045 0.557353
332.728424 -351.183777 -0.000044 0.488358
nan nan nan 0.000000
nan nan nan 0.000000
nan nan nan 0.000000
360.551453 -329.729980 8.395983 1.000000
360.551483 -329.729980 6.960351 1.000000
360.551453 -329.729980 5.535491 1.000000
360.551483 -329.729980 4.118261 1.000000
360.551483 -329.729980 2.705582 1.000000
360.551483 -329.729980 1.294418 1.000000
358.647888 -331.202637 -0.000026 0.536152
345.740265 -341.188141 -0.000051 0.530147
340.198364 -345.475403 -0.000055 0.531618
337.111816 -347.863190 -0.000054 0.558088
335.141357 -349.387573 -0.000056 0.550858
333.771759 -350.447083 -0.000057 0.523529
332.762787 -351.227661 -0.000067 0.568137
nan nan nan 0.000000
nan nan nan 0.000000
nan nan nan 0.000000
360.611053 -330.063110 8.372892 1.000000
360.611053 -330.063110 6.942442 1.000000
360.611053 -330.063110 5.522729 1.000000
360.611053 -330.063110 4.110614 1.000000
360.611053 -330.063110 2.703035 1.000000
360.611084 -330.063110 1.296964 1.000000
358.821564 -331.427612 -0.000062 1.000000
345.844238 -341.322968 -0.000077 0.527083
340.272491 -345.571533 -0.000079 0.544976
337.169312 -347.937714 -0.000081 0.544240
335.188202 -349.448334 -0.000081 0.534926
333.811249 -350.498291 -0.000082 0.552083
332.796814 -351.271790 -0.000093 0.532721
nan nan nan 0.000000
nan nan nan 0.000000
nan nan nan 0.000000
360.670227 -330.393829 8.350277 1.000000
360.670197 -330.393829 6.924906 1.000000
360.670197 -330.393829 5.510227 1.000000
360.670227 -330.393829 4.103124 1.000000
360.670197 -330.393829 2.700540 1.000000
360.670197 -330.393829 1.299459 1.000000
359.398743 -331.349365 -0.024988 1.000000
345.946320 -341.459290 -0.000005 0.532598
340.345245 -345.668671 -0.000008 0.518995
337.225830 -348.013031 -0.000024 0.546936
335.234283 -349.509705 -0.000026 0.516299
333.850067 -350.549988 -0.000026 0.547794
332.830292 -351.316406 -0.000039 0.543873
nan nan nan 0.000000
nan nan nan 0.000000
353.838593 -335.825684 8.202211 1.000000
353.838593 -335.825684 7.056226 1.000000
353.838593 -335.825684 5.921312 1.000000
353.838593 -335.825684 4.794916 1.000000
353.838593 -335.825684 3.674551 1.000000
353.838593 -335.825684 2.557785 1.000000
353.838593 -335.825684 1.442215 1.000000
353.838593 -335.825684 0.325447 1.000000
346.048370 -341.595612 -0.000030 0.534436
340.417999 -345.765808 -0.000033 0.532966
337.282196 -348.088379 -0.000035 0.542647
335.280273 -349.571136 -0.000051 0.511152
333.888794 -350.601746 -0.000049 0.493750
332.863708 -351.361023 -0.000060 0.539583
nan nan nan 0.000000
nan nan nan 0.000000
353.893707 -336.080078 8.182871 1.000000
353.893707 -336.080078 7.040458 1.000000
353.893707 -336.080078 5.909085 1.000000
353.893707 -336.080078 4.786201 1.000000
353.893707 -336.080048 3.669331 1.000000
353.893707 -336.080078 2.556046 1.000000
353.893707 -336.080078 1.443954 1.000000
353.893707 -336.080078 0.330669 1.000000
346.149506 -341.732605 -0.000056 0.550000
340.490082 -345.863495 -0.000059 0.532230
337.338074 -348.164124 -0.000060 0.530882
335.325836 -349.632904 -0.000074 0.548039
333.927216 -350.653778 -0.000075 0.520098
332.896759 -351.405884 -0.000071 0.499877
nan nan nan 0.000000
nan nan nan 0.000000
353.948486 -336.332886 8.163950 1.000000
353.948486 -336.332886 7.025033 1.000000
353.948486 -336.332886 5.897123 1.000000
353.948486 -336.332886 4.777675 1.000000
353.948486 -336.332886 3.664222 1.000000
353.948486 -336.332886 2.554344 1.000000
353.948486 -336.332886 1.445655 1.000000
353.948486 -336.332886 0.335778 1.000000
346.249664 -341.870331 -0.000080 0.540319
340.561462 -345.961609 -0.000084 0.533824
337.393433 -348.240265 -0.000084 0.549142
335.370972 -349.694977 -0.000098 0.559926
333.965240 -350.706055 -0.000099 0.513358
332.929535 -351.450989 -0.000095 0.515196
nan nan nan 0.000000
nan nan nan 0.000000
354.002930 -336.584167 8.145445 1.000000
354.002930 -336.584167 7.009947 1.000000
354.002930 -336.584167 5.885421 1.000000
354.002930 -336.584167 4.769335 1.000000
354.002930 -336.584167 3.659226 1.000000
354.002930 -336.584167 2.552680 1.000000
354.002930 -336.584167 1.447320 1.000000
354.002930 -336.584167 0.340775 1.000000
346.348511 -342.008972 -0.000069 0.526471
340.631927 -346.060455 -0.000072 0.538113
337.448059 -348.316956 -0.000072 0.509681
335.415436 -349.757477 -0.000073 0.545711
334.002747 -350.758698 -0.000086 0.510662
332.961884 -351.496399 -0.000085 0.569608
nan nan nan 0.000000
nan nan nan 0.000000
354.057068 -336.833954 8.127346 1.000000
354.057068 -336.833954 6.995193 1.000000
354.057037 -336.833954 5.873979 1.000000
354.057037 -336.833954 4.761180 1.000000
354.057068 -336.833954 3.654339 1.000000
354.057037 -336.833954 2.551052 1.000000
354.057037 -336.833954 1.448948 1.000000
354.057037 -336.833954 0.345661 1.000000
346.445953 -342.148651 -0.000015 0.533456
340.701385 -346.160004 -0.000018 0.537010
337.501953 -348.394135 -0.000018 0.547549
335.459351 -349.820404 -0.000020 0.524265
334.039673 -350.811737 -0.000018 0.538971
332.993805 -351.542084 -0.000032 0.503309
nan nan nan 0.000000
nan nan nan 0.000000
354.110840 -337.082275 8.109653 1.000000
354.110840 -337.082275 6.980766 1.000000
354.110840 -337.082275 5.862792 1.000000
354.110870 -337.082275 4.753205 1.000000
354.110840 -337.082275 3.649561 1.000000
354.110840 -337.082275 2.549462 1.000000
354.110840 -337.082275 1.450539 1.000000
354.110840 -337.082275 0.350439 1.000000
346.543976 -342.287903 -0.000117 0.543382
340.770660 -346.259674 -0.000041 0.527574
337.555695 -348.471405 -0.000043 0.539093
335.503174 -349.883392 -0.000044 0.518382
334.076630 -350.864838 -0.000044 0.553309
333.025635 -351.587860 -0.000056 0.504657
nan nan nan 0.000000
nan nan nan 0.000000
354.164337 -337.329224 8.092356 1.000000
354.164337 -337.329224 6.966664 1.000000
354.164337 -337.329224 5.851856 1.000000
354.164337 -337.329224 4.745412 1.000000
354.164337 -337.329224 3.644892 1.000000
354.164337 -337.329224 2.547905 1.000000
354.164337 -337.329224 1.452094 1.000000
354.164337 -337.329224 0.355108 1.000000
346.640259 -342.428375 -0.000141 0.541054
340.839325 -346.359741 -0.000066 0.529412
337.608887 -348.549042 -0.000067 0.528922
335.546539 -349.946716 -0.000066 0.547794
334.113129 -350.918152 -0.000066 0.535049
333.057129 -351.633820 -0.000079 0.504902
nan nan nan 0.000000
nan nan nan 0.000000
354.217529 -337.574738 8.075451 1.000000
354.217529 -337.574738 6.952886 1.000000
354.217529 -337.574738 5.841169 1.000000
354.217529 -337.574738 4.737794 1.000000
354.217529 -337.574738 3.640327 1.000000
354.217529 -337.574738 2.546385 1.000000
354.217529 -337.574738 1.453615 1.000000
354.217529 -337.574738 0.359672 1.000000
346.735168 -342.569763 -0.000129 0.529779
340.906952 -346.460541 -0.000055 0.541544
337.661774 -348.626923 -0.000132 0.516176
335.589325 -350.010406 -0.000055 0.531250
334.149200 -350.971832 -0.000053 0.528431
333.088226 -351.680115 -0.000069 0.559804
nan nan nan 0.000000
nan nan nan 0.000000
354.270447 -337.818939 8.058937 1.000000
354.270447 -337.818939 6.939422 1.000000
354.270447 -337.818939 5.830726 1.000000
354.270447 -337.818939 4.730351 1.000000
354.270447 -337.818939 3.635869 1.000000
354.270447 -337.818939 2.544899 1.000000
354.270447 -337.818939 1.455100 1.000000
354.270447 -337.818939 0.364131 1.000000
346.829468 -342.711578 -0.000151 0.545221
340.974701 -346.561218 -0.000153 0.550368
337.713928 -348.705292 -0.000154 0.528676
335.631836 -350.074341 -0.000079 0.506005
334.184967 -351.025665 -0.000080 0.541544
333.119019 -351.726563 -0.000074 0.517892
nan nan nan 0.000000
nan nan nan 0.000000
354.323059 -338.061829 8.042802 1.000000
354.323059 -338.061829 6.926270 1.000000
354.323059 -338.061829 5.820526 1.000000
354.323090 -338.061798 4.723083 1.000000
354.323059 -338.061829 3.631512 1.000000
354.323059 -338.061829 2.543449 1.000000
354.323059 -338.061829 1.456551 1.000000
354.323059 -338.061829 0.368487 1.000000
346.921967 -342.854553 -0.000098 0.531373
341.040649 -346.663147 -0.000101 0.538358
337.765045 -348.784332 -0.000102 0.548039
335.673859 -350.138519 -0.000101 0.533088
334.220123 -351.079926 -0.000027 0.518137
333.149323 -351.773346 -0.000026 0.517157
nan nan nan 0.000000
nan nan nan 0.000000
354.375397 -338.303406 8.027048 1.000000
354.375397 -338.303406 6.913425 1.000000
354.375397 -338.303406 5.810566 1.000000
354.375397 -338.303406 4.715983 1.000000
354.375397 -338.303406 3.627258 1.000000
354.375397 -338.303406 2.542032 1.000000
354.375397 -338.303406 1.457968 1.000000
354.375397 -338.303406 0.372740 1.000000
347.013947 -342.997894 -0.000087 0.532353
341.106201 -346.765289 -0.000091 0.553064
337.815826 -348.863617 -0.000076 0.545711
335.715302 -350.203125 -0.000089 0.542770
334.255035 -351.134338 -0.000018 0.520588
333.179443 -351.820251 -0.000016 0.568015
nan nan nan 0.000000
nan nan nan 0.000000
354.427490 -338.543762 8.011667 1.000000
354.427490 -338.543762 6.900888 1.000000
354.427490 -338.543762 5.800843 1.000000
354.427490 -338.543762 4.709051 1.000000
354.427490 -338.543762 3.623107 1.000000
354.427490 -338.543762 2.540650 1.000000
354.427490 -338.543762 1.459351 1.000000
354.427490 -338.543762 0.376893 1.000000
347.105225 -343.141663 -0.000109 0.530760
341.171295 -346.867737 -0.000113 0.526838
337.866272 -348.943085 -0.000098 0.530147
335.756439 -350.267883 -0.000114 0.517647
334.289703 -351.188934 -0.000041 0.513603
333.209290 -351.867340 -0.000036 0.561520
nan nan nan 0.000000
nan nan nan 0.000000
354.479279 -338.782928 7.996659 1.000000
354.479279 -338.782928 6.888650 1.000000
354.479279 -338.782928 5.791354 1.000000
354.479279 -338.782928 4.702289 1.000000
354.479279 -338.782928 3.619054 1.000000
354.479279 -338.782928 2.539299 1.000000
354.479279 -338.782928 1.460701 1.000000
354.479279 -338.782928 0.380946 1.000000
347.195190 -343.286255 -0.000098 0.536397
341.235382 -346.970825 -0.000102 0.528922
337.915985 -349.023010 -0.000086 0.534191
335.796967 -350.333069 -0.000102 0.538971
334.324066 -351.243683 -0.000087 0.499510
333.238678 -351.914703 -0.000012 0.527941
nan nan nan 0.000000
nan nan nan 0.000000
354.531036 -339.020782 7.982056 1.000000
354.531036 -339.020782 6.876747 1.000000
354.531036 -339.020782 5.782120 1.000000
354.531036 -339.020782 4.695707 1.000000
354.531067 -339.020782 3.615111 1.000000
354.531036 -339.020782 2.537987 1.000000
354.531036 -339.020782 1.462014 1.000000
354.531036 -339.020782 0.384888 1.000000
347.284424 -343.431274 -0.000119 0.535294
341.298889 -347.074249 -0.000107 0.550613
337.965332 -349.103149 -0.000109 0.529289
335.837128 -350.398468 -0.000108 0.534804
334.357941 -351.298737 -0.000107 0.568015
333.267914 -351.962158 -0.000034 0.530025
nan nan nan 0.000000
nan nan nan 0.000000
354.582642 -339.257416 7.967834 1.000000
354.582642 -339.257416 6.865155 1.000000
354.582642 -339.257416 5.773129 1.000000
354.582642 -339.257416 4.689300 1.000000
354.582642 -339.257416 3.611272 1.000000
354.582642 -339.257416 2.536707 1.000000
354.582642 -339.257416 1.463293 1.000000
354.582642 -339.257416 0.388727 1.000000
347.372375 -343.577118 -0.000109 0.526716
341.361542 -347.178223 -0.000097 0.531250
338.013916 -349.183777 -0.000098 0.545711
335.876770 -350.464172 -0.000098 0.498529
334.391327 -351.354095 -0.000096 0.535049
333.296692 -352.009888 -0.000025 0.530882
nan nan nan 0.000000
nan nan nan 0.000000
354.634003 -339.492950 7.953970 1.000000
354.634003 -339.492950 6.853852 1.000000
354.634003 -339.492950 5.764364 1.000000
354.634003 -339.492950 4.683052 1.000000
354.634003 -339.492950 3.607528 1.000000
354.634003 -339.492950 2.535461 1.000000
354.634003 -339.492950 1.464540 1.000000
354.634003 -339.492950 0.392470 1.000000
347.459595 -343.723389 -0.000130 0.532475
341.423706 -347.282471 -0.000118 0.529289
338.062164 -349.264618 -0.000119 0.545833
335.916077 -350.530060 -0.000121 0.535294
334.424438 -351.409637 -0.000116 0.528431
333.325500 -352.057648 -0.000116 0.492892
nan nan nan 0.000000
nan nan nan 0.000000
354.685120 -339.727417 7.940462 1.000000
354.685120 -339.727417 6.842837 1.000000
354.685120 -339.727417 5.755823 1.000000
354.685120 -339.727417 4.676964 1.000000
354.685120 -339.727417 3.603880 1.000000
354.685120 -339.727417 2.534246 1.000000
354.685120 -339.727417 1.465755 1.000000
354.685120 -339.727417 0.396118 1.000000
347.545319 -343.870514 -0.000105 0.536520
341.484802 -347.387360 -0.000091 0.545343
338.109528 -349.345978 -0.000092 0.533456
335.954681 -350.596405 -0.000093 0.548407
334.457001 -351.465515 -0.000090 0.576103
333.353546 -352.105774 -0.000090 0.535907
nan nan nan 0.000000
nan nan nan 0.000000
354.735992 -339.960785 7.927299 1.000000
354.736023 -339.960785 6.832109 1.000000
354.736023 -339.960785 5.747501 1.000000
354.736023 -339.960785 4.671032 1.000000
354.735992 -339.960785 3.600327 1.000000
354.735992 -339.960785 2.533062 1.000000
354.735992 -339.960785 1.466939 1.000000
354.735992 -339.960785 0.399672 1.000000
347.630493 -344.017975 -0.000125 0.538848
341.545502 -347.492432 -0.000113 0.556740
338.156616 -349.427490 -0.000113 0.516912
335.993042 -350.662842 -0.000113 0.542525
334.489319 -351.521484 -0.000113 0.538235
333.381409 -352.154083 -0.000111 0.580147
nan nan nan 0.000000
nan nan nan 0.000000
354.786682 -340.193176 7.914485 1.000000
354.786713 -340.193146 6.821660 1.000000
354.786713 -340.193146 5.739399 1.000000
354.786713 -340.193146 4.665257 1.000000
354.786682 -340.193176 3.596868 1.000000
354.786682 -340.193176 2.531909 1.000000
354.786682 -340.193176 1.468091 1.000000
354.786682 -340.193176 0.403132 1.000000
347.714294 -344.166260 -0.000115 0.539461
341.605286 -347.598114 -0.000102 0.542402
338.202942 -349.509430 -0.000103 0.527451
336.030853 -350.729675 -0.000103 0.545711
334.521118 -351.577759 -0.000100 0.515564
333.408844 -352.202606 -0.000099 0.532843
nan nan nan 0.000000
nan nan nan 0.000000
354.837128 -340.424561 7.902011 1.000000
354.837128 -340.424561 6.811492 1.000000
354.837128 -340.424561 5.731513 1.000000
354.837128 -340.424561 4.659636 1.000000
354.837128 -340.424561 3.593501 1.000000
354.837128 -340.424561 2.530788 1.000000
354.837128 -340.424561 1.469213 1.000000
354.837128 -340.424561 0.406500 1.000000
347.796631 -344.315277 -0.000064 0.536887
341.663940 -347.704346 -0.000052 0.541789
338.248474 -349.591827 -0.000054 0.559069
336.067963 -350.796814 -0.000056 0.541544
334.552429 -351.634338 -0.000052 0.502941
333.435822 -352.251373 -0.000051 0.547549
nan nan nan 0.000000
354.887390 -340.654999 8.991198 1.000000
354.887390 -340.654999 7.889877 1.000000
354.887390 -340.654999 6.801601 1.000000
354.887390 -340.654999 5.723841 1.000000
354.887390 -340.654999 4.654169 1.000000
354.887390 -340.654999 3.590224 1.000000
354.887390 -340.654999 2.529696 1.000000
354.887390 -340.654999 1.470304 1.000000
354.887390 -340.654999 0.409776 1.000000
347.878448 -344.464661 -0.000061 0.535784
341.722748 -347.810547 -0.000110 0.543505
338.294037 -349.674194 -0.000112 0.524510
336.105133 -350.863983 -0.000113 0.525490
334.583710 -351.690918 -0.000111 0.543627
333.462830 -352.300171 -0.000108 0.484314
nan nan nan 0.000000
354.937408 -340.884491 8.977194 1.000000
354.937408 -340.884491 7.878079 1.000000
354.937408 -340.884491 6.791982 1.000000
354.937408 -340.884491 5.716381 1.000000
354.937408 -340.884491 4.648852 1.000000
354.937408 -340.884491 3.587039 1.000000
354.937408 -340.884491 2.528636 1.000000
354.937408 -340.884491 1.471365 1.000000
354.937408 -340.884491 0.412962 1.000000
347.958740 -344.614807 -0.000013 0.534436
341.779938 -347.917572 -0.000062 0.541789
338.338440 -349.757202 -0.000064 0.564216
336.141296 -350.931641 -0.000065 0.546936
334.614197 -351.747894 -0.000064 0.537010
333.489044 -352.349335 -0.000049 0.561765
nan nan nan 0.000000
354.987274 -341.113068 8.963583 1.000000
354.987274 -341.113068 7.866612 1.000000
354.987274 -341.113068 6.782632 1.000000
354.987274 -341.113068 5.709131 1.000000
354.987274 -341.113068 4.643684 1.000000
354.987274 -341.113068 3.583943 1.000000
354.987274 -341.113068 2.527604 1.000000
354.987274 -341.113068 1.472396 1.000000
354.987274 -341.113068 0.416057 1.000000
348.038361 -344.765350 -0.000002 0.537623
341.836731 -348.024872 -0.000052 0.553676
338.382446 -349.840393 -0.000054 0.548039
336.177185 -350.999451 -0.000056 0.558824
334.644379 -351.805084 -0.000040 0.541299
333.515106 -352.398621 -0.000038 0.533946
nan nan nan 0.000000
355.036896 -341.340790 8.950365 1.000000
355.036926 -341.340790 7.855477 1.000000
355.036926 -341.340790 6.773554 1.000000
355.036926 -341.340790 5.702091 1.000000
355.036896 -341.340790 4.638666 1.000000
355.036926 -341.340790 3.580936 1.000000
355.036896 -341.340790 2.526603 1.000000
355.036896 -341.340790 1.473398 1.000000
355.036926 -341.340790 0.419064 1.000000
348.117676 -344.916046 -0.000060 0.542157
341.893250 -348.132263 -0.000109 0.523652
338.426270 -349.923706 -0.000111 0.541176
336.212952 -351.067352 -0.000111 0.551103
334.674469 -351.862305 -0.000095 0.541667
333.541077 -352.447968 -0.000093 0.540931
nan nan nan 0.000000
355.086365 -341.567627 8.937532 1.000000
355.086395 -341.567627 7.844666 1.000000
355.086395 -341.567627 6.764743 1.000000
355.086365 -341.567627 5.695257 1.000000
355.086365 -341.567627 4.633795 1.000000
355.086365 -341.567627 3.578017 1.000000
355.086365 -341.567627 2.525630 1.000000
355.086365 -341.567627 1.474370 1.000000
355.086365 -341.567627 0.421982 1.000000
348.194824 -345.067841 -0.000014 0.544118
341.948242 -348.240479 -0.000062 0.543505
338.468933 -350.007599 -0.000065 0.532721
336.247681 -351.135773 -0.000064 0.516176
334.703766 -351.919952 -0.000051 0.521814
333.566345 -352.497650 -0.000048 0.564706
nan nan nan 0.000000
355.135681 -341.793640 8.925086 1.000000
355.135681 -341.793640 7.834181 1.000000
355.135681 -341.793640 6.756195 1.000000
355.135681 -341.793671 5.688626 1.000000
355.135681 -341.793671 4.629069 1.000000
355.135681 -341.793640 3.575186 1.000000
355.135681 -341.793640 2.524687 1.000000
355.135681 -341.793640 1.475313 1.000000
355.135681 -341.793640 0.424814 1.000000
348.271332 -345.220001 -0.000003 0.541176
342.002747 -348.348938 -0.000052 0.538235
338.511108 -350.091766 -0.000038 0.525858
336.282074 -351.204376 -0.000039 0.533578
334.732819 -351.977692 -0.000041 0.528922
333.591370 -352.547455 -0.000039 0.517279
nan nan nan 0.000000
355.184784 -342.018890 8.913021 1.000000
355.184784 -342.018890 7.824014 1.000000
355.184784 -342.018890 6.747907 1.000000
355.184784 -342.018890 5.682199 1.000000
355.184784 -342.018890 4.624488 1.000000
355.184784 -342.018890 3.572442 1.000000
355.184784 -342.018890 2.523773 1.000000
355.184784 -342.018890 1.476227 1.000000
355.184784 -342.018890 0.427558 1.000000
348.347443 -345.372314 -0.000058 0.535539
342.056702 -348.457672 -0.000067 0.535049
338.553192 -350.175995 -0.000093 0.530760
336.316376 -351.273041 -0.000092 0.544240
334.761719 -352.035522 -0.000093 0.552819
333.616272 -352.597321 -0.000090 0.529534
nan nan nan 0.000000
355.233734 -342.243347 8.901333 1.000000
355.233734 -342.243347 7.814167 1.000000
355.233734 -342.243347 6.739879 1.000000
355.233734 -342.243347 5.675973 1.000000
355.233734 -342.243347 4.620052 1.000000
355.233734 -342.243347 3.569783 1.000000
355.233734 -342.243347 2.522887 1.000000
355.233704 -342.243347 1.477113 1.000000
355.233734 -342.243347 0.430217 1.000000
348.421783 -345.525513 -0.000048 0.538603
342.109680 -348.566833 -0.000057 0.524632
338.594269 -350.260651 -0.000082 0.544853
336.349854 -351.342072 -0.000082 0.550490
334.789917 -352.093719 -0.000083 0.537868
333.640350 -352.647614 -0.000004 0.335172
nan nan nan 0.000000
354.522552 -342.826691 8.708437 1.000000
354.522552 -342.826691 7.651660 1.000000
354.522552 -342.826691 6.607398 1.000000
354.522552 -342.826691 5.573230 1.000000
354.522552 -342.826691 4.546820 1.000000
354.522552 -342.826691 3.525906 1.000000
354.522552 -342.826691 2.508272 1.000000
354.522552 -342.826691 1.491728 1.000000
354.522552 -342.826691 0.474093 1.000000
348.494659 -345.679413 -0.000004 0.534681
342.161652 -348.676544 -0.000013 0.535784
338.634583 -350.345734 -0.000038 0.535662
336.382721 -351.411438 -0.000039 0.535172
334.817596 -352.152130 -0.000040 0.546691
333.664337 -352.697906 -0.000004 0.337500
nan nan nan 0.000000
354.569916 -343.043823 8.697783 1.000000
354.569916 -343.043823 7.642684 1.000000
354.569916 -343.043823 6.600080 1.000000
354.569916 -343.043823 5.567553 1.000000
354.569916 -343.043823 4.542776 1.000000
354.569916 -343.043823 3.523484 1.000000
354.569916 -343.043823 2.507465 1.000000
354.569916 -343.043823 1.492535 1.000000
354.569916 -343.043823 0.476516 1.000000
348.567535 -345.833344 -0.000057 0.541054
342.213593 -348.786224 -0.000065 0.549265
338.674835 -350.430817 -0.000090 0.541299
336.415558 -351.480774 -0.000090 0.528922
334.845276 -352.210571 -0.000090 0.521201
333.688049 -352.748383 -0.000004 0.346569
nan nan nan 0.000000
354.617126 -343.260254 8.687489 1.000000
354.617126 -343.260254 7.634011 1.000000
354.617126 -343.260254 6.593010 1.000000
354.617126 -343.260254 5.562070 1.000000
354.617126 -343.260254 4.538866 1.000000
354.617126 -343.260254 3.521143 1.000000
354.617126 -343.260254 2.506685 1.000000
354.617126 -343.260254 1.493315 1.000000
354.617126 -343.260254 0.478857 1.000000
348.638672 -345.988037 -0.000047 0.537255
342.264313 -348.896545 -0.000058 0.540074
338.714172 -350.516357 -0.000079 0.515564
336.447632 -351.550507 -0.000082 0.515196
334.872284 -352.269318 -0.000081 0.557230
333.675018 -352.815582 0.009998 1.000000
