# This PCD file was generated using the MATLABÂ® pcwrite function
# from Computer Vision ToolboxÂ®.
# .PCD v.7 - Point Cloud Data file format
VERSION .7
FIELDS x y z intensity
SIZE 4 4 4 4
TYPE F F F F
COUNT 1 1 1 1
WIDTH 1236
HEIGHT 1
VIEWPOINT 0 0 0 1 0 0 0
POINTS 1236
DATA ascii
88.964981 -64.411926 8.133848 1.000000
88.964981 -64.411919 6.757056 1.000000
88.964981 -64.411926 5.390593 1.000000
88.964981 -64.411926 4.031446 1.000000
88.964981 -64.411919 2.676665 1.000000
88.964981 -64.411919 1.323335 1.000000
88.980171 -65.050995 -0.000043 0.538113
89.367981 -81.365685 -0.000071 0.520221
89.534492 -88.370750 -0.000035 0.526103
89.627235 -92.272003 -0.000030 0.528186
89.686432 -94.762497 -0.000045 0.551471
89.727577 -96.493454 -0.000067 0.538971
89.757889 -97.768806 -0.000074 0.568137
nan nan nan 0.000000
89.254517 -64.459854 10.919352 1.000000
89.254517 -64.459854 9.514290 1.000000
89.254509 -64.459846 8.125871 1.000000
89.254517 -64.459854 6.750867 1.000000
89.254509 -64.459846 5.386181 1.000000
89.254509 -64.459862 4.028803 1.000000
89.254517 -64.459854 2.675785 1.000000
89.254517 -64.459854 1.324215 1.000000
89.264351 -65.046005 -0.000004 0.537623
89.538239 -81.362709 -0.000032 0.548774
89.655846 -88.368622 0.000002 0.532598
89.721344 -92.270325 0.000005 0.517402
89.763161 -94.761093 -0.000018 0.526103
89.792213 -96.492325 -0.000029 0.540931
89.813629 -97.767769 -0.000052 0.508701
nan nan nan 0.000000
89.543297 -64.507668 10.908198 1.000000
89.543304 -64.507660 9.504894 1.000000
89.543304 -64.507660 8.118211 1.000000
89.543297 -64.507668 6.744925 1.000000
89.543297 -64.507668 5.381946 1.000000
89.543289 -64.507668 4.026267 1.000000
89.543297 -64.507668 2.674939 1.000000
89.543297 -64.507668 1.325060 1.000000
89.548538 -65.041748 -0.000028 0.541299
89.708519 -81.360161 -0.000056 0.547917
89.777206 -88.366676 -0.000036 0.531373
89.815460 -92.269051 0.000001 0.547672
89.839890 -94.760010 -0.000028 0.530515
89.856857 -96.491287 -0.000066 0.524142
89.869370 -97.766922 -0.000076 0.574877
nan nan nan 0.000000
89.831383 -64.555359 10.897504 1.000000
89.831383 -64.555359 9.495884 1.000000
89.831383 -64.555359 8.110863 1.000000
89.831375 -64.555359 6.739230 1.000000
89.831375 -64.555359 5.377888 1.000000
89.831383 -64.555359 4.023834 1.000000
89.831383 -64.555359 2.674130 1.000000
89.831383 -64.555359 1.325870 1.000000
89.832748 -65.039467 -0.000052 0.535417
89.878799 -81.358589 -0.000097 0.535784
89.898575 -88.365700 -0.000060 0.523162
89.909584 -92.268280 -0.000025 0.538480
89.916618 -94.759415 -0.000049 0.553922
89.921509 -96.490692 -0.000107 0.507721
89.925110 -97.766663 -0.000054 0.574877
nan nan nan 0.000000
90.118790 -64.602943 10.887268 1.000000
90.118782 -64.602943 9.487261 1.000000
90.118782 -64.602936 8.103835 1.000000
90.118782 -64.602943 6.733778 1.000000
90.118782 -64.602943 5.374001 1.000000
90.118782 -64.602936 4.021506 1.000000
90.118790 -64.602943 2.673355 1.000000
90.118790 -64.602943 1.326646 1.000000
90.116966 -65.039780 -0.000046 0.538113
90.049088 -81.358765 -0.000091 0.530882
90.019951 -88.365829 -0.000054 0.553554
90.003716 -92.268288 -0.000033 0.542034
89.993355 -94.759407 -0.000059 0.520588
89.986160 -96.490776 -0.000099 0.539951
89.980843 -97.766670 -0.000062 0.521078
nan nan nan 0.000000
90.405548 -64.650414 10.877489 1.000000
90.405540 -64.650414 9.479023 1.000000
90.405548 -64.650414 8.097118 1.000000
90.405540 -64.650414 6.728570 1.000000
90.405540 -64.650414 5.370288 1.000000
90.405540 -64.650414 4.019281 1.000000
90.405548 -64.650414 2.672613 1.000000
90.405548 -64.650421 1.327387 1.000000
90.401176 -65.042755 -0.000006 0.536274
90.219376 -81.360542 -0.000052 0.537132
90.141319 -88.366974 -0.000030 0.543137
90.097839 -92.269272 0.000006 0.561029
90.070091 -94.760208 -0.000021 0.516299
90.050797 -96.491806 0.000018 0.537990
90.036591 -97.767189 -0.000039 0.530760
nan nan nan 0.000000
90.691689 -64.697784 10.868164 1.000000
90.691689 -64.697784 9.471166 1.000000
90.691689 -64.697784 8.090714 1.000000
90.691696 -64.697784 6.723601 1.000000
90.691689 -64.697777 5.366748 1.000000
90.691689 -64.697777 4.017160 1.000000
90.691689 -64.697784 2.671907 1.000000
90.691689 -64.697784 1.328094 1.000000
90.691689 -64.697784 -0.017161 1.000000
90.389648 -81.363106 -0.000046 0.537132
90.262680 -88.368797 -0.000024 0.535907
90.191963 -92.270683 0.000012 0.533088
90.146820 -94.761627 0.000033 0.550123
90.115440 -96.492706 0.000008 0.564583
90.092331 -97.768021 -0.000035 0.522794
nan nan nan 0.000000
90.977242 -64.745056 10.859292 1.000000
90.977242 -64.745056 9.463689 1.000000
90.977249 -64.745071 8.084616 1.000000
90.977249 -64.745064 6.718874 1.000000
90.977242 -64.745056 5.363380 1.000000
90.977242 -64.745056 4.015141 1.000000
90.977249 -64.745071 2.671235 1.000000
90.977249 -64.745071 1.328766 1.000000
90.969528 -65.052361 -0.000041 0.535172
90.559906 -81.366287 -0.000087 0.531495
90.384026 -88.371193 -0.000050 0.535049
90.286072 -92.272461 -0.000027 0.505637
90.223534 -94.763138 0.000007 0.549632
90.180077 -96.494011 -0.000013 0.570221
90.148056 -97.769203 -0.000041 0.549265
nan nan nan 0.000000
91.262253 -64.792244 10.850865 1.000000
91.262245 -64.792244 9.456591 1.000000
91.262245 -64.792252 8.078830 1.000000
91.262253 -64.792244 6.714386 1.000000
91.262245 -64.792244 5.360179 1.000000
91.262238 -64.792244 4.013225 1.000000
91.262245 -64.792252 2.670595 1.000000
91.262245 -64.792252 1.329405 1.000000
91.253632 -65.060593 -0.000036 0.538235
90.730133 -81.371231 -0.000081 0.525490
90.505356 -88.374580 -0.000059 0.547794
90.380165 -92.275185 -0.000022 0.528922
90.300247 -94.765297 -0.000000 0.527328
90.244705 -96.495804 -0.000025 0.521201
90.203781 -97.770752 -0.000052 0.557966
nan nan nan 0.000000
91.546707 -64.839340 10.842882 1.000000
91.546715 -64.839340 9.449867 1.000000
91.546715 -64.839340 8.073350 1.000000
91.546707 -64.839340 6.710136 1.000000
91.546707 -64.839340 5.357150 1.000000
91.546707 -64.839333 4.011410 1.000000
91.546707 -64.839340 2.669991 1.000000
91.546707 -64.839340 1.330009 1.000000
91.537689 -65.070190 -0.000061 0.537010
90.900330 -81.376991 -0.000106 0.541176
90.626656 -88.378685 -0.000085 0.534069
90.474243 -92.278267 -0.000061 0.553064
90.376930 -94.767883 -0.000025 0.488603
90.309319 -96.497925 -0.000063 0.572917
90.259491 -97.772591 -0.000089 0.551593
nan nan nan 0.000000
91.830688 -64.886353 10.835346 1.000000
91.830688 -64.886353 9.443518 1.000000
91.830681 -64.886345 8.068174 1.000000
91.830688 -64.886353 6.706121 1.000000
91.830688 -64.886345 5.354289 1.000000
91.830688 -64.886353 4.009695 1.000000
91.830688 -64.886353 2.669421 1.000000
91.830688 -64.886353 1.330580 1.000000
91.830688 -64.886360 -0.009696 1.000000
91.070465 -81.384308 -0.000099 0.537500
90.747925 -88.383896 -0.000078 0.554779
90.568291 -92.282288 -0.000058 0.531495
90.453606 -94.771111 -0.000034 0.544363
90.373901 -96.500702 -0.000058 0.518750
90.315186 -97.774979 -0.000084 0.553676
nan nan nan 0.000000
92.114189 -64.933281 10.828256 1.000000
92.114189 -64.933289 9.437544 1.000000
92.114182 -64.933281 8.063305 1.000000
92.114189 -64.933281 6.702343 1.000000
92.114189 -64.933281 5.351598 1.000000
92.114189 -64.933281 4.008083 1.000000
92.114189 -64.933289 2.668883 1.000000
92.114189 -64.933289 1.331117 1.000000
92.105553 -65.095970 -0.000080 0.535907
91.240562 -81.392418 -0.000126 0.534681
90.869171 -88.389549 -0.000120 0.525000
90.662323 -92.286690 -0.000097 0.507353
90.530258 -94.774765 -0.000059 0.540686
90.438484 -96.503708 -0.000099 0.519975
90.370850 -97.777840 -0.000060 0.543873
nan nan nan 0.000000
92.397247 -64.980148 10.821604 1.000000
92.397247 -64.980148 9.431938 1.000000
92.397247 -64.980148 8.058734 1.000000
92.397247 -64.980148 6.698802 1.000000
92.397247 -64.980148 5.349072 1.000000
92.397247 -64.980148 4.006570 1.000000
92.397247 -64.980156 2.668378 1.000000
92.397247 -64.980156 1.331621 1.000000
92.389320 -65.112129 -0.000074 0.538725
91.410545 -81.402710 -0.000071 0.527328
90.990356 -88.396461 -0.000113 0.529779
90.756302 -92.292038 -0.000092 0.530515
90.606873 -94.779053 -0.000067 0.544608
90.503029 -96.507385 -0.000094 0.536029
90.426514 -97.780945 -0.000068 0.560907
nan nan nan 0.000000
92.679893 -65.026939 10.815392 1.000000
92.679893 -65.026947 9.426704 1.000000
92.679893 -65.026939 8.054467 1.000000
92.679893 -65.026947 6.695491 1.000000
92.679893 -65.026947 5.346712 1.000000
92.679893 -65.026939 4.005157 1.000000
92.679901 -65.026939 2.667909 1.000000
92.679901 -65.026939 1.332091 1.000000
92.672966 -65.130295 -0.000068 0.536765
91.580490 -81.413597 -0.000064 0.549632
91.111481 -88.404198 -0.000109 0.531618
90.850235 -92.298058 -0.000086 0.538848
90.683456 -94.783951 -0.000064 0.517892
90.567535 -96.511734 -0.000041 0.590196
90.482140 -97.784508 -0.000063 0.553186
nan nan nan 0.000000
92.962166 -65.073685 10.809617 1.000000
92.962166 -65.073685 9.421841 1.000000
92.962158 -65.073669 8.050502 1.000000
92.962158 -65.073669 6.692417 1.000000
92.962166 -65.073669 5.344522 1.000000
92.962158 -65.073669 4.003842 1.000000
92.962158 -65.073669 2.667471 1.000000
92.962158 -65.073669 1.332529 1.000000
92.962166 -65.073685 -0.003843 1.000000
91.750359 -81.425674 -0.000057 0.528799
91.232552 -88.412804 -0.000102 0.538358
90.944122 -92.304848 -0.000061 0.546324
90.759995 -94.789497 -0.000037 0.524632
90.632019 -96.516304 -0.000037 0.552696
90.537743 -97.788521 -0.000041 0.488358
nan nan nan 0.000000
93.244080 -65.120346 10.804279 1.000000
93.244072 -65.120346 9.417343 1.000000
93.244072 -65.120354 8.046835 1.000000
93.244064 -65.120346 6.689573 1.000000
93.244072 -65.120346 5.342495 1.000000
93.244072 -65.120346 4.002628 1.000000
93.244072 -65.120354 2.667067 1.000000
93.244072 -65.120354 1.332934 1.000000
93.244072 -65.120354 -0.002630 1.000000
91.920090 -81.439339 -0.000017 0.530515
91.353554 -88.422409 -0.000078 0.537745
91.037949 -92.312408 -0.000021 0.517524
90.836479 -94.795647 0.000002 0.506127
90.696457 -96.521591 0.000024 0.494608
90.593307 -97.792992 -0.000001 0.512255
nan nan nan 0.000000
93.525650 -65.166962 10.799375 1.000000
93.525650 -65.166962 9.413214 1.000000
93.525650 -65.166962 8.043468 1.000000
93.525650 -65.166962 6.686962 1.000000
93.525650 -65.166962 5.340633 1.000000
93.525650 -65.166962 4.001513 1.000000
93.525650 -65.166962 2.666695 1.000000
93.525650 -65.166962 1.333305 1.000000
93.523003 -65.197029 -0.000031 0.537745
92.089783 -81.453575 -0.000027 0.530882
91.474487 -88.432716 -0.000070 0.547672
91.131737 -92.320396 -0.000014 0.519853
90.912949 -94.802071 -0.000007 0.548652
90.760880 -96.527000 0.000016 0.526838
90.648857 -97.797653 -0.000010 0.550735
nan nan nan 0.000000
93.806938 -65.213531 10.794907 1.000000
93.806938 -65.213531 9.409448 1.000000
93.806938 -65.213531 8.040398 1.000000
93.806938 -65.213531 6.684581 1.000000
93.806938 -65.213531 5.338935 1.000000
93.806938 -65.213524 4.000498 1.000000
93.806931 -65.213539 2.666355 1.000000
93.806931 -65.213539 1.333644 1.000000
93.806152 -65.221756 -0.000091 0.535784
92.259430 -81.468399 -0.000087 0.525368
91.595406 -88.443283 -0.000130 0.539828
91.225525 -92.328499 -0.000087 0.553431
90.989403 -94.808739 -0.000068 0.551838
90.825279 -96.532623 -0.000045 0.539583
90.704361 -97.802719 -0.000018 0.524387
nan nan nan 0.000000
94.087936 -65.260056 10.790872 1.000000
94.087952 -65.260056 9.406048 1.000000
94.087936 -65.260056 8.037626 1.000000
94.087944 -65.260063 6.682430 1.000000
94.087944 -65.260048 5.337404 1.000000
94.087944 -65.260048 3.999579 1.000000
94.087936 -65.260056 2.666050 1.000000
94.087936 -65.260056 1.333949 1.000000
94.087944 -65.260063 0.000421 1.000000
92.428894 -81.485207 -0.000081 0.530392
91.716179 -88.455414 -0.000106 0.537623
91.319199 -92.337776 -0.000083 0.564093
91.065758 -94.816315 -0.000062 0.538358
90.889618 -96.538956 -0.000049 0.548284
90.759834 -97.808212 -0.000013 0.531127
nan nan nan 0.000000
94.368713 -65.306534 10.787267 1.000000
94.368706 -65.306534 9.403009 1.000000
94.368706 -65.306534 8.035150 1.000000
94.368706 -65.306534 6.680511 1.000000
94.368706 -65.306534 5.336035 1.000000
94.368713 -65.306534 3.998759 1.000000
94.368706 -65.306534 2.665778 1.000000
94.368706 -65.306541 1.334223 1.000000
94.368713 -65.306534 0.001240 1.000000
92.598228 -81.503197 -0.000075 0.533946
91.836876 -88.468239 -0.000100 0.544240
91.412796 -92.347725 -0.000075 0.543750
91.142075 -94.824348 -0.000070 0.559804
90.953903 -96.545769 -0.000047 0.504167
90.815269 -97.814041 -0.000021 0.544240
nan nan nan 0.000000
94.649254 -65.352982 10.784091 1.000000
94.649254 -65.352982 9.400337 1.000000
94.649254 -65.352982 8.032971 1.000000
94.649254 -65.352982 6.678820 1.000000
94.649254 -65.352982 5.334830 1.000000
94.649254 -65.352982 3.998037 1.000000
94.649254 -65.352982 2.665536 1.000000
94.649254 -65.352982 1.334464 1.000000
94.649254 -65.352982 0.001963 1.000000
92.767441 -81.522369 -0.000068 0.525613
91.957481 -88.481911 -0.000093 0.539461
91.506348 -92.358223 -0.000085 0.539706
91.218330 -94.832993 -0.000061 0.523284
91.018150 -96.552979 -0.000056 0.537745
90.870659 -97.820320 -0.000014 0.547304
nan nan nan 0.000000
94.929619 -65.399391 10.781349 1.000000
94.929619 -65.399391 9.398026 1.000000
94.929626 -65.399391 8.031087 1.000000
94.929611 -65.399406 6.677358 1.000000
94.929611 -65.399399 5.333789 1.000000
94.929626 -65.399391 3.997413 1.000000
94.929611 -65.399399 2.665328 1.000000
94.929611 -65.399399 1.334671 1.000000
94.936234 -65.345833 -0.000065 0.534436
92.936516 -81.542725 -0.000062 0.533824
92.077988 -88.496429 -0.000084 0.536520
91.599808 -92.369469 -0.000078 0.520588
91.294525 -94.842079 -0.000071 0.555025
91.082344 -96.560707 -0.000049 0.562255
90.926010 -97.826904 -0.000026 0.499265
nan nan nan 0.000000
95.209816 -65.445786 10.779036 1.000000
95.209816 -65.445778 9.396077 1.000000
95.209816 -65.445786 8.029496 1.000000
95.209816 -65.445786 6.676126 1.000000
95.209816 -65.445786 5.332911 1.000000
95.209824 -65.445786 3.996886 1.000000
95.209816 -65.445778 2.665153 1.000000
95.209816 -65.445786 1.334846 1.000000
95.209816 -65.445786 0.003113 1.000000
93.105461 -81.564049 -0.000073 0.536765
92.198372 -88.511887 -0.000066 0.537010
91.693214 -92.381119 -0.000110 0.527696
91.370674 -94.851555 -0.000106 0.537623
91.146500 -96.568695 -0.000082 0.511397
90.981331 -97.833763 -0.000070 0.524510
nan nan nan 0.000000
95.489883 -65.492142 10.777151 1.000000
95.489876 -65.492149 9.394487 1.000000
95.489883 -65.492149 8.028204 1.000000
95.489883 -65.492157 6.675121 1.000000
95.489883 -65.492157 5.332194 1.000000
95.489883 -65.492149 3.996457 1.000000
95.489876 -65.492149 2.665011 1.000000
95.489876 -65.492149 1.334989 1.000000
95.489883 -65.492149 0.003541 1.000000
93.274231 -81.586769 -0.000065 0.527328
92.318665 -88.528076 -0.000058 0.531250
91.786522 -92.393562 -0.000121 0.533701
91.446732 -94.861794 -0.000099 0.550490
91.210579 -96.577255 -0.000090 0.562745
91.036583 -97.841187 -0.000065 0.552819
nan nan nan 0.000000
95.769836 -65.538506 10.775692 1.000000
95.769836 -65.538498 9.393259 1.000000
95.769836 -65.538498 8.027202 1.000000
95.769836 -65.538498 6.674347 1.000000
95.769844 -65.538498 5.331641 1.000000
95.769836 -65.538506 3.996127 1.000000
95.769836 -65.538498 2.664901 1.000000
95.769836 -65.538498 1.335099 1.000000
95.769836 -65.538506 0.003874 1.000000
93.442833 -81.610664 -0.000059 0.540441
92.438835 -88.545097 -0.000053 0.531740
91.879723 -92.406761 -0.000114 0.545833
91.522728 -94.872475 -0.000108 0.527574
91.274582 -96.586327 -0.000084 0.548897
91.091759 -97.849098 -0.000037 0.525368
nan nan nan 0.000000
96.049721 -65.584831 10.774663 1.000000
96.049721 -65.584831 9.392393 1.000000
96.049721 -65.584824 8.026497 1.000000
96.049721 -65.584839 6.673798 1.000000
96.049721 -65.584839 5.331250 1.000000
96.049721 -65.584839 3.995893 1.000000
96.049713 -65.584839 2.664822 1.000000
96.049721 -65.584839 1.335177 1.000000
96.049721 -65.584839 0.004107 1.000000
93.611267 -81.635757 -0.000050 0.541054
92.558884 -88.562973 -0.000046 0.528309
91.972832 -92.420624 -0.000108 0.542770
91.598625 -94.883774 -0.000101 0.552451
91.338516 -96.595947 -0.000054 0.550858
91.146889 -97.857307 -0.000030 0.526471
nan nan nan 0.000000
96.329544 -65.631165 10.774061 1.000000
96.329544 -65.631149 9.391888 1.000000
96.329536 -65.631149 8.026084 1.000000
96.329544 -65.631165 6.673477 1.000000
96.329544 -65.631157 5.331022 1.000000
96.329544 -65.631149 3.995756 1.000000
96.329544 -65.631165 2.664776 1.000000
96.329544 -65.631165 1.335224 1.000000
96.343002 -65.546532 0.000034 0.543627
93.779449 -81.662407 -0.000010 0.542647
92.678787 -88.581818 -0.000023 0.536397
92.065758 -92.435677 -0.000019 0.562132
91.674438 -94.895691 -0.000078 0.544976
91.402374 -96.606049 -0.000017 0.506985
91.201958 -97.865936 -0.000012 0.554412
nan nan nan 0.000000
96.609352 -65.677483 10.773890 1.000000
96.609344 -65.677483 9.391740 1.000000
96.609344 -65.677483 8.025965 1.000000
96.609352 -65.677483 6.673386 1.000000
96.609344 -65.677483 5.330957 1.000000
96.609344 -65.677483 3.995716 1.000000
96.609344 -65.677490 2.664763 1.000000
96.609344 -65.677490 1.335237 1.000000
96.609344 -65.677483 0.004284 1.000000
93.947655 -81.688995 -0.000072 0.536642
92.798676 -88.600777 -0.000084 0.536029
92.158722 -92.450394 -0.000078 0.515074
91.750237 -94.907692 -0.000137 0.551471
91.466240 -96.616081 -0.000093 0.506618
91.257019 -97.874664 -0.000068 0.554044
nan nan nan 0.000000
96.889153 -65.723808 10.774143 1.000000
96.889153 -65.723808 9.391957 1.000000
96.889145 -65.723816 8.026137 1.000000
96.889153 -65.723816 6.673522 1.000000
96.889153 -65.723816 5.331053 1.000000
96.889153 -65.723808 3.995774 1.000000
96.889153 -65.723816 2.664783 1.000000
96.889153 -65.723808 1.335217 1.000000
96.889153 -65.723816 0.004226 1.000000
94.115570 -81.717384 -0.000082 0.540319
92.918327 -88.621170 -0.000076 0.528309
92.251518 -92.466202 -0.000070 0.534559
91.825897 -94.920570 -0.000133 0.547549
91.529968 -96.626938 -0.000086 0.556127
91.311981 -97.883957 -0.000079 0.506863
nan nan nan 0.000000
97.168991 -65.770134 10.774826 1.000000
97.168991 -65.770126 9.392531 1.000000
97.168991 -65.770126 8.026606 1.000000
97.168991 -65.770126 6.673885 1.000000
97.168991 -65.770134 5.331312 1.000000
97.168983 -65.770126 3.995930 1.000000
97.168983 -65.770126 2.664834 1.000000
97.168991 -65.770134 1.335165 1.000000
97.168983 -65.770126 0.004070 1.000000
94.283234 -81.747154 -0.000076 0.540319
93.037834 -88.642372 -0.000070 0.525245
92.344208 -92.482658 -0.000063 0.550490
91.901360 -94.934464 -0.000036 0.523039
91.593636 -96.638237 -0.000080 0.509314
91.366867 -97.893715 -0.000070 0.559069
nan nan nan 0.000000
97.448883 -65.816467 10.775937 1.000000
97.448875 -65.816475 9.393465 1.000000
97.448883 -65.816467 8.027370 1.000000
97.448875 -65.816475 6.674476 1.000000
97.448875 -65.816475 5.331734 1.000000
97.448875 -65.816475 3.996181 1.000000
97.448875 -65.816475 2.664918 1.000000
97.448875 -65.816475 1.335082 1.000000
97.448875 -65.816475 0.003817 1.000000
94.450706 -81.778008 -0.000075 0.552819
93.157196 -88.664368 -0.000070 0.547794
92.436798 -92.499596 -0.000081 0.535907
91.976830 -94.948364 -0.000036 0.531495
91.657227 -96.649872 -0.000097 0.516789
91.421684 -97.903809 -0.000070 0.469976
nan nan nan 0.000000
97.728859 -65.862823 10.777474 1.000000
97.728859 -65.862823 9.394762 1.000000
97.728859 -65.862823 8.028426 1.000000
97.728859 -65.862823 6.675295 1.000000
97.728859 -65.862823 5.332318 1.000000
97.728859 -65.862823 3.996532 1.000000
97.728859 -65.862823 2.665035 1.000000
97.728859 -65.862823 1.334965 1.000000
97.728859 -65.862831 0.003468 1.000000
94.617950 -81.810127 -0.000067 0.551716
93.276428 -88.687103 -0.000080 0.542770
92.529243 -92.517326 -0.000076 0.529289
92.052193 -94.962822 -0.000031 0.560662
91.720711 -96.662064 -0.000090 0.532843
91.476440 -97.914261 -0.000080 0.569853
nan nan nan 0.000000
98.008942 -65.909187 10.779441 1.000000
98.008942 -65.909195 9.396418 1.000000
98.008942 -65.909195 8.029776 1.000000
98.008942 -65.909187 6.676342 1.000000
98.008942 -65.909187 5.333065 1.000000
98.008942 -65.909195 3.996978 1.000000
98.008942 -65.909195 2.665184 1.000000
98.008942 -65.909195 1.334816 1.000000
98.021118 -65.849030 0.000005 0.537377
94.784958 -81.843384 -0.000061 0.566544
93.395470 -88.710808 -0.000074 0.528676
92.621559 -92.535728 -0.000068 0.543382
92.127464 -94.977737 -0.000039 0.517524
91.784134 -96.674622 -0.000098 0.550123
91.531113 -97.925140 -0.000074 0.517647
nan nan nan 0.000000
98.289169 -65.955589 10.781837 1.000000
98.289162 -65.955589 9.398436 1.000000
98.289162 -65.955589 8.031421 1.000000
98.289169 -65.955582 6.677618 1.000000
98.289162 -65.955589 5.333974 1.000000
98.289162 -65.955589 3.997523 1.000000
98.289169 -65.955589 2.665365 1.000000
98.289162 -65.955589 1.334634 1.000000
98.289162 -65.955589 0.002475 1.000000
94.951813 -81.877411 -0.000088 0.538358
93.514389 -88.735054 -0.000103 0.537745
92.713760 -92.554703 -0.000070 0.525980
92.202652 -94.993088 -0.000063 0.552696
91.847481 -96.687546 -0.000124 0.528676
91.585747 -97.936218 -0.000115 0.501348
nan nan nan 0.000000
98.569565 -66.002014 10.784661 1.000000
98.569565 -66.002007 9.400816 1.000000
98.569565 -66.002014 8.033361 1.000000
98.569565 -66.002007 6.679123 1.000000
98.569565 -66.002007 5.335046 1.000000
98.569565 -66.002007 3.998167 1.000000
98.569565 -66.002014 2.665580 1.000000
98.569565 -66.002007 1.334420 1.000000
98.569565 -66.002007 0.001833 1.000000
95.118340 -81.913025 -0.000081 0.535294
93.633087 -88.760437 -0.000094 0.550000
92.805809 -92.574387 -0.000063 0.537500
92.277702 -95.009117 -0.000059 0.533211
91.910706 -96.701057 -0.000118 0.554779
91.640266 -97.947868 -0.000110 0.511642
nan nan nan 0.000000
98.850159 -66.048454 10.787918 1.000000
98.850151 -66.048462 9.403559 1.000000
98.850151 -66.048454 8.035597 1.000000
98.850151 -66.048454 6.680858 1.000000
98.850151 -66.048462 5.336283 1.000000
98.850151 -66.048462 3.998907 1.000000
98.850151 -66.048454 2.665826 1.000000
98.850151 -66.048454 1.334174 1.000000
98.850151 -66.048462 0.001093 1.000000
95.284348 -81.950981 0.000027 0.538725
93.751541 -88.786926 -0.000053 0.528309
92.897667 -92.594925 -0.000022 0.540441
92.352592 -95.025856 -0.000020 0.585049
91.973747 -96.715393 -0.000029 0.510784
91.694641 -97.960121 -0.000048 0.570956
nan nan nan 0.000000
99.130959 -66.094948 10.791603 1.000000
99.130959 -66.094963 9.406664 1.000000
99.130959 -66.094948 8.038130 1.000000
99.130959 -66.094955 6.682819 1.000000
99.130959 -66.094948 5.337683 1.000000
99.130959 -66.094955 3.999745 1.000000
99.130959 -66.094948 2.666106 1.000000
99.130959 -66.094948 1.333894 1.000000
99.130959 -66.094948 0.000254 1.000000
95.450356 -81.988914 0.000035 0.540931
93.869896 -88.813820 -0.000062 0.548039
92.989441 -92.615883 -0.000016 0.566912
92.427422 -95.042862 -0.000028 0.542525
92.036774 -96.729782 -0.000021 0.493260
91.748993 -97.972527 -0.000043 0.531373
nan nan nan 0.000000
99.412018 -66.141479 10.795723 1.000000
99.412025 -66.141487 9.410133 1.000000
99.412025 -66.141472 8.040960 1.000000
99.412018 -66.141479 6.685014 1.000000
99.412018 -66.141487 5.339246 1.000000
99.412018 -66.141487 4.000682 1.000000
99.412025 -66.141479 2.666418 1.000000
99.412025 -66.141479 1.333582 1.000000
99.408852 -66.154755 -0.000013 0.539338
95.616310 -82.027077 -0.000035 0.535172
93.988190 -88.841019 -0.000133 0.550735
93.081169 -92.637001 -0.000083 0.550735
92.502213 -95.060066 -0.000098 0.524020
92.099785 -96.744278 -0.000091 0.575980
91.803307 -97.985046 -0.000107 0.525123
nan nan nan 0.000000
99.693359 -66.188057 10.800273 1.000000
99.693352 -66.188065 9.413967 1.000000
99.693359 -66.188057 8.044085 1.000000
99.693352 -66.188065 6.687438 1.000000
99.693359 -66.188057 5.340975 1.000000
99.693359 -66.188057 4.001717 1.000000
99.693359 -66.188057 2.666763 1.000000
99.693352 -66.188065 1.333238 1.000000
99.685013 -66.221939 -0.000005 0.535539
95.781776 -82.067329 -0.000026 0.530882
94.106117 -88.869713 -0.000124 0.542034
93.172668 -92.659119 -0.000095 0.528554
92.576775 -95.078186 -0.000093 0.508088
92.162621 -96.759468 -0.000103 0.554534
91.857437 -97.998398 -0.000051 0.541299
nan nan nan 0.000000
99.974998 -66.234680 10.805260 1.000000
99.974991 -66.234688 9.418169 1.000000
99.975006 -66.234680 8.047508 1.000000
99.975006 -66.234680 6.690095 1.000000
99.974998 -66.234688 5.342867 1.000000
99.974998 -66.234688 4.002851 1.000000
99.975006 -66.234680 2.667141 1.000000
99.974998 -66.234688 1.332860 1.000000
99.960526 -66.291718 0.000038 0.532108
95.946854 -82.109108 0.000014 0.536397
94.223793 -88.899498 -0.000084 0.532598
93.263924 -92.682220 -0.000054 0.527819
92.651192 -95.096939 -0.000066 0.531127
92.225296 -96.775345 -0.000060 0.570343
91.911469 -98.012077 -0.000011 0.546569
nan nan nan 0.000000
100.256966 -66.281364 10.810679 1.000000
100.256973 -66.281372 9.422733 1.000000
100.256966 -66.281364 8.051232 1.000000
100.256966 -66.281364 6.692983 1.000000
100.256973 -66.281372 5.344923 1.000000
100.256966 -66.281364 4.004084 1.000000
100.256966 -66.281372 2.667552 1.000000
100.256966 -66.281372 1.332449 1.000000
100.256966 -66.281364 -0.004086 1.000000
96.111740 -82.151672 0.000022 0.532598
94.341316 -88.929825 -0.000076 0.523407
93.355072 -92.705734 -0.000047 0.539461
92.725494 -95.116112 -0.000058 0.540196
92.287895 -96.791496 -0.000052 0.520466
91.965446 -98.026009 -0.000004 0.540931
nan nan nan 0.000000
100.539307 -66.328110 10.816534 1.000000
100.539307 -66.328110 9.427671 1.000000
100.539307 -66.328110 8.055253 1.000000
100.539307 -66.328102 6.696102 1.000000
100.539307 -66.328094 5.347148 1.000000
100.539307 -66.328117 4.005417 1.000000
100.539307 -66.328110 2.667994 1.000000
100.539307 -66.328110 1.332005 1.000000
100.539307 -66.328110 -0.005417 1.000000
96.276428 -82.194954 -0.000005 0.524632
94.458710 -88.960686 -0.000103 0.531495
93.446106 -92.729668 -0.000073 0.532598
92.799713 -95.135605 -0.000087 0.534069
92.350380 -96.808037 -0.000055 0.544363
92.019371 -98.040108 -0.000049 0.541912
nan nan nan 0.000000
100.822037 -66.374908 10.822835 1.000000
100.822037 -66.374916 9.432976 1.000000
100.822029 -66.374916 8.059580 1.000000
100.822029 -66.374916 6.699455 1.000000
100.822037 -66.374908 5.349539 1.000000
100.822029 -66.374916 4.006850 1.000000
100.822029 -66.374916 2.668473 1.000000
100.822029 -66.374916 1.331528 1.000000
100.822029 -66.374916 -0.006850 1.000000
96.440842 -82.239304 -0.000041 0.536642
94.575653 -88.993187 -0.000031 0.543505
93.536880 -92.754578 -0.000048 0.529779
92.873810 -95.155586 -0.000124 0.522672
92.412811 -96.824883 -0.000089 0.559926
92.073196 -98.054634 -0.000080 0.568873
nan nan nan 0.000000
101.105171 -66.421791 10.829567 1.000000
101.105171 -66.421791 9.438648 1.000000
101.105171 -66.421791 8.064204 1.000000
101.105171 -66.421791 6.703043 1.000000
101.105179 -66.421783 5.352095 1.000000
101.105179 -66.421791 4.008380 1.000000
101.105171 -66.421791 2.668982 1.000000
101.105171 -66.421791 1.331018 1.000000
101.058464 -66.586441 0.000026 0.539216
96.604752 -82.285477 -0.000017 0.532353
94.692429 -89.026253 0.000011 0.539093
93.627449 -92.780228 -0.000005 0.556373
92.947670 -95.176407 -0.000099 0.517524
92.475021 -96.842468 -0.000053 0.526103
92.126823 -98.069817 -0.000042 0.544730
nan nan nan 0.000000
101.388763 -66.468742 10.836744 1.000000
101.388763 -66.468742 9.444695 1.000000
101.388763 -66.468742 8.069134 1.000000
101.388763 -66.468742 6.706866 1.000000
101.388763 -66.468742 5.354819 1.000000
101.388763 -66.468742 4.010014 1.000000
101.388763 -66.468742 2.669527 1.000000
101.388763 -66.468742 1.330474 1.000000
101.331566 -66.665131 0.000035 0.536642
96.768379 -82.332619 -0.000009 0.538848
94.809052 -89.059860 0.000019 0.528186
93.717903 -92.806274 0.000001 0.546446
93.021416 -95.197647 -0.000091 0.527819
92.537140 -96.860367 -0.000045 0.550368
92.180412 -98.085175 -0.000051 0.494363
nan nan nan 0.000000
101.672836 -66.515762 10.844364 1.000000
101.672829 -66.515778 9.451114 1.000000
101.672829 -66.515778 8.074365 1.000000
101.672829 -66.515770 6.710924 1.000000
101.672829 -66.515770 5.357712 1.000000
101.672829 -66.515785 4.011746 1.000000
101.672829 -66.515770 2.670104 1.000000
101.672829 -66.515770 1.329896 1.000000
101.604324 -66.745026 0.000008 0.534191
96.931793 -82.380501 -0.000035 0.535172
94.925529 -89.093979 -0.000008 0.540441
93.808235 -92.832733 -0.000025 0.536765
93.095055 -95.219231 -0.000118 0.549265
92.599205 -96.878479 -0.000086 0.570588
92.233902 -98.100861 -0.000076 0.510662
nan nan nan 0.000000
101.957405 -66.562874 10.852431 1.000000
101.957397 -66.562881 9.457909 1.000000
101.957397 -66.562881 8.079904 1.000000
101.957397 -66.562881 6.715219 1.000000
101.957390 -66.562889 5.360773 1.000000
101.957397 -66.562881 4.013581 1.000000
101.957397 -66.562889 2.670715 1.000000
101.957397 -66.562889 1.329286 1.000000
101.876091 -66.828194 0.000051 0.533333
97.094627 -82.430328 0.000008 0.533578
95.041588 -89.129494 0.000036 0.531985
93.898239 -92.860291 0.000018 0.527451
93.168442 -95.241661 -0.000078 0.544730
92.661018 -96.897385 -0.000044 0.530392
92.287216 -98.117149 -0.000037 0.543750
nan nan nan 0.000000
102.242500 -66.610085 10.860941 1.000000
102.242500 -66.610085 9.465078 1.000000
102.242500 -66.610085 8.085751 1.000000
102.242500 -66.610085 6.719754 1.000000
102.242500 -66.610085 5.364005 1.000000
102.242508 -66.610077 4.015517 1.000000
102.242500 -66.610085 2.671359 1.000000
102.242500 -66.610085 1.328641 1.000000
102.242508 -66.610077 -0.015518 1.000000
97.257401 -82.480347 -0.000031 0.538971
95.157608 -89.165154 -0.000002 0.530515
93.988220 -92.887939 -0.000019 0.563725
93.241798 -95.264214 -0.000114 0.530637
92.722824 -96.916374 -0.000083 0.545221
92.340523 -98.133461 -0.000091 0.518995
nan nan nan 0.000000
102.528168 -66.657372 10.869901 1.000000
102.528168 -66.657372 9.472630 1.000000
102.528168 -66.657372 8.091906 1.000000
102.528160 -66.657379 6.724526 1.000000
102.528168 -66.657372 5.367408 1.000000
102.528168 -66.657372 4.017555 1.000000
102.528168 -66.657372 2.672038 1.000000
102.528168 -66.657372 1.327962 1.000000
102.528168 -66.657372 -0.017556 1.000000
97.419632 -82.532112 -0.000016 0.332230
95.273338 -89.201714 -0.000028 0.538848
94.078018 -92.916176 -0.000063 0.550613
93.314796 -95.287888 -0.000033 0.550980
92.784470 -96.935852 -0.000109 0.548162
92.393669 -98.150269 -0.000115 0.500858
nan nan nan 0.000000
102.814423 -66.704750 10.879315 1.000000
102.814423 -66.704750 9.480559 1.000000
102.814415 -66.704765 8.098371 1.000000
102.814423 -66.704765 6.729539 1.000000
102.814423 -66.704765 5.370979 1.000000
102.814423 -66.704765 4.019696 1.000000
102.814423 -66.704765 2.672751 1.000000
102.814415 -66.704765 1.327248 1.000000
102.688858 -67.085777 0.000012 0.534436
97.581535 -82.584885 -0.000012 0.534314
95.388687 -89.239487 -0.000005 0.537500
94.167427 -92.945595 -0.000021 0.541422
93.387680 -95.311867 0.000008 0.540196
92.845909 -96.955986 -0.000084 0.541176
92.446625 -98.167679 -0.000075 0.527941
nan nan nan 0.000000
103.101311 -66.752251 10.889181 1.000000
103.101303 -66.752258 9.488869 1.000000
103.101295 -66.752274 8.105145 1.000000
103.101303 -66.752266 6.734794 1.000000
103.101303 -66.752258 5.374727 1.000000
103.101303 -66.752258 4.021940 1.000000
103.101295 -66.752274 2.673498 1.000000
103.101295 -66.752274 1.326502 1.000000
102.958656 -67.175186 -0.000014 0.532966
97.743187 -82.638435 -0.000039 0.539706
95.503899 -89.277649 -0.000032 0.525613
94.256775 -92.975212 -0.000046 0.541667
93.460526 -95.335999 -0.000018 0.534069
92.907280 -96.976326 -0.000108 0.502696
92.499542 -98.185226 -0.000099 0.555025
nan nan nan 0.000000
103.388832 -66.799858 10.899502 1.000000
103.388824 -66.799866 9.497566 1.000000
103.388824 -66.799873 8.112234 1.000000
103.388824 -66.799866 6.740293 1.000000
103.388824 -66.799866 5.378645 1.000000
103.388824 -66.799866 4.024287 1.000000
103.388832 -66.799858 2.674281 1.000000
103.388832 -66.799858 1.325719 1.000000
103.227600 -67.267105 -0.000006 0.538971
97.904312 -82.693520 -0.000031 0.538725
95.618744 -89.316917 -0.000023 0.537255
94.345848 -93.005653 -0.000039 0.519363
93.533134 -95.360825 -0.000010 0.549510
92.968452 -96.997223 -0.000102 0.518750
92.552307 -98.203171 -0.000111 0.574142
nan nan nan 0.000000
103.677040 -66.847572 10.910281 1.000000
103.677048 -66.847572 9.506648 1.000000
103.677048 -66.847580 8.119637 1.000000
103.677048 -66.847572 6.746034 1.000000
103.677048 -66.847588 5.382737 1.000000
103.677040 -66.847572 4.026741 1.000000
103.677048 -66.847580 2.675097 1.000000
103.677048 -66.847572 1.324902 1.000000
103.495956 -67.360695 -0.000010 0.532108
98.065102 -82.749596 -0.000034 0.550368
95.733353 -89.356873 -0.000027 0.542402
94.434731 -93.036644 -0.000041 0.548162
93.605598 -95.386093 -0.000013 0.533456
93.029503 -97.018517 -0.000104 0.488848
92.604950 -98.221535 -0.000114 0.557598
nan nan nan 0.000000
103.965981 -66.895409 10.921525 1.000000
103.965981 -66.895409 9.516120 1.000000
103.965973 -66.895416 8.127359 1.000000
103.965973 -66.895416 6.752021 1.000000
103.965973 -66.895416 5.387005 1.000000
103.965973 -66.895416 4.029298 1.000000
103.965973 -66.895416 2.675949 1.000000
103.965973 -66.895416 1.324051 1.000000
103.763351 -67.457054 0.000034 0.535172
98.225311 -82.807312 0.000009 0.542157
95.847542 -89.398018 0.000016 0.534804
94.523293 -93.068558 0.000002 0.553799
93.677818 -95.412018 0.000013 0.558456
93.090233 -97.040688 -0.000003 0.523775
92.657394 -98.240417 -0.000074 0.493873
nan nan nan 0.000000
104.255653 -66.943359 10.933232 1.000000
104.255646 -66.943367 9.525980 1.000000
104.255646 -66.943367 8.135400 1.000000
104.255646 -66.943367 6.758259 1.000000
104.255646 -66.943367 5.391450 1.000000
104.255646 -66.943367 4.031960 1.000000
104.255646 -66.943367 2.676837 1.000000
104.255646 -66.943367 1.323164 1.000000
104.030533 -67.553940 0.000009 0.532108
98.385406 -82.865356 -0.000018 0.331985
95.961632 -89.439400 -0.000010 0.525000
94.611832 -93.100517 -0.000046 0.525613
93.749962 -95.438179 -0.000014 0.542647
93.151001 -97.062737 -0.000027 0.551593
92.709801 -98.259430 -0.000097 0.511152
nan nan nan 0.000000
104.546097 -66.991455 10.945404 1.000000
104.546097 -66.991447 9.536239 1.000000
104.546097 -66.991455 8.143763 1.000000
104.546097 -66.991447 6.764744 1.000000
104.546089 -66.991455 5.396071 1.000000
104.546097 -66.991455 4.034730 1.000000
104.546097 -66.991447 2.677758 1.000000
104.546097 -66.991447 1.322241 1.000000
104.296799 -67.653343 0.000017 0.535907
98.544960 -82.924843 -0.000016 0.336520
96.075340 -89.481857 -0.000000 0.530882
94.700020 -93.133430 -0.000038 0.524142
93.821854 -95.465019 -0.000004 0.516789
93.211571 -97.085350 -0.000019 0.551471
92.761887 -98.279305 0.000011 0.563113
nan nan nan 0.000000
104.837349 -67.039665 10.958049 1.000000
104.837349 -67.039673 9.546889 1.000000
104.837349 -67.039673 8.152444 1.000000
104.837349 -67.039673 6.771478 1.000000
104.837349 -67.039673 5.400871 1.000000
104.837349 -67.039673 4.037605 1.000000
104.837349 -67.039673 2.678716 1.000000
104.837349 -67.039673 1.321284 1.000000
104.562447 -67.754395 0.000014 0.534926
98.704185 -82.985229 -0.000033 0.540441
96.188782 -89.525002 -0.000005 0.529902
94.788002 -93.166893 -0.000041 0.542279
93.893578 -95.492279 -0.000010 0.531618
93.272011 -97.108307 -0.000029 0.526961
92.813980 -98.299118 0.000007 0.539216
nan nan nan 0.000000
105.129440 -67.088028 10.971167 1.000000
105.129440 -67.088028 9.557940 1.000000
105.129440 -67.088028 8.161455 1.000000
105.129440 -67.088028 6.778465 1.000000
105.129440 -67.088028 5.405851 1.000000
105.129440 -67.088028 4.040590 1.000000
105.129433 -67.088028 2.679710 1.000000
105.129433 -67.088028 1.320289 1.000000
104.827553 -67.856834 -0.000013 0.538603
98.863022 -83.046616 -0.000059 0.533088
96.301987 -89.568756 -0.000030 0.542279
94.875786 -93.200844 -0.000065 0.541667
93.965157 -95.519951 -0.000035 0.533701
93.332314 -97.131607 -0.000054 0.532353
92.865974 -98.319221 -0.000016 0.559069
nan nan nan 0.000000
105.422394 -67.136536 10.984760 1.000000
105.422401 -67.136528 9.569395 1.000000
105.422409 -67.136536 8.170792 1.000000
105.422401 -67.136528 6.785706 1.000000
105.422394 -67.136536 5.411013 1.000000
105.422394 -67.136536 4.043681 1.000000
105.422409 -67.136536 2.680740 1.000000
105.422401 -67.136528 1.319260 1.000000
105.091400 -67.962463 0.000031 0.534069
99.021118 -83.109901 -0.000015 0.531250
96.414734 -89.613701 -0.000007 0.534191
94.963181 -93.235817 -0.000023 0.536765
94.036400 -95.548454 0.000005 0.513113
93.392357 -97.155571 -0.000026 0.553922
92.917725 -98.339928 0.000026 0.566299
nan nan nan 0.000000
105.716270 -67.185181 10.998837 1.000000
105.716270 -67.185188 9.581251 1.000000
105.716270 -67.185181 8.180458 1.000000
105.716270 -67.185196 6.793202 1.000000
105.716270 -67.185181 5.416356 1.000000
105.716270 -67.185188 4.046882 1.000000
105.716270 -67.185181 2.681806 1.000000
105.716270 -67.185181 1.318192 1.000000
105.355042 -68.068649 0.000006 0.540319
99.179077 -83.173508 -0.000041 0.532721
96.527321 -89.659042 -0.000032 0.524510
95.050507 -93.270981 -0.000048 0.543873
94.107605 -95.577057 -0.000033 0.559069
93.452316 -97.179718 -0.000051 0.546078
92.969460 -98.360695 -0.000016 0.566912
nan nan nan 0.000000
106.011070 -67.233994 11.013396 1.000000
106.011070 -67.233994 9.593519 1.000000
106.011070 -67.233994 8.190459 1.000000
106.011070 -67.233994 6.800960 1.000000
106.011070 -67.233994 5.421885 1.000000
106.011070 -67.233994 4.050195 1.000000
106.011070 -67.233994 2.682911 1.000000
106.011070 -67.233994 1.317089 1.000000
105.617775 -68.177032 0.000001 0.538113
99.336494 -83.238464 -0.000045 0.534314
96.639519 -89.705330 -0.000037 0.560294
95.137512 -93.306877 -0.000052 0.526103
94.178543 -95.606316 -0.000039 0.560049
93.512085 -97.204376 -0.000056 0.515931
93.020981 -98.381950 -0.000022 0.536397
nan nan nan 0.000000
106.306847 -67.282959 11.028442 1.000000
106.306847 -67.282959 9.606196 1.000000
106.306847 -67.282959 8.200794 1.000000
106.306847 -67.282959 6.808974 1.000000
106.306847 -67.282959 5.427597 1.000000
106.306847 -67.282959 4.053617 1.000000
106.306847 -67.282959 2.684050 1.000000
106.306847 -67.282959 1.315950 1.000000
105.879913 -68.286896 -0.000024 0.535049
99.493256 -83.304970 -0.000008 0.334559
96.751465 -89.752243 -0.000061 0.534804
95.224335 -93.343269 -0.000077 0.539216
94.249321 -95.635979 -0.000064 0.556005
93.571716 -97.229355 -0.000083 0.555025
93.072395 -98.403496 -0.000044 0.545956
nan nan nan 0.000000
106.603622 -67.332085 11.043983 1.000000
106.603615 -67.332100 9.619287 1.000000
106.603622 -67.332085 8.211466 1.000000
106.603622 -67.332085 6.817250 1.000000
106.603622 -67.332085 5.433496 1.000000
106.603622 -67.332092 4.057152 1.000000
106.603622 -67.332085 2.685227 1.000000
106.603622 -67.332085 1.314773 1.000000
106.140991 -68.399200 -0.000015 0.537255
99.649719 -83.372169 -0.000007 0.333578
96.862961 -89.800194 -0.000053 0.544118
95.310806 -93.380455 -0.000069 0.551471
94.319817 -95.666298 -0.000055 0.551593
93.631104 -97.254890 -0.000075 0.566299
93.123604 -98.425522 -0.000036 0.560539
nan nan nan 0.000000
106.901443 -67.381386 11.060019 1.000000
106.901436 -67.381401 9.632795 1.000000
106.901436 -67.381401 8.222478 1.000000
106.901436 -67.381401 6.825791 1.000000
106.901436 -67.381401 5.439585 1.000000
106.901436 -67.381401 4.060799 1.000000
106.901436 -67.381401 2.686443 1.000000
106.901436 -67.381401 1.313557 1.000000
106.401009 -68.513962 0.000029 0.536642
99.805779 -83.440323 -0.000018 0.522059
96.973999 -89.849213 -0.000010 0.540441
95.396973 -93.418343 -0.000045 0.529412
94.390030 -95.697250 -0.000018 0.539583
93.690254 -97.281006 -0.000032 0.548529
93.174606 -98.448029 0.000005 0.536887
nan nan nan 0.000000
107.200325 -67.430870 11.076556 1.000000
107.200317 -67.430878 9.646728 1.000000
107.200325 -67.430870 8.233835 1.000000
107.200325 -67.430870 6.834599 1.000000
107.200325 -67.430870 5.445861 1.000000
107.200325 -67.430870 4.064559 1.000000
107.200317 -67.430878 2.687695 1.000000
107.200317 -67.430878 1.312305 1.000000
106.661194 -68.628349 -0.000046 0.533701
99.961670 -83.508865 -0.000092 0.527696
97.085106 -89.898071 -0.000082 0.517279
95.483139 -93.456238 -0.000118 0.543995
94.460281 -95.728149 -0.000089 0.559314
93.749428 -97.307037 -0.000103 0.547794
93.225624 -98.470474 -0.000066 0.525000
nan nan nan 0.000000
107.500320 -67.480545 11.093594 1.000000
107.500320 -67.480537 9.661082 1.000000
107.500320 -67.480545 8.245538 1.000000
107.500320 -67.480545 6.843674 1.000000
107.500320 -67.480545 5.452330 1.000000
107.500313 -67.480545 4.068436 1.000000
107.500320 -67.480545 2.688986 1.000000
107.500320 -67.480545 1.311013 1.000000
106.919579 -68.746750 -0.000002 0.541667
100.116478 -83.579803 -0.000049 0.539338
97.195450 -89.948631 -0.000038 0.548162
95.568726 -93.495445 -0.000075 0.568505
94.530045 -95.760117 -0.000046 0.536152
93.808151 -97.334084 -0.000031 0.533088
93.276344 -98.493607 -0.000046 0.520588
nan nan nan 0.000000
107.801468 -67.530396 11.111143 1.000000
107.801460 -67.530396 9.675867 1.000000
107.801468 -67.530388 8.257593 1.000000
107.801460 -67.530396 6.853023 1.000000
107.801453 -67.530396 5.458993 1.000000
107.801460 -67.530396 4.072429 1.000000
107.801460 -67.530396 2.690316 1.000000
107.801453 -67.530396 1.309684 1.000000
107.177711 -68.865707 -0.000026 0.535907
100.271133 -83.651062 -0.000073 0.541299
97.305687 -89.999428 -0.000063 0.535907
95.654213 -93.534843 -0.000098 0.555515
94.599731 -95.792229 -0.000070 0.543382
93.866867 -97.361145 -0.000055 0.551593
93.326965 -98.516945 -0.000067 0.550490
nan nan nan 0.000000
108.103775 -67.580452 11.129206 1.000000
108.103775 -67.580452 9.691084 1.000000
108.103775 -67.580452 8.269997 1.000000
108.103775 -67.580452 6.862645 1.000000
108.103775 -67.580452 5.465851 1.000000
108.103775 -67.580452 4.076537 1.000000
108.103783 -67.580444 2.691686 1.000000
108.103775 -67.580452 1.308315 1.000000
107.434418 -68.987694 0.000018 0.536274
100.424950 -83.724159 -0.000029 0.539093
97.415314 -90.051514 -0.000020 0.527574
95.739235 -93.575241 -0.000056 0.542279
94.669083 -95.825089 -0.000044 0.512132
93.925262 -97.388885 -0.000012 0.547181
93.377312 -98.540871 -0.000024 0.547304
nan nan nan 0.000000
108.407310 -67.630707 11.147788 1.000000
108.407310 -67.630707 9.706738 1.000000
108.407318 -67.630699 8.282758 1.000000
108.407310 -67.630707 6.872540 1.000000
108.407310 -67.630707 5.472904 1.000000
108.407310 -67.630707 4.080764 1.000000
108.407310 -67.630707 2.693092 1.000000
108.407310 -67.630707 1.306907 1.000000
107.690712 -69.110535 0.000011 0.537255
100.578506 -83.797775 -0.000035 0.542279
97.524757 -90.103981 -0.000026 0.523652
95.824120 -93.615921 -0.000063 0.518137
94.738289 -95.858261 -0.000049 0.556985
93.982826 -97.418343 0.000344 1.000000
93.427574 -98.564964 -0.000031 0.519118
nan nan nan 0.000000
108.712097 -67.681152 11.166891 1.000000
108.712097 -67.681152 9.722836 1.000000
108.712097 -67.681152 8.295880 1.000000
108.712097 -67.681152 6.882717 1.000000
108.712097 -67.681152 5.480158 1.000000
108.712097 -67.681160 4.085108 1.000000
108.712097 -67.681152 2.694539 1.000000
108.712097 -67.681152 1.305460 1.000000
107.946289 -69.234871 -0.000013 0.534804
100.731636 -83.872269 -0.000059 0.532108
97.633904 -90.157074 -0.000051 0.546324
95.908768 -93.657104 -0.000088 0.543015
94.807289 -95.891823 -0.000073 0.549877
94.041687 -97.445122 -0.000041 0.524265
93.477699 -98.589348 -0.000053 0.544608
nan nan nan 0.000000
109.018181 -67.731834 11.186523 1.000000
109.018181 -67.731819 9.739376 1.000000
109.018181 -67.731827 8.309364 1.000000
109.018181 -67.731827 6.893175 1.000000
109.018173 -67.731842 5.487612 1.000000
109.018181 -67.731834 4.089575 1.000000
109.018181 -67.731827 2.696028 1.000000
109.018181 -67.731827 1.303972 1.000000
108.200378 -69.362213 0.000032 0.534436
100.883881 -83.948547 -0.000016 0.546569
97.742416 -90.211449 -0.000006 0.530392
95.992920 -93.699272 -0.000044 0.531985
94.875900 -95.926201 -0.000031 0.539951
94.114929 -97.443291 -0.007438 1.000000
93.527550 -98.614319 -0.000012 0.558701
nan nan nan 0.000000
109.325577 -67.782730 11.206689 1.000000
109.325577 -67.782722 9.756364 1.000000
109.325577 -67.782722 8.323216 1.000000
109.325577 -67.782730 6.903916 1.000000
109.325577 -67.782730 5.495267 1.000000
109.325577 -67.782722 4.094161 1.000000
109.325577 -67.782722 2.697555 1.000000
109.325577 -67.782722 1.302445 1.000000
108.454185 -69.490097 0.000008 0.537745
101.035950 -84.025177 -0.000039 0.535294
97.850800 -90.266068 -0.000030 0.543505
96.076988 -93.741623 -0.000068 0.529657
94.944435 -95.960732 -0.000054 0.521691
94.157211 -97.503174 -0.000020 0.543137
93.577332 -98.639397 -0.000036 0.505637
nan nan nan 0.000000
109.634354 -67.833847 11.227398 1.000000
109.634354 -67.833847 9.773809 1.000000
109.634354 -67.833839 8.337439 1.000000
109.634346 -67.833847 6.914946 1.000000
109.634354 -67.833847 5.503129 1.000000
109.634346 -67.833847 4.098871 1.000000
109.634354 -67.833847 2.699124 1.000000
109.634354 -67.833839 1.300875 1.000000
108.706963 -69.620041 0.000000 0.536765
101.187515 -84.102821 -0.000067 0.546569
97.958748 -90.321564 -0.000038 0.552083
96.160698 -93.784668 -0.000075 0.537868
95.012680 -95.995819 -0.000061 0.554902
94.214714 -97.532730 -0.000028 0.507966
93.626892 -98.664894 -0.000041 0.506740
nan nan nan 0.000000
109.944542 -67.885193 11.248650 1.000000
109.944542 -67.885193 9.791716 1.000000
109.944542 -67.885193 8.352034 1.000000
109.944542 -67.885193 6.926267 1.000000
109.944542 -67.885193 5.511197 1.000000
109.944542 -67.885193 4.103705 1.000000
109.944534 -67.885201 2.700734 1.000000
109.944542 -67.885193 1.299266 1.000000
108.958961 -69.751472 -0.000023 0.535784
101.338509 -84.181572 -0.000090 0.539338
98.066437 -90.377541 -0.000079 0.547549
96.244164 -93.828201 -0.000097 0.528922
95.080719 -96.031303 -0.000085 0.534926
94.272034 -97.562630 -0.000051 0.561397
93.676353 -98.690613 -0.000083 0.561520
nan nan nan 0.000000
110.256165 -67.936783 11.270455 1.000000
110.256165 -67.936783 9.810081 1.000000
110.256165 -67.936783 8.367007 1.000000
110.256165 -67.936790 6.937880 1.000000
110.256165 -67.936783 5.519475 1.000000
110.256165 -67.936783 4.108666 1.000000
110.256165 -67.936798 2.702386 1.000000
110.256165 -67.936798 1.297614 1.000000
109.209412 -69.885864 0.000021 0.538235
101.488556 -84.262093 -0.000046 0.533211
98.173386 -90.434929 -0.000035 0.550123
96.327118 -93.872704 -0.000055 0.541176
95.148338 -96.067581 -0.000041 0.560662
94.329002 -97.593185 -0.000009 0.586275
93.725479 -98.716957 -0.000041 0.545956
nan nan nan 0.000000
110.569283 -67.988617 11.292815 1.000000
110.569275 -67.988625 9.828918 1.000000
110.569275 -67.988625 8.382364 1.000000
110.569275 -67.988625 6.949788 1.000000
110.569283 -67.988625 5.527963 1.000000
110.569283 -67.988617 4.113752 1.000000
110.569275 -67.988625 2.704081 1.000000
110.569275 -67.988625 1.295919 1.000000
109.460251 -70.019493 -0.000074 0.533824
101.638741 -84.342377 -0.000121 0.538725
98.280418 -90.492172 -0.000109 0.534804
96.410126 -93.917099 -0.000128 0.536520
95.216011 -96.103775 -0.000115 0.518750
94.386047 -97.623611 -0.000098 0.518382
93.774628 -98.743256 -0.000111 0.519853
nan nan nan 0.000000
110.883934 -68.040710 11.315738 1.000000
110.883934 -68.040718 9.848232 1.000000
110.883934 -68.040718 8.398108 1.000000
110.883934 -68.040718 6.961998 1.000000
110.883934 -68.040718 5.536666 1.000000
110.883926 -68.040710 4.118967 1.000000
110.883926 -68.040710 2.705818 1.000000
110.883926 -68.040710 1.294183 1.000000
109.708794 -70.157379 -0.000030 0.536887
101.787651 -84.424980 -0.000077 0.531985
98.386574 -90.551033 -0.000067 0.546691
96.492447 -93.962746 -0.000085 0.532843
95.283119 -96.140999 -0.000072 0.537990
94.442581 -97.654976 -0.000055 0.526716
93.823380 -98.770294 -0.000069 0.584191
nan nan nan 0.000000
111.200142 -68.093071 11.339229 1.000000
111.200142 -68.093071 9.868023 1.000000
111.200150 -68.093071 8.414244 1.000000
111.200142 -68.093079 6.974512 1.000000
111.200142 -68.093071 5.545584 1.000000
111.200142 -68.093079 4.124308 1.000000
