# This PCD file was generated using the MATLABÂ® pcwrite function
# from Computer Vision ToolboxÂ®.
# .PCD v.7 - Point Cloud Data file format
VERSION .7
FIELDS x y z intensity
SIZE 4 4 4 4
TYPE F F F F
COUNT 1 1 1 1
WIDTH 1191
HEIGHT 1
VIEWPOINT 0 0 0 1 0 0 0
POINTS 1191
DATA ascii
305.611176 -442.496521 18.743353 1.000000
305.611176 -442.496552 15.649671 1.000000
305.611176 -442.496552 12.585887 1.000000
305.611176 -442.496521 9.545095 1.000000
305.611176 -442.496552 6.520582 1.000000
305.611176 -442.496521 3.505786 1.000000
305.611176 -442.496521 0.494216 1.000000
282.496735 -488.302429 -0.000010 0.331618
275.144714 -502.871918 -0.000010 0.537623
271.988190 -509.127258 0.000004 0.524877
270.230225 -512.610962 -0.000009 0.520343
269.107849 -514.835144 0.000006 0.542157
268.327820 -516.380981 -0.000008 0.531985
267.753143 -517.519836 -0.000028 0.549387
nan nan nan 0.000000
306.424438 -442.319000 21.987963 1.000000
306.424438 -442.319000 18.839268 1.000000
306.424438 -442.319000 15.727866 1.000000
306.424438 -442.319000 12.646527 1.000000
306.424438 -442.319000 9.588316 1.000000
306.424438 -442.319000 6.546479 1.000000
306.424438 -442.319000 3.514412 1.000000
306.424438 -442.319031 0.485588 1.000000
282.750031 -488.431335 -0.000011 0.332108
275.296448 -502.949219 -0.000006 0.539828
272.096313 -509.182343 0.000008 0.536887
270.314087 -512.653687 -0.000007 0.519485
269.176239 -514.869995 0.000009 0.526226
268.385437 -516.410278 -0.000006 0.561029
267.802734 -517.545227 0.000013 0.343382
nan nan nan 0.000000
307.247131 -442.139435 22.104105 1.000000
307.247131 -442.139465 18.937113 1.000000
307.247131 -442.139435 15.807632 1.000000
307.247131 -442.139435 12.708397 1.000000
307.247131 -442.139465 9.632407 1.000000
307.247131 -442.139465 6.572896 1.000000
307.247131 -442.139465 3.523211 1.000000
307.247131 -442.139465 0.476789 1.000000
283.002472 -488.561890 -0.000018 0.332475
275.524689 -502.880005 -0.013649 1.000000
272.204010 -509.238312 0.000032 0.546936
270.397614 -512.697144 0.000017 0.550980
269.244324 -514.905396 0.000031 0.572059
268.442749 -516.440186 0.000043 0.518995
267.852264 -517.570862 0.000003 0.333824
nan nan nan 0.000000
308.079468 -441.957733 22.222603 1.000000
308.079468 -441.957733 19.036947 1.000000
308.079468 -441.957733 15.889018 1.000000
308.079468 -441.957733 12.771512 1.000000
308.079468 -441.957733 9.677395 1.000000
308.079468 -441.957733 6.599850 1.000000
308.079468 -441.957733 3.532190 1.000000
308.079468 -441.957733 0.467812 1.000000
283.253937 -488.694366 -0.000017 0.332475
275.652985 -503.003998 -0.009558 1.000000
272.311462 -509.294708 0.000007 0.535907
270.480957 -512.740845 -0.000008 0.538480
269.312286 -514.941040 0.000007 0.514461
268.499969 -516.470276 0.000020 0.549632
267.882843 -517.632080 0.009999 1.000000
nan nan nan 0.000000
308.921692 -441.773895 22.343500 1.000000
308.921692 -441.773895 19.138796 1.000000
308.921692 -441.773865 15.972049 1.000000
308.921692 -441.773865 12.835906 1.000000
308.921692 -441.773895 9.723295 1.000000
308.921692 -441.773895 6.627350 1.000000
308.921692 -441.773895 3.541349 1.000000
308.921692 -441.773895 0.458651 1.000000
283.504486 -488.828552 -0.000017 0.331373
275.782104 -503.124908 -0.005816 1.000000
272.418365 -509.352203 0.000031 0.540074
270.563782 -512.785583 0.000044 0.540441
269.379852 -514.977356 0.000029 0.543260
268.556946 -516.500854 0.000042 0.542157
267.931732 -517.658264 0.009996 1.000000
nan nan nan 0.000000
309.774139 -441.587799 22.466856 1.000000
309.774139 -441.587799 19.242720 1.000000
309.774139 -441.587830 16.056770 1.000000
309.774139 -441.587830 12.901608 1.000000
309.774139 -441.587799 9.770123 1.000000
309.774139 -441.587830 6.655409 1.000000
309.774139 -441.587799 3.550693 1.000000
309.774139 -441.587799 0.449305 1.000000
283.754059 -488.964569 -0.000014 0.331618
275.903961 -503.257782 -0.001027 1.000000
272.524933 -509.410309 0.000036 0.530147
270.646423 -512.830688 0.000049 0.527206
269.447235 -515.014099 0.000034 0.528676
268.613708 -516.531799 0.000044 0.559314
267.980469 -517.684753 0.009995 1.000000
nan nan nan 0.000000
310.636963 -441.399475 22.592722 1.000000
310.636963 -441.399475 19.348763 1.000000
310.636963 -441.399475 16.143219 1.000000
310.636963 -441.399475 12.968657 1.000000
310.636963 -441.399475 9.817909 1.000000
310.636963 -441.399475 6.684039 1.000000
310.636963 -441.399475 3.560232 1.000000
310.636963 -441.399475 0.439768 1.000000
284.002716 -489.102264 -0.000015 0.332230
276.046753 -503.351563 0.000027 0.538358
272.631226 -509.468872 0.000011 0.542770
270.728851 -512.876099 0.000023 0.531373
269.514435 -515.051147 0.000010 0.533824
268.670288 -516.562988 0.000015 0.559559
268.028992 -517.711609 0.009996 1.000000
nan nan nan 0.000000
311.510590 -441.208771 22.721174 1.000000
311.510559 -441.208771 19.456974 1.000000
311.510590 -441.208771 16.231438 1.000000
311.510559 -441.208771 13.037069 1.000000
311.510559 -441.208771 9.866674 1.000000
311.510559 -441.208771 6.713255 1.000000
311.510559 -441.208771 3.569963 1.000000
311.510559 -441.208801 0.430037 1.000000
284.250397 -489.241638 -0.000017 0.333211
276.195129 -503.435150 0.000031 0.531495
272.736969 -509.528473 0.000016 0.535662
270.810883 -512.922241 0.000027 0.543260
269.581299 -515.088806 0.000011 0.529534
268.726654 -516.594727 0.000019 0.511397
268.077301 -517.738831 0.009993 1.000000
nan nan nan 0.000000
312.395172 -441.015656 22.852251 1.000000
312.395172 -441.015656 19.567404 1.000000
312.395172 -441.015656 16.321461 1.000000
312.395172 -441.015656 13.106888 1.000000
312.395172 -441.015656 9.916437 1.000000
312.395172 -441.015656 6.743071 1.000000
312.395172 -441.015686 3.579893 1.000000
312.395172 -441.015686 0.420105 1.000000
284.497101 -489.382690 -0.000021 0.332966
276.342896 -503.519745 0.000036 0.535417
272.842316 -509.588776 0.000018 0.524387
270.892548 -512.969055 0.000029 0.538971
269.647888 -515.126892 0.000015 0.527696
268.782745 -516.626831 0.000021 0.556985
268.145355 -517.731873 0.000019 0.342524
nan nan nan 0.000000
313.291077 -440.820129 22.986032 1.000000
313.291077 -440.820129 19.680107 1.000000
313.291077 -440.820129 16.413342 1.000000
313.291077 -440.820129 13.178146 1.000000
313.291077 -440.820129 9.967228 1.000000
313.291077 -440.820129 6.773499 1.000000
313.291077 -440.820129 3.590029 1.000000
313.291077 -440.820129 0.409970 1.000000
284.742828 -489.525604 -0.000019 0.331863
276.490082 -503.605377 0.000038 0.533578
272.947205 -509.649811 0.000022 0.535172
270.973907 -513.016357 0.000033 0.511642
269.714203 -515.165527 0.000017 0.526838
268.838623 -516.659363 0.000023 0.532721
268.193573 -517.759827 0.000007 0.328064
nan nan nan 0.000000
nan nan nan 0.000000
314.198578 -440.622009 19.795141 1.000000
314.198578 -440.622009 16.507116 1.000000
314.198578 -440.622009 13.250875 1.000000
314.198578 -440.622009 10.019063 1.000000
314.198578 -440.622009 6.804559 1.000000
314.198608 -440.622009 3.600375 1.000000
314.198608 -440.622009 0.399625 1.000000
284.987488 -489.670166 -0.000018 0.331495
276.636841 -503.691772 0.000015 0.545098
273.051788 -509.711365 -0.000000 0.549142
271.055023 -513.064148 0.000009 0.520588
269.780334 -515.204468 -0.000007 0.494975
268.894409 -516.692017 -0.000026 0.489338
268.241547 -517.788208 0.000014 0.337010
nan nan nan 0.000000
nan nan nan 0.000000
nan nan nan 0.000000
315.118011 -440.421326 16.602837 1.000000
315.118042 -440.421326 13.325109 1.000000
315.118042 -440.421326 10.071976 1.000000
315.118042 -440.421295 6.836259 1.000000
315.118042 -440.421326 3.610935 1.000000
315.118042 -440.421326 0.389065 1.000000
285.231110 -489.816589 -0.000011 0.332843
276.782806 -503.779419 0.000019 0.558824
273.155853 -509.773865 0.000003 0.533578
271.135742 -513.112549 0.000013 0.558578
269.846130 -515.243958 -0.000003 0.535294
268.949829 -516.725342 -0.000021 0.539583
268.289368 -517.816895 0.000000 0.321936
nan nan nan 0.000000
nan nan nan 0.000000
nan nan nan 0.000000
nan nan nan 0.000000
316.049744 -440.217957 13.400891 1.000000
316.049744 -440.217957 10.125989 1.000000
316.049713 -440.217957 6.868620 1.000000
316.049744 -440.217957 3.621716 1.000000
316.049744 -440.217957 0.378284 1.000000
285.473724 -489.964600 -0.000010 0.332475
276.928162 -503.868134 0.000021 0.538848
273.259460 -509.837067 0.000006 0.521078
271.216095 -513.161621 0.000015 0.532108
269.911652 -515.283936 -0.000002 0.536152
269.005005 -516.758972 -0.000021 0.585907
268.336945 -517.845886 0.000008 0.337868
nan nan nan 0.000000
nan nan nan 0.000000
nan nan nan 0.000000
nan nan nan 0.000000
nan nan nan 0.000000
nan nan nan 0.000000
316.994049 -440.011810 6.901660 1.000000
316.994049 -440.011810 3.632719 1.000000
316.994049 -440.011810 0.367280 1.000000
285.607574 -490.286957 0.009990 1.000000
277.072906 -503.957855 0.000026 0.539583
273.362640 -509.901001 0.000008 0.556005
271.296112 -513.211182 0.000019 0.522059
269.976868 -515.324341 -0.000004 0.559804
269.059937 -516.793152 0.000002 0.328431
268.384338 -517.875244 0.000003 0.334681
nan nan nan 0.000000
nan nan nan 0.000000
nan nan nan 0.000000
nan nan nan 0.000000
nan nan nan 0.000000
nan nan nan 0.000000
nan nan nan 0.000000
nan nan nan 0.000000
nan nan nan 0.000000
285.846924 -490.437592 0.009993 1.000000
277.217010 -504.048553 0.000029 0.547917
273.465332 -509.965668 0.000012 0.524755
271.375763 -513.261292 0.000020 0.523162
270.041809 -515.365173 0.000000 0.554779
269.114655 -516.827515 -0.000004 0.317034
268.431519 -517.904968 0.000012 0.348775
nan nan nan 0.000000
nan nan nan 0.000000
nan nan nan 0.000000
nan nan nan 0.000000
nan nan nan 0.000000
nan nan nan 0.000000
nan nan nan 0.000000
nan nan nan 0.000000
nan nan nan 0.000000
286.367462 -490.151520 -0.015620 1.000000
277.360413 -504.140381 0.000043 0.530392
273.567535 -510.031128 0.000028 0.530147
271.455048 -513.312073 0.000033 0.535172
270.106323 -515.406677 0.000046 0.562745
269.144043 -516.901306 0.009999 1.000000
268.478516 -517.934937 -0.000006 0.336275
nan nan nan 0.000000
nan nan nan 0.000000
nan nan nan 0.000000
nan nan nan 0.000000
nan nan nan 0.000000
nan nan nan 0.000000
nan nan nan 0.000000
nan nan nan 0.000000
nan nan nan 0.000000
286.433563 -490.573822 0.000018 0.535907
277.503387 -504.232880 0.000023 0.539338
273.669464 -510.097015 0.000005 0.524387
271.534058 -513.363220 0.000013 0.531985
270.170807 -515.448425 0.000023 0.521814
269.198029 -516.936279 0.009999 1.000000
268.525269 -517.965271 0.000003 0.337990
nan nan nan 0.000000
nan nan nan 0.000000
nan nan nan 0.000000
nan nan nan 0.000000
nan nan nan 0.000000
nan nan nan 0.000000
nan nan nan 0.000000
nan nan nan 0.000000
nan nan nan 0.000000
286.549500 -490.913055 0.010801 1.000000
277.645721 -504.326385 0.000007 0.535784
273.770905 -510.163666 -0.000011 0.537010
271.612701 -513.414917 0.000003 0.551838
270.234894 -515.490540 0.000008 0.567647
269.251709 -516.971680 0.009998 1.000000
268.571808 -517.995972 0.000006 0.331618
297.786407 -474.744629 17.073750 0.605270
297.795135 -474.731659 15.000540 0.558456
297.800537 -474.723602 12.954331 0.641789
nan nan nan 0.000000
nan nan nan 0.000000
nan nan nan 0.000000
nan nan nan 0.000000
nan nan nan 0.000000
nan nan nan 0.000000
286.907257 -490.887970 0.000006 0.538358
277.787262 -504.421051 0.000009 0.543750
273.871765 -510.231171 -0.000009 0.547059
271.690918 -513.467285 0.000007 0.542525
270.298706 -515.533203 0.000009 0.562132
269.330963 -516.969177 0.000039 0.322304
268.618134 -518.026978 0.000008 0.330515
297.909119 -475.309296 16.973999 0.546936
297.917847 -475.296539 14.914489 0.528309
297.926422 -475.283966 12.882844 0.503309
297.934967 -475.271515 10.874252 0.569485
297.943390 -475.259186 8.884069 0.611029
297.951752 -475.246918 6.907839 0.629902
297.960114 -475.234711 4.941219 0.580270
297.968414 -475.222565 2.979947 0.526593
297.976746 -475.210419 1.019811 0.521201
287.142242 -491.047882 0.000022 0.530882
277.927979 -504.516907 0.000027 0.543750
273.972107 -510.299469 0.000008 0.546446
271.768768 -513.520264 0.000021 0.556373
270.362061 -515.576477 0.000050 0.516667
269.384491 -517.005493 0.000026 0.332598
268.664246 -518.058228 0.000007 0.341054
298.030212 -475.866577 16.876278 0.557476
298.038940 -475.854065 14.830183 0.211887
298.047516 -475.841705 12.811787 0.629902
298.055969 -475.829498 10.816289 0.233946
298.064392 -475.817383 8.839096 0.594608
298.072754 -475.805328 6.875770 0.609436
298.081085 -475.793365 4.921995 0.588603
298.089386 -475.781403 2.973541 0.575123
298.097656 -475.769470 1.026222 0.581740
287.376404 -491.208954 0.000007 0.539093
278.068329 -504.613373 0.000011 0.522917
274.072113 -510.368225 -0.000010 0.547794
271.846313 -513.573547 0.000000 0.504534
270.425201 -515.620056 0.000063 0.546814
269.437561 -517.042358 0.000076 0.326225
268.710144 -518.089905 0.000005 0.348775
298.149750 -476.416687 16.780540 0.554289
298.158417 -476.404358 14.747593 0.218627
298.166992 -476.392242 12.742169 0.475368
298.175446 -476.380219 10.759509 0.231005
298.183838 -476.368317 8.795040 0.561765
298.192200 -476.356476 6.844353 0.568627
298.200470 -476.344727 4.903163 0.571691
298.208740 -476.332977 2.967264 0.572672
298.217010 -476.321259 1.032501 0.579779
287.609222 -491.371948 0.000011 0.537255
278.207825 -504.710999 0.000012 0.537745
274.171539 -510.437836 -0.000006 0.532721
271.923431 -513.627563 0.000006 0.535294
270.488129 -515.664001 0.000042 0.547059
269.490662 -517.079224 0.000039 0.323652
268.755829 -518.121826 -0.000001 0.338358
298.267761 -476.959747 16.686737 0.551225
298.276428 -476.947662 14.666668 0.194853
298.284973 -476.935760 12.673960 0.368505
298.293396 -476.923920 10.703879 0.235907
298.301758 -476.912231 8.751873 0.594240
298.310059 -476.900635 6.813570 0.638603
298.318329 -476.889069 4.884710 0.629167
298.326599 -476.877533 2.961115 0.620343
298.334839 -476.866028 1.038653 0.601838
287.840759 -491.536774 0.000029 0.537010
278.346558 -504.809753 0.000030 0.523775
274.270264 -510.508423 0.000043 0.534681
272.000122 -513.682129 0.000021 0.547426
270.550751 -515.708313 0.000026 0.539338
269.543457 -517.116516 0.000003 0.333578
268.801270 -518.154114 0.000005 0.328431
298.384308 -477.496033 16.594818 0.589093
298.392914 -477.484131 14.587375 0.191544
298.401428 -477.472412 12.607126 0.358088
298.409851 -477.460815 10.649364 0.240564
298.418213 -477.449341 8.709572 0.589828
298.426483 -477.437897 6.783408 0.567524
298.434723 -477.426544 4.866631 0.550368
298.442963 -477.415222 2.955089 0.556618
298.451141 -477.403931 1.044681 0.580147
288.071533 -491.702698 0.000015 0.536274
278.484802 -504.909180 0.000015 0.537990
274.420013 -510.508759 -0.009996 1.000000
272.076385 -513.737244 0.000049 0.529902
270.613098 -515.753113 -0.000000 0.335907
269.595917 -517.154358 0.000001 0.345221
268.846497 -518.186707 0.000015 0.334069
298.499390 -478.025635 16.504749 0.517402
298.507996 -478.013947 14.509676 0.564461
298.516479 -478.002441 12.541636 0.547304
298.524902 -477.991028 10.595949 0.521201
298.533203 -477.979767 8.668129 0.502819
298.541473 -477.968536 6.753853 0.512623
298.549683 -477.957397 4.848913 0.520588
298.557861 -477.946228 2.949185 0.544976
298.566071 -477.935120 1.050588 0.570221
288.300751 -491.870728 0.000030 0.532966
278.622162 -505.009827 0.000031 0.527206
274.494507 -510.613312 -0.005347 1.000000
272.152283 -513.792969 0.000066 0.526961
270.675049 -515.798401 0.000000 0.341054
269.648102 -517.192444 -0.000001 0.340809
268.891449 -518.219604 0.000011 0.331373
298.613037 -478.548798 16.416477 0.575000
298.621643 -478.537292 14.433529 0.587745
298.630127 -478.525970 12.477452 0.581127
298.638489 -478.514801 10.543598 0.562623
298.646790 -478.503723 8.627508 0.562255
298.654999 -478.492676 6.724887 0.563113
298.663208 -478.481689 4.831552 0.581740
298.671387 -478.470764 2.943400 0.586520
298.679565 -478.459839 1.056377 0.590809
288.529144 -492.039825 0.000015 0.537377
278.759003 -505.111176 0.000015 0.541544
274.564240 -510.723267 0.000028 0.532721
272.227966 -513.848938 0.000048 0.528186
270.703796 -515.888123 0.009994 1.000000
269.700012 -517.231018 -0.000001 0.338725
268.936218 -518.252930 0.000018 0.339338
298.725372 -479.065643 16.329967 0.568137
298.733917 -479.054352 14.358901 0.577941
298.742371 -479.043213 12.414549 0.593015
298.750732 -479.032227 10.492296 0.589951
298.758972 -479.021301 8.587700 0.581373
298.767212 -479.010468 6.696502 0.571324
298.775360 -478.999695 4.814535 0.576471
298.783508 -478.988953 2.937729 0.588113
298.791656 -478.978241 1.062050 0.586520
288.756439 -492.210510 -0.000001 0.534681
278.895081 -505.213501 0.000008 0.540686
274.644928 -510.817719 0.003128 1.000000
272.303101 -513.905640 0.000064 0.522794
270.764771 -515.934021 0.009994 1.000000
269.751678 -517.269897 -0.000001 0.342034
268.980774 -518.286377 0.000007 0.337990
298.836334 -479.576385 16.245178 0.581985
298.844849 -479.565277 14.285757 0.651103
298.853271 -479.554321 12.352898 0.635049
298.861603 -479.543518 10.442011 0.616667
298.869873 -479.532776 8.548685 0.615074
298.878052 -479.522125 6.668681 0.591422
298.886169 -479.511566 4.797859 0.591299
298.894318 -479.501007 2.932172 0.591912
298.902435 -479.490448 1.067611 0.598039
288.981995 -492.383423 0.000022 0.533946
279.030273 -505.317108 0.000030 0.530025
274.757629 -510.869965 0.000029 0.553309
272.378052 -513.962524 0.000029 0.538603
270.825439 -515.980408 0.009994 1.000000
269.803040 -517.309143 -0.000001 0.337623
269.025085 -518.320190 0.000002 0.332108
298.945984 -480.081085 16.162075 0.569730
298.954498 -480.070221 14.214063 0.562623
298.962891 -480.059448 12.292470 0.612010
298.971191 -480.048798 10.392725 0.616544
298.979431 -480.038269 8.510443 0.614706
298.987579 -480.027802 6.641410 0.616299
298.995697 -480.017395 4.781512 0.604289
299.003815 -480.006989 2.926724 0.591176
299.011902 -479.996643 1.073060 0.596446
289.206421 -492.557770 0.000039 0.537010
279.164703 -505.421600 0.000049 0.527574
274.853485 -510.944427 0.000047 0.540074
272.452240 -514.020447 0.000077 0.555882
270.919586 -515.983887 0.000000 0.336397
269.854126 -517.348755 -0.000001 0.336275
269.069122 -518.354370 0.000003 0.334804
299.054382 -480.580017 16.080612 0.484069
299.062866 -480.569305 14.143792 0.491544
299.071228 -480.558716 12.233239 0.518873
299.079529 -480.548279 10.344413 0.535784
299.087738 -480.537903 8.472962 0.537010
299.095886 -480.527588 6.614681 0.537990
299.103973 -480.517395 4.765490 0.537990
299.112061 -480.507172 2.921386 0.509314
299.120117 -480.496979 1.078403 0.509559
289.430298 -492.732910 0.000005 0.534069
279.298859 -505.526489 0.000011 0.529534
274.948914 -511.019409 0.000043 0.529167
272.526245 -514.078613 0.000074 0.549387
270.979919 -516.031311 0.000001 0.332230
269.904968 -517.388733 -0.000001 0.329902
269.112946 -518.388855 0.000012 0.334926
299.161530 -481.073273 16.000763 0.553799
299.169983 -481.062714 14.074910 0.575000
299.178345 -481.052277 12.175180 0.565686
299.186615 -481.041992 10.297061 0.564093
299.194794 -481.031830 8.436220 0.561765
299.202911 -481.021698 6.588480 0.571078
299.210999 -481.011658 4.749785 0.581005
299.219055 -481.001617 2.916151 0.577451
299.227112 -480.991608 1.083639 0.570098
289.652222 -492.910431 0.000023 0.534804
279.431458 -505.633270 0.000077 0.556250
275.043762 -511.095123 0.000050 0.517402
272.599823 -514.137329 0.000076 0.564216
271.039917 -516.079163 0.000002 0.328186
269.955505 -517.429016 -0.000000 0.344118
269.156525 -518.423584 0.000010 0.335294
299.267487 -481.560944 15.922487 0.520588
299.275909 -481.550568 14.007384 0.604902
299.284241 -481.540344 12.118263 0.612132
299.292480 -481.530243 10.250640 0.515441
299.300659 -481.520203 8.400202 0.492402
299.308746 -481.510284 6.562798 0.616667
299.316833 -481.500397 4.734390 0.631985
299.324860 -481.490540 2.911020 0.676225
299.332886 -481.480652 1.088771 0.620588
289.873352 -493.089020 0.000011 0.549265
279.563873 -505.740326 0.000074 0.561765
275.138123 -511.171448 0.000046 0.542157
272.672974 -514.196594 0.000076 0.527083
271.099548 -516.127380 0.000001 0.328554
270.005737 -517.469727 -0.000000 0.344976
269.199890 -518.458557 -0.000003 0.331863
299.372223 -482.043243 15.845750 0.556863
299.380676 -482.033051 13.941184 0.581127
299.388977 -482.022980 12.062469 0.545711
299.397186 -482.013031 10.205132 0.531740
299.405334 -482.003204 8.364891 0.548162
299.413422 -481.993408 6.537619 0.597181
299.421448 -481.983704 4.719298 0.584926
299.429474 -481.973969 2.905991 0.595466
299.437469 -481.964294 1.093803 0.588726
290.093048 -493.269287 0.000009 0.530760
279.695496 -505.848389 0.000074 0.540686
275.231781 -511.248596 0.000077 0.556495
272.745850 -514.256104 0.000052 0.545711
271.158875 -516.176086 0.000001 0.336029
270.055695 -517.510681 0.000000 0.334436
269.242981 -518.493958 -0.000005 0.326471
299.475861 -482.520294 15.770523 0.737132
299.484253 -482.510223 13.876292 0.586029
299.492584 -482.500336 12.007774 0.582353
299.500732 -482.490601 10.160517 0.850980
299.508881 -482.480927 8.330275 0.691912
299.516937 -482.471283 6.512935 0.595588
299.524963 -482.461700 4.704502 0.612500
299.532959 -482.452179 2.901062 0.631250
299.540955 -482.442627 1.098736 0.607230
290.310822 -493.451904 0.000059 0.539093
279.826477 -505.957214 0.000061 0.542157
275.325134 -511.326233 0.000065 0.548284
272.818390 -514.316101 0.000002 0.331373
271.217865 -516.225159 -0.000002 0.338603
270.105438 -517.552002 -0.000000 0.332598
269.285858 -518.529602 -0.000016 0.332843
256.387482 -533.783936 5.003875 0.310417
256.387451 -533.783936 4.590054 0.357598
256.387451 -533.783936 4.182044 0.378554
256.387451 -533.783936 3.778866 0.226471
256.387482 -533.783936 3.379585 0.043627
256.387451 -533.783936 2.983299 0.010172
256.387451 -533.783936 2.589136 0.052451
256.387451 -533.783936 2.196239 0.026716
256.387451 -533.783936 1.803762 0.037500
256.387451 -533.783936 1.410864 0.090686
256.387482 -533.783936 1.016701 0.090196
256.387482 -533.783936 0.620415 0.069975
256.387482 -533.783936 0.221134 0.025000
257.035828 -533.021423 0.000068 0.529167
258.157318 -531.702576 0.000018 0.552328
258.983887 -530.730530 0.000084 0.598529
256.341187 -533.709290 4.997231 0.325123
256.341187 -533.709290 4.584325 0.360784
256.341187 -533.709290 4.177217 0.378922
256.341217 -533.709290 3.774932 0.246691
256.341217 -533.709290 3.376533 0.054657
256.341217 -533.709290 2.981124 0.002083
256.341187 -533.709290 2.587833 0.041789
256.341217 -533.709290 2.195804 0.027451
256.341217 -533.709290 1.804196 0.049632
256.341187 -533.709290 1.412167 0.090196
256.341187 -533.709290 1.018875 0.090809
256.341187 -533.709290 0.623467 0.044730
256.341217 -533.709290 0.225068 0.031005
256.977478 -532.971558 0.000051 0.543995
258.108398 -531.660339 0.000073 0.525490
258.941528 -530.694336 0.000067 0.577083
256.295135 -533.635132 4.990761 0.313603
256.295135 -533.635132 4.578748 0.366054
256.295135 -533.635132 4.172519 0.364706
256.295135 -533.635132 3.771100 0.268260
256.295135 -533.635132 3.373562 0.084191
256.295135 -533.635132 2.979007 0.013480
256.295135 -533.635132 2.586564 0.032108
256.295135 -533.635132 2.195382 0.033578
256.295135 -533.635132 1.804618 0.052574
256.295135 -533.635132 1.413436 0.093382
256.295135 -533.635132 1.020993 0.087377
256.295135 -533.635132 0.626438 0.052083
256.295135 -533.635132 0.228900 0.037745
256.919464 -532.921326 0.000029 0.537623
258.059387 -531.618164 0.000009 0.523039
258.899384 -530.657837 0.000050 0.585172
256.249268 -533.561218 4.984464 0.308824
256.249268 -533.561218 4.573318 0.359314
256.249268 -533.561218 4.167943 0.359926
256.249268 -533.561218 3.767371 0.266299
256.249268 -533.561218 3.370670 0.093873
256.249298 -533.561218 2.976945 0.015074
256.249298 -533.561218 2.585329 0.020956
256.249268 -533.561218 2.194970 0.039706
256.249268 -533.561218 1.805030 0.050000
256.249268 -533.561218 1.414671 0.090074
256.249298 -533.561218 1.023054 0.081863
256.249268 -533.561218 0.629330 0.056127
256.249268 -533.561218 0.232629 0.050245
256.862091 -532.870422 0.000082 0.570221
258.010925 -531.575378 0.000030 0.520956
258.857483 -530.621033 0.000026 0.552696
256.203583 -533.487671 4.978338 0.313848
256.203583 -533.487671 4.568036 0.347917
256.203613 -533.487671 4.163494 0.355515
256.203583 -533.487671 3.763743 0.246691
256.203613 -533.487671 3.367857 0.093995
256.203583 -533.487671 2.974940 0.024877
256.203583 -533.487671 2.584128 0.013971
256.203583 -533.487671 2.194570 0.040564
256.203583 -533.487671 1.805430 0.042892
256.203583 -533.487671 1.415872 0.081740
256.203583 -533.487671 1.025059 0.075000
256.203613 -533.487671 0.632144 0.065931
256.203583 -533.487671 0.236256 0.057966
256.804779 -532.819397 0.000061 0.542157
257.962524 -531.532471 -0.000036 0.532843
258.815857 -530.584045 -0.000008 0.492647
256.158112 -533.414368 4.972383 0.326838
256.158112 -533.414368 4.562901 0.337745
256.158112 -533.414368 4.159168 0.346324
256.158112 -533.414368 3.760217 0.232721
256.158112 -533.414368 3.365121 0.091667
256.158112 -533.414368 2.972991 0.049877
256.158112 -533.414368 2.582960 0.013358
256.158112 -533.414368 2.194181 0.032475
256.158112 -533.414368 1.805819 0.034069
256.158112 -533.414368 1.417040 0.071324
256.158112 -533.414368 1.027009 0.069118
256.158112 -533.414368 0.634879 0.081250
256.158112 -533.414368 0.239783 0.058211
256.747833 -532.767944 0.000035 0.516422
257.914520 -531.489197 -0.000060 0.518015
258.774689 -530.546448 0.000050 0.547304
256.112793 -533.341309 4.966596 0.334069
256.112793 -533.341309 4.557912 0.340441
256.112793 -533.341309 4.154964 0.334804
256.112793 -533.341309 3.756790 0.252819
256.112793 -533.341309 3.362463 0.092647
256.112793 -533.341309 2.971096 0.084804
256.112793 -533.341309 2.581824 0.018505
256.112793 -533.341309 2.193803 0.012132
256.112793 -533.341309 1.806197 0.037377
256.112793 -533.341309 1.418175 0.062377
256.112793 -533.341309 1.028904 0.074632
256.112793 -533.341309 0.637537 0.078799
256.112793 -533.341309 0.243210 0.077819
256.691376 -532.716003 0.000051 0.532108
257.867249 -531.445068 0.000045 0.506618
258.733551 -530.508789 0.000023 0.521201
256.067657 -533.268616 4.960975 0.330270
256.067657 -533.268616 4.553065 0.335662
256.067657 -533.268616 4.150881 0.353554
256.067657 -533.268616 3.753460 0.253064
256.067657 -533.268616 3.359882 0.077206
256.067657 -533.268616 2.969256 0.068505
256.067657 -533.268616 2.580722 0.054534
256.067657 -533.268616 2.193436 0.005025
256.067657 -533.268616 1.806564 0.052819
256.067657 -533.268616 1.419278 0.066176
256.067657 -533.268616 1.030744 0.086642
256.067657 -533.268616 0.640118 0.074755
256.067657 -533.268616 0.246539 0.075735
256.635284 -532.663574 0.000069 0.537500
257.820160 -531.400879 0.000101 0.551348
258.692902 -530.470703 0.000071 0.439216
256.022705 -533.196106 4.955519 0.321691
256.022705 -533.196106 4.548360 0.352696
256.022705 -533.196106 4.146917 0.365809
256.022705 -533.196106 3.750230 0.258333
256.022705 -533.196106 3.357377 0.077328
256.022705 -533.196106 2.967470 0.060539
256.022705 -533.196106 2.579652 0.071814
256.022705 -533.196106 2.193079 0.013113
256.022705 -533.196106 1.806921 0.057721
256.022705 -533.196106 1.420348 0.074020
256.022705 -533.196106 1.032530 0.097672
256.022705 -533.196106 0.642624 0.074387
256.022705 -533.196106 0.249771 0.067279
256.579407 -532.611023 0.000038 0.562990
257.773193 -531.356384 0.000110 0.532230
258.652222 -530.432556 0.000007 0.529779
255.977890 -533.123901 4.950226 0.315809
255.977875 -533.123901 4.543797 0.373897
255.977890 -533.123901 4.143073 0.363848
255.977890 -533.123901 3.747096 0.271078
255.977875 -533.123901 3.354946 0.086152
255.977890 -533.123901 2.965737 0.063235
255.977890 -533.123901 2.578614 0.077328
255.977875 -533.123901 2.192734 0.029289
255.977875 -533.123901 1.807266 0.056863
255.977875 -533.123901 1.421386 0.083824
255.977890 -533.123901 1.034262 0.103064
255.977875 -533.123901 0.645054 0.076348
255.977890 -533.123901 0.252905 0.061765
256.524048 -532.557861 0.000051 0.546691
257.726532 -531.311646 0.000119 0.522181
258.612000 -530.393982 0.000014 0.559559
255.933228 -533.052002 4.945096 0.322917
255.933228 -533.052002 4.539373 0.361887
255.933228 -533.052002 4.139346 0.338480
255.933228 -533.052002 3.744058 0.274877
255.933228 -533.052002 3.352589 0.065074
255.933228 -533.052002 2.964058 0.071814
255.933228 -533.052002 2.577608 0.085294
255.933228 -533.052002 2.192398 0.042279
255.933228 -533.052002 1.807601 0.063480
255.933228 -533.052002 1.422392 0.089828
255.933228 -533.052002 1.035942 0.097549
255.933228 -533.052002 0.647411 0.079167
255.933228 -533.052002 0.255943 0.070711
256.468933 -532.504517 0.000025 0.552328
257.680084 -531.266663 0.000093 0.541299
258.571960 -530.355164 -0.000008 0.510417
255.888733 -532.980286 4.940126 0.316422
255.888733 -532.980286 4.535089 0.351593
255.888733 -532.980286 4.135737 0.342157
255.888733 -532.980286 3.741115 0.236887
255.888733 -532.980286 3.350307 0.050123
255.888733 -532.980286 2.962432 0.071078
255.888748 -532.980286 2.576633 0.072059
255.888733 -532.980286 2.192074 0.057230
255.888733 -532.980286 1.807926 0.070343
255.888748 -532.980286 1.423367 0.092157
255.888733 -532.980286 1.037568 0.100613
255.888733 -532.980286 0.649693 0.097059
255.888733 -532.980286 0.258885 0.074387
256.414124 -532.450745 -0.000007 0.532721
257.633942 -531.221375 0.000063 0.546201
258.532501 -530.315857 0.000077 0.523775
255.844391 -532.908875 4.935317 0.320098
255.844391 -532.908875 4.530941 0.349877
255.844391 -532.908875 4.132243 0.339706
255.844391 -532.908875 3.738266 0.212868
255.844391 -532.908875 3.348098 0.056863
255.844391 -532.908875 2.960857 0.067402
255.844391 -532.908875 2.575690 0.061029
255.844391 -532.908875 2.191760 0.062010
255.844391 -532.908875 1.808240 0.078676
255.844391 -532.908875 1.424310 0.088358
255.844391 -532.908875 1.039143 0.102574
255.844391 -532.908875 0.651902 0.107353
255.844391 -532.908875 0.261734 0.086520
256.360229 -532.396179 0.000087 0.480270
257.588257 -531.175659 0.000076 0.530147
258.492981 -530.276550 0.000051 0.528431
255.800186 -532.837585 4.930665 0.328922
255.800186 -532.837585 4.526931 0.353922
255.800186 -532.837585 4.128864 0.338725
255.800186 -532.837585 3.735512 0.211397
255.800186 -532.837585 3.345962 0.070588
255.800186 -532.837585 2.959335 0.063848
255.800186 -532.837585 2.574778 0.052819
255.800186 -532.837585 2.191456 0.061520
255.800186 -532.837585 1.808544 0.087868
255.800186 -532.837585 1.425222 0.083824
255.800186 -532.837585 1.040665 0.100613
255.800186 -532.837585 0.654038 0.113113
255.800186 -532.837585 0.264488 0.095221
256.306335 -532.341553 0.000095 0.615931
257.542847 -531.129639 0.000079 0.491422
258.454102 -530.236572 0.000146 0.577328
255.756119 -532.766602 4.926171 0.335907
255.756119 -532.766602 4.523055 0.357966
255.756119 -532.766602 4.125599 0.353064
255.756119 -532.766602 3.732851 0.242892
255.756119 -532.766602 3.343898 0.070466
255.756119 -532.766602 2.957863 0.060907
255.756119 -532.766602 2.573896 0.045343
255.756119 -532.766602 2.191162 0.062745
255.756119 -532.766602 1.808838 0.096569
255.756119 -532.766602 1.426104 0.085172
255.756119 -532.766602 1.042136 0.091912
255.756119 -532.766602 0.656102 0.122549
255.756119 -532.766602 0.267149 0.085049
256.252716 -532.286621 0.000068 0.530637
257.497681 -531.083374 0.000052 0.528922
258.415131 -530.196716 0.000117 0.540441
255.712189 -532.695862 4.921833 0.316667
255.712189 -532.695862 4.519314 0.366422
255.712189 -532.695862 4.122447 0.381618
255.712189 -532.695862 3.730281 0.233946
255.712189 -532.695862 3.341905 0.065319
255.712189 -532.695862 2.956443 0.053799
255.712189 -532.695862 2.573045 0.054902
255.712189 -532.695862 2.190879 0.058088
255.712189 -532.695862 1.809121 0.097181
255.712189 -532.695862 1.426955 0.087500
255.712189 -532.695862 1.043557 0.078554
255.712189 -532.695862 0.658095 0.118137
255.712189 -532.695862 0.269719 0.073652
256.199615 -532.231323 0.000072 0.520343
257.453094 -531.036621 0.000101 0.514461
258.376556 -530.156494 0.000126 0.520588
255.668381 -532.625244 4.917649 0.309559
255.668381 -532.625244 4.515707 0.372181
255.668381 -532.625244 4.119409 0.396201
255.668381 -532.625244 3.727804 0.214706
255.668381 -532.625244 3.339984 0.067279
255.668381 -532.625244 2.955074 0.054534
255.668381 -532.625244 2.572225 0.056985
255.668381 -532.625244 2.190605 0.052941
255.668381 -532.625244 1.809394 0.101103
255.668381 -532.625244 1.427775 0.093260
255.668381 -532.625244 1.044926 0.073407
255.668381 -532.625244 0.660016 0.099142
255.668381 -532.625244 0.272196 0.076225
256.146729 -532.175659 0.000042 0.560172
257.408661 -530.989685 0.000108 0.544240
258.338135 -530.116150 0.000085 0.600245
255.624695 -532.554871 4.913620 0.312255
255.624695 -532.554871 4.512232 0.372549
255.624695 -532.554871 4.116481 0.400613
255.624695 -532.554871 3.725418 0.197304
255.624695 -532.554871 3.338133 0.073039
255.624695 -532.554871 2.953755 0.059681
255.624695 -532.554871 2.571435 0.054902
255.624695 -532.554871 2.190342 0.046569
255.624695 -532.554871 1.809658 0.103554
255.624695 -532.554871 1.428565 0.102819
255.624695 -532.554871 1.046245 0.074142
255.624695 -532.554871 0.661867 0.074510
255.624695 -532.554871 0.274583 0.080760
256.094269 -532.119629 0.000014 0.537132
257.364441 -530.942505 0.000071 0.524877
258.300049 -530.075378 0.000061 0.525123
255.581131 -532.484680 4.909741 0.333456
255.581131 -532.484680 4.508890 0.364951
255.581131 -532.484680 4.113665 0.394975
255.581131 -532.484680 3.723122 0.199142
255.581131 -532.484680 3.336353 0.076961
255.581131 -532.484680 2.952486 0.066422
255.581131 -532.484680 2.570674 0.054657
255.581131 -532.484680 2.190089 0.038113
255.581131 -532.484680 1.809911 0.097672
255.581131 -532.484680 1.429326 0.113603
255.581131 -532.484680 1.047514 0.076838
255.581131 -532.484680 0.663647 0.058211
255.581131 -532.484680 0.276879 0.070588
256.041992 -532.063477 -0.000064 0.533088
257.320435 -530.895142 0.000007 0.588480
258.262085 -530.034607 -0.000011 0.552819
255.537674 -532.414673 4.906017 0.337255
255.537674 -532.414673 4.505677 0.371324
255.537674 -532.414673 4.110959 0.382721
255.537674 -532.414673 3.720916 0.213971
255.537674 -532.414673 3.334641 0.072304
255.537674 -532.414673 2.951266 0.063725
255.537674 -532.414673 2.569943 0.043382
255.537674 -532.414673 2.189846 0.025490
255.537674 -532.414673 1.810155 0.104412
255.537674 -532.414673 1.430056 0.116667
255.537674 -532.414673 1.048733 0.081005
255.537674 -532.414673 0.665358 0.060049
255.537674 -532.414673 0.279085 0.048897
255.990799 -532.006348 0.000025 0.536152
257.277283 -530.847046 0.000092 0.541544
258.225006 -529.992981 0.000117 0.551103
255.494324 -532.344849 4.902442 0.322917
255.494324 -532.344849 4.502595 0.368750
255.494324 -532.344849 4.108362 0.386765
255.494324 -532.344849 3.718799 0.208333
255.494324 -532.344849 3.332999 0.065564
255.494324 -532.344849 2.950096 0.054044
255.494324 -532.344849 2.569242 0.039216
255.494324 -532.344849 2.189612 0.016176
255.494324 -532.344849 1.810388 0.099142
255.494324 -532.344849 1.430757 0.122181
255.494324 -532.344849 1.049904 0.083088
255.494324 -532.344849 0.667000 0.065319
255.494324 -532.344849 0.281202 0.043995
255.939316 -531.949402 -0.000046 0.549510
257.233765 -530.799194 -0.000027 0.523775
258.187622 -529.951599 0.000042 0.573039
255.451096 -532.275146 4.899017 0.307966
255.451096 -532.275146 4.499642 0.354657
255.451096 -532.275146 4.105874 0.393995
255.451096 -532.275146 3.716770 0.204902
255.451096 -532.275146 3.331427 0.061397
255.451096 -532.275146 2.948975 0.049877
255.451096 -532.275146 2.568571 0.036765
255.451096 -532.275146 2.189388 0.011765
255.451096 -532.275146 1.810612 0.089093
255.451096 -532.275146 1.431429 0.125858
255.451096 -532.275146 1.051025 0.085049
255.451096 -532.275146 0.668573 0.067892
255.451096 -532.275146 0.283230 0.053676
255.888809 -531.891663 0.000013 0.537868
257.191010 -530.750671 -0.000020 0.534559
258.150696 -529.909851 0.000042 0.537623
255.407959 -532.205627 4.895741 0.327451
255.407959 -532.205627 4.496818 0.334681
255.407959 -532.205627 4.103495 0.389338
255.407959 -532.205627 3.714830 0.213235
255.407959 -532.205627 3.329922 0.066789
255.407959 -532.205627 2.947903 0.071324
255.407959 -532.205627 2.567928 0.028431
255.407959 -532.205627 2.189174 0.018995
255.407959 -532.205627 1.810826 0.081373
255.407959 -532.205627 1.432072 0.120098
255.407959 -532.205627 1.052097 0.094363
255.407959 -532.205627 0.670078 0.060172
255.407959 -532.205627 0.285170 0.069485
255.838806 -531.833435 0.000101 0.553309
257.148590 -530.701965 -0.000020 0.549142
258.114655 -529.867371 0.000219 0.522304
255.364914 -532.136292 4.892614 0.324020
255.364914 -532.136292 4.494122 0.335049
255.364914 -532.136292 4.101223 0.371691
255.364914 -532.136292 3.712979 0.211642
255.364914 -532.136292 3.328486 0.074265
255.364914 -532.136292 2.946879 0.080270
255.364914 -532.136292 2.567315 0.034926
255.364914 -532.136292 2.188970 0.030637
255.364914 -532.136292 1.811030 0.087010
255.364914 -532.136292 1.432685 0.108824
255.364914 -532.136292 1.053121 0.108946
255.364914 -532.136292 0.671514 0.056495
255.364914 -532.136292 0.287021 0.071936
255.788864 -531.775208 0.000106 0.522794
257.106537 -530.652832 -0.000010 0.522304
258.078400 -529.825012 0.000223 0.539461
255.321960 -532.067078 4.889634 0.315074
255.321960 -532.067078 4.491552 0.346569
255.321960 -532.067078 4.099059 0.352083
255.321960 -532.067078 3.711214 0.201348
255.321960 -532.067078 3.327118 0.076838
255.321960 -532.067078 2.945903 0.080760
255.321960 -532.067078 2.566730 0.040686
255.321960 -532.067078 2.188775 0.037745
255.321960 -532.067078 1.811225 0.093505
255.321960 -532.067078 1.433269 0.103554
255.321960 -532.067078 1.054096 0.119240
255.321960 -532.067078 0.672882 0.065564
255.321960 -532.067078 0.288786 0.069485
255.739334 -531.716614 0.000111 0.543015
257.064667 -530.603577 -0.000045 0.579412
258.042419 -529.782471 0.000223 0.500613
255.279099 -531.997986 4.886801 0.304779
255.279099 -531.997986 4.489109 0.363113
255.279099 -531.997986 4.097001 0.336275
255.279099 -531.997986 3.709536 0.186887
255.279099 -531.997986 3.325816 0.074510
255.279099 -531.997986 2.944976 0.072917
255.279099 -531.997986 2.566175 0.043873
255.279099 -531.997986 2.188590 0.040319
255.279099 -531.997986 1.811410 0.098039
255.279099 -531.997986 1.433825 0.102819
255.279099 -531.997986 1.055024 0.121691
255.279099 -531.997986 0.674184 0.084436
255.279099 -531.997986 0.290464 0.065196
255.690216 -531.657593 0.000115 0.537255
257.023560 -530.553650 0.000039 0.561887
258.006470 -529.739807 0.000149 0.520098
255.236313 -531.929077 4.884113 0.325980
255.236313 -531.929077 4.486792 0.361765
255.236313 -531.929077 4.095048 0.334926
255.236313 -531.929077 3.707944 0.183088
255.236313 -531.929077 3.324582 0.064828
255.236313 -531.929077 2.944096 0.048897
255.236313 -531.929077 2.565648 0.046569
255.236313 -531.929077 2.188415 0.042034
255.236313 -531.929077 1.811585 0.096324
255.236313 -531.929077 1.434352 0.100980
255.236313 -531.929077 1.055903 0.113113
255.236313 -531.929077 0.675418 0.102574
255.236313 -531.929077 0.292055 0.068260
255.641479 -531.598328 0.000118 0.497181
256.982666 -530.503540 0.000090 0.500490
257.970947 -529.696899 0.000110 0.566667
255.193604 -531.860291 4.881572 0.324142
255.193604 -531.860291 4.484600 0.360417
255.193604 -531.860291 4.093202 0.349265
255.193604 -531.860291 3.706439 0.183824
255.193604 -531.860291 3.323415 0.063235
255.193604 -531.860291 2.943264 0.034804
255.193604 -531.860291 2.565149 0.042279
255.193604 -531.860291 2.188249 0.056250
255.193604 -531.860291 1.811751 0.096446
255.193604 -531.860291 1.434851 0.094118
255.193604 -531.860291 1.056735 0.099142
255.193604 -531.860291 0.676586 0.101103
255.193604 -531.860291 0.293561 0.076348
255.593033 -531.538879 0.000084 0.538235
256.942017 -530.453308 0.000095 0.558824
257.935883 -529.653564 0.000112 0.504657
255.150970 -531.791565 4.879175 0.320343
255.150970 -531.791565 4.482533 0.361642
255.150970 -531.791565 4.091461 0.356373
255.150970 -531.791565 3.705020 0.180882
255.150970 -531.791565 3.322314 0.066422
255.150970 -531.791565 2.942479 0.036152
255.150970 -531.791565 2.564679 0.039338
255.150970 -531.791565 2.188092 0.066912
255.150970 -531.791565 1.811908 0.100000
255.150970 -531.791565 1.435321 0.089338
255.150970 -531.791565 1.057520 0.094975
255.150970 -531.791565 0.677686 0.090931
255.150970 -531.791565 0.294980 0.082108
255.544754 -531.479187 -0.000001 0.547426
256.901825 -530.402710 0.000148 0.528922
257.901093 -529.609985 0.000120 0.520221
255.108414 -531.723022 4.876921 0.321446
255.108414 -531.723022 4.480590 0.364583
255.108414 -531.723022 4.089824 0.358456
255.108414 -531.723022 3.703685 0.171936
255.108414 -531.723022 3.321279 0.074755
255.108414 -531.723022 2.941742 0.052574
255.108414 -531.723022 2.564237 0.038848
255.108414 -531.723022 2.187945 0.071691
255.108414 -531.723022 1.812055 0.108088
255.108414 -531.723022 1.435763 0.086520
255.108414 -531.723022 1.058258 0.099755
255.108414 -531.723022 0.678721 0.073529
255.108414 -531.723022 0.296315 0.082108
255.497330 -531.418884 0.000010 0.556250
256.861847 -530.351929 0.000147 0.515931
257.866608 -529.566223 0.000120 0.531005
255.065903 -531.654541 4.874812 0.322059
255.065903 -531.654541 4.478771 0.358824
255.065918 -531.654541 4.088291 0.370098
255.065903 -531.654541 3.702436 0.159559
255.065903 -531.654541 3.320310 0.073775
255.065903 -531.654541 2.941051 0.042892
255.065903 -531.654541 2.563823 0.038848
255.065903 -531.654541 2.187807 0.055392
255.065903 -531.654541 1.812193 0.111642
255.065903 -531.654541 1.436176 0.081863
255.065918 -531.654541 1.058948 0.094363
255.065903 -531.654541 0.679690 0.065564
255.065918 -531.654541 0.297564 0.062255
255.451233 -531.357544 0.000229 0.527819
256.822205 -530.300842 0.000154 0.541667
257.832581 -529.522095 0.000164 0.566789
255.023468 -531.586121 4.872845 0.318137
255.023468 -531.586121 4.477075 0.354412
255.023468 -531.586121 4.086863 0.355760
255.023468 -531.586121 3.701272 0.167157
255.023468 -531.586121 3.319407 0.063358
255.023468 -531.586121 2.940407 0.039216
255.023468 -531.586121 2.563438 0.039216
255.023468 -531.586121 2.187679 0.050245
255.023468 -531.586121 1.812321 0.106127
255.023468 -531.586121 1.436562 0.085662
255.023468 -531.586121 1.059592 0.085907
255.023468 -531.586121 0.680593 0.070956
255.023468 -531.586121 0.298728 0.054534
255.404617 -531.296631 0.000230 0.517402
256.783264 -530.249268 0.000247 0.526593
257.798706 -529.477783 0.000166 0.556740
254.981079 -531.517883 4.871021 0.314338
254.981079 -531.517883 4.475502 0.352083
254.981079 -531.517883 4.085537 0.332353
254.981079 -531.517883 3.700191 0.189583
254.981079 -531.517883 3.318569 0.050490
254.981079 -531.517883 2.939810 0.036029
254.981079 -531.517883 2.563080 0.037377
254.981079 -531.517883 2.187559 0.051961
254.981079 -531.517883 1.812441 0.096324
254.981079 -531.517883 1.436920 0.092770
254.981079 -531.517883 1.060189 0.077941
254.981079 -531.517883 0.681431 0.077696
254.981079 -531.517883 0.299809 0.056250
255.358047 -531.235657 0.000147 0.564828
256.744171 -530.197754 0.000196 0.495221
257.765015 -529.433411 0.000126 0.537010
254.938751 -531.449646 4.869339 0.321691
254.938751 -531.449646 4.474053 0.353309
254.938751 -531.449646 4.084315 0.317892
254.938751 -531.449646 3.699195 0.203922
254.938751 -531.449646 3.317796 0.044975
254.938751 -531.449646 2.939260 0.023897
254.938751 -531.449646 2.562750 0.029044
254.938751 -531.449646 2.187449 0.057475
254.938751 -531.449646 1.812551 0.087377
254.938751 -531.449646 1.437250 0.093995
254.938751 -531.449646 1.060740 0.073284
254.938751 -531.449646 0.682204 0.074877
254.938751 -531.449646 0.300805 0.068015
255.312286 -531.174011 0.000150 0.511029
256.705658 -530.145813 0.000208 0.533946
257.731750 -529.388672 0.000126 0.517402
254.896469 -531.381531 4.867798 0.331740
254.896469 -531.381531 4.472725 0.345343
254.896469 -531.381531 4.083197 0.347304
254.896469 -531.381531 3.698283 0.191912
254.896469 -531.381531 3.317089 0.052696
254.896469 -531.381531 2.938756 0.023897
254.896469 -531.381531 2.562448 0.020343
254.896469 -531.381531 2.187349 0.055392
254.896469 -531.381531 1.812651 0.074510
254.896469 -531.381531 1.437552 0.094118
254.896469 -531.381531 1.061244 0.079902
254.896469 -531.381531 0.682911 0.064951
254.896469 -531.381531 0.301717 0.070833
255.267090 -531.112000 0.000185 0.539583
256.667419 -530.093750 0.000198 0.520466
257.698944 -529.343628 0.000159 0.525490
254.854233 -531.313416 4.866400 0.340931
254.854233 -531.313416 4.471518 0.339093
254.854233 -531.313416 4.082180 0.369608
254.854233 -531.313416 3.697454 0.184314
254.854233 -531.313416 3.316447 0.058333
254.854233 -531.313416 2.938297 0.034804
254.854233 -531.313416 2.562174 0.012990
254.854233 -531.313416 2.187257 0.053799
254.854233 -531.313416 1.812743 0.069730
254.854233 -531.313416 1.437826 0.086397
254.854233 -531.313416 1.061702 0.084314
254.854233 -531.313416 0.683553 0.061765
254.854233 -531.313416 0.302546 0.062500
255.222229 -531.049744 0.000194 0.564338
256.629578 -530.041321 0.000199 0.535784
257.666199 -529.298523 0.000121 0.554412
254.812027 -531.245422 4.865141 0.346446
254.812027 -531.245422 4.470433 0.336275
254.812027 -531.245422 4.081266 0.376226
254.812027 -531.245422 3.696709 0.187132
254.812027 -531.245422 3.315869 0.059559
254.812027 -531.245422 2.937886 0.054044
254.812027 -531.245422 2.561927 0.009191
254.812027 -531.245422 2.187175 0.053676
254.812027 -531.245422 1.812825 0.073407
254.812027 -531.245422 1.438073 0.071936
254.812027 -531.245422 1.062114 0.082966
254.812027 -531.245422 0.684131 0.067892
254.812027 -531.245422 0.303291 0.044608
255.177750 -530.987244 0.000193 0.499510
256.592163 -529.988647 0.000209 0.520098
257.633911 -529.253052 0.000129 0.562500
254.769867 -531.177490 4.864024 0.332721
254.769867 -531.177490 4.469470 0.339461
254.769867 -531.177490 4.080455 0.368505
254.769867 -531.177490 3.696048 0.200980
254.769867 -531.177490 3.315355 0.065319
254.769867 -531.177490 2.937520 0.058333
254.769867 -531.177490 2.561708 0.020343
254.769867 -531.177490 2.187102 0.049632
254.769867 -531.177490 1.812898 0.069975
254.769867 -531.177490 1.438292 0.073529
254.769867 -531.177490 1.062480 0.072917
254.769867 -531.177490 0.684645 0.073897
254.769867 -531.177490 0.303953 0.033824
255.133331 -530.924683 0.000111 0.547059
256.554688 -529.935913 0.000116 0.516422
257.601929 -529.207458 0.000132 0.562623
254.727722 -531.109619 4.863047 0.327696
254.727722 -531.109619 4.468626 0.353922
254.727722 -531.109619 4.079745 0.370466
254.727722 -531.109619 3.695469 0.190931
254.727722 -531.109619 3.314907 0.071201
254.727722 -531.109619 2.937200 0.063480
254.727722 -531.109619 2.561516 0.029167
254.727722 -531.109619 2.187038 0.038848
254.727722 -531.109619 1.812962 0.071324
254.727722 -531.109619 1.438484 0.090074
254.727722 -531.109619 1.062800 0.069608
254.727722 -531.109619 0.685093 0.068750
254.727722 -531.109619 0.304531 0.036397
255.089890 -530.861389 0.000144 0.520466
256.518097 -529.882629 0.000153 0.541789
257.570374 -529.161499 0.000166 0.524387
254.685623 -531.041748 4.862209 0.325123
254.685623 -531.041748 4.467905 0.367034
254.685623 -531.041748 4.079137 0.373652
254.685623 -531.041748 3.694973 0.174265
254.685623 -531.041748 3.314522 0.072917
254.685608 -531.041748 2.936926 0.065686
254.685608 -531.041748 2.561352 0.036275
254.685623 -531.041748 2.186984 0.032843
254.685608 -531.041748 1.813016 0.084191
254.685608 -531.041748 1.438648 0.104167
254.685608 -531.041748 1.063074 0.071814
254.685623 -531.041748 0.685478 0.060662
254.685623 -531.041748 0.305027 0.044118
255.046768 -530.797974 0.000150 0.547059
256.481750 -529.829163 0.000154 0.500490
257.539032 -529.115417 0.000168 0.544240
254.643524 -530.973938 4.861512 0.323284
254.643524 -530.973938 4.467304 0.366789
254.643524 -530.973938 4.078630 0.371814
254.643524 -530.973938 3.694560 0.176593
254.643524 -530.973938 3.314202 0.065319
254.643524 -530.973938 2.936698 0.058701
254.643524 -530.973938 2.561215 0.039338
254.643524 -530.973938 2.186938 0.034559
254.643524 -530.973938 1.813062 0.109681
