# This PCD file was generated using the MATLABÂ® pcwrite function
# from Computer Vision ToolboxÂ®.
# .PCD v.7 - Point Cloud Data file format
VERSION .7
FIELDS x y z intensity
SIZE 4 4 4 4
TYPE F F F F
COUNT 1 1 1 1
WIDTH 1258
HEIGHT 1
VIEWPOINT 0 0 0 1 0 0 0
POINTS 1258
DATA ascii
314.174011 -513.003052 -0.000111 0.537745
316.351196 -511.791260 -0.000049 0.527083
317.863983 -510.949310 -0.000103 0.542034
318.978943 -510.328735 -0.000039 0.528186
311.655884 -514.274353 6.083585 0.726593
311.656799 -514.273865 5.520799 0.540564
311.657654 -514.273376 4.965987 0.514583
311.658539 -514.272949 4.417813 0.596078
311.659393 -514.272461 3.875002 0.734681
311.660248 -514.271973 3.336328 0.658211
311.661102 -514.271484 2.800602 0.551225
311.661957 -514.271057 2.266661 0.503309
311.662781 -514.270569 1.733355 0.548774
311.663666 -514.270081 1.199541 0.691422
311.664520 -514.269653 0.664071 0.585784
310.705383 -514.794739 -0.000122 0.528676
314.128510 -512.920654 -0.000111 0.545098
316.313995 -511.724152 -0.000074 0.569485
317.832733 -510.892700 -0.000103 0.545956
318.951996 -510.279938 -0.000036 0.533946
311.622711 -514.162964 6.077568 0.618995
311.623627 -514.162476 5.515612 0.559436
311.624481 -514.161987 4.961617 0.636152
311.625397 -514.161560 4.414250 0.594240
311.626251 -514.161072 3.872240 0.639216
311.627106 -514.160583 3.334359 0.549142
311.627960 -514.160156 2.799423 0.526716
311.628815 -514.159668 2.266268 0.585172
311.629639 -514.159241 1.733748 0.546569
311.630524 -514.158752 1.200720 0.547549
311.631378 -514.158325 0.666039 0.580760
310.647369 -514.688110 -0.000135 0.527941
314.083527 -512.837952 -0.000122 0.553431
316.277344 -511.656769 -0.000087 0.502328
317.801849 -510.835907 -0.000115 0.527451
318.925232 -510.231018 -0.000079 0.493873
311.589661 -514.051880 6.071765 0.656373
311.590546 -514.051392 5.510611 0.530025
311.591431 -514.050903 4.957403 0.603922
311.592346 -514.050476 4.410815 0.639828
311.593201 -514.050049 3.869576 0.650368
311.594055 -514.049561 3.332460 0.697794
311.594910 -514.049072 2.798285 0.554289
311.595734 -514.048645 2.265889 0.688113
311.596619 -514.048157 1.734126 0.593137
311.597473 -514.047729 1.201857 0.756985
311.598328 -514.047302 0.667936 0.616299
310.590210 -514.581055 -0.000133 0.526348
314.039185 -512.754944 -0.000124 0.533578
316.241180 -511.589050 -0.000087 0.568015
317.771545 -510.778778 -0.000076 0.572059
318.899017 -510.181824 -0.000075 0.525123
311.556702 -513.941101 6.066179 0.586520
311.557587 -513.940613 5.505795 0.682843
311.558472 -513.940186 4.953346 0.639951
311.559357 -513.939697 4.407507 0.610294
311.560211 -513.939270 3.867011 0.558211
311.561066 -513.938782 3.330633 0.517034
311.561920 -513.938354 2.797190 0.606863
311.562805 -513.937927 2.265525 0.540319
311.563660 -513.937500 1.734491 0.573284
311.564514 -513.937012 1.202952 0.573407
311.565369 -513.936584 0.669763 0.580637
310.533783 -514.473572 -0.000135 0.536397
313.995422 -512.671570 -0.000122 0.526961
316.205505 -511.521118 -0.000086 0.537745
317.741516 -510.721558 -0.000074 0.533456
318.873108 -510.132477 -0.000075 0.518995
311.523834 -513.830627 6.060805 0.543505
311.524719 -513.830139 5.501161 0.530760
311.525604 -513.829712 4.949443 0.489216
311.526489 -513.829224 4.404326 0.561152
311.527344 -513.828796 3.864543 0.496324
311.528198 -513.828369 3.328874 0.510172
311.529083 -513.827942 2.796137 0.456005
311.529938 -513.827515 2.265174 0.543137
311.530792 -513.827087 1.734842 0.568750
311.531647 -513.826599 1.204005 0.549265
311.532501 -513.826172 0.671521 0.562745
310.478027 -514.365723 -0.000145 0.544240
313.952179 -512.587952 -0.000134 0.539338
316.170258 -511.452942 -0.000097 0.525368
317.711823 -510.664124 -0.000087 0.583333
318.847534 -510.082947 -0.000073 0.544240
310.972015 -513.981445 6.201170 0.578799
310.981262 -513.976807 5.620167 0.602574
310.990417 -513.972229 5.048024 0.596201
310.999390 -513.967651 4.483343 0.588971
311.008301 -513.963196 3.924789 0.596691
311.017181 -513.958740 3.371078 0.564216
311.025970 -513.954346 2.820989 0.585907
311.034698 -513.949890 2.273307 0.596201
311.043427 -513.945557 1.726853 0.588726
311.052155 -513.941162 1.180452 0.586152
311.060883 -513.936768 0.632929 0.587010
310.423096 -514.257507 -0.000145 0.540809
313.909821 -512.503906 -0.000093 0.532475
316.135315 -511.384644 -0.000144 0.537623
317.682556 -510.606476 -0.000086 0.549387
318.822327 -510.033234 -0.000074 0.530882
310.311401 -514.177368 6.371146 0.609191
310.321564 -514.172302 5.766522 0.567892
310.331512 -514.167419 5.171163 0.553064
310.341309 -514.162537 4.583606 0.607108
310.350952 -514.157776 4.002455 0.561765
310.360504 -514.153076 3.426375 0.552451
310.370239 -514.148254 2.854069 0.596078
310.379669 -514.143616 2.284314 0.547304
310.389130 -514.138916 1.715858 0.601348
310.398590 -514.134216 1.147485 0.552083
310.408020 -514.129578 0.577967 0.539216
310.369293 -514.148743 -0.000102 0.533824
313.867859 -512.419678 -0.000093 0.545098
316.101105 -511.315948 -0.000143 0.534314
317.653625 -510.548676 -0.000110 0.530270
318.797455 -509.983337 -0.000072 0.557598
309.595215 -514.389648 6.555654 0.584436
309.606110 -514.384338 5.925437 0.568750
309.617035 -514.379089 5.304857 0.462500
309.627747 -514.373840 4.692446 0.451471
309.638245 -514.368774 4.086762 0.574142
309.648682 -514.363708 3.486390 0.584681
309.659180 -514.358582 2.889987 0.613725
309.669556 -514.353577 2.296261 0.438726
309.679810 -514.348572 1.703926 0.482353
309.690125 -514.343567 1.111703 0.557843
309.700378 -514.338562 0.518323 1.000000
310.316406 -514.039490 -0.000037 0.537623
313.826843 -512.334961 -0.000028 0.521324
316.067627 -511.246887 -0.000083 0.550490
317.625427 -510.490448 -0.000046 0.506005
318.773193 -509.933167 -0.000000 0.332108
308.815796 -514.620728 6.756672 0.593627
308.827759 -514.615051 6.098521 0.584681
308.839752 -514.609314 5.450466 0.588726
308.851349 -514.603821 4.811014 0.601348
308.862823 -514.598328 4.178596 0.587745
308.874329 -514.592834 3.551752 0.583578
308.885620 -514.587463 2.929104 0.596691
308.896790 -514.582092 2.309278 0.566422
308.908081 -514.576721 1.690927 0.580147
308.919342 -514.571350 1.072731 0.594485
308.930786 -514.565918 0.453378 1.000000
310.263672 -513.930176 -0.000050 0.529412
313.785950 -512.250183 -0.000041 0.522181
316.034271 -511.177765 -0.000094 0.522917
317.597321 -510.432251 -0.000060 0.524020
318.749023 -509.882935 -0.000001 0.337132
307.964325 -514.873169 6.976520 0.541667
307.977509 -514.867004 6.287802 0.579657
307.990509 -514.860901 5.609733 0.550368
308.003235 -514.854980 4.940673 0.540441
308.015869 -514.849060 4.279014 0.542770
308.028564 -514.843079 3.623217 0.562745
308.041046 -514.837280 2.971861 0.532108
308.053375 -514.831482 2.323499 0.534314
308.065674 -514.825745 1.676723 0.556985
308.078033 -514.819946 1.030145 0.565809
308.090576 -514.814087 0.382397 1.000000
310.211792 -513.820435 -0.000049 0.543750
313.745697 -512.165039 -0.000041 0.523039
316.001495 -511.108398 -0.000092 0.517279
317.569702 -510.373810 -0.000060 0.547672
318.725189 -509.832520 -0.000000 0.329779
307.030304 -515.150146 7.217945 0.639828
307.044830 -515.143433 6.495654 0.590931
307.059113 -515.136902 5.784595 0.561397
307.073242 -515.130371 5.083006 0.205760
307.087189 -515.123962 4.389233 0.293995
307.101105 -515.117554 3.701670 0.579044
307.114960 -515.111206 3.018795 0.568015
307.128387 -515.105042 2.339113 0.355515
307.142151 -515.098694 1.661135 0.223284
307.155823 -515.092407 0.983415 0.554902
307.169495 -515.086121 0.304500 1.000000
310.160706 -513.710327 -0.000051 0.536274
313.706055 -512.079651 -0.000040 0.579289
315.969360 -511.038666 -0.000055 0.549877
317.542542 -510.315125 -0.000044 0.545711
318.736603 -509.765900 0.009623 1.000000
306.001038 -515.455261 7.484256 0.603186
306.017059 -515.448059 6.724929 0.590564
306.032928 -515.440857 5.977448 0.579044
306.048553 -515.433838 5.239985 0.574632
306.064056 -515.426819 4.510790 0.597794
306.079407 -515.419922 3.788184 0.606373
306.094666 -515.412964 3.070553 0.590931
306.109650 -515.406250 2.356327 0.577328
306.124756 -515.399414 1.643944 0.317034
306.139923 -515.392578 0.931887 0.596814
306.155151 -515.385681 0.218631 1.000000
310.110352 -513.599915 -0.000051 0.545588
313.666870 -511.994080 -0.000063 0.541544
315.937561 -510.968842 -0.000053 0.536520
317.515747 -510.256287 -0.000046 0.542402
318.714294 -509.715149 0.009809 1.000000
304.861023 -515.793274 7.779494 0.239216
304.878845 -515.785339 6.979079 0.564216
304.896454 -515.777588 6.191225 0.581740
304.913849 -515.769836 5.413991 0.378922
304.931183 -515.762146 4.645509 0.246324
304.948181 -515.754639 3.884062 0.597672
305.744141 -515.401917 3.086052 0.594608
305.745300 -515.401428 2.361737 0.615809
305.746490 -515.400879 1.638284 0.613725
305.747681 -515.400330 0.914139 0.610172
305.748871 -515.399841 0.187747 0.616544
310.060699 -513.489136 -0.000062 0.532966
313.628387 -511.908203 -0.000073 0.535172
315.906189 -510.898834 -0.000065 0.551593
317.489532 -510.197205 -0.000001 0.332475
318.691620 -509.664520 0.009799 1.000000
303.590881 -516.169861 8.108730 0.579167
303.611145 -516.161072 7.262408 0.587745
303.630737 -516.152527 6.429530 0.599387
303.650238 -516.144104 5.607929 0.608578
303.669464 -516.135742 4.795691 0.596936
303.688690 -516.127380 3.990908 0.586765
305.100891 -515.513367 3.117187 0.587990
304.276398 -515.871826 2.386841 0.632353
304.277649 -515.871277 1.613181 0.616054
304.278900 -515.870728 0.838780 0.587990
303.586273 -516.171875 -0.000067 0.544240
310.011902 -513.377991 -0.000061 0.529779
313.590546 -511.821991 -0.000073 0.529412
315.875336 -510.828583 -0.000064 0.524510
317.463531 -510.138000 -0.000001 0.334436
318.633453 -509.629333 -0.000001 0.332843
302.167328 -516.591980 8.478056 0.662377
302.190094 -516.582275 7.580281 0.575123
302.212433 -516.572754 6.696799 0.564706
302.234497 -516.563354 5.825414 0.565319
302.256226 -516.554016 4.964046 0.588603
302.277832 -516.544861 4.110700 0.558456
302.299225 -516.535706 3.263467 0.557108
302.320343 -516.526672 2.420478 0.633211
302.341797 -516.517578 1.579902 0.538113
302.363007 -516.508545 0.739940 0.587500
303.518921 -516.015503 -0.000066 0.537255
309.963928 -513.266541 -0.000060 0.540196
313.553314 -511.735535 -0.000072 0.554779
315.844971 -510.758087 -0.000064 0.554534
317.437988 -510.078644 -0.000001 0.326471
318.611389 -509.578125 -0.000001 0.341912
300.560852 -517.068237 8.895164 0.573162
300.586578 -517.057495 7.939256 0.332843
300.611908 -517.046875 6.998650 0.568137
300.636780 -517.036499 6.071046 0.566054
300.661591 -517.026123 5.154172 0.371936
300.686127 -517.015869 4.245955 0.516912
300.710388 -517.005676 3.344355 0.568137
300.734467 -516.995605 2.447371 0.556250
300.758698 -516.985535 1.553059 0.434559
300.782776 -516.975403 0.659501 0.572426
303.452698 -515.858643 -0.000064 0.545711
309.916534 -513.154785 -0.000080 0.519363
313.516724 -511.648834 -0.000072 0.540196
315.815094 -510.687378 -0.000063 0.527451
317.453491 -510.002075 0.009519 1.000000
318.589691 -509.526764 -0.000001 0.334314
298.733032 -517.610168 9.370112 0.575245
298.762451 -517.598145 8.347922 0.582721
298.791504 -517.586182 7.342219 0.587745
298.820129 -517.574463 6.350549 0.590319
298.848389 -517.562866 5.370517 0.587745
298.876373 -517.551392 4.399855 0.587377
298.904144 -517.539978 3.436378 0.586642
298.931824 -517.528625 2.477962 0.587132
298.959381 -517.517334 1.522525 0.587990
298.987000 -517.506042 0.568018 0.588726
303.387238 -515.701416 -0.000088 0.546446
309.869904 -513.042725 -0.000103 0.529289
313.480530 -511.561890 -0.000094 0.537377
315.785553 -510.616608 -0.000106 0.547059
317.430084 -509.942139 0.009801 1.000000
318.568390 -509.475281 -0.000001 0.326593
nan nan nan 0.000000
nan nan nan 0.000000
256.694550 -534.287781 15.582630 0.571078
256.694550 -534.287781 13.072954 0.182475
256.699127 -534.285950 10.586974 0.088358
256.699127 -534.285950 8.120365 0.405024
256.699127 -534.285950 5.666968 0.045466
256.699127 -534.285950 3.221450 0.065931
256.699127 -534.285950 0.778550 0.071446
288.182159 -521.630127 -0.000019 0.332230
303.323212 -515.543579 -0.000086 0.526348
309.824249 -512.930237 -0.000101 0.533211
313.445160 -511.474670 -0.000092 0.534191
315.757172 -510.545258 -0.000002 0.327451
317.406708 -509.882172 0.009993 1.000000
318.547394 -509.423645 -0.000001 0.346446
nan nan nan 0.000000
nan nan nan 0.000000
256.415558 -533.837585 15.599504 0.547181
256.415558 -533.837585 13.086713 0.173897
256.419800 -533.835876 10.597683 0.142647
256.419800 -533.835876 8.128001 0.422672
256.419800 -533.835876 5.671543 0.056985
256.419800 -533.835876 3.222972 0.023039
256.419800 -533.835876 0.777026 0.089461
288.077057 -521.366089 -0.000019 0.332108
303.260284 -515.385376 -0.000085 0.531373
309.779358 -512.817444 -0.000100 0.559559
313.410339 -511.387238 -0.000092 0.542892
315.728821 -510.473969 -0.000002 0.332230
317.339874 -509.839355 -0.000001 0.334191
318.526764 -509.371826 -0.000001 0.331863
nan nan nan 0.000000
nan nan nan 0.000000
256.135895 -533.386230 15.617083 0.535539
256.135895 -533.386230 13.101046 0.150735
256.139771 -533.384766 10.608843 0.199020
256.139771 -533.384766 8.135955 0.434804
256.139771 -533.384766 5.676309 0.036887
256.139771 -533.384766 3.224561 0.081495
256.139771 -533.384766 0.775439 0.080025
287.973846 -521.101257 -0.000018 0.332721
303.198303 -515.226746 -0.000095 0.536520
309.735199 -512.704407 -0.000110 0.537255
313.376099 -511.299530 -0.000101 0.524387
315.749756 -510.383636 0.009518 1.000000
317.316376 -509.779144 -0.000001 0.330392
318.506561 -509.319916 -0.000001 0.335539
nan nan nan 0.000000
nan nan nan 0.000000
255.855469 -532.933655 15.635376 0.558456
255.855469 -532.933655 13.115957 0.155882
255.859024 -532.932373 10.620452 0.207353
255.859024 -532.932373 8.144231 0.443015
255.859009 -532.932373 5.681266 0.041176
255.859024 -532.932373 3.226213 0.044240
255.859024 -532.932373 0.773787 0.107108
287.872437 -520.835693 -0.000018 0.331495
303.137543 -515.067688 -0.000093 0.529044
309.691956 -512.591003 -0.000107 0.531863
313.342743 -511.211517 -0.000067 0.526593
315.723602 -510.311890 0.009733 1.000000
317.293304 -509.718750 -0.000001 0.331618
318.486664 -509.267853 -0.000001 0.335417
nan nan nan 0.000000
nan nan nan 0.000000
255.574280 -532.479919 15.654387 0.543260
255.574280 -532.479919 13.131453 0.142770
255.577454 -532.478760 10.632515 0.149265
255.577454 -532.478760 8.152826 0.418505
255.577469 -532.478699 5.686416 0.043015
255.577484 -532.478699 3.227927 0.067525
255.577484 -532.478699 0.772073 0.065564
287.772919 -520.569519 -0.000018 0.331863
303.077942 -514.908142 -0.000091 0.533701
309.649445 -512.477295 -0.000105 0.523775
313.309753 -511.123352 -0.000065 0.535784
315.698212 -510.239868 0.009994 1.000000
317.270691 -509.658203 -0.000001 0.333578
318.467133 -509.215637 -0.000001 0.332843
nan nan nan 0.000000
nan nan nan 0.000000
255.292267 -532.024841 15.674114 0.572059
255.292282 -532.024841 13.147538 0.149142
255.295120 -532.023804 10.645030 0.160907
255.295105 -532.023804 8.161751 0.452328
255.295120 -532.023804 5.691762 0.028922
255.295120 -532.023804 3.229708 0.066422
255.295120 -532.023804 0.770291 0.087990
287.675232 -520.302551 -0.000018 0.331863
303.020050 -514.747986 -0.000038 0.542525
309.608154 -512.363159 -0.000052 0.525613
313.277832 -511.034790 -0.000002 0.331495
315.620300 -510.186859 -0.000002 0.335907
317.248444 -509.597473 -0.000002 0.330882
318.447998 -509.163269 -0.000001 0.335049
nan nan nan 0.000000
nan nan nan 0.000000
255.009460 -531.568420 15.694569 0.587255
255.009476 -531.568420 13.164212 0.183088
255.011948 -531.567505 10.658010 0.189583
255.011948 -531.567505 8.170999 0.417157
255.011948 -531.567505 5.697305 0.101471
255.011948 -531.567505 3.231554 0.063848
255.011948 -531.567505 0.768446 0.084436
287.579407 -520.035034 -0.000018 0.331618
302.962646 -514.587646 -0.000037 0.542402
309.567261 -512.248901 -0.000050 0.545343
313.246094 -510.946198 -0.000002 0.337010
315.594452 -510.114594 -0.000002 0.335784
317.226654 -509.536652 -0.000002 0.335417
318.429169 -509.110809 -0.000001 0.329534
nan nan nan 0.000000
nan nan nan 0.000000
254.725784 -531.110596 15.715751 0.565441
254.725769 -531.110596 13.181485 0.140319
254.727905 -531.109802 10.671449 0.215319
254.727905 -531.109802 8.180576 0.451348
254.727905 -531.109802 5.703043 0.108333
254.727905 -531.109802 3.233468 0.075735
254.727905 -531.109802 0.766534 0.066667
287.485504 -519.766785 -0.000018 0.332108
302.906372 -514.426941 -0.000035 0.533456
309.527191 -512.134338 -0.000048 0.525123
313.277100 -510.835846 0.009750 1.000000
315.569122 -510.042175 -0.000002 0.334191
317.205292 -509.475616 -0.000002 0.344240
318.410767 -509.058167 -0.000001 0.332353
nan nan nan 0.000000
nan nan nan 0.000000
254.441223 -530.651306 15.737673 0.551225
254.441193 -530.651306 13.199353 0.152451
254.442947 -530.650757 10.685354 0.162010
254.442947 -530.650696 8.190487 0.472672
254.442947 -530.650696 5.708982 0.105392
254.442963 -530.650696 3.235443 0.045956
254.442978 -530.650696 0.764555 0.071446
287.393433 -519.497864 -0.000018 0.332598
302.851227 -514.265808 -0.000033 0.536765
309.487885 -512.019470 -0.000047 0.521201
313.248291 -510.746704 0.009991 1.000000
315.544250 -509.969604 -0.000002 0.331373
317.184357 -509.414429 -0.000002 0.333456
318.392700 -509.005432 -0.000001 0.342770
nan nan nan 0.000000
nan nan nan 0.000000
254.155701 -530.190552 15.760343 0.603676
254.155701 -530.190552 13.217834 0.156127
254.157089 -530.190125 10.699729 0.148284
254.157104 -530.190063 8.200733 0.462377
254.157104 -530.190063 5.715118 0.073407
254.157104 -530.190063 3.237487 0.029044
254.157104 -530.190063 0.762511 0.078799
287.303284 -519.228333 -0.000017 0.332966
302.796967 -514.104431 -0.000055 0.542402
309.449188 -511.904449 -0.000069 0.530515
313.154633 -510.679047 -0.000002 0.335907
315.519897 -509.896820 -0.000002 0.334926
317.163849 -509.353149 -0.000001 0.331373
318.375031 -508.952606 -0.000001 0.336152
nan nan nan 0.000000
nan nan nan 0.000000
253.869247 -529.728271 15.783752 0.575000
253.869247 -529.728271 13.236917 0.156740
253.870239 -529.727966 10.714576 0.309191
253.870255 -529.727966 8.211317 0.455515
253.870255 -529.727966 5.721460 0.056863
253.870255 -529.727966 3.239602 0.067770
253.870255 -529.727966 0.760399 0.037990
287.214935 -518.958191 -0.000019 0.332353
302.744080 -513.942566 -0.000053 0.532843
309.412018 -511.788940 -0.000003 0.332843
313.125397 -510.589539 -0.000002 0.330637
315.496063 -509.823853 -0.000002 0.333701
317.143738 -509.291687 -0.000002 0.338358
318.357697 -508.899628 -0.000002 0.332353
nan nan nan 0.000000
nan nan nan 0.000000
253.581802 -529.264404 15.807915 0.582230
253.581802 -529.264404 13.256618 0.137255
253.582428 -529.264221 10.729898 0.455392
253.582428 -529.264221 8.222237 0.420466
253.582428 -529.264221 5.728003 0.071078
253.582428 -529.264221 3.241779 0.086887
253.582428 -529.264221 0.758219 0.069608
287.128571 -518.687378 -0.000018 0.332230
302.692322 -513.780273 -0.000052 0.550613
309.456604 -511.647583 0.009826 1.000000
313.096771 -510.499878 -0.000002 0.333088
315.472748 -509.750763 -0.000002 0.336275
317.124084 -509.230103 -0.000002 0.331373
318.340759 -508.846497 -0.000001 0.333578
nan nan nan 0.000000
nan nan nan 0.000000
253.293335 -528.798828 15.832843 0.614706
253.293335 -528.798828 13.276938 0.135539
253.293594 -528.798767 10.745705 0.499265
253.293579 -528.798767 8.233503 0.432475
253.293564 -528.798767 5.734753 0.089828
253.293564 -528.798767 3.244028 0.043627
253.293564 -528.798767 0.755970 0.028309
287.043945 -518.416138 -0.000021 0.331740
302.641754 -513.617676 -0.000045 0.531250
309.422028 -511.531891 0.009987 1.000000
313.068787 -510.410004 -0.000002 0.334314
315.449921 -509.677490 -0.000002 0.328064
317.104858 -509.168396 -0.000002 0.329779
318.324188 -508.793304 -0.000002 0.335907
nan nan nan 0.000000
nan nan nan 0.000000
253.003815 -528.331665 15.858532 0.637745
253.003799 -528.331665 13.297882 0.144975
253.003647 -528.331665 10.761995 0.171569
253.003662 -528.331665 8.245113 0.440319
253.003662 -528.331665 5.741708 0.083578
253.003662 -528.331665 3.246346 0.078064
253.003662 -528.331665 0.753655 0.030637
286.961670 -518.144043 -0.000006 0.331985
302.592285 -513.454773 -0.000043 0.538235
309.303741 -511.441284 -0.000003 0.334926
313.041412 -510.319946 -0.000002 0.337377
315.427612 -509.604065 -0.000002 0.328676
317.086090 -509.106506 -0.000002 0.338113
318.307983 -508.739960 -0.000002 0.329657
nan nan nan 0.000000
nan nan nan 0.000000
252.713181 -527.862610 15.884999 0.603922
252.713181 -527.862610 13.319459 0.140686
252.712646 -527.862732 10.778777 0.062500
252.712646 -527.862732 8.257074 0.435294
252.712646 -527.862732 5.748878 0.006618
252.712646 -527.862732 3.248733 0.056863
252.712646 -527.862732 0.751267 0.058088
286.881042 -517.871460 0.000001 0.331373
302.543945 -513.291504 -0.000042 0.537255
309.269257 -511.324890 -0.000003 0.331005
313.014679 -510.229675 -0.000002 0.328064
315.405792 -509.530518 -0.000002 0.333211
317.067719 -509.044525 -0.000002 0.333824
318.292175 -508.686523 -0.000002 0.330025
nan nan nan 0.000000
nan nan nan 0.000000
252.421463 -527.391785 15.912243 0.606740
252.421448 -527.391785 13.341671 0.126471
252.420517 -527.392090 10.796046 0.133824
252.420517 -527.392090 8.269384 0.449142
252.420517 -527.392090 5.756253 0.012255
252.420517 -527.392090 3.251190 0.068137
252.420517 -527.392090 0.748810 0.065196
286.802002 -517.598511 -0.000011 0.331863
302.497162 -513.127747 -0.000003 0.333333
309.235626 -511.208313 -0.000003 0.333333
312.988556 -510.139282 -0.000002 0.336152
315.384521 -509.456787 -0.000002 0.337868
317.049805 -508.982422 -0.000002 0.337990
318.276703 -508.632935 -0.000002 0.333946
nan nan nan 0.000000
nan nan nan 0.000000
252.128540 -526.919067 15.940280 0.589093
252.128540 -526.919067 13.364523 0.110662
252.127197 -526.919495 10.813820 0.134804
252.127197 -526.919495 8.282053 0.415319
252.127197 -526.919495 5.763844 0.017525
252.127197 -526.919495 3.253719 0.037255
252.127197 -526.919495 0.746283 0.072794
286.725128 -517.324829 -0.000009 0.332598
302.568542 -512.931213 0.009990 1.000000
309.202759 -511.091461 -0.000003 0.334926
312.963104 -510.048645 -0.000003 0.336642
315.363770 -509.382904 -0.000002 0.332108
317.032318 -508.920197 -0.000002 0.332598
318.261597 -508.579285 -0.000002 0.340319
nan nan nan 0.000000
nan nan nan 0.000000
251.834412 -526.444458 15.969113 0.610784
251.834427 -526.444458 13.388027 0.150000
251.832687 -526.444946 10.832098 0.052328
251.832687 -526.444946 8.295076 0.468995
251.832687 -526.444946 5.771646 0.062010
251.832687 -526.444946 3.256316 0.071936
251.832687 -526.444946 0.743682 0.080515
286.650238 -517.050720 -0.000004 0.332230
302.406158 -512.799561 -0.000003 0.331740
309.170746 -510.974365 -0.000003 0.334314
312.938293 -509.957825 -0.000003 0.334926
315.343506 -509.308899 -0.000002 0.336275
317.015228 -508.857819 -0.000002 0.331373
318.246887 -508.525513 -0.000002 0.334559
nan nan nan 0.000000
nan nan nan 0.000000
251.539093 -525.967834 15.998740 0.646201
251.539093 -525.967834 13.412185 0.144485
251.536926 -525.968384 10.850883 0.067892
251.536926 -525.968384 8.308466 0.417034
251.536926 -525.968384 5.779666 0.050123
251.536957 -525.968384 3.258990 0.108578
251.536957 -525.968384 0.741010 0.063480
286.576691 -516.776123 -0.000028 0.332475
302.362366 -512.635010 -0.000003 0.332108
309.139557 -510.857086 -0.000003 0.334314
312.914063 -509.866882 -0.000003 0.339338
315.323761 -509.234741 -0.000002 0.336152
316.998627 -508.795349 -0.000002 0.339216
318.232574 -508.471649 -0.000002 0.333088
nan nan nan 0.000000
nan nan nan 0.000000
251.242462 -525.489136 16.029186 0.626471
251.242477 -525.489136 13.437005 0.125245
251.239899 -525.489807 10.870177 0.149755
251.239914 -525.489807 8.322221 0.439828
251.239899 -525.489807 5.787910 0.039461
251.239914 -525.489807 3.261734 0.134069
251.239914 -525.489807 0.738266 0.089093
286.505859 -516.500916 -0.000013 0.332353
302.319733 -512.470154 -0.000003 0.332966
309.109161 -510.739594 -0.000003 0.331740
312.890503 -509.775757 -0.000003 0.331005
315.304565 -509.160431 -0.000003 0.336520
316.982422 -508.732758 -0.000002 0.331127
318.218597 -508.417664 -0.000002 0.334436
nan nan nan 0.000000
nan nan nan 0.000000
250.944550 -525.008423 16.060452 0.639828
250.944550 -525.008423 13.462489 0.096446
250.941559 -525.009155 10.889994 0.070956
250.941574 -525.009155 8.336346 0.418382
250.941574 -525.009155 5.796371 0.074510
250.941574 -525.009155 3.264553 0.128064
250.941574 -525.009155 0.735448 0.084436
286.436340 -516.225342 -0.000024 0.332230
302.278259 -512.304993 -0.000003 0.333211
309.079590 -510.621887 -0.000003 0.333946
312.867554 -509.684479 -0.000003 0.332966
315.285889 -509.086029 -0.000002 0.332353
316.966675 -508.670074 -0.000002 0.343382
318.205017 -508.363617 -0.000002 0.327083
nan nan nan 0.000000
nan nan nan 0.000000
nan nan nan 0.000000
250.645279 -524.525391 13.488652 0.072181
250.641891 -524.526245 10.910334 0.086520
250.641891 -524.526245 8.350842 0.461275
250.641891 -524.526245 5.805057 0.048284
250.641891 -524.526245 3.267447 0.159069
250.641891 -524.526245 0.732553 0.103554
286.369019 -515.949219 -0.000026 0.333578
302.237915 -512.139526 -0.000004 0.332475
309.050842 -510.503937 -0.000004 0.330025
312.845276 -509.593018 -0.000003 0.333701
315.267700 -509.011475 -0.000002 0.332966
316.951355 -508.607269 -0.000003 0.337132
318.191833 -508.309479 -0.000002 0.335907
nan nan nan 0.000000
nan nan nan 0.000000
nan nan nan 0.000000
250.344650 -524.040283 13.515497 0.069975
250.340805 -524.041138 10.931205 0.047672
250.340805 -524.041138 8.365718 0.428676
250.340805 -524.041138 5.813967 0.062500
250.340805 -524.041138 3.270413 0.111887
250.340805 -524.041138 0.729585 0.072917
286.303741 -515.672546 -0.000021 0.332108
302.198730 -511.973816 -0.000003 0.332475
309.022919 -510.385834 -0.000003 0.334681
312.823608 -509.501404 -0.000003 0.333946
315.250061 -508.936798 -0.000003 0.338235
316.936493 -508.544342 -0.000002 0.335907
318.178986 -508.255219 -0.000002 0.334681
nan nan nan 0.000000
nan nan nan 0.000000
nan nan nan 0.000000
250.042572 -523.552734 13.543033 0.054044
250.038284 -523.553711 10.952607 0.071201
250.038284 -523.553711 8.380974 0.425613
250.038300 -523.553711 5.823111 0.034804
250.038300 -523.553711 3.273461 0.137745
250.038300 -523.553711 0.726541 0.086520
286.240540 -515.395447 -0.000009 0.332353
302.160736 -511.807800 -0.000003 0.331127
308.995819 -510.267517 -0.000003 0.330882
312.802612 -509.409668 -0.000003 0.331740
315.232910 -508.861969 -0.000002 0.339338
316.922089 -508.481323 -0.000002 0.334559
318.166565 -508.200867 -0.000002 0.331495
nan nan nan 0.000000
nan nan nan 0.000000
nan nan nan 0.000000
249.739044 -523.062927 13.571263 0.106005
249.734329 -523.063904 10.974554 0.197059
249.734329 -523.063904 8.396615 0.435172
249.734329 -523.063904 5.832480 0.051103
249.734329 -523.063904 3.276580 0.070221
249.734329 -523.063904 0.723419 0.052328
286.178833 -515.118042 -0.000017 0.332108
302.123871 -511.641571 -0.000004 0.332966
308.969574 -510.149017 -0.000003 0.331863
312.782257 -509.317780 -0.000003 0.335662
315.216339 -508.787079 -0.000002 0.330147
316.908081 -508.418243 -0.000003 0.331863
318.154480 -508.146484 -0.000002 0.335049
nan nan nan 0.000000
nan nan nan 0.000000
nan nan nan 0.000000
249.434021 -522.570618 13.600201 0.095466
249.428818 -522.571777 10.997046 0.212990
249.428833 -522.571777 8.412647 0.447917
249.428833 -522.571777 5.842084 0.026716
249.428833 -522.571777 3.279781 0.070956
249.428848 -522.571777 0.720219 0.077206
286.119354 -514.840088 -0.000013 0.331127
302.088165 -511.475098 -0.000003 0.332721
308.944122 -510.030365 -0.000003 0.329657
312.762512 -509.225708 -0.000003 0.335539
315.200226 -508.712036 -0.000002 0.328676
316.894531 -508.355011 -0.000002 0.338113
318.142822 -508.091949 -0.000002 0.338358
nan nan nan 0.000000
nan nan nan 0.000000
nan nan nan 0.000000
249.127441 -522.075867 13.629850 0.090686
249.121796 -522.077026 11.020092 0.076348
249.121796 -522.077026 8.429075 0.415564
249.121811 -522.077026 5.851928 0.025368
249.121811 -522.077026 3.283059 0.108333
249.121811 -522.077026 0.716941 0.089216
286.061890 -514.561768 -0.000005 0.331863
302.053650 -511.308319 -0.000004 0.333456
308.919495 -509.911499 -0.000003 0.334436
312.743408 -509.133545 -0.000003 0.330515
315.184662 -508.636902 -0.000002 0.327819
316.881409 -508.291687 -0.000002 0.338480
318.131500 -508.037384 -0.000003 0.339583
nan nan nan 0.000000
nan nan nan 0.000000
nan nan nan 0.000000
248.819275 -521.578552 13.660222 0.089461
248.813171 -521.579773 11.043699 0.055270
248.813187 -521.579773 8.445901 0.450490
248.813171 -521.579773 5.862007 0.072181
248.813187 -521.579773 3.286417 0.100490
248.813187 -521.579773 0.713583 0.065319
286.006073 -514.283081 -0.000011 0.332108
302.020294 -511.141357 -0.000003 0.333824
308.895721 -509.792511 -0.000003 0.334436
312.724976 -509.041260 -0.000003 0.333211
315.169647 -508.561646 -0.000002 0.324877
316.868774 -508.228302 -0.000002 0.335662
318.120605 -507.982697 -0.000002 0.326593
nan nan nan 0.000000
nan nan nan 0.000000
nan nan nan 0.000000
248.509460 -521.078613 13.691323 0.093015
248.502914 -521.079895 11.067878 0.113725
248.502914 -521.079895 8.463131 0.456005
248.502930 -521.079895 5.872333 0.050245
248.502914 -521.079895 3.289854 0.099877
248.502914 -521.079895 0.710144 0.077941
285.952148 -514.004028 -0.000021 0.332721
301.988068 -510.974121 -0.000003 0.333946
308.872772 -509.673309 -0.000003 0.333824
312.707184 -508.948822 -0.000003 0.339338
315.155121 -508.486298 -0.000002 0.338971
316.856506 -508.164825 -0.000003 0.333333
318.110046 -507.927979 -0.000002 0.338235
nan nan nan 0.000000
nan nan nan 0.000000
nan nan nan 0.000000
248.198013 -520.575989 13.723165 0.191422
248.190979 -520.577271 11.092624 0.116299
248.190979 -520.577271 8.480770 0.455515
248.190979 -520.577271 5.882903 0.061397
248.190979 -520.577271 3.293378 0.042647
248.190979 -520.577271 0.706624 0.083946
285.704987 -513.760071 -0.009774 1.000000
301.957062 -510.806671 -0.000003 0.333824
308.850677 -509.553955 -0.000004 0.333946
312.690002 -508.856262 -0.000003 0.329289
315.141113 -508.410828 -0.000002 0.329779
316.844727 -508.101257 -0.000003 0.338971
318.099915 -507.873169 -0.000002 0.336520
nan nan nan 0.000000
nan nan nan 0.000000
nan nan nan 0.000000
247.884827 -520.070557 13.755754 0.522917
247.877319 -520.071899 11.117954 0.187623
247.877319 -520.071899 8.498825 0.451225
247.877319 -520.071899 5.893717 0.044975
247.877319 -520.071899 3.296978 0.074020
247.877319 -520.071899 0.703020 0.061029
285.850586 -513.444763 -0.000015 0.332598
301.927185 -510.639038 -0.000003 0.333333
308.829376 -509.434479 -0.000004 0.331740
312.673523 -508.763611 -0.000003 0.330637
315.127686 -508.335297 -0.000003 0.334559
316.833405 -508.037628 -0.000003 0.337132
318.090118 -507.818268 -0.000002 0.328922
nan nan nan 0.000000
nan nan nan 0.000000
nan nan nan 0.000000
247.569870 -519.562317 13.789101 0.550123
235.493927 -521.583008 12.551481 0.513603
247.059647 -519.647705 8.559052 0.230882
247.059647 -519.647705 5.929803 0.015931
247.059647 -519.647705 3.308999 0.343382
nan nan nan 0.000000
285.802887 -513.164551 -0.000006 0.332598
301.898529 -510.471191 -0.000003 0.331618
308.808899 -509.314850 -0.000004 0.330270
312.657654 -508.670837 -0.000003 0.329412
315.114746 -508.259644 -0.000002 0.334314
316.822510 -507.973907 -0.000003 0.334191
318.080750 -507.763336 -0.000002 0.333946
nan nan nan 0.000000
nan nan nan 0.000000
nan nan nan 0.000000
nan nan nan 0.000000
235.139954 -520.991272 12.580667 0.528431
247.756439 -518.970520 8.493694 0.150245
247.756439 -518.970459 5.890646 0.361152
247.756439 -518.970520 3.295955 0.011275
nan nan nan 0.000000
285.757019 -512.884033 -0.000004 0.332721
301.870972 -510.303162 -0.000003 0.332598
308.789307 -509.195068 -0.000003 0.334069
312.642456 -508.577911 -0.000003 0.333333
315.102325 -508.183929 -0.000003 0.330147
316.812073 -507.910065 -0.000002 0.338480
318.071716 -507.708344 -0.000003 0.335049
nan nan nan 0.000000
nan nan nan 0.000000
nan nan nan 0.000000
nan nan nan 0.000000
234.783966 -520.396179 12.610533 0.520956
247.443161 -518.459106 8.512585 0.137377
247.443161 -518.459106 5.901965 0.385294
247.443161 -518.459106 3.299726 0.049020
nan nan nan 0.000000
285.713043 -512.603271 -0.000005 0.332230
301.844635 -510.134918 -0.000003 0.336397
308.770538 -509.075165 -0.000003 0.331618
312.627869 -508.484924 -0.000003 0.336152
315.090454 -508.108124 -0.000003 0.334559
316.802063 -507.846222 -0.000003 0.332353
318.063080 -507.653259 -0.000003 0.334069
nan nan nan 0.000000
nan nan nan 0.000000
nan nan nan 0.000000
nan nan nan 0.000000
234.425995 -519.797668 12.641091 0.550123
247.128036 -517.944702 8.531906 0.134436
247.128021 -517.944702 5.913539 0.371814
247.128036 -517.944702 3.303582 0.040686
nan nan nan 0.000000
285.670868 -512.322205 -0.000013 0.331740
301.819489 -509.966492 -0.000002 0.332353
308.752594 -508.955109 -0.000003 0.330515
312.613953 -508.391846 -0.000003 0.332475
315.079132 -508.032227 -0.000003 0.330637
316.792511 -507.782288 -0.000003 0.323529
318.054840 -507.598114 -0.000003 0.335172
nan nan nan 0.000000
nan nan nan 0.000000
nan nan nan 0.000000
nan nan nan 0.000000
234.065872 -519.195679 12.672347 0.561397
246.811005 -517.427246 8.551662 0.133456
246.811020 -517.427246 5.925376 0.345711
246.811005 -517.427246 3.307523 0.021078
nan nan nan 0.000000
285.630920 -512.040833 -0.000009 0.331740
301.795502 -509.797913 -0.000003 0.332966
308.735504 -508.834961 -0.000003 0.331985
312.600677 -508.298645 -0.000003 0.334559
315.068298 -507.956238 -0.000003 0.337990
316.783417 -507.718262 -0.000003 0.328431
318.046997 -507.542969 -0.000003 0.335049
nan nan nan 0.000000
nan nan nan 0.000000
nan nan nan 0.000000
nan nan nan 0.000000
233.703674 -518.590088 12.704305 0.573162
246.492050 -516.906555 8.571861 0.167157
246.492050 -516.906555 5.937480 0.336642
246.492050 -516.906555 3.311557 0.049265
nan nan nan 0.000000
285.592834 -511.759125 -0.000009 0.331618
301.893585 -509.613220 0.009997 1.000000
308.719238 -508.714691 -0.000003 0.335539
312.588104 -508.205383 -0.000003 0.335172
315.058044 -507.880219 -0.000003 0.342524
316.774750 -507.654205 -0.000003 0.338235
318.039551 -507.487732 -0.000003 0.337377
nan nan nan 0.000000
nan nan nan 0.000000
nan nan nan 0.000000
nan nan nan 0.000000
233.813980 -517.921753 12.681947 0.777574
246.171097 -516.382690 8.592506 0.170588
246.171127 -516.382690 5.949848 0.312623
246.171097 -516.382690 3.315676 0.045221
nan nan nan 0.000000
285.556702 -511.477203 -0.000009 0.332230
301.751007 -509.460266 -0.000003 0.331740
308.703796 -508.594299 -0.000003 0.333333
312.576141 -508.112000 -0.000003 0.334069
315.048279 -507.804077 -0.000003 0.332230
316.766541 -507.590088 -0.000003 0.333088
318.032440 -507.432434 -0.000003 0.329167
nan nan nan 0.000000
nan nan nan 0.000000
nan nan nan 0.000000
nan nan nan 0.000000
235.124252 -517.115173 12.521161 0.579902
245.848114 -515.855469 8.613605 0.157966
245.848129 -515.855469 5.962490 0.300490
245.848129 -515.855469 3.319886 0.135784
nan nan nan 0.000000
285.522491 -511.195068 -0.000013 0.332475
301.730591 -509.291199 -0.000003 0.331863
308.689240 -508.473785 -0.000004 0.332108
312.564850 -508.018524 -0.000003 0.329657
315.039093 -507.727905 -0.000003 0.334314
316.758759 -507.525909 -0.000003 0.341789
318.025726 -507.377075 -0.000003 0.336765
nan nan nan 0.000000
nan nan nan 0.000000
nan nan nan 0.000000
nan nan nan 0.000000
236.395737 -516.332458 12.365633 0.477819
245.523071 -515.324829 8.635162 0.211152
245.523071 -515.324829 5.975403 0.335662
245.523071 -515.324829 3.324188 0.012868
nan nan nan 0.000000
285.490417 -510.912689 -0.000009 0.331740
301.711304 -509.122040 -0.000003 0.335784
308.675507 -508.353210 -0.000004 0.331373
312.554169 -507.925049 -0.000003 0.337990
315.030396 -507.651672 -0.000003 0.329167
316.751434 -507.461670 -0.000003 0.337990
318.019440 -507.321686 -0.000003 0.332966
nan nan nan 0.000000
nan nan nan 0.000000
nan nan nan 0.000000
nan nan nan 0.000000
237.630249 -515.572449 12.215127 0.477328
245.195847 -514.790710 8.657187 0.211520
245.195847 -514.790710 5.988600 0.320098
245.195847 -514.790710 3.328583 0.074020
nan nan nan 0.000000
285.460205 -510.630096 -0.000009 0.331863
301.693207 -508.952698 -0.000004 0.331127
308.662567 -508.232513 -0.000003 0.335172
312.544159 -507.831421 -0.000003 0.333211
315.022217 -507.575378 -0.000003 0.332108
316.744568 -507.397400 -0.000003 0.331740
318.013519 -507.266266 -0.000003 0.338971
nan nan nan 0.000000
nan nan nan 0.000000
nan nan nan 0.000000
nan nan nan 0.000000
238.829498 -514.834229 12.069411 0.524877
244.866425 -514.252991 8.679685 0.241912
244.866440 -514.252991 6.002078 0.320221
244.866425 -514.252991 3.333072 0.093873
nan nan nan 0.000000
285.431946 -510.347290 -0.000009 0.331863
301.676300 -508.783264 -0.000004 0.331863
308.650543 -508.111755 -0.000003 0.334191
312.534821 -507.737762 -0.000003 0.332843
315.014587 -507.498993 -0.000003 0.336887
316.738159 -507.333069 -0.000003 0.338603
318.007996 -507.210815 -0.000003 0.335294
nan nan nan 0.000000
nan nan nan 0.000000
nan nan nan 0.000000
nan nan nan 0.000000
239.994980 -514.116699 11.928280 0.536152
244.534775 -513.711609 8.702664 0.262132
244.534775 -513.711609 6.015847 0.287255
244.534775 -513.711609 3.337660 0.061765
nan nan nan 0.000000
285.405731 -510.064301 -0.000009 0.332598
301.660553 -508.613678 -0.000003 0.332353
308.639313 -507.990906 -0.000003 0.334681
312.526123 -507.644043 -0.000003 0.333088
315.007507 -507.422607 -0.000003 0.337623
316.732178 -507.268677 -0.000003 0.332966
318.002838 -507.155304 -0.000003 0.334559
nan nan nan 0.000000
nan nan nan 0.000000
nan nan nan 0.000000
nan nan nan 0.000000
241.128372 -513.419006 11.791516 0.518260
244.200821 -513.166504 8.726130 0.295466
244.200806 -513.166504 6.029906 0.274142
244.200821 -513.166504 3.342341 0.047304
nan nan nan 0.000000
285.381439 -509.781097 -0.000009 0.332230
301.646027 -508.444000 -0.000003 0.332598
308.628967 -507.869965 -0.000003 0.334559
312.518097 -507.550262 -0.000003 0.326961
315.000977 -507.346161 -0.000003 0.339461
316.726654 -507.204285 -0.000003 0.330515
317.998077 -507.099762 -0.000003 0.331740
nan nan nan 0.000000
nan nan nan 0.000000
nan nan nan 0.000000
nan nan nan 0.000000
242.231003 -512.740234 11.658930 0.559069
243.864487 -512.617493 8.750088 0.265441
243.864502 -512.617493 6.044263 0.303554
243.864487 -512.617493 3.347124 0.055515
nan nan nan 0.000000
285.359131 -509.497772 -0.000009 0.332598
301.632660 -508.274261 -0.000004 0.334559
308.619446 -507.748993 -0.000003 0.334191
312.510712 -507.456421 -0.000003 0.335907
314.994934 -507.269653 -0.000003 0.337255
316.721588 -507.139832 -0.000003 0.324020
317.993713 -507.044189 -0.000003 0.342524
nan nan nan 0.000000
nan nan nan 0.000000
nan nan nan 0.000000
nan nan nan 0.000000
243.068115 -512.095703 11.557575 0.511152
243.525742 -512.064514 8.774554 0.251471
243.525742 -512.064514 6.058919 0.289583
243.525742 -512.064514 3.352009 0.093015
nan nan nan 0.000000
285.338837 -509.214264 -0.000009 0.332843
301.620514 -508.104431 -0.000003 0.331863
308.610748 -507.627930 -0.000003 0.333824
312.503967 -507.362549 -0.000003 0.334314
314.989441 -507.193115 -0.000003 0.327206
316.716949 -507.075348 -0.000003 0.325735
317.989716 -506.988617 -0.000003 0.331740
nan nan nan 0.000000
nan nan nan 0.000000
nan nan nan 0.000000
nan nan nan 0.000000
242.724686 -511.535583 11.592842 0.489706
243.184494 -511.507446 8.799528 0.249510
243.184509 -511.507477 6.073884 0.300490
243.184525 -511.507477 3.356991 0.049387
nan nan nan 0.000000
285.320496 -508.930634 -0.000009 0.332598
301.609497 -507.934509 -0.000004 0.332966
308.602936 -507.506805 -0.000003 0.335539
312.497925 -507.268585 -0.000003 0.334681
314.984528 -507.116547 -0.000003 0.333701
316.712799 -507.010834 -0.000003 0.330147
317.986115 -506.932953 -0.000003 0.333824
nan nan nan 0.000000
nan nan nan 0.000000
nan nan nan 0.000000
nan nan nan 0.000000
242.378754 -510.971313 11.628837 0.502206
242.840744 -510.946320 8.825020 0.266544
242.840744 -510.946320 6.089156 0.315319
242.840729 -510.946320 3.362078 0.006250
nan nan nan 0.000000
285.304138 -508.646912 -0.000009 0.332353
301.599701 -507.764496 -0.000004 0.334191
308.595947 -507.385620 -0.000003 0.329657
312.492493 -507.174622 -0.000003 0.333088
314.980103 -507.039948 -0.000004 0.340931
316.709076 -506.946320 -0.000004 0.334681
317.982910 -506.877319 -0.000003 0.329289
nan nan nan 0.000000
nan nan nan 0.000000
nan nan nan 0.000000
nan nan nan 0.000000
242.030121 -510.402802 11.665584 0.439706
242.494339 -510.380920 8.851039 0.333456
242.494339 -510.380920 6.104745 0.295956
242.494354 -510.380920 3.367271 0.036152
nan nan nan 0.000000
285.289764 -508.363037 -0.000009 0.331740
301.591095 -507.594421 -0.000004 0.332843
308.589813 -507.264404 -0.000003 0.333946
312.487732 -507.080627 -0.000003 0.334436
314.976227 -506.963287 -0.000003 0.333578
316.705780 -506.881714 -0.000003 0.331373
317.980072 -506.821655 -0.000003 0.334191
nan nan nan 0.000000
nan nan nan 0.000000
nan nan nan 0.000000
nan nan nan 0.000000
241.678848 -509.829865 11.703083 0.511765
242.145309 -509.811157 8.877599 0.325735
242.145325 -509.811157 6.120656 0.310049
242.145325 -509.811157 3.372572 0.037623
nan nan nan 0.000000
285.277344 -508.079102 -0.000009 0.331863
301.583649 -507.424316 -0.000003 0.333456
308.584503 -507.143158 -0.000003 0.334314
312.483612 -506.986572 -0.000003 0.333211
314.972870 -506.886627 -0.000003 0.334926
316.702972 -506.817139 -0.000003 0.340074
317.977661 -506.765961 -0.000003 0.335907
nan nan nan 0.000000
nan nan nan 0.000000
nan nan nan 0.000000
nan nan nan 0.000000
241.324783 -509.252441 11.741354 0.521691
241.793518 -509.236908 8.904697 0.329167
241.793518 -509.236908 6.136894 0.299755
241.793518 -509.236908 3.377980 0.055760
nan nan nan 0.000000
285.266968 -507.795074 -0.000009 0.331618
301.577423 -507.254120 -0.000004 0.333701
308.580078 -507.021881 -0.000004 0.333701
312.480164 -506.892517 -0.000003 0.327941
314.970062 -506.809937 -0.000003 0.341176
316.700623 -506.752533 -0.000003 0.330515
317.975616 -506.710236 -0.000003 0.329289
nan nan nan 0.000000
nan nan nan 0.000000
nan nan nan 0.000000
nan nan nan 0.000000
240.967941 -508.670471 11.780401 0.517034
241.438919 -508.658112 8.932351 0.352819
241.438919 -508.658112 6.153463 0.301225
241.438919 -508.658112 3.383497 0.289828
nan nan nan 0.000000
285.258545 -507.510986 -0.000009 0.332353
301.572357 -507.083923 -0.000004 0.332598
308.576477 -506.900543 -0.000004 0.336397
312.477386 -506.798431 -0.000003 0.334804
314.967773 -506.733246 -0.000003 0.331985
316.698700 -506.687897 -0.000003 0.327083
317.973969 -506.654541 -0.000003 0.332353
nan nan nan 0.000000
nan nan nan 0.000000
nan nan nan 0.000000
nan nan nan 0.000000
240.608215 -508.083710 11.820248 0.498897
241.081482 -508.074615 8.960567 0.371936
241.081497 -508.074615 6.170369 0.288725
241.081482 -508.074615 3.389131 0.346569
nan nan nan 0.000000
285.455322 -507.222961 0.009979 1.000000
301.568512 -506.913666 -0.000004 0.333701
308.573700 -506.779236 -0.000004 0.329902
312.475250 -506.704315 -0.000003 0.335294
314.966034 -506.656525 -0.000003 0.331127
316.743500 -506.622406 0.009993 1.000000
317.972687 -506.598816 -0.000004 0.334436
nan nan nan 0.000000
nan nan nan 0.000000
nan nan nan 0.000000
nan nan nan 0.000000
240.245499 -507.492188 11.860896 0.522549
240.721085 -507.486359 8.989359 0.379167
240.721130 -507.486389 6.187619 0.300735
240.721115 -507.486389 3.394874 0.316667
nan nan nan 0.000000
285.247620 -506.942657 -0.000009 0.332353
301.565826 -506.743408 -0.000003 0.332230
308.571808 -506.657867 -0.000003 0.331127
312.473785 -506.610199 -0.000003 0.330147
314.964813 -506.579803 -0.000004 0.332230
316.742493 -506.558075 0.009994 1.000000
317.971802 -506.543091 -0.000003 0.336397
nan nan nan 0.000000
nan nan nan 0.000000
nan nan nan 0.000000
nan nan nan 0.000000
239.879745 -506.895660 11.902372 0.548162
240.357697 -506.893188 9.018729 0.357966
240.357697 -506.893188 6.205215 0.282108
240.357697 -506.893188 3.400737 0.321201
nan nan nan 0.000000
285.245148 -506.658447 -0.000009 0.332353
301.564331 -506.573120 -0.000004 0.333824
308.570770 -506.536469 -0.000003 0.334804
312.472931 -506.516083 -0.000003 0.334804
314.964172 -506.503052 -0.000003 0.331373
316.741943 -506.493774 0.009993 1.000000
317.971344 -506.487335 -0.000004 0.329534
nan nan nan 0.000000
nan nan nan 0.000000
nan nan nan 0.000000
nan nan nan 0.000000
239.510910 -506.294098 11.944685 0.538480
239.991211 -506.294922 9.048697 0.407353
239.991211 -506.294922 6.223170 0.236642
239.991211 -506.294922 3.406716 0.333701
nan nan nan 0.000000
285.244659 -506.374207 -0.000008 0.331985
301.564056 -506.402832 -0.000003 0.331250
308.570526 -506.415131 -0.000003 0.332721
312.472778 -506.421936 -0.000003 0.334926
314.964050 -506.426331 -0.000004 0.339093
316.695526 -506.429352 -0.000004 0.335907
317.971252 -506.431580 -0.000004 0.329657
nan nan nan 0.000000
nan nan nan 0.000000
nan nan nan 0.000000
nan nan nan 0.000000
239.138870 -505.687347 11.987851 0.542034
239.621582 -505.691528 9.079262 0.388971
239.621582 -505.691528 6.241483 0.236275
239.621582 -505.691528 3.412818 0.311520
nan nan nan 0.000000
285.246155 -506.089996 -0.000008 0.332475
301.564972 -506.232544 -0.000003 0.333333
308.571167 -506.293762 -0.000003 0.333211
312.473267 -506.327850 -0.000003 0.333701
314.964447 -506.349609 -0.000003 0.330515
316.695892 -506.364716 -0.000004 0.319975
317.971527 -506.375854 -0.000003 0.335172
nan nan nan 0.000000
nan nan nan 0.000000
nan nan nan 0.000000
nan nan nan 0.000000
238.763596 -505.075226 12.031884 0.547181
239.248688 -505.082825 9.110443 0.390931
239.248688 -505.082825 6.260168 0.180882
239.248688 -505.082825 3.419040 0.326838
nan nan nan 0.000000
285.249451 -505.805817 -0.000017 0.331863
301.688995 -506.064178 0.009997 1.000000
308.572662 -506.172394 -0.000003 0.333701
312.474426 -506.233704 -0.000003 0.332721
314.965363 -506.272858 -0.000004 0.335172
316.696686 -506.300049 -0.000004 0.332843
317.972198 -506.320129 -0.000004 0.342157
nan nan nan 0.000000
nan nan nan 0.000000
nan nan nan 0.000000
nan nan nan 0.000000
238.384933 -504.457672 12.076798 0.518015
238.872482 -504.468781 9.142255 0.423652
238.872498 -504.468781 6.279226 0.160784
238.872498 -504.468781 3.425390 0.008701
nan nan nan 0.000000
285.255035 -505.521667 -0.000010 0.331985
301.570313 -505.892029 -0.000004 0.331740
308.574982 -506.051025 -0.000003 0.334191
312.476227 -506.139618 -0.000003 0.336152
314.966858 -506.196106 -0.000003 0.330515
316.697906 -506.235413 -0.000004 0.335539
317.973267 -506.264404 -0.000004 0.330760
nan nan nan 0.000000
nan nan nan 0.000000
nan nan nan 0.000000
nan nan nan 0.000000
238.002853 -503.834564 12.122612 0.566544
238.492889 -503.849091 9.174698 0.450613
238.492874 -503.849091 6.298666 0.122672
238.492889 -503.849091 3.431865 0.019975
nan nan nan 0.000000
285.262268 -505.237549 -0.000020 0.332353
301.574860 -505.721802 0.000005 0.526471
308.578186 -505.929718 -0.000003 0.333456
312.478699 -506.045502 -0.000004 0.336029
314.968842 -506.119446 -0.000004 0.328922
316.699585 -506.170807 -0.000004 0.335907
317.974731 -506.208679 -0.000004 0.330760
nan nan nan 0.000000
nan nan nan 0.000000
nan nan nan 0.000000
nan nan nan 0.000000
237.617310 -503.205750 12.169346 0.544485
238.109802 -503.223785 9.207794 0.465686
238.109802 -503.223785 6.318493 0.090686
238.109802 -503.223785 3.438468 0.172181
nan nan nan 0.000000
285.272003 -504.953522 -0.000006 0.332598
301.580536 -505.551636 0.000009 0.535784
308.582214 -505.808411 -0.000003 0.331373
312.481812 -505.951447 -0.000004 0.336275
314.971405 -506.042725 -0.000003 0.335049
316.701721 -506.106171 -0.000004 0.339093
317.976593 -506.152954 -0.000003 0.337010
nan nan nan 0.000000
nan nan nan 0.000000
nan nan nan 0.000000
nan nan nan 0.000000
237.228134 -502.570984 12.217012 0.542647
237.723129 -502.592621 9.241551 0.439093
