# This PCD file was generated using the MATLABÂ® pcwrite function
# from Computer Vision ToolboxÂ®.
# .PCD v.7 - Point Cloud Data file format
VERSION .7
FIELDS x y z intensity
SIZE 4 4 4 4
TYPE F F F F
COUNT 1 1 1 1
WIDTH 1201
HEIGHT 1
VIEWPOINT 0 0 0 1 0 0 0
POINTS 1201
DATA ascii
-100.441795 13.399735 0.932525 1.000000
-100.441795 13.399735 0.732923 1.000000
-100.441795 13.399735 0.530478 1.000000
-100.505356 13.410024 3.457040 1.000000
-100.505356 13.410025 3.256315 1.000000
-100.505356 13.410023 3.058409 1.000000
-100.505356 13.410023 2.862846 1.000000
-100.505356 13.410025 2.669173 1.000000
-100.505356 13.410024 2.476953 1.000000
-100.505356 13.410025 2.285763 1.000000
-100.505356 13.410025 2.095186 1.000000
-100.505356 13.410025 1.904814 1.000000
-100.505356 13.410025 1.714237 1.000000
-100.505356 13.410024 1.523047 1.000000
-100.505356 13.410025 1.330827 1.000000
-100.505356 13.410023 1.137154 1.000000
-100.505356 13.410024 0.941591 1.000000
-100.505356 13.410025 0.743685 1.000000
-100.505356 13.410025 0.542960 1.000000
-100.567848 13.420140 3.444839 1.000000
-100.567848 13.420140 3.245795 1.000000
-100.567848 13.420140 3.049545 1.000000
-100.567848 13.420140 2.855620 1.000000
-100.567848 13.420140 2.663569 1.000000
-100.567848 13.420140 2.472959 1.000000
-100.567848 13.420140 2.283370 1.000000
-100.567848 13.420140 2.094389 1.000000
-100.567848 13.420140 1.905611 1.000000
-100.567848 13.420140 1.716630 1.000000
-100.567848 13.420140 1.527041 1.000000
-100.567848 13.420140 1.336431 1.000000
-100.567848 13.420140 1.144380 1.000000
-100.567848 13.420141 0.950455 1.000000
-100.567848 13.420140 0.754205 1.000000
-100.567848 13.420140 0.555161 1.000000
-100.629303 13.430089 3.432910 1.000000
-100.629311 13.430089 3.235509 1.000000
-100.629311 13.430089 3.040880 1.000000
-100.629303 13.430089 2.848556 1.000000
-100.629311 13.430089 2.658090 1.000000
-100.629303 13.430089 2.469054 1.000000
-100.629303 13.430089 2.281030 1.000000
-100.629311 13.430089 2.093610 1.000000
-100.629311 13.430089 1.906390 1.000000
-100.629303 13.430089 1.718970 1.000000
-100.629311 13.430089 1.530946 1.000000
-100.629311 13.430089 1.341910 1.000000
-100.629311 13.430089 1.151444 1.000000
-100.629311 13.430089 0.959120 1.000000
-100.629311 13.430089 0.764491 1.000000
-100.629311 13.430089 0.567090 1.000000
-100.689766 13.439876 3.421245 1.000000
-100.689766 13.439876 3.225451 1.000000
-100.689766 13.439876 3.032406 1.000000
-100.689766 13.439877 2.841648 1.000000
-100.689766 13.439876 2.652733 1.000000
-100.689766 13.439877 2.465235 1.000000
-100.689766 13.439877 2.278742 1.000000
-100.689766 13.439877 2.092848 1.000000
-100.689766 13.439877 1.907152 1.000000
-100.689766 13.439877 1.721258 1.000000
-100.689766 13.439877 1.534764 1.000000
-100.689766 13.439876 1.347267 1.000000
-100.689766 13.439877 1.158352 1.000000
-100.689766 13.439876 0.967594 1.000000
-100.689766 13.439876 0.774549 1.000000
-100.689766 13.439877 0.578755 1.000000
-100.749252 13.449505 3.409836 1.000000
-100.749245 13.449505 3.215614 1.000000
-100.749252 13.449505 3.024119 1.000000
-100.749252 13.449505 2.834892 1.000000
-100.749252 13.449505 2.647493 1.000000
-100.749252 13.449505 2.461501 1.000000
-100.749252 13.449505 2.276505 1.000000
-100.749252 13.449505 2.092103 1.000000
-100.749252 13.449505 1.907898 1.000000
-100.749252 13.449505 1.723495 1.000000
-100.749252 13.449505 1.538499 1.000000
-100.749252 13.449505 1.352507 1.000000
-100.749252 13.449505 1.165108 1.000000
-100.749252 13.449505 0.975881 1.000000
-100.749245 13.449505 0.784386 1.000000
-100.749252 13.449505 0.590164 1.000000
-100.772377 13.415730 3.412678 1.000000
-100.772377 13.415730 3.218064 1.000000
-100.772377 13.415730 3.026183 1.000000
-100.772377 13.415730 2.836575 1.000000
-100.772377 13.415730 2.648798 1.000000
-100.772377 13.415730 2.462431 1.000000
-100.772377 13.415730 2.277062 1.000000
-100.772377 13.415730 2.092288 1.000000
-100.772377 13.415730 1.907712 1.000000
-100.772377 13.415730 1.722938 1.000000
-100.772377 13.415730 1.537569 1.000000
-100.772377 13.415730 1.351202 1.000000
-100.772377 13.415730 1.163425 1.000000
-100.772377 13.415730 0.973817 1.000000
-100.772377 13.415730 0.781936 1.000000
-100.772377 13.415730 0.587322 1.000000
-100.780853 13.363533 3.421485 1.000000
-100.780853 13.363533 3.225658 1.000000
-100.780853 13.363533 3.032581 1.000000
-100.780853 13.363533 2.841790 1.000000
-100.780853 13.363534 2.652843 1.000000
-100.780853 13.363533 2.465314 1.000000
-100.780853 13.363533 2.278789 1.000000
-100.780853 13.363533 2.092863 1.000000
-100.780853 13.363533 1.907137 1.000000
-100.780853 13.363533 1.721210 1.000000
-100.780853 13.363533 1.534686 1.000000
-100.780853 13.363534 1.347157 1.000000
-100.780853 13.363533 1.158210 1.000000
-100.780853 13.363533 0.967419 1.000000
-100.780853 13.363534 0.774342 1.000000
-100.780853 13.363533 0.578514 1.000000
-100.789429 13.310679 3.430473 1.000000
-100.789429 13.310679 3.233408 1.000000
-100.789429 13.310679 3.039110 1.000000
-100.789429 13.310679 2.847113 1.000000
-100.789429 13.310679 2.656971 1.000000
-100.789429 13.310679 2.468256 1.000000
-100.789429 13.310679 2.280552 1.000000
-100.789429 13.310679 2.093451 1.000000
-100.789429 13.310679 1.906549 1.000000
-100.789429 13.310679 1.719448 1.000000
-100.789429 13.310679 1.531744 1.000000
-100.789429 13.310679 1.343029 1.000000
-100.789429 13.310679 1.152887 1.000000
-100.789429 13.310679 0.960890 1.000000
-100.789429 13.310680 0.766592 1.000000
-100.789429 13.310679 0.569526 1.000000
-100.798111 13.257154 3.439646 1.000000
-100.798111 13.257154 3.241317 1.000000
-100.798111 13.257153 3.045773 1.000000
-100.798111 13.257153 2.852545 1.000000
-100.798111 13.257154 2.661184 1.000000
-100.798111 13.257152 2.471259 1.000000
-100.798111 13.257152 2.282351 1.000000
-100.798111 13.257154 2.094050 1.000000
-100.798111 13.257154 1.905950 1.000000
-100.798111 13.257152 1.717649 1.000000
-100.798111 13.257152 1.528741 1.000000
-100.798111 13.257154 1.338816 1.000000
-100.798111 13.257153 1.147455 1.000000
-100.798111 13.257153 0.954227 1.000000
-100.798111 13.257154 0.758683 1.000000
-100.798111 13.257154 0.560354 1.000000
-100.806915 13.202929 3.449009 1.000000
-100.806915 13.202929 3.249390 1.000000
-100.806915 13.202929 3.052574 1.000000
-100.806915 13.202929 2.858089 1.000000
-100.806915 13.202929 2.665484 1.000000
-100.806915 13.202929 2.474324 1.000000
-100.806915 13.202929 2.284188 1.000000
-100.806915 13.202929 2.094661 1.000000
-100.806915 13.202929 1.905339 1.000000
-100.806915 13.202929 1.715813 1.000000
-100.806915 13.202929 1.525676 1.000000
-100.806915 13.202929 1.334516 1.000000
-100.806915 13.202929 1.141911 1.000000
-100.806915 13.202929 0.947426 1.000000
-100.806915 13.202929 0.750610 1.000000
-100.806915 13.202929 0.550991 1.000000
-100.815826 13.147996 3.458565 1.000000
-100.815826 13.147995 3.257630 1.000000
-100.815826 13.147995 3.059516 1.000000
-100.815826 13.147995 2.863748 1.000000
-100.815826 13.147995 2.669873 1.000000
-100.815826 13.147996 2.477452 1.000000
-100.815826 13.147995 2.286062 1.000000
-100.815826 13.147995 2.095286 1.000000
-100.815826 13.147995 1.904714 1.000000
-100.815826 13.147995 1.713938 1.000000
-100.815826 13.147996 1.522548 1.000000
-100.815826 13.147995 1.330127 1.000000
-100.815826 13.147995 1.136252 1.000000
-100.815826 13.147995 0.940484 1.000000
-100.815826 13.147995 0.742370 1.000000
-100.815826 13.147996 0.541435 1.000000
-100.824867 13.092329 3.468320 1.000000
-100.824867 13.092330 3.266041 1.000000
-100.824867 13.092329 3.066602 1.000000
-100.824867 13.092330 2.869525 1.000000
-100.824867 13.092330 2.674353 1.000000
-100.824867 13.092330 2.480645 1.000000
-100.824867 13.092329 2.287975 1.000000
-100.824867 13.092329 2.095923 1.000000
-100.824867 13.092329 1.904077 1.000000
-100.824867 13.092329 1.712025 1.000000
-100.824867 13.092331 1.519355 1.000000
-100.824867 13.092330 1.325647 1.000000
-100.824867 13.092331 1.130475 1.000000
-100.824867 13.092329 0.933398 1.000000
-100.824867 13.092330 0.733959 1.000000
-100.824867 13.092329 0.531680 1.000000
-100.834023 13.035910 3.478280 1.000000
-100.834023 13.035912 3.274629 1.000000
-100.834023 13.035912 3.073837 1.000000
-100.834023 13.035911 2.875423 1.000000
-100.834023 13.035912 2.678927 1.000000
-100.834023 13.035912 2.483906 1.000000
-100.834023 13.035912 2.289928 1.000000
-100.834023 13.035912 2.096574 1.000000
-100.834023 13.035912 1.903426 1.000000
-100.834023 13.035912 1.710072 1.000000
-100.834023 13.035912 1.516094 1.000000
-100.834023 13.035912 1.321073 1.000000
-100.834023 13.035912 1.124577 1.000000
-100.834023 13.035912 0.926163 1.000000
-100.834023 13.035912 0.725372 1.000000
-100.834023 13.035911 0.521720 1.000000
-100.843300 12.978717 3.488448 1.000000
-100.843300 12.978717 3.283396 1.000000
-100.843300 12.978717 3.081223 1.000000
-100.843300 12.978718 2.881445 1.000000
-100.843300 12.978717 2.683597 1.000000
-100.843300 12.978719 2.487234 1.000000
-100.843300 12.978719 2.291922 1.000000
-100.843300 12.978719 2.097238 1.000000
-100.843300 12.978719 1.902762 1.000000
-100.843300 12.978719 1.708078 1.000000
-100.843300 12.978719 1.512766 1.000000
-100.843300 12.978717 1.316403 1.000000
-100.843300 12.978718 1.118555 1.000000
-100.843300 12.978717 0.918777 1.000000
-100.843300 12.978717 0.716604 1.000000
-100.843300 12.978718 0.511552 1.000000
-100.852715 12.920732 3.498831 1.000000
-100.852715 12.920731 3.292349 1.000000
-100.852715 12.920731 3.088766 1.000000
-100.852715 12.920732 2.887594 1.000000
-100.852715 12.920732 2.688365 1.000000
-100.852715 12.920732 2.490633 1.000000
-100.852715 12.920732 2.293959 1.000000
-100.852715 12.920732 2.097916 1.000000
-100.852715 12.920732 1.902084 1.000000
-100.852715 12.920732 1.706041 1.000000
-100.852715 12.920732 1.509367 1.000000
-100.852715 12.920732 1.311634 1.000000
-100.852715 12.920732 1.112407 1.000000
-100.852715 12.920731 0.911234 1.000000
-100.852715 12.920731 0.707651 1.000000
-100.852715 12.920732 0.501169 1.000000
-100.862259 12.861926 3.509434 1.000000
-100.862259 12.861926 3.301491 1.000000
-100.862259 12.861926 3.096467 1.000000
-100.862259 12.861926 2.893872 1.000000
-100.862259 12.861928 2.693235 1.000000
-100.862259 12.861926 2.494104 1.000000
-100.862259 12.861926 2.296038 1.000000
-100.862259 12.861926 2.098609 1.000000
-100.862259 12.861926 1.901391 1.000000
-100.862259 12.861926 1.703962 1.000000
-100.862259 12.861926 1.505896 1.000000
-100.862259 12.861928 1.306765 1.000000
-100.862259 12.861926 1.106128 1.000000
-100.862259 12.861927 0.903533 1.000000
-100.862259 12.861927 0.698509 1.000000
-100.862259 12.861927 0.490567 1.000000
-100.871933 12.802280 3.520262 1.000000
-100.871933 12.802280 3.310827 1.000000
-100.871933 12.802280 3.104333 1.000000
-100.871933 12.802281 2.900285 1.000000
-100.871933 12.802280 2.698208 1.000000
-100.871933 12.802280 2.497648 1.000000
-100.871933 12.802280 2.298162 1.000000
-100.871933 12.802280 2.099316 1.000000
-100.871933 12.802280 1.900684 1.000000
-100.871933 12.802280 1.701838 1.000000
-100.871933 12.802280 1.502352 1.000000
-100.871933 12.802280 1.301792 1.000000
-100.871933 12.802281 1.099715 1.000000
-100.871933 12.802280 0.895667 1.000000
-100.871933 12.802280 0.689173 1.000000
-100.871933 12.802280 0.479738 1.000000
-100.881760 12.741770 3.531322 1.000000
-100.881760 12.741770 3.320364 1.000000
-100.881760 12.741771 3.112367 1.000000
-100.881752 12.741770 2.906835 1.000000
-100.881752 12.741768 2.703288 1.000000
-100.881752 12.741769 2.501269 1.000000
-100.881760 12.741770 2.300331 1.000000
-100.881752 12.741770 2.100039 1.000000
-100.881752 12.741770 1.899961 1.000000
-100.881760 12.741770 1.699669 1.000000
-100.881752 12.741769 1.498731 1.000000
-100.881752 12.741770 1.296712 1.000000
-100.881752 12.741770 1.093166 1.000000
-100.881760 12.741771 0.887633 1.000000
-100.881760 12.741770 0.679636 1.000000
-100.881760 12.741770 0.468678 1.000000
-100.891716 12.680367 3.542620 1.000000
-100.891716 12.680367 3.330106 1.000000
-100.891716 12.680369 3.120574 1.000000
-100.891716 12.680367 2.913525 1.000000
-100.891716 12.680369 2.708477 1.000000
-100.891716 12.680368 2.504967 1.000000
-100.891716 12.680369 2.302547 1.000000
-100.891716 12.680369 2.100777 1.000000
-100.891716 12.680369 1.899223 1.000000
-100.891716 12.680369 1.697453 1.000000
-100.891716 12.680369 1.495033 1.000000
-100.891716 12.680369 1.291523 1.000000
-100.891716 12.680367 1.086475 1.000000
-100.891716 12.680369 0.879426 1.000000
-100.891716 12.680367 0.669894 1.000000
-100.891716 12.680368 0.457380 1.000000
-100.901833 12.618052 3.554163 1.000000
-100.901833 12.618052 3.340058 1.000000
-100.901833 12.618052 3.128959 1.000000
-100.901833 12.618052 2.920360 1.000000
-100.901833 12.618052 2.713778 1.000000
-100.901833 12.618052 2.508745 1.000000
-100.901833 12.618053 2.304811 1.000000
-100.901833 12.618052 2.101531 1.000000
-100.901833 12.618052 1.898469 1.000000
-100.901833 12.618053 1.695189 1.000000
-100.901833 12.618052 1.491255 1.000000
-100.901833 12.618052 1.286222 1.000000
-100.901833 12.618052 1.079640 1.000000
-100.901833 12.618052 0.871041 1.000000
-100.901833 12.618052 0.659942 1.000000
-100.901833 12.618052 0.445837 1.000000
-100.912102 12.554793 3.565955 1.000000
-100.912102 12.554792 3.350226 1.000000
-100.912102 12.554793 3.137525 1.000000
-100.912102 12.554793 2.927344 1.000000
-100.912102 12.554792 2.719194 1.000000
-100.912102 12.554792 2.512606 1.000000
-100.912102 12.554793 2.307123 1.000000
-100.912102 12.554791 2.102301 1.000000
-100.912102 12.554791 1.897699 1.000000
-100.912102 12.554793 1.692876 1.000000
-100.912102 12.554793 1.487394 1.000000
-100.912102 12.554792 1.280806 1.000000
-100.912102 12.554793 1.072656 1.000000
-100.912102 12.554792 0.862474 1.000000
-100.912102 12.554792 0.649774 1.000000
-100.912102 12.554793 0.434045 1.000000
-100.922523 12.490563 3.578007 1.000000
-100.922516 12.490563 3.360617 1.000000
-100.922523 12.490563 3.146279 1.000000
-100.922523 12.490563 2.934480 1.000000
-100.922516 12.490563 2.724729 1.000000
-100.922516 12.490563 2.516550 1.000000
-100.922516 12.490563 2.309487 1.000000
-100.922523 12.490563 2.103089 1.000000
-100.922523 12.490563 1.896911 1.000000
-100.922516 12.490563 1.690513 1.000000
-100.922516 12.490563 1.483449 1.000000
-100.922523 12.490563 1.275271 1.000000
-100.922523 12.490564 1.065520 1.000000
-100.922523 12.490564 0.853721 1.000000
-100.922516 12.490563 0.639383 1.000000
-100.922523 12.490563 0.421994 1.000000
-100.933105 12.425334 3.590322 1.000000
-100.933105 12.425334 3.371236 1.000000
-100.933105 12.425333 3.155226 1.000000
-100.933105 12.425334 2.941774 1.000000
-100.933105 12.425333 2.730385 1.000000
-100.933105 12.425334 2.520582 1.000000
-100.933105 12.425334 2.311903 1.000000
-100.933105 12.425334 2.103893 1.000000
-100.933105 12.425334 1.896107 1.000000
-100.933105 12.425334 1.688097 1.000000
-100.933105 12.425334 1.479418 1.000000
-100.933105 12.425334 1.269615 1.000000
-100.933105 12.425334 1.058226 1.000000
-100.933105 12.425334 0.844774 1.000000
-100.933105 12.425335 0.628764 1.000000
-100.933105 12.425334 0.409678 1.000000
-100.943863 12.359076 3.602911 1.000000
-100.943863 12.359076 3.382091 1.000000
-100.943863 12.359076 3.164371 1.000000
-100.943863 12.359076 2.949229 1.000000
-100.943863 12.359076 2.736166 1.000000
-100.943863 12.359076 2.524703 1.000000
-100.943863 12.359076 2.314372 1.000000
-100.943863 12.359076 2.104716 1.000000
-100.943863 12.359076 1.895284 1.000000
-100.943863 12.359076 1.685628 1.000000
-100.943863 12.359076 1.475297 1.000000
-100.943863 12.359076 1.263834 1.000000
-100.943863 12.359076 1.050771 1.000000
-100.943863 12.359076 0.835630 1.000000
-100.943863 12.359076 0.617910 1.000000
-100.943863 12.359076 0.397089 1.000000
-100.954788 12.291756 3.615780 1.000000
-100.954788 12.291757 3.393186 1.000000
-100.954788 12.291757 3.173718 1.000000
-100.954788 12.291756 2.956850 1.000000
-100.954788 12.291758 2.742077 1.000000
-100.954788 12.291758 2.528915 1.000000
-100.954788 12.291758 2.316895 1.000000
-100.954788 12.291756 2.105556 1.000000
-100.954788 12.291756 1.894444 1.000000
-100.954788 12.291758 1.683105 1.000000
-100.954788 12.291758 1.471085 1.000000
-100.954788 12.291758 1.257923 1.000000
-100.954788 12.291756 1.043151 1.000000
-100.954788 12.291758 0.826282 1.000000
-100.954788 12.291758 0.606814 1.000000
-100.954788 12.291758 0.384220 1.000000
-100.965889 12.223345 3.628937 1.000000
-100.965889 12.223346 3.404531 1.000000
-100.965889 12.223346 3.183275 1.000000
-100.965889 12.223347 2.964641 1.000000
-100.965889 12.223346 2.748119 1.000000
-100.965889 12.223345 2.533222 1.000000
-100.965889 12.223345 2.319476 1.000000
-100.965889 12.223345 2.106416 1.000000
-100.965889 12.223345 1.893584 1.000000
-100.965889 12.223345 1.680524 1.000000
-100.965889 12.223345 1.466778 1.000000
-100.965889 12.223347 1.251881 1.000000
-100.965889 12.223347 1.035359 1.000000
-100.965889 12.223347 0.816725 1.000000
-100.965889 12.223347 0.595469 1.000000
-100.965889 12.223347 0.371063 1.000000
-100.977180 12.153805 3.642391 1.000000
-100.977180 12.153806 3.416131 1.000000
-100.977180 12.153806 3.193049 1.000000
-100.977180 12.153806 2.972608 1.000000
-100.977180 12.153806 2.754298 1.000000
-100.977180 12.153806 2.537626 1.000000
-100.977180 12.153806 2.322114 1.000000
-100.977180 12.153806 2.107295 1.000000
-100.977180 12.153806 1.892705 1.000000
-100.977180 12.153806 1.677886 1.000000
-100.977180 12.153806 1.462374 1.000000
-100.977180 12.153807 1.245702 1.000000
-100.977180 12.153806 1.027392 1.000000
-100.977180 12.153806 0.806951 1.000000
-100.977180 12.153806 0.583869 1.000000
-100.977180 12.153806 0.357609 1.000000
-100.988655 12.083104 3.656150 1.000000
-100.988655 12.083104 3.427995 1.000000
-100.988655 12.083104 3.203044 1.000000
-100.988655 12.083105 2.980756 1.000000
-100.988655 12.083106 2.760617 1.000000
-100.988655 12.083105 2.542130 1.000000
-100.988655 12.083104 2.324813 1.000000
-100.988655 12.083104 2.108194 1.000000
-100.988655 12.083104 1.891806 1.000000
-100.988655 12.083104 1.675187 1.000000
-100.988655 12.083105 1.457870 1.000000
-100.988655 12.083106 1.239383 1.000000
-100.988655 12.083106 1.019244 1.000000
-100.988655 12.083104 0.796956 1.000000
-100.988655 12.083104 0.572005 1.000000
-100.988655 12.083105 0.343850 1.000000
-101.000320 12.011205 3.670224 1.000000
-101.000320 12.011206 3.440130 1.000000
-101.000320 12.011205 3.213267 1.000000
-101.000320 12.011206 2.989091 1.000000
-101.000320 12.011206 2.767081 1.000000
-101.000320 12.011206 2.546737 1.000000
-101.000320 12.011206 2.327573 1.000000
-101.000320 12.011206 2.109113 1.000000
-101.000320 12.011206 1.890887 1.000000
-101.000320 12.011206 1.672427 1.000000
-101.000320 12.011207 1.453263 1.000000
-101.000320 12.011206 1.232919 1.000000
-101.000320 12.011206 1.010909 1.000000
-101.000320 12.011206 0.786733 1.000000
-101.000320 12.011207 0.559870 1.000000
-101.000320 12.011206 0.329776 1.000000
-101.012192 11.938070 3.684622 1.000000
-101.012192 11.938071 3.452544 1.000000
-101.012192 11.938070 3.223726 1.000000
-101.012192 11.938072 2.997617 1.000000
-101.012192 11.938071 2.773694 1.000000
-101.012192 11.938072 2.551450 1.000000
-101.012192 11.938070 2.330397 1.000000
-101.012192 11.938072 2.110054 1.000000
-101.012192 11.938072 1.889946 1.000000
-101.012192 11.938070 1.669603 1.000000
-101.012192 11.938072 1.448550 1.000000
-101.012192 11.938072 1.226306 1.000000
-101.012192 11.938072 1.002383 1.000000
-101.012192 11.938071 0.776274 1.000000
-101.012192 11.938072 0.547456 1.000000
-101.012192 11.938071 0.315378 1.000000
-101.024261 11.863661 3.699354 1.000000
-101.024261 11.863661 3.465248 1.000000
-101.024261 11.863661 3.234427 1.000000
-101.024261 11.863661 3.006341 1.000000
-101.024261 11.863661 2.780459 1.000000
-101.024261 11.863660 2.556273 1.000000
-101.024261 11.863661 2.333287 1.000000
-101.024261 11.863662 2.111016 1.000000
-101.024261 11.863662 1.888984 1.000000
-101.024261 11.863661 1.666713 1.000000
-101.024261 11.863661 1.443727 1.000000
-101.024261 11.863661 1.219541 1.000000
-101.024261 11.863662 0.993659 1.000000
-101.024261 11.863661 0.765573 1.000000
-101.024261 11.863661 0.534753 1.000000
-101.024261 11.863661 0.300646 1.000000
-101.036552 11.787935 3.714430 1.000000
-101.036552 11.787934 3.478246 1.000000
-101.036552 11.787935 3.245378 1.000000
-101.036552 11.787933 3.015269 1.000000
-101.036552 11.787933 2.787384 1.000000
-101.036552 11.787934 2.561208 1.000000
-101.036552 11.787934 2.336243 1.000000
-101.036552 11.787934 2.112001 1.000000
-101.036552 11.787934 1.887999 1.000000
-101.036552 11.787934 1.663757 1.000000
-101.036552 11.787935 1.438792 1.000000
-101.036552 11.787934 1.212616 1.000000
-101.036552 11.787934 0.984731 1.000000
-101.036552 11.787935 0.754621 1.000000
-101.036552 11.787935 0.521754 1.000000
-101.036552 11.787935 0.285570 1.000000
-101.049065 11.710847 3.729861 1.000000
-101.049065 11.710847 3.491552 1.000000
-101.049065 11.710847 3.256588 1.000000
-101.049065 11.710847 3.024407 1.000000
-101.049065 11.710847 2.794471 1.000000
-101.049065 11.710847 2.566259 1.000000
-101.049065 11.710848 2.339270 1.000000
-101.049065 11.710847 2.113009 1.000000
-101.049065 11.710847 1.886991 1.000000
-101.049065 11.710848 1.660730 1.000000
-101.049065 11.710847 1.433741 1.000000
-101.049065 11.710848 1.205529 1.000000
-101.049065 11.710848 0.975593 1.000000
-101.049065 11.710849 0.743412 1.000000
-101.049065 11.710848 0.508449 1.000000
-101.049065 11.710847 0.270139 1.000000
-101.061806 11.632357 3.745658 1.000000
-101.061806 11.632357 3.505173 1.000000
-101.061806 11.632357 3.268063 1.000000
-101.061806 11.632357 3.033762 1.000000
-101.061806 11.632357 2.801725 1.000000
-101.061806 11.632357 2.571430 1.000000
-101.061806 11.632356 2.342368 1.000000
-101.061806 11.632358 2.114041 1.000000
-101.061806 11.632358 1.885959 1.000000
-101.061806 11.632357 1.657632 1.000000
-101.061806 11.632357 1.428570 1.000000
-101.061806 11.632358 1.198275 1.000000
-101.061806 11.632357 0.966238 1.000000
-101.061806 11.632357 0.731937 1.000000
-101.061806 11.632357 0.494827 1.000000
-101.061806 11.632357 0.254342 1.000000
-101.074776 11.552415 3.761834 1.000000
-101.074776 11.552415 3.519120 1.000000
-101.074776 11.552415 3.279813 1.000000
-101.074776 11.552415 3.043341 1.000000
-101.074776 11.552415 2.809155 1.000000
-101.074776 11.552415 2.576725 1.000000
-101.074776 11.552416 2.345540 1.000000
-101.074776 11.552416 2.115098 1.000000
-101.074776 11.552416 1.884902 1.000000
-101.074776 11.552417 1.654460 1.000000
-101.074776 11.552415 1.423275 1.000000
-101.074776 11.552416 1.190846 1.000000
-101.074776 11.552414 0.956659 1.000000
-101.074776 11.552415 0.720187 1.000000
-101.074776 11.552415 0.480881 1.000000
-101.074776 11.552415 0.238166 1.000000
-101.087997 11.470975 3.778399 1.000000
-101.087997 11.470975 3.533402 1.000000
-101.087997 11.470975 3.291846 1.000000
-101.087997 11.470974 3.053151 1.000000
-101.087997 11.470975 2.816762 1.000000
-101.087997 11.470975 2.582147 1.000000
-101.087997 11.470975 2.348789 1.000000
-101.087997 11.470975 2.116180 1.000000
-101.087997 11.470975 1.883820 1.000000
-101.087997 11.470975 1.651211 1.000000
-101.087997 11.470975 1.417852 1.000000
-101.087997 11.470975 1.183238 1.000000
-101.087997 11.470975 0.946849 1.000000
-101.087997 11.470975 0.708154 1.000000
-101.087997 11.470975 0.466598 1.000000
-101.087997 11.470975 0.221602 1.000000
-101.101463 11.387984 3.795366 1.000000
-101.101463 11.387984 3.548033 1.000000
-101.101463 11.387984 3.304172 1.000000
-101.101463 11.387985 3.063199 1.000000
-101.101463 11.387984 2.824555 1.000000
-101.101463 11.387984 2.587702 1.000000
-101.101463 11.387983 2.352117 1.000000
-101.101463 11.387984 2.117289 1.000000
-101.101463 11.387984 1.882712 1.000000
-101.101463 11.387984 1.647883 1.000000
-101.101463 11.387984 1.412298 1.000000
-101.101463 11.387984 1.175445 1.000000
-101.101463 11.387986 0.936801 1.000000
-101.101463 11.387984 0.695828 1.000000
-101.101463 11.387984 0.451967 1.000000
-101.101463 11.387986 0.204634 1.000000
-101.115189 11.303390 3.812751 1.000000
-101.115189 11.303391 3.563022 1.000000
-101.115189 11.303390 3.316800 1.000000
-101.115189 11.303391 3.073493 1.000000
-101.115189 11.303391 2.832539 1.000000
-101.115189 11.303390 2.593392 1.000000
-101.115189 11.303390 2.355526 1.000000
-101.115189 11.303391 2.118424 1.000000
-101.115189 11.303391 1.881576 1.000000
-101.115189 11.303391 1.644474 1.000000
-101.115189 11.303391 1.406607 1.000000
-101.115189 11.303391 1.167461 1.000000
-101.115189 11.303392 0.926507 1.000000
-101.115189 11.303391 0.683200 1.000000
-101.115189 11.303391 0.436978 1.000000
-101.115189 11.303391 0.187249 1.000000
-101.129189 11.217138 3.830564 1.000000
-101.129189 11.217138 3.578382 1.000000
-101.129189 11.217138 3.329740 1.000000
-101.129189 11.217138 3.084043 1.000000
-101.129189 11.217138 2.840720 1.000000
-101.129189 11.217138 2.599224 1.000000
-101.129189 11.217138 2.359020 1.000000
-101.129189 11.217138 2.119588 1.000000
-101.129189 11.217138 1.880412 1.000000
-101.129189 11.217138 1.640980 1.000000
-101.129189 11.217138 1.400776 1.000000
-101.129189 11.217138 1.159280 1.000000
-101.129189 11.217139 0.915957 1.000000
-101.129189 11.217138 0.670260 1.000000
-101.129189 11.217140 0.421619 1.000000
-101.129189 11.217138 0.169436 1.000000
-101.143463 11.129169 3.848823 1.000000
-101.143463 11.129169 3.594126 1.000000
-101.143463 11.129169 3.343003 1.000000
-101.143463 11.129169 3.094856 1.000000
-101.143463 11.129170 2.849106 1.000000
-101.143463 11.129169 2.605201 1.000000
-101.143463 11.129170 2.362601 1.000000
-101.143463 11.129170 2.120781 1.000000
-101.143463 11.129170 1.879219 1.000000
-101.143463 11.129171 1.637399 1.000000
-101.143463 11.129169 1.394799 1.000000
-101.143463 11.129171 1.150894 1.000000
-101.143463 11.129169 0.905145 1.000000
-101.143463 11.129170 0.656997 1.000000
-101.143463 11.129169 0.405875 1.000000
-101.143463 11.129171 0.151177 1.000000
-101.158035 11.039424 3.867542 1.000000
-101.158028 11.039422 3.610265 1.000000
-101.158035 11.039425 3.356600 1.000000
-101.158035 11.039423 3.105940 1.000000
-101.158035 11.039423 2.857703 1.000000
-101.158028 11.039422 2.611328 1.000000
-101.158028 11.039423 2.366272 1.000000
-101.158035 11.039423 2.122004 1.000000
-101.158035 11.039423 1.877996 1.000000
-101.158028 11.039423 1.633728 1.000000
-101.158035 11.039423 1.388672 1.000000
-101.158035 11.039423 1.142297 1.000000
-101.158035 11.039424 0.894060 1.000000
-101.158035 11.039425 0.643400 1.000000
-101.158028 11.039423 0.389735 1.000000
-101.158035 11.039425 0.132459 1.000000
-101.172897 10.947837 3.886736 1.000000
-101.172897 10.947839 3.626815 1.000000
-101.172897 10.947837 3.370544 1.000000
-101.172897 10.947839 3.117307 1.000000
-101.172897 10.947839 2.866518 1.000000
-101.172897 10.947839 2.617611 1.000000
-101.172897 10.947839 2.370037 1.000000
-101.172897 10.947839 2.123257 1.000000
-101.172897 10.947839 1.876742 1.000000
-101.172897 10.947839 1.629963 1.000000
-101.172897 10.947839 1.382389 1.000000
-101.172897 10.947839 1.133482 1.000000
-101.172897 10.947839 0.882693 1.000000
-101.172897 10.947839 0.629457 1.000000
-101.172897 10.947839 0.373185 1.000000
-101.172897 10.947839 0.113264 1.000000
-101.188065 10.854345 3.906423 1.000000
-101.188065 10.854344 3.643790 1.000000
-101.188065 10.854343 3.384844 1.000000
-101.188065 10.854344 3.128965 1.000000
-101.188065 10.854345 2.875560 1.000000
-101.188065 10.854345 2.624055 1.000000
-101.188065 10.854345 2.373898 1.000000
-101.188065 10.854345 2.124544 1.000000
-101.188065 10.854345 1.875456 1.000000
-101.188065 10.854345 1.626102 1.000000
-101.188065 10.854345 1.375944 1.000000
-101.188065 10.854345 1.124440 1.000000
-101.188065 10.854345 0.871035 1.000000
-101.188065 10.854343 0.615156 1.000000
-101.188065 10.854345 0.356210 1.000000
-101.188065 10.854345 0.093577 1.000000
-101.203560 10.758877 3.926620 1.000000
-101.203560 10.758877 3.661204 1.000000
-101.203560 10.758877 3.399515 1.000000
-101.203560 10.758877 3.140926 1.000000
-101.203560 10.758878 2.884835 1.000000
-101.203560 10.758876 2.630667 1.000000
-101.203560 10.758877 2.377859 1.000000
-101.203560 10.758876 2.125863 1.000000
-101.203560 10.758877 1.874137 1.000000
-101.203560 10.758877 1.622141 1.000000
-101.203560 10.758877 1.369333 1.000000
-101.203560 10.758878 1.115165 1.000000
-101.203560 10.758878 0.859074 1.000000
-101.203560 10.758878 0.600485 1.000000
-101.203560 10.758878 0.338796 1.000000
-101.203560 10.758878 0.073380 1.000000
-101.219383 10.661358 3.947345 1.000000
-101.219383 10.661358 3.679075 1.000000
-101.219383 10.661358 3.414570 1.000000
-101.219383 10.661358 3.153199 1.000000
-101.219383 10.661358 2.894354 1.000000
-101.219383 10.661358 2.637451 1.000000
-101.219383 10.661358 2.381924 1.000000
-101.219383 10.661358 2.127217 1.000000
-101.219383 10.661358 1.872783 1.000000
-101.219383 10.661359 1.618076 1.000000
-101.219383 10.661358 1.362549 1.000000
-101.219383 10.661358 1.105646 1.000000
-101.219383 10.661360 0.846801 1.000000
-101.219383 10.661360 0.585430 1.000000
-101.219383 10.661360 0.320926 1.000000
-101.219383 10.661359 0.052655 1.000000
-101.235558 10.561714 3.968618 1.000000
-101.235558 10.561714 3.697417 1.000000
-101.235558 10.561714 3.430023 1.000000
-101.235558 10.561714 3.165797 1.000000
-101.235558 10.561714 2.904124 1.000000
-101.235558 10.561714 2.644415 1.000000
-101.235558 10.561714 2.386096 1.000000
-101.235558 10.561714 2.128607 1.000000
-101.235558 10.561714 1.871393 1.000000
-101.235558 10.561714 1.613904 1.000000
-101.235558 10.561714 1.355585 1.000000
-101.235558 10.561715 1.095876 1.000000
-101.235558 10.561715 0.834203 1.000000
-101.235558 10.561715 0.569977 1.000000
-101.235558 10.561716 0.302584 1.000000
-101.235558 10.561716 0.031383 1.000000
-101.252090 10.459864 3.990459 1.000000
-101.252090 10.459864 3.716249 1.000000
-101.252090 10.459865 3.445889 1.000000
-101.252090 10.459864 3.178731 1.000000
-101.252090 10.459863 2.914155 1.000000
-101.252090 10.459864 2.651564 1.000000
-101.252090 10.459864 2.390380 1.000000
-101.252090 10.459865 2.130034 1.000000
-101.252090 10.459865 1.869967 1.000000
-101.252090 10.459864 1.609620 1.000000
-101.252090 10.459865 1.348436 1.000000
-101.252090 10.459864 1.085845 1.000000
-101.252090 10.459864 0.821269 1.000000
-101.252090 10.459866 0.554111 1.000000
-101.252090 10.459866 0.283751 1.000000
-101.252090 10.459866 0.009541 1.000000
-101.268990 10.355722 4.012890 1.000000
-101.268990 10.355722 3.735590 1.000000
-101.268990 10.355722 3.462183 1.000000
-101.268990 10.355722 3.192014 1.000000
-101.268990 10.355724 2.924457 1.000000
-101.268990 10.355723 2.658907 1.000000
-101.268990 10.355723 2.394779 1.000000
-101.268990 10.355722 2.131499 1.000000
-101.268990 10.355722 1.868501 1.000000
-101.268990 10.355724 1.605221 1.000000
-101.268990 10.355724 1.341093 1.000000
-101.268990 10.355724 1.075544 1.000000
-101.268990 10.355723 0.807986 1.000000
-101.268990 10.355723 0.537817 1.000000
-101.268990 10.355722 0.264411 1.000000
-101.288643 10.403166 -0.000026 0.511520
-101.286270 10.249204 4.035932 1.000000
-101.286270 10.249203 3.755457 1.000000
-101.286270 10.249203 3.478921 1.000000
-101.286270 10.249203 3.205659 1.000000
-101.286270 10.249205 2.935039 1.000000
-101.286270 10.249204 2.666449 1.000000
-101.286270 10.249205 2.399298 1.000000
-101.286270 10.249203 2.133004 1.000000
-101.286270 10.249203 1.866996 1.000000
-101.286270 10.249205 1.600702 1.000000
-101.286270 10.249204 1.333550 1.000000
-101.286270 10.249201 1.064961 1.000000
-101.286270 10.249203 0.794341 1.000000
-101.286270 10.249203 0.521079 1.000000
-101.286270 10.249203 0.244543 1.000000
-101.340218 10.382005 -0.000027 0.547059
-101.303963 10.140210 4.059608 1.000000
-101.303963 10.140211 3.775873 1.000000
-101.303963 10.140210 3.496120 1.000000
-101.303963 10.140212 3.219681 1.000000
-101.303963 10.140210 2.945913 1.000000
-101.303963 10.140212 2.674200 1.000000
-101.303963 10.140212 2.403941 1.000000
-101.303963 10.140211 2.134551 1.000000
-101.303963 10.140211 1.865449 1.000000
-101.303963 10.140213 1.596058 1.000000
-101.303963 10.140212 1.325800 1.000000
-101.303963 10.140212 1.054087 1.000000
-101.303963 10.140212 0.780319 1.000000
-101.303963 10.140212 0.503880 1.000000
-101.303963 10.140212 0.224128 1.000000
-101.391922 10.361177 -0.000036 0.520466
-101.322067 10.028649 4.083945 1.000000
-101.322067 10.028650 3.796857 1.000000
-101.322067 10.028646 3.513799 1.000000
-101.322067 10.028648 3.234093 1.000000
-101.322067 10.028649 2.957090 1.000000
-101.322067 10.028649 2.682167 1.000000
-101.322067 10.028650 2.408714 1.000000
-101.322067 10.028649 2.136141 1.000000
-101.322067 10.028650 1.863859 1.000000
-101.322067 10.028650 1.591285 1.000000
-101.322067 10.028649 1.317833 1.000000
-101.322067 10.028649 1.042910 1.000000
-101.322067 10.028648 0.765907 1.000000
-101.322067 10.028648 0.486201 1.000000
-101.322067 10.028650 0.203144 1.000000
-101.443748 10.340658 -0.000058 0.515809
-101.340607 9.914412 4.108970 1.000000
-101.340607 9.914412 3.818433 1.000000
-101.340607 9.914412 3.531976 1.000000
-101.340607 9.914412 3.248911 1.000000
-101.340607 9.914412 2.968583 1.000000
-101.340607 9.914412 2.690358 1.000000
-101.340607 9.914413 2.413622 1.000000
-101.340607 9.914412 2.137776 1.000000
-101.340607 9.914412 1.862224 1.000000
-101.340607 9.914413 1.586378 1.000000
-101.340607 9.914413 1.309642 1.000000
-101.340607 9.914412 1.031417 1.000000
-101.340607 9.914413 0.751089 1.000000
-101.340607 9.914412 0.468024 1.000000
-101.340607 9.914412 0.181567 1.000000
-101.495804 10.320725 -0.000021 0.512745
-101.359596 9.797393 4.134706 1.000000
-101.359596 9.797393 3.840624 1.000000
-101.359596 9.797394 3.550671 1.000000
-101.359596 9.797392 3.264153 1.000000
-101.359596 9.797394 2.980403 1.000000
-101.359596 9.797393 2.698782 1.000000
-101.359596 9.797393 2.418670 1.000000
-101.359596 9.797394 2.139457 1.000000
-101.359596 9.797394 1.860543 1.000000
-101.359596 9.797394 1.581330 1.000000
-101.359596 9.797393 1.301217 1.000000
-101.359596 9.797394 1.019597 1.000000
-101.359596 9.797393 0.735847 1.000000
-101.359596 9.797395 0.449329 1.000000
-101.359596 9.797394 0.159376 1.000000
-101.547905 10.300915 -0.000049 0.503186
-101.379059 9.677478 4.161185 1.000000
-101.379059 9.677478 3.863455 1.000000
-101.379066 9.677479 3.569906 1.000000
-101.379059 9.677478 3.279833 1.000000
-101.379066 9.677479 2.992564 1.000000
-101.379059 9.677478 2.707450 1.000000
-101.379066 9.677479 2.423863 1.000000
-101.379059 9.677479 2.141187 1.000000
-101.379059 9.677479 1.858813 1.000000
-101.379066 9.677479 1.576137 1.000000
-101.379059 9.677478 1.292550 1.000000
-101.379066 9.677479 1.007436 1.000000
-101.379059 9.677479 0.720167 1.000000
-101.379066 9.677480 0.430094 1.000000
-101.379066 9.677480 0.136545 1.000000
-101.600243 10.281724 -0.000008 0.501103
-101.399017 9.554543 4.188437 1.000000
-101.399017 9.554544 3.886953 1.000000
-101.399017 9.554543 3.589703 1.000000
-101.399017 9.554544 3.295972 1.000000
-101.399017 9.554543 3.005080 1.000000
-101.399017 9.554543 2.716371 1.000000
-101.399017 9.554543 2.429208 1.000000
-101.399017 9.554543 2.142967 1.000000
-101.399017 9.554543 1.857033 1.000000
-101.399017 9.554543 1.570792 1.000000
-101.399017 9.554543 1.283628 1.000000
-101.399017 9.554544 0.994920 1.000000
-101.399017 9.554544 0.704028 1.000000
-101.399017 9.554543 0.410298 1.000000
-101.399017 9.554544 0.113047 1.000000
-101.652649 10.262730 -0.000012 0.551471
-101.419479 9.428463 4.216496 1.000000
-101.419479 9.428463 3.911146 1.000000
-101.419479 9.428463 3.610084 1.000000
-101.419479 9.428464 3.312587 1.000000
-101.419479 9.428463 3.017966 1.000000
-101.419479 9.428463 2.725556 1.000000
-101.419479 9.428462 2.434711 1.000000
-101.419479 9.428464 2.144800 1.000000
-101.419479 9.428464 1.855200 1.000000
-101.419479 9.428463 1.565289 1.000000
-101.419479 9.428464 1.274444 1.000000
-101.419479 9.428464 0.982034 1.000000
-101.419479 9.428464 0.687413 1.000000
-101.419479 9.428463 0.389916 1.000000
-101.419479 9.428464 0.088854 1.000000
-101.705193 10.244103 -0.000016 0.606985
-101.440468 9.299100 4.245394 1.000000
-101.440468 9.299101 3.936063 1.000000
-101.440468 9.299102 3.631075 1.000000
-101.440468 9.299101 3.329700 1.000000
-101.440468 9.299104 3.031238 1.000000
-101.440468 9.299103 2.735015 1.000000
-101.440468 9.299102 2.440378 1.000000
-101.440468 9.299102 2.146688 1.000000
-101.440468 9.299102 1.853312 1.000000
-101.440468 9.299103 1.559622 1.000000
-101.440468 9.299103 1.264985 1.000000
-101.440468 9.299104 0.968762 1.000000
-101.440468 9.299102 0.670300 1.000000
-101.440468 9.299103 0.368925 1.000000
-101.440468 9.299102 0.063937 1.000000
-101.757851 10.225832 -0.000023 0.516422
-101.462021 9.166313 4.275167 1.000000
-101.462021 9.166313 3.961735 1.000000
-101.462021 9.166315 3.652703 1.000000
-101.462021 9.166315 3.347332 1.000000
-101.462021 9.166314 3.044912 1.000000
-101.462021 9.166316 2.744761 1.000000
-101.462021 9.166315 2.446218 1.000000
-101.462021 9.166316 2.148633 1.000000
-101.462021 9.166316 1.851367 1.000000
-101.462021 9.166315 1.553782 1.000000
-101.462021 9.166316 1.255239 1.000000
-101.462021 9.166315 0.955088 1.000000
-101.462021 9.166315 0.652668 1.000000
-101.462021 9.166315 0.347297 1.000000
-101.462021 9.166315 0.038265 1.000000
-101.810638 10.207936 -0.000028 0.530637
-101.484146 9.029950 4.305855 1.000000
-101.484154 9.029952 3.988195 1.000000
-101.484154 9.029952 3.674995 1.000000
-101.484154 9.029953 3.365505 1.000000
-101.484154 9.029953 3.059006 1.000000
-101.484154 9.029953 2.754807 1.000000
-101.484154 9.029953 2.452236 1.000000
-101.484154 9.029952 2.150638 1.000000
-101.484154 9.029952 1.849362 1.000000
-101.484154 9.029953 1.547763 1.000000
-101.484154 9.029953 1.245193 1.000000
-101.484154 9.029954 0.940994 1.000000
-101.484154 9.029952 0.634495 1.000000
-101.484154 9.029953 0.325005 1.000000
-101.484154 9.029954 0.011806 1.000000
-101.863564 10.190419 -0.000031 0.498774
-101.506882 8.889854 4.337497 1.000000
-101.506882 8.889853 4.015478 1.000000
-101.506882 8.889853 3.697980 1.000000
-101.506882 8.889855 3.384243 1.000000
-101.506882 8.889854 3.073538 1.000000
-101.506882 8.889855 2.765164 1.000000
-101.506882 8.889855 2.458442 1.000000
-101.506882 8.889854 2.152705 1.000000
-101.506882 8.889854 1.847295 1.000000
-101.506882 8.889855 1.541558 1.000000
-101.506882 8.889856 1.234835 1.000000
-101.506882 8.889855 0.926462 1.000000
-101.506882 8.889856 0.615757 1.000000
-101.506882 8.889854 0.302020 1.000000
-101.528694 8.958164 0.000009 0.544853
-101.916672 10.173504 0.000028 0.573162
-101.530258 8.745853 4.370136 1.000000
-101.530258 8.745852 4.043621 1.000000
-101.530258 8.745853 3.721690 1.000000
-101.530258 8.745852 3.403572 1.000000
-101.530258 8.745854 3.088529 1.000000
-101.530258 8.745853 2.775849 1.000000
-101.530258 8.745854 2.464844 1.000000
-101.530258 8.745855 2.154837 1.000000
-101.530258 8.745855 1.845163 1.000000
-101.530258 8.745855 1.535156 1.000000
-101.530258 8.745853 1.224151 1.000000
-101.530258 8.745854 0.911472 1.000000
-101.530258 8.745853 0.596428 1.000000
-101.530258 8.745855 0.278310 1.000000
-101.590340 8.938704 0.000006 0.539461
-101.969833 10.156724 0.000025 0.570711
-101.554283 8.597763 4.403819 1.000000
-101.554283 8.597764 4.072664 1.000000
-101.554283 8.597764 3.746158 1.000000
-101.554283 8.597764 3.423519 1.000000
-101.554283 8.597766 3.103998 1.000000
-101.554283 8.597765 2.786875 1.000000
-101.554283 8.597765 2.471450 1.000000
-101.554283 8.597765 2.157038 1.000000
-101.554283 8.597765 1.842962 1.000000
-101.554283 8.597765 1.528550 1.000000
-101.554283 8.597766 1.213125 1.000000
-101.554283 8.597767 0.896002 1.000000
-101.554283 8.597765 0.576481 1.000000
-101.554283 8.597766 0.253843 1.000000
-101.652092 8.919589 -0.000017 0.554044
-102.023109 10.140314 0.000021 0.541789
-101.579018 8.445397 4.438594 1.000000
-101.579018 8.445397 4.102648 1.000000
-101.579018 8.445396 3.771419 1.000000
-101.579018 8.445397 3.444112 1.000000
-101.579018 8.445397 3.119969 1.000000
-101.579018 8.445397 2.798258 1.000000
-101.579018 8.445397 2.478270 1.000000
-101.579018 8.445399 2.159309 1.000000
-101.579018 8.445399 1.840690 1.000000
-101.579018 8.445398 1.521730 1.000000
-101.579018 8.445398 1.201742 1.000000
-101.579018 8.445398 0.880031 1.000000
-101.579018 8.445399 0.555888 1.000000
-101.579018 8.445397 0.228581 1.000000
-101.714020 8.900998 -0.000019 0.550980
-102.076492 10.124278 0.000017 0.545711
-101.604462 8.288550 4.474512 1.000000
-101.604469 8.288551 4.133617 1.000000
-101.604469 8.288551 3.797510 1.000000
-101.604469 8.288552 3.465382 1.000000
-101.604469 8.288552 3.136465 1.000000
-101.604469 8.288552 2.810016 1.000000
-101.604469 8.288551 2.485314 1.000000
-101.604469 8.288551 2.161656 1.000000
-101.604469 8.288552 1.838344 1.000000
-101.604469 8.288551 1.514685 1.000000
-101.604469 8.288552 1.189984 1.000000
-101.604469 8.288553 0.863535 1.000000
-101.604469 8.288553 0.534618 1.000000
-101.604469 8.288552 0.202490 1.000000
-101.776077 8.882898 -0.000007 0.543260
-102.129982 10.108595 0.000008 0.549632
-101.630692 8.127007 4.511628 1.000000
-101.630692 8.127006 4.165621 1.000000
-101.630692 8.127007 3.824471 1.000000
-101.630692 8.127008 3.487361 1.000000
-101.630692 8.127007 3.153511 1.000000
-101.630684 8.127006 2.822166 1.000000
-101.630692 8.127008 2.492594 1.000000
-101.630692 8.127007 2.164081 1.000000
-101.630692 8.127007 1.835919 1.000000
-101.630692 8.127008 1.507406 1.000000
-101.630692 8.127007 1.177834 1.000000
-101.630692 8.127007 0.846489 1.000000
-101.630692 8.127009 0.512639 1.000000
-101.630692 8.127007 0.175529 1.000000
-101.838242 8.865165 -0.000011 0.562868
-102.183586 10.093310 0.000006 0.535662
-101.657707 7.960533 4.550001 1.000000
-101.657707 7.960533 4.198707 1.000000
-101.657707 7.960533 3.852346 1.000000
-101.657707 7.960534 3.510086 1.000000
-101.657707 7.960534 3.171134 1.000000
-101.657707 7.960534 2.834726 1.000000
-101.657707 7.960533 2.500120 1.000000
-101.657707 7.960535 2.166588 1.000000
-101.657707 7.960535 1.833412 1.000000
-101.657707 7.960533 1.499880 1.000000
-101.657707 7.960535 1.165273 1.000000
-101.657707 7.960536 0.828865 1.000000
-101.657707 7.960535 0.489914 1.000000
-101.657707 7.960536 0.147655 1.000000
-101.900558 8.847962 0.000007 0.538113
-102.237289 10.078396 0.000003 0.555025
-101.685562 7.788886 4.589693 1.000000
-101.685562 7.788886 4.232931 1.000000
-101.685562 7.788886 3.881178 1.000000
-101.685562 7.788886 3.533591 1.000000
-101.685562 7.788887 3.189364 1.000000
-101.685562 7.788888 2.847719 1.000000
-101.685562 7.788887 2.507905 1.000000
-101.685562 7.788887 2.169181 1.000000
-101.685562 7.788887 1.830820 1.000000
-101.685562 7.788888 1.492096 1.000000
-101.685562 7.788889 1.152281 1.000000
-101.685562 7.788888 0.810636 1.000000
-101.685562 7.788887 0.466409 1.000000
-101.685562 7.788888 0.118822 1.000000
-101.962997 8.831177 0.000021 0.531618
-102.291122 10.063927 0.000017 0.542892
-101.714302 7.611802 4.630770 1.000000
-101.714302 7.611804 4.268349 1.000000
-101.714302 7.611802 3.911017 1.000000
-101.714302 7.611803 3.557917 1.000000
-101.714302 7.611804 3.208230 1.000000
-101.714302 7.611804 2.861166 1.000000
-101.714302 7.611803 2.515961 1.000000
-101.714302 7.611803 2.171864 1.000000
-101.714302 7.611803 1.828136 1.000000
-101.714302 7.611804 1.484039 1.000000
-101.714302 7.611804 1.138834 1.000000
-101.714302 7.611804 0.791771 1.000000
-101.714302 7.611804 0.442083 1.000000
-101.714302 7.611804 0.088984 1.000000
-102.025520 8.814746 0.000016 0.543137
-102.345070 10.049914 0.000053 0.525735
-101.743965 7.429000 4.673304 1.000000
-101.743965 7.429001 4.305023 1.000000
-101.743965 7.429000 3.941914 1.000000
-101.743965 7.429001 3.583105 1.000000
-101.743965 7.429001 3.227764 1.000000
-101.743965 7.429003 2.875089 1.000000
-101.743965 7.429002 2.524302 1.000000
-101.743965 7.429001 2.174643 1.000000
-101.743965 7.429002 1.825357 1.000000
-101.743965 7.429002 1.475697 1.000000
-101.743965 7.429003 1.124911 1.000000
-101.743965 7.429002 0.772236 1.000000
-101.743965 7.429002 0.416895 1.000000
-101.743965 7.429002 0.058087 1.000000
-102.088158 8.798740 0.000009 0.568505
-102.399086 10.036128 0.000050 0.515809
-101.774605 7.240181 4.717370 1.000000
-101.774605 7.240183 4.343019 1.000000
-101.774605 7.240183 3.973924 1.000000
-101.774605 7.240183 3.609200 1.000000
-101.774605 7.240183 3.248002 1.000000
-101.774605 7.240182 2.889513 1.000000
-101.774605 7.240183 2.532945 1.000000
-101.774605 7.240183 2.177521 1.000000
-101.774605 7.240183 1.822478 1.000000
-101.774605 7.240183 1.467055 1.000000
-101.774605 7.240182 1.110486 1.000000
-101.774605 7.240184 0.751998 1.000000
-101.774605 7.240184 0.390800 1.000000
-101.774605 7.240185 0.026077 1.000000
-102.150902 8.783187 0.000005 0.527941
-102.453201 10.022775 0.000060 0.530515
-101.806282 7.045027 4.763049 1.000000
-101.806282 7.045026 4.382405 1.000000
-101.806282 7.045028 4.007106 1.000000
-101.806282 7.045028 3.636251 1.000000
-101.806282 7.045027 3.268981 1.000000
-101.806282 7.045028 2.904467 1.000000
-101.806282 7.045028 2.541904 1.000000
-101.806282 7.045028 2.180506 1.000000
-101.806282 7.045028 1.819494 1.000000
-101.806282 7.045028 1.458096 1.000000
-101.806282 7.045029 1.095533 1.000000
-101.806282 7.045028 0.731019 1.000000
-101.806282 7.045030 0.363749 1.000000
-101.815254 7.082973 -0.000011 0.532966
-102.213745 8.768016 -0.000011 0.557966
-102.507401 10.009748 0.000058 0.518015
-101.839035 6.843183 4.810431 1.000000
-101.839035 6.843185 4.423260 1.000000
-101.839035 6.843185 4.041524 1.000000
-101.839035 6.843185 3.664310 1.000000
-101.839035 6.843185 3.290742 1.000000
-101.839035 6.843184 2.919977 1.000000
-101.839035 6.843184 2.551197 1.000000
-101.839035 6.843186 2.183601 1.000000
-101.839035 6.843186 1.816399 1.000000
-101.839035 6.843184 1.448803 1.000000
-101.839035 6.843185 1.080023 1.000000
-101.839035 6.843186 0.709258 1.000000
-101.839035 6.843186 0.335690 1.000000
-101.890030 7.065751 0.000022 0.531740
-102.276779 8.753674 0.000059 0.529412
-102.561699 9.997166 0.000073 0.554412
-101.872940 6.634292 4.859608 1.000000
-101.872940 6.634292 4.465662 1.000000
-101.872940 6.634293 4.077247 1.000000
-101.872940 6.634293 3.693432 1.000000
-101.872940 6.634292 3.313328 1.000000
-101.872940 6.634293 2.936074 1.000000
-101.872940 6.634295 2.560842 1.000000
-101.872940 6.634295 2.186814 1.000000
-101.872940 6.634295 1.813186 1.000000
-101.872940 6.634295 1.439158 1.000000
-101.872940 6.634294 1.063926 1.000000
-101.872940 6.634293 0.686673 1.000000
-101.872940 6.634295 0.306568 1.000000
-101.964882 7.048852 0.000018 0.564828
-102.339851 8.739511 0.000071 0.543137
-102.616081 9.984949 0.000083 0.495098
-101.908051 6.417946 4.910681 1.000000
-101.908051 6.417948 4.509698 1.000000
-101.908051 6.417950 4.114346 1.000000
-101.908051 6.417947 3.723677 1.000000
-101.908051 6.417948 3.336783 1.000000
-101.908051 6.417947 2.952793 1.000000
-101.908051 6.417950 2.570858 1.000000
-101.908051 6.417949 2.190150 1.000000
-101.908051 6.417949 1.809850 1.000000
-101.908051 6.417951 1.429142 1.000000
-101.908051 6.417949 1.047207 1.000000
-101.908051 6.417949 0.663217 1.000000
-101.908051 6.417948 0.276323 1.000000
-102.039856 7.032485 0.000015 0.518995
-102.403008 8.725709 0.000065 0.522549
-102.670540 9.973055 0.000079 0.519608
-101.944443 6.193722 4.963757 1.000000
-101.944443 6.193721 4.555464 1.000000
-101.944443 6.193720 4.152903 1.000000
-101.944443 6.193721 3.755109 1.000000
-101.944443 6.193722 3.361160 1.000000
-101.944443 6.193722 2.970167 1.000000
-101.944443 6.193723 2.581268 1.000000
-101.944443 6.193722 2.193618 1.000000
-101.944443 6.193722 1.806382 1.000000
-101.944443 6.193724 1.418732 1.000000
-101.944443 6.193723 1.029832 1.000000
-101.944443 6.193723 0.638840 1.000000
-101.944443 6.193723 0.244891 1.000000
-102.114937 7.016627 0.000010 0.556740
