# This PCD file was generated using the MATLABÂ® pcwrite function
# from Computer Vision ToolboxÂ®.
# .PCD v.7 - Point Cloud Data file format
VERSION .7
FIELDS x y z intensity
SIZE 4 4 4 4
TYPE F F F F
COUNT 1 1 1 1
WIDTH 1255
HEIGHT 1
VIEWPOINT 0 0 0 1 0 0 0
POINTS 1255
DATA ascii
-30.975664 7.439237 0.932603 1.000000
-30.975664 7.439237 0.690679 1.000000
-30.975666 7.439237 0.445855 1.000000
-30.975664 7.439236 0.197545 1.000000
-31.041882 7.449951 3.791276 1.000000
-31.041882 7.449950 3.544507 1.000000
-31.041882 7.449951 3.301201 1.000000
-31.041883 7.449951 3.060776 1.000000
-31.041882 7.449951 2.822677 1.000000
-31.041882 7.449951 2.586363 1.000000
-31.041885 7.449953 2.351315 1.000000
-31.041885 7.449953 2.117021 1.000000
-31.041885 7.449953 1.882979 1.000000
-31.041885 7.449954 1.648685 1.000000
-31.041883 7.449953 1.413637 1.000000
-31.041885 7.449954 1.177324 1.000000
-31.041885 7.449954 0.939224 1.000000
-31.041885 7.449953 0.698800 1.000000
-31.041885 7.449954 0.455495 1.000000
-31.041885 7.449953 0.208724 1.000000
-31.107288 7.460535 3.780321 1.000000
-31.107288 7.460535 3.535060 1.000000
-31.107290 7.460536 3.293242 1.000000
-31.107290 7.460537 3.054289 1.000000
-31.107288 7.460535 2.817645 1.000000
-31.107292 7.460537 2.582777 1.000000
-31.107292 7.460539 2.349166 1.000000
-31.107292 7.460539 2.116305 1.000000
-31.107292 7.460539 1.883695 1.000000
-31.107292 7.460539 1.650834 1.000000
-31.107292 7.460539 1.417223 1.000000
-31.107292 7.460538 1.182355 1.000000
-31.107292 7.460539 0.945711 1.000000
-31.107292 7.460539 0.706758 1.000000
-31.107292 7.460539 0.464941 1.000000
-31.107292 7.460539 0.219680 1.000000
-31.171904 7.470993 3.769585 1.000000
-31.171904 7.470994 3.525802 1.000000
-31.171904 7.470993 3.285443 1.000000
-31.171904 7.470993 3.047931 1.000000
-31.171904 7.470993 2.812714 1.000000
-31.171906 7.470997 2.579262 1.000000
-31.171906 7.470997 2.347060 1.000000
-31.171906 7.470996 2.115604 1.000000
-31.171906 7.470996 1.884396 1.000000
-31.171906 7.470997 1.652940 1.000000
-31.171906 7.470997 1.420738 1.000000
-31.171906 7.470997 1.187286 1.000000
-31.171906 7.470996 0.952070 1.000000
-31.171906 7.470997 0.714557 1.000000
-31.171906 7.470997 0.474198 1.000000
-31.171906 7.470995 0.230416 1.000000
-31.235748 7.481328 3.759061 1.000000
-31.235748 7.481329 3.516729 1.000000
-31.235748 7.481328 3.277799 1.000000
-31.235748 7.481328 3.041699 1.000000
-31.235750 7.481329 2.807881 1.000000
-31.235750 7.481330 2.575817 1.000000
-31.235750 7.481330 2.344996 1.000000
-31.235750 7.481330 2.114917 1.000000
-31.235750 7.481330 1.885083 1.000000
-31.235750 7.481330 1.655004 1.000000
-31.235750 7.481330 1.424183 1.000000
-31.235750 7.481330 1.192119 1.000000
-31.235750 7.481330 0.958301 1.000000
-31.235750 7.481330 0.722201 1.000000
-31.235750 7.481330 0.483272 1.000000
-31.235750 7.481330 0.240940 1.000000
-31.298841 7.491537 3.748748 1.000000
-31.298843 7.491539 3.507836 1.000000
-31.298843 7.491540 3.270307 1.000000
-31.298843 7.491540 3.035592 1.000000
-31.298843 7.491539 2.803144 1.000000
-31.298843 7.491540 2.572441 1.000000
-31.298841 7.491541 2.342974 1.000000
-31.298841 7.491541 2.114243 1.000000
-31.298841 7.491542 1.885757 1.000000
-31.298841 7.491541 1.657026 1.000000
-31.298843 7.491540 1.427559 1.000000
-31.298841 7.491542 1.196856 1.000000
-31.298841 7.491542 0.964409 1.000000
-31.298841 7.491542 0.729694 1.000000
-31.298841 7.491542 0.492165 1.000000
-31.298843 7.491540 0.251253 1.000000
-31.361202 7.501633 3.738638 1.000000
-31.361202 7.501632 3.499119 1.000000
-31.361200 7.501634 3.262963 1.000000
-31.361204 7.501633 3.029604 1.000000
-31.361200 7.501635 2.798501 1.000000
-31.361200 7.501634 2.569132 1.000000
-31.361200 7.501636 2.340991 1.000000
-31.361202 7.501636 2.113582 1.000000
-31.361202 7.501636 1.886418 1.000000
-31.361200 7.501636 1.659009 1.000000
-31.361200 7.501636 1.430868 1.000000
-31.361202 7.501636 1.201499 1.000000
-31.361202 7.501636 0.970396 1.000000
-31.361202 7.501636 0.737037 1.000000
-31.361202 7.501636 0.500882 1.000000
-31.361200 7.501635 0.261363 1.000000
-31.422848 7.511610 3.728728 1.000000
-31.422848 7.511610 3.490575 1.000000
-31.422848 7.511609 3.255765 1.000000
-31.422848 7.511610 3.023736 1.000000
-31.422848 7.511610 2.793950 1.000000
-31.422848 7.511611 2.565888 1.000000
-31.422848 7.511611 2.339047 1.000000
-31.422848 7.511611 2.112935 1.000000
-31.422848 7.511611 1.887065 1.000000
-31.422848 7.511611 1.660953 1.000000
-31.422848 7.511611 1.434112 1.000000
-31.422848 7.511611 1.206050 1.000000
-31.422848 7.511611 0.976264 1.000000
-31.422848 7.511611 0.744235 1.000000
-31.422848 7.511611 0.509426 1.000000
-31.422848 7.511611 0.271272 1.000000
-31.483795 7.521472 3.719015 1.000000
-31.483797 7.521473 3.482200 1.000000
-31.483795 7.521472 3.248709 1.000000
-31.483795 7.521472 3.017984 1.000000
-31.483797 7.521474 2.789489 1.000000
-31.483799 7.521477 2.562708 1.000000
-31.483799 7.521477 2.337142 1.000000
-31.483799 7.521477 2.112301 1.000000
-31.483799 7.521477 1.887700 1.000000
-31.483799 7.521477 1.662858 1.000000
-31.483799 7.521477 1.437291 1.000000
-31.483799 7.521477 1.210511 1.000000
-31.483799 7.521477 0.982016 1.000000
-31.483799 7.521477 0.751291 1.000000
-31.483799 7.521477 0.517801 1.000000
-31.483799 7.521477 0.280986 1.000000
-31.544067 7.531230 3.709492 1.000000
-31.544067 7.531230 3.473988 1.000000
-31.544067 7.531231 3.241792 1.000000
-31.544069 7.531230 3.012345 1.000000
-31.544069 7.531232 2.785115 1.000000
-31.544071 7.531234 2.559591 1.000000
-31.544071 7.531232 2.335275 1.000000
-31.544071 7.531233 2.111678 1.000000
-31.544071 7.531234 1.888322 1.000000
-31.544071 7.531233 1.664725 1.000000
-31.544071 7.531234 1.440409 1.000000
-31.544071 7.531234 1.214885 1.000000
-31.544071 7.531234 0.987656 1.000000
-31.544071 7.531234 0.758209 1.000000
-31.544071 7.531234 0.526012 1.000000
-31.544071 7.531233 0.290509 1.000000
-31.603678 7.540878 3.700158 1.000000
-31.603680 7.540878 3.465940 1.000000
-31.603678 7.540878 3.235011 1.000000
-31.603680 7.540879 3.006817 1.000000
-31.603680 7.540879 2.780828 1.000000
-31.603680 7.540881 2.556535 1.000000
-31.603682 7.540882 2.333444 1.000000
-31.603680 7.540881 2.111068 1.000000
-31.603680 7.540881 1.888931 1.000000
-31.603682 7.540882 1.666556 1.000000
-31.603680 7.540882 1.443465 1.000000
-31.603682 7.540882 1.219172 1.000000
-31.603680 7.540880 0.993183 1.000000
-31.603682 7.540882 0.764990 1.000000
-31.603682 7.540882 0.534061 1.000000
-31.603680 7.540881 0.299844 1.000000
-31.662647 7.550422 3.691005 1.000000
-31.662647 7.550422 3.458049 1.000000
-31.662647 7.550422 3.228363 1.000000
-31.662649 7.550423 3.001397 1.000000
-31.662647 7.550422 2.776625 1.000000
-31.662647 7.550422 2.553540 1.000000
-31.662649 7.550423 2.331649 1.000000
-31.662649 7.550424 2.110471 1.000000
-31.662649 7.550424 1.889529 1.000000
-31.662649 7.550423 1.668351 1.000000
-31.662649 7.550423 1.446460 1.000000
-31.662649 7.550425 1.223375 1.000000
-31.662649 7.550424 0.998603 1.000000
-31.662649 7.550424 0.771637 1.000000
-31.662649 7.550425 0.541952 1.000000
-31.662649 7.550425 0.308995 1.000000
-31.720985 7.559863 3.682034 1.000000
-31.720985 7.559862 3.450313 1.000000
-31.720985 7.559862 3.221846 1.000000
-31.720985 7.559864 2.996084 1.000000
-31.720985 7.559864 2.772505 1.000000
-31.720985 7.559864 2.550603 1.000000
-31.720985 7.559864 2.329889 1.000000
-31.720985 7.559864 2.109885 1.000000
-31.720985 7.559864 1.890115 1.000000
-31.720985 7.559865 1.670111 1.000000
-31.720985 7.559865 1.449397 1.000000
-31.720985 7.559866 1.227496 1.000000
-31.720985 7.559866 1.003916 1.000000
-31.720985 7.559864 0.778155 1.000000
-31.720985 7.559865 0.549688 1.000000
-31.720985 7.559864 0.317967 1.000000
-31.778708 7.569205 3.673238 1.000000
-31.778708 7.569205 3.442729 1.000000
-31.778709 7.569205 3.215456 1.000000
-31.778708 7.569205 2.990875 1.000000
-31.778709 7.569207 2.768465 1.000000
-31.778709 7.569207 2.547724 1.000000
-31.778709 7.569207 2.328164 1.000000
-31.778709 7.569207 2.109310 1.000000
-31.778709 7.569207 1.890690 1.000000
-31.778709 7.569207 1.671836 1.000000
-31.778709 7.569207 1.452276 1.000000
-31.778709 7.569207 1.231535 1.000000
-31.778709 7.569207 1.009125 1.000000
-31.778709 7.569207 0.784544 1.000000
-31.778709 7.569208 0.557272 1.000000
-31.778709 7.569208 0.326763 1.000000
-31.835836 7.578453 3.664613 1.000000
-31.835836 7.578451 3.435293 1.000000
-31.835836 7.578453 3.209191 1.000000
-31.835836 7.578453 2.985768 1.000000
-31.835836 7.578453 2.764504 1.000000
-31.835838 7.578454 2.544900 1.000000
-31.835838 7.578455 2.326473 1.000000
-31.835838 7.578454 2.108747 1.000000
-31.835838 7.578454 1.891253 1.000000
-31.835838 7.578455 1.673527 1.000000
-31.835838 7.578455 1.455100 1.000000
-31.835838 7.578454 1.235496 1.000000
-31.835838 7.578455 1.014232 1.000000
-31.835838 7.578455 0.790809 1.000000
-31.835838 7.578453 0.564708 1.000000
-31.835838 7.578455 0.335388 1.000000
-31.892378 7.587603 3.656158 1.000000
-31.892378 7.587603 3.428002 1.000000
-31.892380 7.587605 3.203049 1.000000
-31.892378 7.587602 2.980761 1.000000
-31.892380 7.587605 2.760621 1.000000
-31.892380 7.587605 2.542133 1.000000
-31.892380 7.587604 2.324815 1.000000
-31.892380 7.587605 2.108194 1.000000
-31.892380 7.587605 1.891806 1.000000
-31.892380 7.587605 1.675185 1.000000
-31.892380 7.587605 1.457867 1.000000
-31.892380 7.587605 1.239379 1.000000
-31.892380 7.587605 1.019239 1.000000
-31.892380 7.587605 0.796951 1.000000
-31.892380 7.587605 0.571998 1.000000
-31.892380 7.587605 0.343843 1.000000
-31.948351 7.596662 3.647868 1.000000
-31.948353 7.596663 3.420854 1.000000
-31.948353 7.596664 3.197027 1.000000
-31.948353 7.596664 2.975852 1.000000
-31.948353 7.596664 2.756814 1.000000
-31.948353 7.596665 2.539419 1.000000
-31.948353 7.596665 2.323189 1.000000
-31.948353 7.596664 2.107653 1.000000
-31.948353 7.596664 1.892347 1.000000
-31.948353 7.596665 1.676811 1.000000
-31.948353 7.596665 1.460581 1.000000
-31.948353 7.596666 1.243187 1.000000
-31.948353 7.596666 1.024149 1.000000
-31.948353 7.596664 0.802973 1.000000
-31.948353 7.596664 0.579146 1.000000
-31.948353 7.596664 0.352133 1.000000
-32.003773 7.605631 3.639740 1.000000
-32.003769 7.605631 3.413846 1.000000
-32.003769 7.605631 3.191123 1.000000
-32.003769 7.605631 2.971039 1.000000
-32.003773 7.605633 2.753081 1.000000
-32.003773 7.605633 2.536758 1.000000
-32.003773 7.605633 2.321594 1.000000
-32.003773 7.605633 2.107122 1.000000
-32.003773 7.605633 1.892878 1.000000
-32.003773 7.605633 1.678405 1.000000
-32.003773 7.605634 1.463241 1.000000
-32.003773 7.605634 1.246919 1.000000
-32.003773 7.605633 1.028962 1.000000
-32.003773 7.605633 0.808877 1.000000
-32.003773 7.605633 0.586154 1.000000
-32.003773 7.605633 0.360260 1.000000
-32.058651 7.614514 3.631772 1.000000
-32.058655 7.614515 3.406975 1.000000
-32.058655 7.614516 3.185334 1.000000
-32.058655 7.614517 2.966319 1.000000
-32.058655 7.614517 2.749421 1.000000
-32.058655 7.614519 2.534149 1.000000
-32.058655 7.614519 2.320032 1.000000
-32.058655 7.614517 2.106601 1.000000
-32.058655 7.614517 1.893399 1.000000
-32.058655 7.614519 1.679968 1.000000
-32.058655 7.614519 1.465850 1.000000
-32.058655 7.614518 1.250580 1.000000
-32.058655 7.614519 1.033681 1.000000
-32.058655 7.614519 0.814666 1.000000
-32.058655 7.614518 0.593026 1.000000
-32.058655 7.614519 0.368230 1.000000
-32.113003 7.623312 3.623958 1.000000
-32.113003 7.623312 3.400238 1.000000
-32.113003 7.623312 3.179659 1.000000
-32.113003 7.623312 2.961692 1.000000
-32.113003 7.623313 2.745832 1.000000
-32.113003 7.623314 2.531592 1.000000
-32.113003 7.623314 2.318499 1.000000
-32.113003 7.623314 2.106091 1.000000
-32.113003 7.623314 1.893909 1.000000
-32.113003 7.623314 1.681501 1.000000
-32.113003 7.623314 1.468408 1.000000
-32.113003 7.623314 1.254168 1.000000
-32.113003 7.623314 1.038308 1.000000
-32.113003 7.623314 0.820342 1.000000
-32.113003 7.623316 0.599763 1.000000
-32.113003 7.623314 0.376043 1.000000
-32.166840 7.632025 3.616298 1.000000
-32.166840 7.632025 3.393633 1.000000
-32.166840 7.632026 3.174094 1.000000
-32.166840 7.632025 2.957156 1.000000
-32.166840 7.632027 2.742314 1.000000
-32.166840 7.632027 2.529085 1.000000
-32.166840 7.632027 2.316997 1.000000
-32.166840 7.632028 2.105590 1.000000
-32.166840 7.632028 1.894410 1.000000
-32.166840 7.632027 1.683003 1.000000
-32.166840 7.632027 1.470915 1.000000
-32.166840 7.632028 1.257686 1.000000
-32.166840 7.632027 1.042844 1.000000
-32.166840 7.632027 0.825906 1.000000
-32.166840 7.632028 0.606368 1.000000
-32.166840 7.632027 0.383703 1.000000
-32.220169 7.640658 3.608788 1.000000
-32.220169 7.640656 3.387157 1.000000
-32.220169 7.640658 3.168639 1.000000
-32.220169 7.640659 2.952708 1.000000
-32.220169 7.640659 2.738865 1.000000
-32.220169 7.640660 2.526626 1.000000
-32.220169 7.640660 2.315524 1.000000
-32.220169 7.640660 2.105099 1.000000
-32.220169 7.640660 1.894900 1.000000
-32.220169 7.640660 1.684476 1.000000
-32.220169 7.640660 1.473374 1.000000
-32.220169 7.640660 1.261135 1.000000
-32.220169 7.640660 1.047292 1.000000
-32.220169 7.640660 0.831362 1.000000
-32.220169 7.640660 0.612843 1.000000
-32.220169 7.640660 0.391213 1.000000
-32.273010 7.649208 3.601425 1.000000
-32.273010 7.649208 3.380809 1.000000
-32.273010 7.649208 3.163291 1.000000
-32.273010 7.649209 2.948348 1.000000
-32.273010 7.649210 2.735484 1.000000
-32.273010 7.649210 2.524216 1.000000
-32.273010 7.649210 2.314080 1.000000
-32.273010 7.649210 2.104619 1.000000
-32.273010 7.649210 1.895382 1.000000
-32.273010 7.649210 1.685920 1.000000
-32.273010 7.649210 1.475784 1.000000
-32.273010 7.649210 1.264516 1.000000
-32.273010 7.649210 1.051652 1.000000
-32.273010 7.649210 0.836710 1.000000
-32.273010 7.649210 0.619191 1.000000
-32.273010 7.649210 0.398576 1.000000
-32.325371 7.657683 3.594206 1.000000
-32.325371 7.657683 3.374585 1.000000
-32.325371 7.657684 3.158047 1.000000
-32.325375 7.657686 2.944073 1.000000
-32.325375 7.657687 2.732168 1.000000
-32.325375 7.657686 2.521853 1.000000
-32.325375 7.657688 2.312664 1.000000
-32.325375 7.657688 2.104147 1.000000
-32.325375 7.657688 1.895853 1.000000
-32.325375 7.657688 1.687336 1.000000
-32.325375 7.657687 1.478147 1.000000
-32.325375 7.657687 1.267832 1.000000
-32.325375 7.657687 1.055927 1.000000
-32.325375 7.657686 0.841954 1.000000
-32.325375 7.657686 0.625416 1.000000
-32.325375 7.657686 0.405795 1.000000
-32.377270 7.666081 3.587130 1.000000
-32.377270 7.666083 3.368483 1.000000
-32.377270 7.666083 3.152906 1.000000
-32.377270 7.666085 2.939883 1.000000
-32.377270 7.666084 2.728918 1.000000
-32.377270 7.666085 2.519536 1.000000
-32.377270 7.666086 2.311276 1.000000
-32.377270 7.666085 2.103685 1.000000
-32.377270 7.666085 1.896315 1.000000
-32.377270 7.666086 1.688724 1.000000
-32.377270 7.666085 1.480463 1.000000
-32.377270 7.666085 1.271082 1.000000
-32.377270 7.666086 1.060117 1.000000
-32.377270 7.666085 0.847094 1.000000
-32.377270 7.666086 0.631518 1.000000
-32.377270 7.666086 0.412871 1.000000
-32.428707 7.674407 3.580192 1.000000
-32.428707 7.674409 3.362501 1.000000
-32.428707 7.674409 3.147866 1.000000
-32.428707 7.674411 2.935774 1.000000
-32.428707 7.674411 2.725732 1.000000
-32.428707 7.674410 2.517265 1.000000
-32.428707 7.674411 2.309916 1.000000
-32.428707 7.674413 2.103231 1.000000
-32.428707 7.674413 1.896769 1.000000
-32.428707 7.674411 1.690084 1.000000
-32.428707 7.674411 1.482734 1.000000
-32.428707 7.674412 1.274268 1.000000
-32.428707 7.674411 1.064226 1.000000
-32.428707 7.674411 0.852134 1.000000
-32.428707 7.674411 0.637500 1.000000
-32.428707 7.674410 0.419809 1.000000
-32.479702 7.682660 3.573391 1.000000
-32.479702 7.682662 3.356637 1.000000
-32.479702 7.682662 3.142926 1.000000
-32.479702 7.682662 2.931747 1.000000
-32.479702 7.682664 2.722609 1.000000
-32.479702 7.682662 2.515039 1.000000
-32.479702 7.682663 2.308582 1.000000
-32.479702 7.682664 2.102787 1.000000
-32.479702 7.682664 1.897213 1.000000
-32.479702 7.682663 1.691418 1.000000
-32.479702 7.682663 1.484960 1.000000
-32.479702 7.682664 1.277392 1.000000
-32.479702 7.682664 1.068253 1.000000
-32.479702 7.682664 0.857074 1.000000
-32.479702 7.682664 0.643363 1.000000
-32.479702 7.682662 0.426609 1.000000
-32.530258 7.690845 3.566724 1.000000
-32.530258 7.690845 3.350889 1.000000
-32.530258 7.690845 3.138084 1.000000
-32.530258 7.690848 2.927799 1.000000
-32.530258 7.690848 2.719546 1.000000
-32.530258 7.690848 2.512857 1.000000
-32.530262 7.690849 2.307274 1.000000
-32.530262 7.690849 2.102352 1.000000
-32.530262 7.690849 1.897648 1.000000
-32.530262 7.690849 1.692726 1.000000
-32.530258 7.690849 1.487143 1.000000
-32.530262 7.690849 1.280454 1.000000
-32.530262 7.690849 1.072201 1.000000
-32.530262 7.690849 0.861917 1.000000
-32.530262 7.690849 0.649112 1.000000
-32.530258 7.690848 0.433277 1.000000
-32.580395 7.698959 3.560190 1.000000
-32.580395 7.698959 3.345254 1.000000
-32.580395 7.698959 3.133337 1.000000
-32.580395 7.698961 2.923929 1.000000
-32.580395 7.698961 2.716546 1.000000
-32.580395 7.698963 2.510718 1.000000
-32.580395 7.698962 2.305993 1.000000
-32.580395 7.698963 2.101925 1.000000
-32.580395 7.698963 1.898075 1.000000
-32.580395 7.698962 1.694007 1.000000
-32.580395 7.698963 1.489282 1.000000
-32.580395 7.698963 1.283455 1.000000
-32.580395 7.698962 1.076071 1.000000
-32.580395 7.698962 0.866664 1.000000
-32.580395 7.698963 0.654746 1.000000
-32.580395 7.698963 0.439811 1.000000
-32.630112 7.707006 3.553785 1.000000
-32.630112 7.707006 3.339732 1.000000
-32.630112 7.707006 3.128684 1.000000
-32.630116 7.707007 2.920136 1.000000
-32.630116 7.707009 2.713604 1.000000
-32.630116 7.707007 2.508621 1.000000
-32.630116 7.707007 2.304736 1.000000
-32.630116 7.707007 2.101506 1.000000
-32.630116 7.707007 1.898494 1.000000
-32.630116 7.707007 1.695263 1.000000
-32.630116 7.707007 1.491378 1.000000
-32.630116 7.707009 1.286396 1.000000
-32.630116 7.707007 1.079864 1.000000
-32.630116 7.707008 0.871316 1.000000
-32.630116 7.707007 0.660268 1.000000
-32.630116 7.707007 0.446216 1.000000
-32.679428 7.714987 3.547508 1.000000
-32.679428 7.714989 3.334320 1.000000
-32.679428 7.714989 3.124125 1.000000
-32.679432 7.714991 2.916419 1.000000
-32.679428 7.714989 2.710721 1.000000
-32.679428 7.714989 2.506567 1.000000
-32.679428 7.714989 2.303505 1.000000
-32.679432 7.714990 2.101096 1.000000
-32.679432 7.714990 1.898904 1.000000
-32.679428 7.714989 1.696495 1.000000
-32.679428 7.714989 1.493433 1.000000
-32.679432 7.714991 1.289279 1.000000
-32.679432 7.714991 1.083581 1.000000
-32.679432 7.714991 0.875876 1.000000
-32.679432 7.714991 0.665681 1.000000
-32.679428 7.714990 0.452493 1.000000
-32.728352 7.722906 3.541355 1.000000
-32.728352 7.722907 3.329015 1.000000
-32.728355 7.722909 3.119655 1.000000
-32.728355 7.722908 2.912776 1.000000
-32.728355 7.722909 2.707896 1.000000
-32.728355 7.722908 2.504553 1.000000
-32.728355 7.722910 2.302299 1.000000
-32.728355 7.722910 2.100694 1.000000
-32.728355 7.722910 1.899306 1.000000
-32.728355 7.722910 1.697701 1.000000
-32.728355 7.722910 1.495447 1.000000
-32.728355 7.722910 1.292105 1.000000
-32.728355 7.722910 1.087224 1.000000
-32.728355 7.722910 0.880345 1.000000
-32.728355 7.722910 0.670986 1.000000
-32.728355 7.722910 0.458646 1.000000
-32.776890 7.730762 3.535327 1.000000
-32.776890 7.730762 3.323817 1.000000
-32.776890 7.730762 3.115276 1.000000
-32.776890 7.730763 2.909205 1.000000
-32.776890 7.730765 2.705127 1.000000
-32.776890 7.730764 2.502579 1.000000
-32.776890 7.730763 2.301116 1.000000
-32.776890 7.730764 2.100301 1.000000
-32.776890 7.730765 1.899700 1.000000
-32.776890 7.730764 1.698884 1.000000
-32.776890 7.730764 1.497421 1.000000
-32.776890 7.730764 1.294873 1.000000
-32.776890 7.730765 1.090795 1.000000
-32.776890 7.730765 0.884724 1.000000
-32.776890 7.730765 0.676184 1.000000
-32.776890 7.730764 0.464674 1.000000
-32.825050 7.738558 3.529419 1.000000
-32.825050 7.738557 3.318723 1.000000
-32.825050 7.738560 3.110984 1.000000
-32.825050 7.738560 2.905707 1.000000
-32.825050 7.738560 2.702413 1.000000
-32.825050 7.738560 2.500645 1.000000
-32.825050 7.738560 2.299958 1.000000
-32.825050 7.738560 2.099914 1.000000
-32.825050 7.738560 1.900085 1.000000
-32.825050 7.738560 1.700042 1.000000
-32.825050 7.738560 1.499355 1.000000
-32.825050 7.738560 1.297587 1.000000
-32.825050 7.738561 1.094293 1.000000
-32.825050 7.738560 0.889016 1.000000
-32.825050 7.738560 0.681278 1.000000
-32.825050 7.738560 0.470582 1.000000
-32.872845 7.746292 3.523631 1.000000
-32.872845 7.746293 3.313732 1.000000
-32.872849 7.746294 3.106780 1.000000
-32.872849 7.746294 2.902279 1.000000
-32.872849 7.746294 2.699755 1.000000
-32.872849 7.746294 2.498751 1.000000
-32.872849 7.746294 2.298823 1.000000
-32.872849 7.746295 2.099536 1.000000
-32.872849 7.746295 1.900464 1.000000
-32.872849 7.746294 1.701177 1.000000
-32.872849 7.746294 1.501249 1.000000
-32.872849 7.746295 1.300245 1.000000
-32.872849 7.746295 1.097721 1.000000
-32.872849 7.746294 0.893220 1.000000
-32.872849 7.746295 0.686269 1.000000
-32.872849 7.746294 0.476370 1.000000
-32.920280 7.753969 3.517960 1.000000
-32.920280 7.753970 3.308843 1.000000
-32.920280 7.753973 3.102660 1.000000
-32.920280 7.753973 2.898921 1.000000
-32.920280 7.753972 2.697151 1.000000
-32.920280 7.753972 2.496894 1.000000
-32.920280 7.753973 2.297710 1.000000
-32.920280 7.753973 2.099166 1.000000
-32.920280 7.753973 1.900834 1.000000
-32.920280 7.753973 1.702290 1.000000
-32.920280 7.753972 1.503105 1.000000
-32.920280 7.753973 1.302849 1.000000
-32.920280 7.753973 1.101079 1.000000
-32.920280 7.753973 0.897340 1.000000
-32.920280 7.753973 0.691158 1.000000
-32.920280 7.753973 0.482041 1.000000
-32.967369 7.761590 3.512405 1.000000
-32.967369 7.761590 3.304052 1.000000
-32.967365 7.761593 3.098625 1.000000
-32.967365 7.761592 2.895631 1.000000
-32.967365 7.761592 2.694599 1.000000
-32.967365 7.761594 2.495076 1.000000
-32.967365 7.761593 2.296621 1.000000
-32.967365 7.761594 2.098803 1.000000
-32.967365 7.761594 1.901197 1.000000
-32.967365 7.761594 1.703379 1.000000
-32.967365 7.761594 1.504924 1.000000
-32.967365 7.761594 1.305401 1.000000
-32.967365 7.761594 1.104369 1.000000
-32.967365 7.761594 0.901375 1.000000
-32.967365 7.761593 0.695948 1.000000
-32.967365 7.761594 0.487597 1.000000
-33.014114 7.769157 3.506962 1.000000
-33.014114 7.769157 3.299360 1.000000
-33.014114 7.769157 3.094672 1.000000
-33.014114 7.769157 2.892409 1.000000
-33.014114 7.769157 2.692100 1.000000
-33.014114 7.769158 2.493294 1.000000
-33.014114 7.769159 2.295553 1.000000
-33.014114 7.769159 2.098447 1.000000
-33.014114 7.769159 1.901552 1.000000
-33.014114 7.769159 1.704447 1.000000
-33.014114 7.769159 1.506706 1.000000
-33.014114 7.769158 1.307900 1.000000
-33.014114 7.769159 1.107592 1.000000
-33.014114 7.769159 0.905328 1.000000
-33.014114 7.769158 0.700640 1.000000
-33.014114 7.769159 0.493038 1.000000
-33.060524 7.776668 3.501633 1.000000
-33.060524 7.776667 3.294765 1.000000
-33.060524 7.776670 3.090801 1.000000
-33.060524 7.776671 2.889252 1.000000
-33.060524 7.776670 2.689652 1.000000
-33.060524 7.776670 2.491550 1.000000
-33.060524 7.776671 2.294508 1.000000
-33.060524 7.776670 2.098099 1.000000
-33.060524 7.776670 1.901901 1.000000
-33.060524 7.776671 1.705492 1.000000
-33.060524 7.776671 1.508450 1.000000
-33.060524 7.776670 1.310348 1.000000
-33.060524 7.776671 1.110748 1.000000
-33.060524 7.776671 0.909200 1.000000
-33.060524 7.776671 0.705236 1.000000
-33.060524 7.776671 0.498368 1.000000
-33.106613 7.784127 3.496413 1.000000
-33.106613 7.784128 3.290264 1.000000
-33.106613 7.784128 3.087009 1.000000
-33.106613 7.784129 2.886162 1.000000
-33.106613 7.784129 2.687255 1.000000
-33.106613 7.784129 2.489841 1.000000
-33.106613 7.784129 2.293484 1.000000
-33.106613 7.784130 2.097758 1.000000
-33.106613 7.784130 1.902242 1.000000
-33.106613 7.784129 1.706515 1.000000
-33.106613 7.784129 1.510159 1.000000
-33.106613 7.784129 1.312745 1.000000
-33.106613 7.784130 1.113839 1.000000
-33.106613 7.784129 0.912991 1.000000
-33.106613 7.784129 0.709736 1.000000
-33.106613 7.784129 0.503587 1.000000
-33.152382 7.791536 3.491302 1.000000
-33.152382 7.791536 3.285857 1.000000
-33.152386 7.791537 3.083296 1.000000
-33.152386 7.791537 2.883135 1.000000
-33.152386 7.791537 2.684908 1.000000
-33.152386 7.791538 2.488168 1.000000
-33.152382 7.791536 2.292482 1.000000
-33.152386 7.791538 2.097425 1.000000
-33.152386 7.791538 1.902575 1.000000
-33.152386 7.791536 1.707518 1.000000
-33.152386 7.791539 1.511832 1.000000
-33.152386 7.791539 1.315092 1.000000
-33.152386 7.791538 1.116865 1.000000
-33.152386 7.791539 0.916704 1.000000
-33.152386 7.791537 0.714143 1.000000
-33.152386 7.791539 0.508698 1.000000
-33.197845 7.798892 3.486299 1.000000
-33.197845 7.798895 3.281542 1.000000
-33.197845 7.798894 3.079661 1.000000
-33.197845 7.798895 2.880172 1.000000
-33.197845 7.798895 2.682610 1.000000
-33.197845 7.798896 2.486530 1.000000
-33.197845 7.798894 2.291501 1.000000
-33.197845 7.798896 2.097097 1.000000
-33.197845 7.798896 1.902902 1.000000
-33.197845 7.798895 1.708499 1.000000
-33.197845 7.798896 1.513470 1.000000
-33.197845 7.798896 1.317390 1.000000
-33.197845 7.798896 1.119829 1.000000
-33.197845 7.798896 0.920339 1.000000
-33.197845 7.798896 0.718458 1.000000
-33.197845 7.798896 0.513702 1.000000
-33.243004 7.806203 3.481400 1.000000
-33.243000 7.806203 3.277318 1.000000
-33.243004 7.806203 3.076103 1.000000
-33.243004 7.806204 2.877271 1.000000
-33.243004 7.806203 2.680360 1.000000
-33.243004 7.806205 2.484926 1.000000
-33.243004 7.806203 2.290540 1.000000
-33.243004 7.806203 2.096777 1.000000
-33.243004 7.806204 1.903223 1.000000
-33.243004 7.806204 1.709460 1.000000
-33.243004 7.806205 1.515073 1.000000
-33.243004 7.806204 1.319640 1.000000
-33.243004 7.806205 1.122729 1.000000
-33.243004 7.806204 0.923897 1.000000
-33.243004 7.806205 0.722682 1.000000
-33.243004 7.806204 0.518601 1.000000
-33.287868 7.813463 3.476605 1.000000
-33.287868 7.813464 3.273185 1.000000
-33.287868 7.813464 3.072620 1.000000
-33.287868 7.813465 2.874431 1.000000
-33.287868 7.813465 2.678158 1.000000
-33.287868 7.813464 2.483357 1.000000
-33.287868 7.813464 2.289600 1.000000
-33.287868 7.813464 2.096464 1.000000
-33.287868 7.813465 1.903536 1.000000
-33.287868 7.813464 1.710400 1.000000
-33.287868 7.813465 1.516643 1.000000
-33.287868 7.813466 1.321842 1.000000
-33.287868 7.813466 1.125569 1.000000
-33.287868 7.813464 0.927380 1.000000
-33.287868 7.813465 0.726815 1.000000
-33.287868 7.813465 0.523395 1.000000
-33.332447 7.820678 3.471913 1.000000
-33.332447 7.820680 3.269139 1.000000
-33.332447 7.820680 3.069212 1.000000
-33.332447 7.820681 2.871652 1.000000
-33.332447 7.820680 2.676003 1.000000
-33.332447 7.820680 2.481821 1.000000
-33.332447 7.820680 2.288679 1.000000
-33.332447 7.820681 2.096158 1.000000
-33.332447 7.820681 1.903842 1.000000
-33.332447 7.820680 1.711321 1.000000
-33.332447 7.820681 1.518179 1.000000
-33.332447 7.820682 1.323997 1.000000
-33.332447 7.820682 1.128348 1.000000
-33.332447 7.820682 0.930789 1.000000
-33.332447 7.820681 0.730862 1.000000
-33.332447 7.820681 0.528088 1.000000
-33.376743 7.827849 3.467322 1.000000
-33.376743 7.827850 3.265180 1.000000
-33.376743 7.827849 3.065877 1.000000
-33.376743 7.827851 2.868933 1.000000
-33.376743 7.827851 2.673894 1.000000
-33.376743 7.827851 2.480318 1.000000
-33.376743 7.827851 2.287779 1.000000
-33.376743 7.827851 2.095858 1.000000
-33.376743 7.827851 1.904142 1.000000
-33.376743 7.827851 1.712221 1.000000
-33.376743 7.827851 1.519682 1.000000
-33.376743 7.827851 1.326106 1.000000
-33.376743 7.827851 1.131066 1.000000
-33.376743 7.827850 0.934124 1.000000
-33.376743 7.827851 0.734820 1.000000
-33.376743 7.827851 0.532679 1.000000
-33.420765 7.834973 3.462831 1.000000
-33.420765 7.834975 3.261307 1.000000
-33.420769 7.834975 3.062614 1.000000
-33.420765 7.834975 2.866274 1.000000
-33.420765 7.834975 2.671832 1.000000
-33.420765 7.834975 2.478848 1.000000
-33.420769 7.834975 2.286898 1.000000
-33.420769 7.834975 2.095564 1.000000
-33.420769 7.834975 1.904436 1.000000
-33.420769 7.834975 1.713102 1.000000
-33.420765 7.834975 1.521152 1.000000
-33.420769 7.834975 1.328169 1.000000
-33.420769 7.834975 1.133726 1.000000
-33.420769 7.834977 0.937386 1.000000
-33.420769 7.834975 0.738693 1.000000
-33.420765 7.834975 0.537170 1.000000
-33.464523 7.842055 3.458437 1.000000
-33.464523 7.842057 3.257519 1.000000
-33.464523 7.842057 3.059422 1.000000
-33.464523 7.842057 2.863672 1.000000
-33.464523 7.842057 2.669814 1.000000
-33.464523 7.842057 2.477410 1.000000
-33.464523 7.842058 2.286036 1.000000
-33.464523 7.842058 2.095277 1.000000
-33.464523 7.842058 1.904723 1.000000
-33.464523 7.842058 1.713964 1.000000
-33.464523 7.842057 1.522590 1.000000
-33.464523 7.842057 1.330186 1.000000
-33.464523 7.842058 1.136328 1.000000
-33.464523 7.842057 0.940578 1.000000
-33.464523 7.842057 0.742481 1.000000
-33.464523 7.842057 0.541564 1.000000
-33.508022 7.849095 3.454141 1.000000
-33.508022 7.849098 3.253815 1.000000
-33.508022 7.849099 3.056301 1.000000
-33.508022 7.849097 2.861128 1.000000
-33.508022 7.849097 2.667840 1.000000
-33.508022 7.849099 2.476004 1.000000
-33.508022 7.849099 2.285193 1.000000
-33.508022 7.849099 2.094997 1.000000
-33.508022 7.849099 1.905003 1.000000
-33.508022 7.849099 1.714806 1.000000
-33.508022 7.849099 1.523996 1.000000
-33.508022 7.849099 1.332160 1.000000
-33.508022 7.849099 1.138872 1.000000
-33.508022 7.849099 0.943699 1.000000
-33.508022 7.849099 0.746186 1.000000
-33.508022 7.849099 0.545860 1.000000
-33.551266 7.856094 3.449940 1.000000
-33.551266 7.856095 3.250193 1.000000
-33.551266 7.856095 3.053250 1.000000
-33.551266 7.856094 2.858640 1.000000
-33.551266 7.856096 2.665911 1.000000
-33.551266 7.856095 2.474629 1.000000
-33.551266 7.856095 2.284370 1.000000
-33.551266 7.856096 2.094722 1.000000
-33.551266 7.856096 1.905278 1.000000
-33.551266 7.856096 1.715630 1.000000
-33.551266 7.856095 1.525371 1.000000
-33.551266 7.856096 1.334089 1.000000
-33.551266 7.856096 1.141360 1.000000
-33.551266 7.856096 0.946750 1.000000
-33.551266 7.856096 0.749807 1.000000
-33.551266 7.856096 0.550061 1.000000
-33.594261 7.863055 3.445834 1.000000
-33.594261 7.863055 3.246653 1.000000
-33.594265 7.863056 3.050267 1.000000
-33.594261 7.863055 2.856209 1.000000
-33.594261 7.863055 2.664026 1.000000
-33.594261 7.863055 2.473284 1.000000
-33.594261 7.863055 2.283565 1.000000
-33.594265 7.863056 2.094454 1.000000
-33.594265 7.863056 1.905546 1.000000
-33.594261 7.863055 1.716435 1.000000
-33.594265 7.863056 1.526716 1.000000
-33.594265 7.863055 1.335974 1.000000
-33.594265 7.863056 1.143791 1.000000
-33.594265 7.863057 0.949733 1.000000
-33.594265 7.863055 0.753348 1.000000
-33.594265 7.863057 0.554167 1.000000
-33.637020 7.869976 3.441821 1.000000
-33.637020 7.869974 3.243192 1.000000
-33.637020 7.869975 3.047352 1.000000
-33.637020 7.869975 2.853832 1.000000
-33.637020 7.869976 2.662183 1.000000
-33.637020 7.869976 2.471971 1.000000
-33.637020 7.869976 2.282778 1.000000
-33.637020 7.869976 2.094192 1.000000
-33.637020 7.869976 1.905808 1.000000
-33.637020 7.869976 1.717222 1.000000
-33.637020 7.869976 1.528029 1.000000
-33.637020 7.869976 1.337817 1.000000
-33.637020 7.869976 1.146168 1.000000
-33.637020 7.869976 0.952648 1.000000
-33.637020 7.869976 0.756808 1.000000
-33.637020 7.869976 0.558180 1.000000
-33.679539 7.876857 3.437900 1.000000
-33.679539 7.876857 3.239811 1.000000
-33.679539 7.876857 3.044505 1.000000
-33.679539 7.876857 2.851511 1.000000
-33.679539 7.876857 2.660382 1.000000
-33.679539 7.876857 2.470687 1.000000
-33.679539 7.876857 2.282009 1.000000
-33.679539 7.876857 2.093936 1.000000
-33.679539 7.876857 1.906064 1.000000
-33.679539 7.876857 1.717991 1.000000
-33.679539 7.876857 1.529312 1.000000
-33.679539 7.876857 1.339618 1.000000
-33.679539 7.876859 1.148490 1.000000
-33.679539 7.876858 0.955496 1.000000
-33.679539 7.876858 0.760189 1.000000
-33.679539 7.876858 0.562100 1.000000
-33.721832 7.883702 3.434070 1.000000
-33.721832 7.883702 3.236510 1.000000
-33.721832 7.883701 3.041722 1.000000
-33.721832 7.883702 2.849243 1.000000
-33.721836 7.883702 2.658623 1.000000
-33.721836 7.883703 2.469434 1.000000
-33.721836 7.883702 2.281257 1.000000
-33.721836 7.883702 2.093686 1.000000
-33.721836 7.883702 1.906314 1.000000
-33.721836 7.883702 1.718742 1.000000
-33.721836 7.883703 1.530566 1.000000
-33.721836 7.883703 1.341377 1.000000
-33.721836 7.883702 1.150757 1.000000
-33.721832 7.883702 0.958277 1.000000
-33.721836 7.883702 0.763491 1.000000
-33.721836 7.883702 0.565930 1.000000
-33.763901 7.890510 3.430330 1.000000
-33.763901 7.890510 3.233285 1.000000
-33.763901 7.890510 3.039006 1.000000
-33.763901 7.890511 2.847028 1.000000
-33.763901 7.890512 2.656905 1.000000
-33.763901 7.890510 2.468210 1.000000
-33.763901 7.890512 2.280524 1.000000
-33.763901 7.890512 2.093441 1.000000
-33.763901 7.890512 1.906559 1.000000
-33.763901 7.890512 1.719476 1.000000
-33.763901 7.890512 1.531790 1.000000
-33.763901 7.890512 1.343095 1.000000
-33.763901 7.890512 1.152972 1.000000
-33.763901 7.890512 0.960994 1.000000
-33.763901 7.890512 0.766715 1.000000
-33.763901 7.890512 0.569670 1.000000
-33.805756 7.897284 3.426680 1.000000
-33.805756 7.897283 3.230137 1.000000
-33.805756 7.897285 3.036354 1.000000
-33.805756 7.897284 2.844866 1.000000
-33.805756 7.897285 2.655229 1.000000
-33.805756 7.897285 2.467015 1.000000
-33.805756 7.897285 2.279808 1.000000
-33.805756 7.897285 2.093203 1.000000
-33.805756 7.897285 1.906797 1.000000
-33.805756 7.897285 1.720192 1.000000
-33.805756 7.897285 1.532985 1.000000
-33.805756 7.897285 1.344772 1.000000
-33.805756 7.897285 1.155134 1.000000
-33.805756 7.897285 0.963647 1.000000
-33.805756 7.897285 0.769863 1.000000
-33.805756 7.897285 0.573321 1.000000
-33.847397 7.904025 3.423116 1.000000
-33.847397 7.904024 3.227064 1.000000
-33.847397 7.904024 3.033765 1.000000
-33.847397 7.904025 2.842756 1.000000
-33.847401 7.904026 2.653592 1.000000
-33.847397 7.904024 2.465848 1.000000
-33.847401 7.904026 2.279109 1.000000
-33.847397 7.904026 2.092970 1.000000
-33.847397 7.904026 1.907030 1.000000
-33.847401 7.904026 1.720891 1.000000
-33.847397 7.904024 1.534152 1.000000
-33.847401 7.904026 1.346408 1.000000
-33.847397 7.904026 1.157244 1.000000
-33.847397 7.904026 0.966235 1.000000
-33.847401 7.904026 0.772936 1.000000
-33.847401 7.904026 0.576885 1.000000
-33.888836 7.910731 3.419639 1.000000
-33.888836 7.910732 3.224066 1.000000
-33.888836 7.910732 3.031240 1.000000
-33.888836 7.910730 2.840697 1.000000
-33.888836 7.910731 2.651995 1.000000
-33.888836 7.910731 2.464710 1.000000
-33.888836 7.910732 2.278427 1.000000
-33.888836 7.910732 2.092743 1.000000
-33.888836 7.910732 1.907257 1.000000
-33.888836 7.910732 1.721573 1.000000
-33.888836 7.910732 1.535290 1.000000
-33.888836 7.910732 1.348005 1.000000
-33.888836 7.910732 1.159303 1.000000
-33.888836 7.910732 0.968761 1.000000
-33.888836 7.910733 0.775934 1.000000
-33.888836 7.910732 0.580361 1.000000
-33.930069 7.917405 3.416248 1.000000
-33.930069 7.917405 3.221143 1.000000
-33.930069 7.917405 3.028777 1.000000
-33.930073 7.917406 2.838689 1.000000
-33.930073 7.917405 2.650438 1.000000
-33.930073 7.917407 2.463600 1.000000
-33.930073 7.917406 2.277762 1.000000
-33.930069 7.917405 2.092521 1.000000
-33.930069 7.917405 1.907479 1.000000
-33.930073 7.917407 1.722238 1.000000
-33.930073 7.917407 1.536400 1.000000
-33.930073 7.917405 1.349562 1.000000
-33.930073 7.917407 1.161311 1.000000
-33.930073 7.917406 0.971223 1.000000
-33.930073 7.917406 0.778857 1.000000
-33.930073 7.917407 0.583752 1.000000
-33.971115 7.924047 3.412943 1.000000
-33.971115 7.924047 3.218292 1.000000
-33.971115 7.924048 3.026375 1.000000
-33.971115 7.924047 2.836731 1.000000
-33.971115 7.924048 2.648920 1.000000
-33.971115 7.924047 2.462518 1.000000
-33.971115 7.924047 2.277114 1.000000
-33.971115 7.924047 2.092305 1.000000
-33.971115 7.924048 1.907695 1.000000
-33.971115 7.924048 1.722886 1.000000
-33.971115 7.924047 1.537482 1.000000
-33.971115 7.924049 1.351080 1.000000
-33.971115 7.924048 1.163269 1.000000
-33.971115 7.924049 0.973625 1.000000
-33.971115 7.924048 0.781708 1.000000
-33.971115 7.924049 0.587058 1.000000
-34.011967 7.930660 3.409720 1.000000
-34.011967 7.930661 3.215514 1.000000
-34.011967 7.930661 3.024035 1.000000
-34.011967 7.930661 2.834823 1.000000
-34.011967 7.930661 2.647440 1.000000
-34.011967 7.930661 2.461463 1.000000
-34.011967 7.930661 2.276482 1.000000
-34.011967 7.930661 2.092095 1.000000
-34.011967 7.930661 1.907905 1.000000
-34.011967 7.930662 1.723518 1.000000
-34.011967 7.930661 1.538537 1.000000
-34.011967 7.930663 1.352560 1.000000
-34.011967 7.930661 1.165177 1.000000
-34.011967 7.930661 0.975965 1.000000
-34.011967 7.930662 0.784486 1.000000
-34.011967 7.930661 0.590280 1.000000
-34.052639 7.937242 3.406582 1.000000
-34.052639 7.937242 3.212808 1.000000
-34.052639 7.937242 3.021755 1.000000
-34.052639 7.937242 2.832964 1.000000
-34.052639 7.937242 2.645998 1.000000
-34.052639 7.937244 2.460435 1.000000
-34.052639 7.937243 2.275866 1.000000
-34.052639 7.937244 2.091890 1.000000
-34.052639 7.937244 1.908110 1.000000
-34.052639 7.937244 1.724134 1.000000
-34.052639 7.937244 1.539564 1.000000
-34.052639 7.937242 1.354002 1.000000
-34.052639 7.937242 1.167036 1.000000
-34.052639 7.937243 0.978245 1.000000
-34.052639 7.937243 0.787192 1.000000
-34.052639 7.937244 0.593418 1.000000
-34.093124 7.943795 3.403525 1.000000
-34.093124 7.943794 3.210173 1.000000
-34.093124 7.943795 3.019534 1.000000
-34.093124 7.943796 2.831154 1.000000
-34.093124 7.943796 2.644595 1.000000
-34.093124 7.943796 2.459435 1.000000
-34.093124 7.943796 2.275267 1.000000
-34.093124 7.943795 2.091690 1.000000
-34.093124 7.943796 1.908310 1.000000
-34.093124 7.943796 1.724733 1.000000
-34.093124 7.943796 1.540565 1.000000
-34.093124 7.943796 1.355406 1.000000
-34.093124 7.943796 1.168846 1.000000
-34.093124 7.943796 0.980466 1.000000
-34.093124 7.943796 0.789828 1.000000
-34.093124 7.943796 0.596475 1.000000
-34.133442 7.950321 3.400550 1.000000
-34.133442 7.950322 3.207607 1.000000
-34.133442 7.950322 3.017373 1.000000
-34.133442 7.950322 2.829392 1.000000
-34.133442 7.950322 2.643228 1.000000
-34.133442 7.950323 2.458461 1.000000
-34.133442 7.950322 2.274683 1.000000
-34.133442 7.950322 2.091496 1.000000
-34.133442 7.950322 1.908504 1.000000
-34.133442 7.950322 1.725317 1.000000
-34.133442 7.950323 1.541539 1.000000
-34.133442 7.950322 1.356772 1.000000
-34.133442 7.950322 1.170608 1.000000
-34.133442 7.950322 0.982627 1.000000
-34.133442 7.950322 0.792393 1.000000
-34.133442 7.950322 0.599451 1.000000
-34.173592 7.956818 3.397655 1.000000
-34.173592 7.956818 3.205111 1.000000
-34.173592 7.956818 3.015270 1.000000
-34.173592 7.956819 2.827678 1.000000
-34.173592 7.956819 2.641899 1.000000
-34.173592 7.956819 2.457514 1.000000
-34.173592 7.956819 2.274116 1.000000
-34.173592 7.956819 2.091306 1.000000
-34.173592 7.956819 1.908693 1.000000
-34.173592 7.956819 1.725884 1.000000
-34.173592 7.956819 1.542486 1.000000
-34.173592 7.956820 1.358101 1.000000
-34.173592 7.956820 1.172322 1.000000
-34.173592 7.956819 0.984730 1.000000
-34.173592 7.956819 0.794889 1.000000
-34.173592 7.956819 0.602345 1.000000
-34.213573 7.963289 3.394840 1.000000
-34.213573 7.963289 3.202684 1.000000
-34.213573 7.963289 3.013226 1.000000
-34.213573 7.963289 2.826011 1.000000
-34.213573 7.963289 2.640606 1.000000
-34.213573 7.963290 2.456592 1.000000
-34.213573 7.963291 2.273563 1.000000
-34.213573 7.963291 2.091123 1.000000
-34.213573 7.963291 1.908877 1.000000
-34.213573 7.963292 1.726437 1.000000
-34.213573 7.963291 1.543408 1.000000
-34.213573 7.963292 1.359394 1.000000
-34.213573 7.963292 1.173989 1.000000
-34.213573 7.963292 0.986775 1.000000
-34.213573 7.963291 0.797316 1.000000
-34.213573 7.963292 0.605160 1.000000
-34.253403 7.969737 3.392104 1.000000
-34.253403 7.969736 3.200325 1.000000
-34.253403 7.969736 3.011238 1.000000
-34.253403 7.969738 2.824391 1.000000
-34.253403 7.969736 2.639349 1.000000
-34.253403 7.969736 2.455697 1.000000
-34.253403 7.969738 2.273027 1.000000
-34.253403 7.969737 2.090944 1.000000
-34.253403 7.969738 1.909056 1.000000
-34.253403 7.969738 1.726973 1.000000
-34.253403 7.969737 1.544304 1.000000
-34.253403 7.969737 1.360651 1.000000
-34.253403 7.969738 1.175609 1.000000
-34.253403 7.969736 0.988762 1.000000
-34.253403 7.969738 0.799675 1.000000
-34.253403 7.969738 0.607896 1.000000
-34.293076 7.976158 3.389446 1.000000
-34.293076 7.976156 3.198033 1.000000
-34.293076 7.976156 3.009307 1.000000
-34.293076 7.976158 2.822817 1.000000
-34.293076 7.976158 2.638129 1.000000
-34.293076 7.976157 2.454826 1.000000
-34.293076 7.976158 2.272506 1.000000
-34.293076 7.976158 2.090770 1.000000
-34.293076 7.976158 1.909230 1.000000
-34.293076 7.976158 1.727494 1.000000
-34.293076 7.976158 1.545173 1.000000
-34.293076 7.976158 1.361871 1.000000
-34.293076 7.976159 1.177183 1.000000
-34.293076 7.976158 0.990693 1.000000
-34.293076 7.976157 0.801967 1.000000
-34.293076 7.976159 0.610554 1.000000
-34.332600 7.982553 3.386866 1.000000
-34.332600 7.982552 3.195809 1.000000
-34.332596 7.982553 3.007433 1.000000
-34.332596 7.982553 2.821289 1.000000
-34.332596 7.982554 2.636944 1.000000
-34.332596 7.982553 2.453982 1.000000
-34.332596 7.982554 2.272000 1.000000
-34.332596 7.982553 2.090602 1.000000
-34.332596 7.982553 1.909398 1.000000
-34.332596 7.982554 1.728000 1.000000
-34.332596 7.982554 1.546018 1.000000
-34.332596 7.982554 1.363056 1.000000
-34.332596 7.982554 1.178711 1.000000
-34.332596 7.982554 0.992567 1.000000
-34.332596 7.982553 0.804192 1.000000
-34.332596 7.982554 0.613134 1.000000
-34.371975 7.988925 3.384364 1.000000
-34.371975 7.988925 3.193650 1.000000
-34.371975 7.988926 3.005615 1.000000
-34.371975 7.988926 2.819807 1.000000
-34.371975 7.988926 2.635794 1.000000
-34.371975 7.988927 2.453162 1.000000
-34.371975 7.988927 2.271509 1.000000
-34.371975 7.988927 2.090438 1.000000
-34.371975 7.988927 1.909562 1.000000
-34.371975 7.988927 1.728491 1.000000
-34.371975 7.988927 1.546837 1.000000
-34.371975 7.988927 1.364206 1.000000
-34.371975 7.988927 1.180193 1.000000
-34.371975 7.988927 0.994385 1.000000
-34.371975 7.988927 0.806350 1.000000
-34.371975 7.988926 0.615637 1.000000
-34.411213 7.995277 3.381936 1.000000
-34.411213 7.995276 3.191558 1.000000
-34.411213 7.995276 3.003852 1.000000
-34.411213 7.995277 2.818369 1.000000
-34.411213 7.995276 2.634680 1.000000
-34.411213 7.995277 2.452368 1.000000
-34.411213 7.995277 2.271033 1.000000
-34.411213 7.995278 2.090280 1.000000
-34.411213 7.995278 1.909720 1.000000
-34.411213 7.995278 1.728967 1.000000
-34.411213 7.995277 1.547632 1.000000
-34.411213 7.995277 1.365320 1.000000
-34.411213 7.995278 1.181631 1.000000
-34.411213 7.995278 0.996148 1.000000
-34.411213 7.995278 0.808443 1.000000
-34.411213 7.995278 0.618064 1.000000
-34.450314 8.001606 3.379585 1.000000
-34.450314 8.001606 3.189530 1.000000
-34.450317 8.001606 3.002144 1.000000
-34.450314 8.001606 2.816977 1.000000
-34.450314 8.001606 2.633600 1.000000
-34.450314 8.001607 2.451598 1.000000
-34.450314 8.001606 2.270572 1.000000
-34.450314 8.001608 2.090126 1.000000
-34.450314 8.001608 1.909874 1.000000
-34.450314 8.001607 1.729428 1.000000
-34.450314 8.001608 1.548401 1.000000
-34.450314 8.001608 1.366400 1.000000
-34.450314 8.001608 1.183023 1.000000
-34.450314 8.001608 0.997856 1.000000
-34.450314 8.001608 0.810470 1.000000
-34.450314 8.001608 0.620415 1.000000
-34.489285 8.007913 3.377308 1.000000
-34.489285 8.007913 3.187568 1.000000
-34.489285 8.007914 3.000490 1.000000
-34.489285 8.007914 2.815629 1.000000
-34.489285 8.007913 2.632554 1.000000
-34.489285 8.007915 2.450853 1.000000
-34.489285 8.007915 2.270125 1.000000
-34.489285 8.007914 2.089977 1.000000
-34.489285 8.007914 1.910023 1.000000
-34.489285 8.007915 1.729875 1.000000
-34.489285 8.007915 1.549147 1.000000
-34.489285 8.007914 1.367446 1.000000
-34.489285 8.007915 1.184371 1.000000
-34.489285 8.007915 0.999510 1.000000
-34.489285 8.007915 0.812433 1.000000
-34.489285 8.007915 0.622692 1.000000
-34.528130 8.014200 3.375107 1.000000
-34.528130 8.014200 3.185669 1.000000
-34.528130 8.014201 2.998891 1.000000
-34.528130 8.014201 2.814325 1.000000
-34.528130 8.014201 2.631543 1.000000
-34.528130 8.014201 2.450132 1.000000
-34.528130 8.014202 2.269693 1.000000
-34.528130 8.014201 2.089833 1.000000
-34.528130 8.014201 1.910166 1.000000
-34.528130 8.014202 1.730307 1.000000
-34.528130 8.014202 1.549868 1.000000
-34.528130 8.014202 1.368457 1.000000
-34.528130 8.014202 1.185675 1.000000
-34.528130 8.014202 1.001109 1.000000
-34.528130 8.014202 0.814331 1.000000
-34.528130 8.014202 0.624894 1.000000
-34.566853 8.020467 3.372979 1.000000
-34.566853 8.020468 3.183834 1.000000
-34.566853 8.020468 2.997345 1.000000
-34.566853 8.020468 2.813065 1.000000
-34.566853 8.020468 2.630566 1.000000
-34.566853 8.020467 2.449436 1.000000
-34.566853 8.020468 2.269276 1.000000
-34.566853 8.020468 2.089694 1.000000
-34.566853 8.020468 1.910306 1.000000
-34.566853 8.020468 1.730724 1.000000
-34.566853 8.020468 1.550564 1.000000
-34.566853 8.020468 1.369434 1.000000
-34.566853 8.020468 1.186935 1.000000
-34.566853 8.020468 1.002655 1.000000
-34.566853 8.020469 0.816166 1.000000
-34.566853 8.020468 0.627021 1.000000
-34.605457 8.026715 3.370924 1.000000
-34.605457 8.026715 3.182063 1.000000
-34.605457 8.026716 2.995852 1.000000
-34.605457 8.026715 2.811848 1.000000
-34.605457 8.026716 2.629622 1.000000
-34.605457 8.026715 2.448763 1.000000
-34.605457 8.026716 2.268873 1.000000
-34.605457 8.026715 2.089560 1.000000
-34.605457 8.026715 1.910440 1.000000
-34.605457 8.026717 1.731127 1.000000
-34.605457 8.026716 1.551237 1.000000
-34.605457 8.026717 1.370378 1.000000
-34.605457 8.026717 1.188152 1.000000
-34.605457 8.026717 1.004148 1.000000
-34.605457 8.026716 0.817938 1.000000
-34.605457 8.026717 0.629076 1.000000
-34.643951 8.032945 3.368942 1.000000
-34.643951 8.032945 3.180354 1.000000
-34.643951 8.032945 2.994413 1.000000
-34.643951 8.032944 2.810675 1.000000
-34.643951 8.032945 2.628712 1.000000
-34.643951 8.032946 2.448114 1.000000
-34.643951 8.032946 2.268484 1.000000
-34.643951 8.032945 2.089431 1.000000
-34.643951 8.032946 1.910569 1.000000
-34.643951 8.032946 1.731516 1.000000
-34.643951 8.032946 1.551885 1.000000
-34.643951 8.032946 1.371288 1.000000
-34.643951 8.032946 1.189326 1.000000
-34.643951 8.032946 1.005587 1.000000
-34.643951 8.032946 0.819647 1.000000
-34.643951 8.032946 0.631058 1.000000
-34.682335 8.039158 3.367033 1.000000
-34.682335 8.039157 3.178707 1.000000
-34.682335 8.039157 2.993026 1.000000
-34.682335 8.039157 2.809544 1.000000
-34.682335 8.039158 2.627835 1.000000
-34.682335 8.039157 2.447489 1.000000
-34.682335 8.039158 2.268110 1.000000
-34.682335 8.039158 2.089306 1.000000
-34.682335 8.039158 1.910694 1.000000
-34.682335 8.039158 1.731890 1.000000
-34.682335 8.039158 1.552510 1.000000
-34.682335 8.039158 1.372165 1.000000
-34.682335 8.039158 1.190456 1.000000
-34.682335 8.039158 1.006974 1.000000
-34.682335 8.039158 0.821293 1.000000
-34.682335 8.039158 0.632968 1.000000
-34.720612 8.045354 3.365194 1.000000
-34.720612 8.045355 3.177122 1.000000
-34.720612 8.045353 2.991691 1.000000
-34.720612 8.045354 2.808455 1.000000
-34.720612 8.045353 2.626991 1.000000
-34.720612 8.045354 2.446888 1.000000
-34.720612 8.045354 2.267749 1.000000
-34.720612 8.045353 2.089186 1.000000
-34.720612 8.045353 1.910814 1.000000
-34.720612 8.045354 1.732251 1.000000
-34.720612 8.045355 1.553112 1.000000
-34.720612 8.045355 1.373009 1.000000
-34.720612 8.045355 1.191545 1.000000
-34.720612 8.045355 1.008310 1.000000
-34.720612 8.045355 0.822878 1.000000
-34.720612 8.045355 0.634806 1.000000
-34.758789 8.051531 3.363428 1.000000
-34.758789 8.051531 3.175599 1.000000
-34.758789 8.051531 2.990407 1.000000
