# This PCD file was generated using the MATLABÂ® pcwrite function
# from Computer Vision ToolboxÂ®.
# .PCD v.7 - Point Cloud Data file format
VERSION .7
FIELDS x y z intensity
SIZE 4 4 4 4
TYPE F F F F
COUNT 1 1 1 1
WIDTH 1219
HEIGHT 1
VIEWPOINT 0 0 0 1 0 0 0
POINTS 1219
DATA ascii
64.510849 -72.741508 0.000105 0.513480
63.294636 -76.448799 0.000055 0.528676
62.518085 -78.815895 0.000061 0.548039
61.978333 -80.461182 0.000083 0.549387
61.580765 -81.673065 0.000029 0.561887
68.569885 -61.035423 9.457760 1.000000
68.569885 -61.035419 8.430364 1.000000
68.569878 -61.035423 7.417390 1.000000
68.569885 -61.035419 6.416415 1.000000
68.569885 -61.035419 5.425114 1.000000
68.569878 -61.035423 4.441250 1.000000
68.569885 -61.035419 3.462656 1.000000
68.569885 -61.035419 2.487204 1.000000
68.569878 -61.035423 1.512796 1.000000
68.569885 -61.035419 0.537344 1.000000
66.856796 -66.136810 -0.000007 0.334191
64.626045 -72.779678 0.000098 0.545098
63.383987 -76.478394 0.000046 0.531740
62.590931 -78.840027 0.000053 0.546814
62.039700 -80.481514 0.000077 0.512132
61.633678 -81.690598 0.000024 0.550123
68.777840 -61.069851 9.466351 1.000000
68.777840 -61.069847 8.437771 1.000000
68.777840 -61.069847 7.423630 1.000000
68.777840 -61.069847 6.421502 1.000000
68.777832 -61.069855 5.429058 1.000000
68.777840 -61.069851 4.444063 1.000000
68.777840 -61.069851 3.464340 1.000000
68.777840 -61.069851 2.487765 1.000000
68.777840 -61.069851 1.512235 1.000000
68.777840 -61.069851 0.535659 1.000000
67.018028 -66.191574 -0.000007 0.333211
64.740997 -72.818626 0.000087 0.534436
63.473003 -76.508965 0.000093 0.551961
62.663601 -78.864655 0.000044 0.546324
62.100925 -80.502258 0.000064 0.497549
61.686466 -81.708488 0.000013 0.541176
68.986282 -61.104355 9.475323 1.000000
68.986282 -61.104355 8.445508 1.000000
68.986282 -61.104355 7.430150 1.000000
68.986282 -61.104355 6.426815 1.000000
68.986275 -61.104362 5.433179 1.000000
68.986282 -61.104355 4.447000 1.000000
68.986282 -61.104355 3.466100 1.000000
68.986282 -61.104362 2.488351 1.000000
68.986282 -61.104359 1.511649 1.000000
68.986282 -61.104359 0.533899 1.000000
67.178879 -66.247467 -0.000007 0.332966
64.855637 -72.858459 0.000087 0.549387
63.561913 -76.539856 0.000092 0.524020
62.736080 -78.889854 0.000046 0.553922
62.161987 -80.523483 0.000067 0.523162
61.739120 -81.726784 0.000012 0.530882
69.195229 -61.138947 9.484686 1.000000
69.195229 -61.138947 8.453580 1.000000
69.195229 -61.138947 7.436948 1.000000
69.195229 -61.138947 6.432359 1.000000
69.195229 -61.138954 5.437478 1.000000
69.195229 -61.138947 4.450064 1.000000
69.195229 -61.138947 3.467936 1.000000
69.195229 -61.138954 2.488962 1.000000
69.195229 -61.138954 1.511037 1.000000
69.195229 -61.138947 0.532063 1.000000
67.339340 -66.304489 -0.000007 0.333211
64.970032 -72.899010 0.000076 0.537745
63.650627 -76.571320 0.000083 0.529534
62.808399 -78.915489 0.000035 0.544240
62.222935 -80.545029 0.000043 0.539583
61.791576 -81.745644 0.000065 0.515074
69.404716 -61.173630 9.494434 1.000000
69.404716 -61.173637 8.461984 1.000000
69.404716 -61.173634 7.444029 1.000000
69.404716 -61.173637 6.438132 1.000000
69.404716 -61.173637 5.441956 1.000000
69.404716 -61.173634 4.453255 1.000000
69.404716 -61.173637 3.469849 1.000000
69.404716 -61.173630 2.489599 1.000000
69.404716 -61.173634 1.510401 1.000000
69.404716 -61.173637 0.530151 1.000000
67.499390 -66.362633 -0.000007 0.333333
65.084091 -72.940483 0.000081 0.540074
63.739094 -76.603462 0.000085 0.528064
62.880527 -78.941704 0.000037 0.530147
62.283703 -80.567093 0.000042 0.514461
61.843967 -81.764671 0.000064 0.545711
69.614761 -61.208412 9.504575 1.000000
69.614761 -61.208412 8.470726 1.000000
69.614761 -61.208412 7.451396 1.000000
69.614761 -61.208408 6.444138 1.000000
69.614761 -61.208412 5.446614 1.000000
69.614761 -61.208408 4.456575 1.000000
69.614761 -61.208408 3.471837 1.000000
69.614761 -61.208412 2.490263 1.000000
69.614761 -61.208412 1.509738 1.000000
69.614761 -61.208408 0.528162 1.000000
67.645294 -66.458511 0.003200 1.000000
65.197693 -72.983177 0.000138 0.543995
63.827194 -76.636589 0.000144 0.537868
62.952377 -78.968628 0.000080 0.543260
62.344212 -80.589851 0.000103 0.563971
61.896145 -81.784279 0.000122 0.480392
69.825394 -61.243271 9.515112 1.000000
69.825386 -61.243271 8.479815 1.000000
69.825386 -61.243279 7.459049 1.000000
69.825386 -61.243271 6.450377 1.000000
69.825386 -61.243271 5.451452 1.000000
69.825386 -61.243271 4.460023 1.000000
69.825394 -61.243271 3.473904 1.000000
69.825386 -61.243279 2.490950 1.000000
69.825386 -61.243275 1.509049 1.000000
69.825386 -61.243271 0.526096 1.000000
67.818260 -66.482246 -0.000007 0.332108
65.311218 -73.026115 0.000127 0.535049
63.915237 -76.669876 0.000131 0.540441
63.024151 -78.995781 0.000072 0.529534
62.404678 -80.612709 0.000090 0.536274
61.948269 -81.804031 0.000118 0.557721
70.036613 -61.278248 9.526043 1.000000
70.036613 -61.278248 8.489239 1.000000
70.036613 -61.278252 7.466991 1.000000
70.036613 -61.278248 6.456851 1.000000
70.036621 -61.278240 5.456474 1.000000
70.036613 -61.278244 4.463603 1.000000
70.036613 -61.278248 3.476047 1.000000
70.036613 -61.278244 2.491664 1.000000
70.036613 -61.278244 1.508335 1.000000
70.036613 -61.278248 0.523952 1.000000
67.977058 -66.543724 -0.000007 0.331618
65.424385 -73.069954 0.000130 0.539706
64.002998 -76.703880 0.000135 0.507353
63.095703 -79.023476 0.000071 0.540809
62.464958 -80.636070 0.000093 0.534069
62.000244 -81.824165 0.000121 0.546569
70.248466 -61.313320 9.537375 1.000000
70.248466 -61.313324 8.499008 1.000000
70.248466 -61.313324 7.475223 1.000000
70.248466 -61.313320 6.463562 1.000000
70.248466 -61.313320 5.461678 1.000000
70.248466 -61.313316 4.467313 1.000000
70.248466 -61.313320 3.478270 1.000000
70.248466 -61.313320 2.492405 1.000000
70.248466 -61.313320 1.507595 1.000000
70.248466 -61.313320 0.521729 1.000000
68.135437 -66.606300 -0.000008 0.332843
65.537285 -73.114471 0.000121 0.525123
64.090561 -76.738411 0.000126 0.534436
63.167084 -79.051651 0.000065 0.549755
62.525097 -80.659782 0.000084 0.509926
62.052101 -81.844597 0.000107 0.535907
70.460968 -61.348503 9.549109 1.000000
70.460968 -61.348499 8.509127 1.000000
70.460968 -61.348499 7.483747 1.000000
70.460968 -61.348499 6.470512 1.000000
70.460968 -61.348499 5.467067 1.000000
70.460968 -61.348499 4.471153 1.000000
70.460968 -61.348495 3.480571 1.000000
70.460968 -61.348499 2.493171 1.000000
70.460968 -61.348499 1.506829 1.000000
70.460968 -61.348499 0.519428 1.000000
68.293365 -66.669983 -0.000007 0.331863
65.649841 -73.159866 0.000121 0.541789
64.177849 -76.773598 0.000123 0.533578
63.238251 -79.080353 0.000065 0.541789
62.585045 -80.683975 0.000086 0.529289
62.103790 -81.865456 0.000110 0.557966
70.674141 -61.383789 9.561253 1.000000
70.674141 -61.383797 8.519594 1.000000
70.674141 -61.383797 7.492566 1.000000
70.674141 -61.383797 6.477701 1.000000
70.674141 -61.383793 5.472644 1.000000
70.674141 -61.383789 4.475127 1.000000
70.674141 -61.383789 3.482953 1.000000
70.674141 -61.383789 2.493964 1.000000
70.674141 -61.383789 1.506035 1.000000
70.674141 -61.383793 0.517047 1.000000
68.450836 -66.734787 -0.000007 0.332598
65.762100 -73.205971 0.000112 0.529167
64.264915 -76.809364 0.000116 0.532721
63.309238 -79.109474 0.000051 0.554534
62.644844 -80.708519 0.000076 0.575735
62.155354 -81.886612 0.000099 0.559926
70.888008 -61.419201 9.573799 1.000000
70.888016 -61.419197 8.530416 1.000000
70.888008 -61.419201 7.501682 1.000000
70.888008 -61.419205 6.485132 1.000000
70.888016 -61.419197 5.478407 1.000000
70.888008 -61.419201 4.479236 1.000000
70.888008 -61.419205 3.485413 1.000000
70.888008 -61.419201 2.494784 1.000000
70.888008 -61.419205 1.505216 1.000000
70.888008 -61.419205 0.514585 1.000000
68.607864 -66.800659 -0.000007 0.332721
65.874062 -73.252823 0.000099 0.526961
64.351707 -76.845795 0.000118 0.532353
63.379986 -79.139191 0.000057 0.546446
62.704453 -80.733551 0.000079 0.529657
62.206776 -81.908134 0.000085 0.544118
71.102608 -61.454723 9.586761 1.000000
71.102608 -61.454723 8.541594 1.000000
71.102600 -61.454727 7.511097 1.000000
71.102600 -61.454727 6.492808 1.000000
71.102600 -61.454727 5.484361 1.000000
71.102608 -61.454723 4.483479 1.000000
71.102600 -61.454727 3.487957 1.000000
71.102608 -61.454727 2.495631 1.000000
71.102608 -61.454727 1.504369 1.000000
71.102600 -61.454727 0.512043 1.000000
68.764427 -66.867645 -0.000008 0.332353
65.985680 -73.300476 0.000088 0.532598
64.438263 -76.882759 0.000108 0.510907
63.450554 -79.169319 0.000046 0.549877
62.763912 -80.758919 0.000066 0.519363
62.258038 -81.930023 0.000074 0.546691
71.317947 -61.490368 9.600141 1.000000
71.317947 -61.490372 8.553127 1.000000
71.317947 -61.490379 7.520814 1.000000
71.317947 -61.490372 6.500731 1.000000
71.317947 -61.490372 5.490503 1.000000
71.317947 -61.490376 4.487857 1.000000
71.317947 -61.490372 3.490580 1.000000
71.317947 -61.490372 2.496505 1.000000
71.317947 -61.490379 1.503495 1.000000
71.317947 -61.490376 0.509420 1.000000
68.920517 -66.935715 -0.000008 0.330760
66.096962 -73.348915 0.000078 0.532721
64.524582 -76.920303 0.000095 0.539951
63.520912 -79.199951 0.000038 0.528431
62.823200 -80.784676 0.000046 0.543382
62.309143 -81.952278 0.000067 0.536152
71.534050 -61.526161 9.613935 1.000000
71.534050 -61.526154 8.565022 1.000000
71.534050 -61.526161 7.530836 1.000000
71.534050 -61.526154 6.508899 1.000000
71.534050 -61.526154 5.496840 1.000000
71.534050 -61.526154 4.492373 1.000000
71.534050 -61.526150 3.493286 1.000000
71.534050 -61.526146 2.497407 1.000000
71.534050 -61.526146 1.502594 1.000000
71.534050 -61.526150 0.506714 1.000000
69.076126 -67.004868 -0.000008 0.332966
66.207855 -73.398224 0.000080 0.536765
64.610580 -76.958549 0.000099 0.535784
63.591038 -79.231110 0.000037 0.535662
62.882271 -80.810944 0.000049 0.558946
62.360069 -81.974922 0.000070 0.488358
71.750961 -61.562069 9.628153 1.000000
71.750961 -61.562065 8.577282 1.000000
71.750961 -61.562061 7.541165 1.000000
71.750961 -61.562061 6.517320 1.000000
71.750961 -61.562069 5.503369 1.000000
71.750961 -61.562061 4.497026 1.000000
71.750961 -61.562061 3.496074 1.000000
71.750961 -61.562061 2.498335 1.000000
71.750961 -61.562065 1.501665 1.000000
71.750961 -61.562065 0.503926 1.000000
69.231247 -67.075111 -0.000008 0.333578
66.318451 -73.448204 0.000070 0.543995
64.696388 -76.997231 0.000074 0.526348
63.660954 -79.262726 0.000029 0.544485
62.941177 -80.837570 0.000039 0.537990
62.410866 -81.997871 0.000059 0.589338
71.968689 -61.598106 9.642798 1.000000
71.968689 -61.598110 8.589911 1.000000
71.968689 -61.598114 7.551803 1.000000
71.968689 -61.598118 6.525992 1.000000
71.968689 -61.598110 5.510097 1.000000
71.968689 -61.598114 4.501821 1.000000
71.968689 -61.598110 3.498946 1.000000
71.968689 -61.598110 2.499292 1.000000
71.968689 -61.598110 1.500708 1.000000
71.968689 -61.598110 0.501053 1.000000
69.385872 -67.146446 -0.000008 0.332475
66.428650 -73.499062 0.000072 0.540196
64.781853 -77.036674 0.000077 0.543505
63.730629 -79.294876 0.000031 0.550368
62.999878 -80.864662 0.000042 0.545833
62.461475 -82.021233 0.000062 0.537010
72.187263 -61.634296 9.657875 1.000000
72.187271 -61.634296 8.602909 1.000000
72.187263 -61.634296 7.562753 1.000000
72.187263 -61.634300 6.534920 1.000000
72.187271 -61.634296 5.517019 1.000000
72.187271 -61.634296 4.506756 1.000000
72.187271 -61.634296 3.501904 1.000000
72.187263 -61.634304 2.500277 1.000000
72.187263 -61.634304 1.499723 1.000000
72.187263 -61.634300 0.498096 1.000000
69.540001 -67.218849 -0.000008 0.336520
66.538536 -73.550583 0.000063 0.533701
64.867073 -77.076637 0.000068 0.529779
63.800102 -79.327469 0.000023 0.560784
63.058414 -80.892090 0.000029 0.509559
62.511948 -82.044899 0.000051 0.553431
72.406723 -61.670628 9.673385 1.000000
72.406723 -61.670628 8.616282 1.000000
72.406723 -61.670628 7.574021 1.000000
72.406715 -61.670631 6.544103 1.000000
72.406723 -61.670624 5.524143 1.000000
72.406723 -61.670628 4.511833 1.000000
72.406715 -61.670635 3.504945 1.000000
72.406723 -61.670631 2.501290 1.000000
72.406715 -61.670631 1.498710 1.000000
72.406715 -61.670635 0.495055 1.000000
69.693619 -67.292320 -0.000008 0.332843
66.648018 -73.602966 0.000064 0.528676
64.951981 -77.117256 0.000070 0.557353
63.869331 -79.360573 0.000023 0.546691
63.116726 -80.920006 0.000032 0.540686
62.562222 -82.068970 0.000055 0.541299
72.627075 -61.707108 9.689333 1.000000
72.627075 -61.707108 8.630033 1.000000
72.627075 -61.707108 7.585606 1.000000
72.627075 -61.707115 6.553548 1.000000
72.627075 -61.707108 5.531467 1.000000
72.627068 -61.707115 4.517054 1.000000
72.627075 -61.707108 3.508073 1.000000
72.627075 -61.707111 2.502332 1.000000
72.627075 -61.707108 1.497668 1.000000
72.627075 -61.707108 0.491927 1.000000
69.846718 -67.366867 -0.000008 0.334069
66.756927 -73.656540 0.000121 0.530515
65.036430 -77.158821 0.000129 0.545956
63.938175 -79.394455 0.000081 0.528799
63.174732 -80.948547 0.000090 0.534069
62.612240 -82.093567 0.000110 0.515686
72.848351 -61.743752 9.705723 1.000000
72.848358 -61.743744 8.644166 1.000000
72.848358 -61.743744 7.597512 1.000000
72.848358 -61.743744 6.563255 1.000000
72.848358 -61.743744 5.538995 1.000000
72.848358 -61.743748 4.522419 1.000000
72.848358 -61.743744 3.511287 1.000000
72.848358 -61.743740 2.503402 1.000000
72.848358 -61.743740 1.496597 1.000000
72.848358 -61.743748 0.488712 1.000000
69.999306 -67.442474 -0.000008 0.332475
66.865700 -73.710373 0.000113 0.537255
65.120796 -77.200546 0.000117 0.549632
64.006950 -79.428490 0.000072 0.511887
63.232674 -80.977211 0.000080 0.524877
62.662201 -82.118286 0.000103 0.495466
73.070595 -61.780540 9.722560 1.000000
73.070595 -61.780537 8.658684 1.000000
73.070595 -61.780540 7.609743 1.000000
73.070595 -61.780537 6.573227 1.000000
73.070595 -61.780533 5.546728 1.000000
73.070595 -61.780540 4.527931 1.000000
73.070595 -61.780540 3.514590 1.000000
73.070595 -61.780540 2.504503 1.000000
73.070595 -61.780540 1.495497 1.000000
73.070595 -61.780540 0.485410 1.000000
70.151344 -67.519157 -0.000008 0.333456
66.974060 -73.765030 0.000114 0.533824
65.204834 -77.242950 0.000120 0.547304
64.075455 -79.463051 0.000075 0.539461
63.290390 -81.006332 0.000083 0.569118
62.711967 -82.143379 0.000103 0.530637
73.293823 -61.817493 9.739851 1.000000
73.293823 -61.817493 8.673592 1.000000
73.293823 -61.817493 7.622303 1.000000
73.293823 -61.817493 6.583467 1.000000
73.293823 -61.817493 5.554669 1.000000
73.293823 -61.817493 4.533591 1.000000
73.293823 -61.817493 3.517981 1.000000
73.293823 -61.817486 2.505632 1.000000
73.293823 -61.817486 1.494367 1.000000
73.293823 -61.817497 0.482019 1.000000
70.302856 -67.596893 -0.000008 0.330637
67.082077 -73.820366 0.000104 0.529902
65.288605 -77.285851 0.000109 0.537010
64.143761 -79.498016 0.000062 0.536397
63.347935 -81.035789 0.000070 0.527206
62.761578 -82.168793 0.000091 0.564093
73.518051 -61.854622 9.757597 1.000000
73.518051 -61.854622 8.688892 1.000000
73.518051 -61.854626 7.635193 1.000000
73.518051 -61.854622 6.593976 1.000000
73.518059 -61.854614 5.562819 1.000000
73.518051 -61.854614 4.539401 1.000000
73.518051 -61.854618 3.521461 1.000000
73.518051 -61.854614 2.506792 1.000000
73.518059 -61.854614 1.493208 1.000000
73.518051 -61.854622 0.478538 1.000000
70.453812 -67.675690 -0.000008 0.332966
67.189651 -73.876534 0.000107 0.560294
65.372040 -77.329422 0.000112 0.529289
64.211769 -79.533546 0.000067 0.536520
63.405235 -81.065712 0.000073 0.539093
62.810986 -82.194595 0.000094 0.510049
73.743332 -61.891911 9.775805 1.000000
73.743332 -61.891914 8.704592 1.000000
73.743332 -61.891914 7.648422 1.000000
73.743332 -61.891907 6.604759 1.000000
73.743332 -61.891907 5.571181 1.000000
73.743332 -61.891911 4.545362 1.000000
73.743332 -61.891914 3.525032 1.000000
73.743332 -61.891911 2.507981 1.000000
73.743332 -61.891914 1.492019 1.000000
73.743332 -61.891914 0.474967 1.000000
70.604218 -67.755531 -0.000009 0.334069
67.296890 -73.933365 0.000096 0.543260
65.455208 -77.373489 0.000100 0.538480
64.279579 -79.569473 0.000056 0.545221
63.462353 -81.095985 0.000064 0.540196
62.860229 -82.220703 0.000087 0.527696
73.969681 -61.929379 9.794481 1.000000
73.969681 -61.929382 8.720695 1.000000
73.969681 -61.929386 7.661986 1.000000
73.969681 -61.929382 6.615818 1.000000
73.969681 -61.929382 5.579758 1.000000
73.969681 -61.929382 4.551475 1.000000
73.969681 -61.929382 3.528694 1.000000
73.969681 -61.929386 2.509201 1.000000
73.969681 -61.929386 1.490799 1.000000
73.969681 -61.929382 0.471304 1.000000
70.754059 -67.836426 -0.000009 0.331373
67.403725 -73.990944 0.000086 0.531373
65.538055 -77.418144 0.000091 0.543750
64.347122 -79.605888 0.000047 0.537745
63.519260 -81.126656 0.000054 0.491176
62.909302 -82.247139 0.000076 0.537500
74.197128 -61.967041 9.813627 1.000000
74.197128 -61.967045 8.737204 1.000000
74.197128 -61.967045 7.675893 1.000000
74.197128 -61.967037 6.627155 1.000000
74.197136 -61.967037 5.588552 1.000000
74.197128 -61.967045 4.557741 1.000000
74.197128 -61.967045 3.532450 1.000000
74.197128 -61.967037 2.510451 1.000000
74.197128 -61.967041 1.489548 1.000000
74.197128 -61.967045 0.467550 1.000000
70.903351 -67.918358 -0.000009 0.333578
67.510109 -74.049362 0.000089 0.532108
65.620560 -77.463463 0.000095 0.544363
64.414375 -79.642830 0.000050 0.541054
63.575924 -81.157776 0.000057 0.557476
62.958157 -82.273972 0.000079 0.540441
74.425713 -62.004890 9.833249 1.000000
74.425713 -62.004883 8.754124 1.000000
74.425713 -62.004887 7.690149 1.000000
74.425713 -62.004887 6.638775 1.000000
74.425713 -62.004887 5.597563 1.000000
74.425713 -62.004887 4.564164 1.000000
74.425713 -62.004887 3.536299 1.000000
74.425713 -62.004887 2.511734 1.000000
74.425713 -62.004883 1.488266 1.000000
74.425713 -62.004890 0.463701 1.000000
71.052040 -68.001350 -0.000009 0.332230
67.616135 -74.108421 0.000078 0.540319
65.702789 -77.509262 0.000084 0.530270
64.481415 -79.680161 0.000039 0.562990
63.632397 -81.189240 0.000048 0.542034
63.006851 -82.301102 0.000069 0.520343
74.655457 -62.042923 9.853354 1.000000
74.655457 -62.042915 8.771460 1.000000
74.655457 -62.042915 7.704753 1.000000
74.655457 -62.042915 6.650682 1.000000
74.655457 -62.042912 5.606798 1.000000
74.655457 -62.042915 4.570746 1.000000
74.655457 -62.042915 3.540241 1.000000
74.655457 -62.042915 2.513047 1.000000
74.655457 -62.042915 1.486953 1.000000
74.655457 -62.042915 0.459758 1.000000
71.200157 -68.085350 -0.000009 0.334314
67.721687 -74.168320 0.000081 0.535907
65.784653 -77.555702 0.000085 0.525245
64.548157 -79.718033 0.000041 0.538971
63.688622 -81.221146 0.000051 0.530392
63.055328 -82.328606 0.000072 0.566422
74.886391 -62.081150 9.873950 1.000000
74.886391 -62.081150 8.789217 1.000000
74.886391 -62.081150 7.719713 1.000000
74.886391 -62.081150 6.662877 1.000000
74.886391 -62.081146 5.616256 1.000000
74.886391 -62.081146 4.577487 1.000000
74.886391 -62.081150 3.544281 1.000000
74.886391 -62.081150 2.514393 1.000000
74.886391 -62.081150 1.485607 1.000000
74.886391 -62.081150 0.455719 1.000000
71.347687 -68.170403 -0.000009 0.332721
67.826881 -74.228859 0.000070 0.535049
65.866234 -77.602654 0.000076 0.520588
64.614670 -79.756302 0.000031 0.541789
63.744648 -81.253395 0.000041 0.527941
63.103638 -82.356415 0.000061 0.535539
75.118553 -62.119583 9.895037 1.000000
75.118553 -62.119579 8.807400 1.000000
75.118553 -62.119583 7.735032 1.000000
75.118553 -62.119583 6.675364 1.000000
75.118553 -62.119583 5.625940 1.000000
75.118553 -62.119587 4.584390 1.000000
75.118553 -62.119583 3.548417 1.000000
75.118553 -62.119587 2.515770 1.000000
75.118553 -62.119583 1.484230 1.000000
75.118553 -62.119583 0.451583 1.000000
71.494614 -68.256485 -0.000009 0.334436
67.931587 -74.290222 0.000073 0.547917
65.947433 -77.650253 0.000079 0.554167
64.680870 -79.795105 0.000034 0.509681
63.800430 -81.286072 0.000041 0.546936
63.151730 -82.384598 0.000064 0.537990
75.351974 -62.158230 9.916626 1.000000
75.351974 -62.158230 8.826014 1.000000
75.351974 -62.158234 7.750711 1.000000
75.351974 -62.158230 6.688150 1.000000
75.351967 -62.158237 5.635854 1.000000
75.351974 -62.158230 4.591456 1.000000
75.351974 -62.158230 3.552651 1.000000
75.351967 -62.158237 2.517180 1.000000
75.351974 -62.158234 1.482820 1.000000
75.351974 -62.158230 0.447349 1.000000
71.640938 -68.343575 -0.000009 0.332966
68.035927 -74.352226 0.000063 0.562377
66.028358 -77.698334 0.000068 0.547304
64.746826 -79.834312 0.000025 0.554044
63.856003 -81.319099 0.000031 0.527941
63.199650 -82.413071 0.000052 0.526103
75.586693 -62.197086 9.938719 1.000000
75.586693 -62.197090 8.845064 1.000000
75.586693 -62.197086 7.766763 1.000000
75.586693 -62.197090 6.701234 1.000000
75.586693 -62.197083 5.646004 1.000000
75.586693 -62.197090 4.598689 1.000000
75.586693 -62.197090 3.556983 1.000000
75.586693 -62.197086 2.518624 1.000000
75.586693 -62.197090 1.481376 1.000000
75.586685 -62.197090 0.443015 1.000000
71.786652 -68.431694 -0.000008 0.331863
68.139824 -74.414955 0.000053 0.538603
66.108932 -77.746994 0.000059 0.535294
64.812515 -79.873978 0.000015 0.551593
63.911343 -81.352509 0.000022 0.515074
63.247368 -82.441879 0.000042 0.556373
75.822723 -62.236164 9.961326 1.000000
75.822723 -62.236168 8.864554 1.000000
75.822723 -62.236160 7.783185 1.000000
75.822723 -62.236160 6.714622 1.000000
75.822723 -62.236160 5.656386 1.000000
75.822723 -62.236160 4.606089 1.000000
75.822723 -62.236164 3.561417 1.000000
75.822723 -62.236164 2.520100 1.000000
75.822723 -62.236168 1.479899 1.000000
75.822723 -62.236164 0.438582 1.000000
71.931747 -68.520828 -0.000008 0.331985
68.242943 -74.478973 0.000119 0.528309
66.188896 -77.796631 0.000124 0.536152
64.877724 -79.914436 0.000079 0.531618
63.966267 -81.386612 0.000089 0.527451
63.294727 -82.471275 0.000108 0.531495
76.060120 -62.275467 9.984453 1.000000
76.060120 -62.275463 8.884499 1.000000
76.060120 -62.275467 7.799985 1.000000
76.060120 -62.275459 6.728318 1.000000
76.060127 -62.275459 5.667007 1.000000
76.060120 -62.275459 4.613660 1.000000
76.060120 -62.275459 3.565954 1.000000
76.060120 -62.275459 2.521612 1.000000
76.060120 -62.275459 1.478388 1.000000
76.060120 -62.275463 0.434046 1.000000
72.076218 -68.610977 -0.000008 0.334069
68.345955 -74.543121 0.000108 0.524387
66.268745 -77.846474 0.000127 0.535539
64.942848 -79.955009 0.000069 0.525980
64.021133 -81.420799 0.000080 0.552819
63.342037 -82.500748 0.000097 0.555270
76.298920 -62.315002 10.008106 1.000000
76.298912 -62.315002 8.904891 1.000000
76.298912 -62.315002 7.817165 1.000000
76.298920 -62.314999 6.742324 1.000000
76.298912 -62.315002 5.677869 1.000000
76.298912 -62.315002 4.621402 1.000000
76.298912 -62.315002 3.570593 1.000000
76.298912 -62.315002 2.523157 1.000000
76.298912 -62.315002 1.476843 1.000000
76.298912 -62.315002 0.429407 1.000000
72.220062 -68.702118 -0.000009 0.331618
68.448448 -74.608124 0.000111 0.523039
66.348244 -77.896858 0.000128 0.538235
65.007652 -79.996109 0.000073 0.566544
64.075745 -81.455383 0.000076 0.527696
63.389111 -82.530594 0.000100 0.558946
76.539139 -62.354771 10.032290 1.000000
76.539139 -62.354771 8.925745 1.000000
76.539139 -62.354771 7.834734 1.000000
76.539139 -62.354767 6.756647 1.000000
76.539139 -62.354771 5.688979 1.000000
76.539139 -62.354771 4.629320 1.000000
76.539139 -62.354771 3.575336 1.000000
76.539139 -62.354771 2.524737 1.000000
76.539139 -62.354771 1.475263 1.000000
76.539139 -62.354771 0.424664 1.000000
72.363258 -68.794281 -0.000009 0.333088
68.550560 -74.673714 0.000100 0.548529
66.427429 -77.947746 0.000119 0.550000
65.072212 -80.037575 0.000061 0.544118
64.130089 -81.490402 0.000082 0.543260
63.436008 -82.560715 0.000089 0.546691
76.780830 -62.394783 10.057018 1.000000
76.780830 -62.394783 8.947065 1.000000
76.780830 -62.394783 7.852697 1.000000
76.780823 -62.394787 6.771289 1.000000
76.780823 -62.394787 5.700334 1.000000
76.780823 -62.394787 4.637414 1.000000
76.780823 -62.394787 3.580185 1.000000
76.780823 -62.394787 2.526352 1.000000
76.780823 -62.394787 1.473648 1.000000
76.780823 -62.394787 0.419814 1.000000
72.505806 -68.887428 -0.000008 0.332475
68.652145 -74.740128 0.000103 0.532966
66.506210 -77.999229 0.000120 0.541422
65.136436 -80.079567 0.000065 0.553431
64.184204 -81.525757 0.000083 0.522426
63.482670 -82.591209 0.000089 0.527941
77.024025 -62.435047 10.082292 1.000000
77.024025 -62.435047 8.968856 1.000000
77.024025 -62.435047 7.871056 1.000000
77.024017 -62.435047 6.786256 1.000000
77.024025 -62.435047 5.711942 1.000000
77.024025 -62.435047 4.645687 1.000000
77.024033 -62.435040 3.585142 1.000000
77.024025 -62.435047 2.528003 1.000000
77.024025 -62.435047 1.471996 1.000000
77.024017 -62.435047 0.414858 1.000000
72.647697 -68.981575 -0.000008 0.333088
68.753250 -74.807259 0.000108 0.537132
66.584679 -78.051216 0.000111 0.542525
65.200409 -80.121941 0.000055 0.538235
64.238098 -81.561462 0.000073 0.549632
63.529099 -82.622055 0.000097 0.575245
77.268761 -62.475571 10.108120 1.000000
77.268761 -62.475563 8.991127 1.000000
77.268761 -62.475563 7.889818 1.000000
77.268761 -62.475563 6.801553 1.000000
77.268761 -62.475563 5.723804 1.000000
77.268761 -62.475563 4.654141 1.000000
77.268761 -62.475559 3.590208 1.000000
77.268761 -62.475563 2.529690 1.000000
77.268761 -62.475563 1.470309 1.000000
77.268761 -62.475559 0.409791 1.000000
72.788940 -69.076698 -0.000008 0.331495
68.853966 -74.874985 0.000098 0.539216
66.662788 -78.103745 0.000099 0.521814
65.264091 -80.164764 0.000044 0.530270
64.291748 -81.597527 0.000060 0.562745
63.575356 -82.653160 0.000086 0.516176
77.515076 -62.516346 10.134514 1.000000
77.515076 -62.516350 9.013884 1.000000
77.515076 -62.516350 7.908990 1.000000
77.515076 -62.516338 6.817183 1.000000
77.515076 -62.516338 5.735926 1.000000
77.515091 -62.516335 4.662783 1.000000
77.515076 -62.516338 3.595385 1.000000
77.515076 -62.516342 2.531415 1.000000
77.515076 -62.516342 1.468585 1.000000
77.515076 -62.516342 0.404615 1.000000
72.929504 -69.172821 -0.000008 0.332230
68.954140 -74.943497 0.000099 0.536397
66.740471 -78.156883 0.000103 0.550980
65.327408 -80.208099 0.000050 0.514093
64.345093 -81.634041 0.000067 0.505637
63.621357 -82.684624 0.000089 0.503676
77.763016 -62.557392 10.161480 1.000000
77.763016 -62.557384 9.037136 1.000000
77.763008 -62.557392 7.928578 1.000000
77.763016 -62.557392 6.833150 1.000000
77.763016 -62.557384 5.748310 1.000000
77.763016 -62.557392 4.671608 1.000000
77.763016 -62.557392 3.600672 1.000000
77.763016 -62.557392 2.533176 1.000000
77.763008 -62.557392 1.466823 1.000000
77.763016 -62.557392 0.399326 1.000000
73.069397 -69.269913 -0.000008 0.332230
69.053894 -75.012627 0.000089 0.541544
66.817833 -78.210495 0.000092 0.534804
65.390480 -80.251801 0.000039 0.558578
64.398224 -81.670868 0.000057 0.552574
63.667175 -82.716370 0.000078 0.538480
78.012619 -62.598713 10.189024 1.000000
78.012611 -62.598717 9.060886 1.000000
78.012619 -62.598713 7.948586 1.000000
78.012619 -62.598709 6.849462 1.000000
78.012619 -62.598709 5.760960 1.000000
78.012619 -62.598709 4.680625 1.000000
78.012619 -62.598709 3.606076 1.000000
78.012619 -62.598709 2.534976 1.000000
78.012619 -62.598709 1.465024 1.000000
78.012619 -62.598709 0.393924 1.000000
73.208611 -69.367973 -0.000008 0.334069
69.153099 -75.082542 0.000092 0.549020
66.894768 -78.264725 0.000097 0.542402
65.453209 -80.296005 0.000042 0.540196
64.451073 -81.708099 0.000060 0.532598
63.712734 -82.748482 0.000082 0.536765
78.263924 -62.640324 10.217155 1.000000
78.263924 -62.640316 9.085142 1.000000
78.263924 -62.640324 7.969021 1.000000
78.263924 -62.640316 6.866122 1.000000
78.263924 -62.640316 5.773880 1.000000
78.263924 -62.640316 4.689834 1.000000
78.263924 -62.640316 3.611592 1.000000
78.263924 -62.640316 2.536815 1.000000
78.263924 -62.640316 1.463186 1.000000
78.263924 -62.640316 0.388407 1.000000
73.347130 -69.467018 -0.000008 0.331985
69.251884 -75.153053 0.000082 0.544485
66.971375 -78.319405 0.000086 0.537500
65.515663 -80.340584 0.000032 0.528554
64.503685 -81.745667 0.000051 0.550368
63.758106 -82.780861 0.000071 0.534559
78.516975 -62.682201 10.245889 1.000000
78.516975 -62.682209 9.109915 1.000000
78.516975 -62.682201 7.989893 1.000000
78.516975 -62.682205 6.883136 1.000000
78.516975 -62.682209 5.787075 1.000000
78.516975 -62.682205 4.699239 1.000000
78.516975 -62.682209 3.617228 1.000000
78.516975 -62.682209 2.538691 1.000000
78.516975 -62.682209 1.461309 1.000000
78.516975 -62.682209 0.382772 1.000000
73.484962 -69.567017 -0.000009 0.333088
69.350098 -75.224342 0.000085 0.551838
67.047554 -78.374695 0.000089 0.519730
65.577721 -80.385719 0.000048 0.520956
64.556000 -81.783638 0.000054 0.574387
63.803211 -82.813614 0.000074 0.536520
78.771805 -62.724396 10.275224 1.000000
78.771805 -62.724396 9.135210 1.000000
78.771805 -62.724403 8.011202 1.000000
78.771812 -62.724396 6.900508 1.000000
78.771805 -62.724396 5.800548 1.000000
78.771812 -62.724388 4.708842 1.000000
78.771805 -62.724396 3.622981 1.000000
78.771805 -62.724396 2.540607 1.000000
78.771805 -62.724396 1.459393 1.000000
78.771805 -62.724403 0.377019 1.000000
73.622101 -69.667953 -0.000009 0.333088
69.447884 -75.296227 0.000074 0.538358
67.123390 -78.430435 0.000077 0.557721
65.639549 -80.431168 0.000036 0.546324
64.608093 -81.821922 0.000041 0.505270
63.848125 -82.846626 0.000064 0.546078
79.028481 -62.766899 10.305171 1.000000
79.028481 -62.766899 9.161036 1.000000
79.028481 -62.766895 8.032960 1.000000
79.028481 -62.766895 6.918245 1.000000
79.028481 -62.766888 5.814305 1.000000
79.028481 -62.766888 4.718646 1.000000
79.028481 -62.766899 3.628854 1.000000
79.028481 -62.766899 2.542563 1.000000
79.028481 -62.766899 1.457437 1.000000
79.028481 -62.766899 0.371144 1.000000
73.758530 -69.769867 -0.000010 0.332353
69.545174 -75.368797 0.000064 0.540074
67.198837 -78.486717 0.000068 0.546691
65.701042 -80.477066 0.000029 0.521201
64.659874 -81.860619 0.000044 0.538848
63.892933 -82.879776 -0.000001 0.529534
79.287018 -62.809700 10.335751 1.000000
79.287018 -62.809700 9.187400 1.000000
79.287018 -62.809704 8.055169 1.000000
79.287025 -62.809692 6.936353 1.000000
79.287018 -62.809696 5.828347 1.000000
79.287018 -62.809696 4.728656 1.000000
79.287025 -62.809700 3.634852 1.000000
79.287018 -62.809696 2.544562 1.000000
79.287025 -62.809700 1.455438 1.000000
79.287018 -62.809700 0.365147 1.000000
73.894234 -69.872726 -0.000011 0.332966
69.641548 -75.442551 0.000128 0.541422
67.273598 -78.543907 0.000130 0.542034
65.761993 -80.523682 0.000091 0.513235
64.711220 -81.899902 0.000106 0.533211
63.937210 -82.913635 0.000059 0.545343
79.547493 -62.852829 10.366965 1.000000
79.547501 -62.852821 9.214312 1.000000
79.547493 -62.852829 8.077843 1.000000
79.547501 -62.852814 6.954838 1.000000
79.547501 -62.852818 5.842684 1.000000
79.547501 -62.852818 4.738873 1.000000
79.547501 -62.852821 3.640974 1.000000
79.547501 -62.852818 2.546601 1.000000
79.547501 -62.852818 1.453399 1.000000
79.547493 -62.852829 0.359026 1.000000
74.029228 -69.976532 -0.000012 0.334559
69.737808 -75.516472 0.000117 0.525613
67.348434 -78.600998 0.000075 0.551593
65.822853 -80.570419 0.000081 0.556985
64.762489 -81.939278 0.000098 0.544363
63.981422 -82.947586 0.000048 0.555760
79.809937 -62.896263 10.398825 1.000000
79.809937 -62.896259 9.241783 1.000000
79.809937 -62.896267 8.100987 1.000000
79.809944 -62.896263 6.973705 1.000000
79.809937 -62.896263 5.857315 1.000000
79.809944 -62.896263 4.749302 1.000000
79.809937 -62.896263 3.647222 1.000000
79.809937 -62.896263 2.548681 1.000000
79.809937 -62.896263 1.451318 1.000000
79.809937 -62.896263 0.352777 1.000000
74.163490 -70.081276 -0.000013 0.331985
69.833481 -75.591148 0.000121 0.528309
67.422630 -78.658913 0.000078 0.526348
65.883339 -80.617630 0.000084 0.504044
64.813454 -81.979050 0.000098 0.548162
64.025352 -82.981888 0.000053 0.562500
80.074402 -62.940048 10.431339 1.000000
80.074402 -62.940044 9.269818 1.000000
80.074402 -62.940044 8.124607 1.000000
80.074402 -62.940048 6.992958 1.000000
80.074402 -62.940044 5.872249 1.000000
80.074402 -62.940048 4.759945 1.000000
80.074402 -62.940044 3.653599 1.000000
80.074402 -62.940048 2.550807 1.000000
80.074402 -62.940048 1.449194 1.000000
80.074402 -62.940041 0.346400 1.000000
74.220947 -70.282372 0.009992 1.000000
69.928696 -75.666397 0.000110 0.537868
67.496468 -78.717285 0.000069 0.548774
65.943542 -80.665215 0.000074 0.548652
64.864159 -82.019150 0.000092 0.549387
64.069099 -83.016441 0.000039 0.547304
80.340935 -62.984169 10.464520 1.000000
80.340927 -62.984177 9.298428 1.000000
80.340927 -62.984180 8.148708 1.000000
80.340927 -62.984173 7.012606 1.000000
80.340927 -62.984173 5.887485 1.000000
80.340927 -62.984177 4.770807 1.000000
80.340927 -62.984180 3.660107 1.000000
80.340927 -62.984173 2.552973 1.000000
80.340927 -62.984173 1.447026 1.000000
80.340927 -62.984180 0.339893 1.000000
74.429794 -70.293564 -0.000014 0.332843
70.023384 -75.742317 0.000100 0.528064
67.569901 -78.776169 0.000060 0.545221
66.003403 -80.713219 0.000065 0.506127
64.914589 -82.059586 0.000083 0.513235
64.112579 -83.051315 0.000031 0.522917
80.609573 -63.028648 10.498377 1.000000
80.609573 -63.028648 9.327623 1.000000
80.609573 -63.028656 8.173304 1.000000
80.609581 -63.028648 7.032659 1.000000
80.609581 -63.028648 5.903037 1.000000
80.609573 -63.028648 4.781890 1.000000
80.609573 -63.028648 3.666748 1.000000
80.609573 -63.028648 2.555185 1.000000
80.609573 -63.028648 1.444815 1.000000
80.609573 -63.028648 0.333252 1.000000
74.561829 -70.401100 -0.000014 0.331373
70.117462 -75.818985 0.000104 0.544608
67.642883 -78.835617 0.000061 0.537255
66.063103 -80.761436 0.000007 0.569975
64.964714 -82.100418 0.000083 0.535294
64.155899 -83.086395 -0.000008 0.556740
80.880386 -63.073486 10.532928 1.000000
80.880386 -63.073486 9.357412 1.000000
80.880386 -63.073486 8.198400 1.000000
80.880402 -63.073483 7.053120 1.000000
80.880402 -63.073479 5.918904 1.000000
80.880402 -63.073483 4.793200 1.000000
80.880402 -63.073479 3.673524 1.000000
80.880386 -63.073486 2.557442 1.000000
80.880386 -63.073486 1.442557 1.000000
80.880402 -63.073479 0.326476 1.000000
74.693115 -70.509567 -0.000014 0.333578
70.211021 -75.896286 0.000104 0.545833
67.715477 -78.895523 0.000053 0.553922
66.122292 -80.810272 -0.000002 0.559926
65.014755 -82.141342 0.000014 0.546324
64.198883 -83.121880 -0.000014 0.557598
81.153435 -63.118687 10.568178 1.000000
81.153435 -63.118694 9.387804 1.000000
81.153435 -63.118694 8.224007 1.000000
81.153435 -63.118687 7.073993 1.000000
81.153435 -63.118694 5.935092 1.000000
81.153435 -63.118694 4.804738 1.000000
81.153435 -63.118687 3.680436 1.000000
81.153435 -63.118687 2.559745 1.000000
81.153435 -63.118694 1.440255 1.000000
81.153435 -63.118694 0.319563 1.000000
74.823631 -70.618942 -0.000014 0.335172
70.304031 -75.974258 0.000107 0.543505
67.787605 -78.955994 0.000056 0.551471
66.181091 -80.859566 0.000002 0.543382
65.064301 -82.182869 0.000015 0.531985
64.241600 -83.157684 -0.000012 0.545833
81.428749 -63.164280 10.604137 1.000000
81.428757 -63.164272 9.418814 1.000000
81.428749 -63.164284 8.250129 1.000000
81.428757 -63.164276 7.095290 1.000000
81.428764 -63.164265 5.951611 1.000000
81.428757 -63.164276 4.816510 1.000000
81.428757 -63.164276 3.687490 1.000000
81.428757 -63.164272 2.562094 1.000000
81.428757 -63.164272 1.437905 1.000000
81.428749 -63.164280 0.312510 1.000000
74.953384 -70.729218 -0.000014 0.333946
70.396561 -76.052795 0.000098 0.539951
67.859375 -79.016891 0.000045 0.545221
66.239594 -80.909233 -0.000007 0.540931
65.113571 -82.224724 0.000012 0.531495
64.284103 -83.193756 -0.000022 0.514338
81.706406 -63.210247 10.640828 1.000000
81.706421 -63.210232 9.450451 1.000000
81.706406 -63.210247 8.276781 1.000000
81.706421 -63.210239 7.117016 1.000000
81.706421 -63.210239 5.968460 1.000000
81.706421 -63.210236 4.828522 1.000000
81.706413 -63.210239 3.694686 1.000000
81.706421 -63.210239 2.564492 1.000000
81.706406 -63.210247 1.435508 1.000000
81.706406 -63.210247 0.305314 1.000000
75.082367 -70.840408 -0.000014 0.334559
70.488541 -76.131981 0.000089 0.520343
67.930702 -79.078323 0.000039 0.550858
66.297745 -80.959297 -0.000015 0.523162
65.162552 -82.266914 0.000006 0.505392
64.326317 -83.230164 -0.000020 0.504657
81.986465 -63.256599 10.678260 1.000000
81.986465 -63.256599 9.482723 1.000000
81.986465 -63.256599 8.303972 1.000000
81.986465 -63.256599 7.139182 1.000000
81.986465 -63.256603 5.985649 1.000000
81.986465 -63.256603 4.840773 1.000000
81.986465 -63.256599 3.702028 1.000000
81.986465 -63.256607 2.566937 1.000000
81.986465 -63.256607 1.433063 1.000000
81.986465 -63.256599 0.297972 1.000000
75.210556 -70.952492 -0.000013 0.332230
70.579887 -76.211876 0.000091 0.527328
68.001816 -79.139984 -0.000020 0.540809
66.355499 -81.009827 -0.000011 0.549265
65.211220 -82.309471 0.000007 0.538971
64.368263 -83.266876 -0.000011 0.533088
82.268951 -63.303375 10.716437 1.000000
82.268967 -63.303371 9.515645 1.000000
82.268967 -63.303364 8.331707 1.000000
82.268967 -63.303356 7.161795 1.000000
82.268967 -63.303371 6.003186 1.000000
82.268967 -63.303356 4.853272 1.000000
82.268967 -63.303364 3.709515 1.000000
82.268967 -63.303364 2.569431 1.000000
82.268967 -63.303371 1.430568 1.000000
82.268951 -63.303375 0.290485 1.000000
75.337967 -71.065475 -0.000013 0.333578
70.670753 -76.292336 0.000082 0.534069
68.072281 -79.202393 -0.000027 0.550000
66.412910 -81.060738 -0.000010 0.545098
65.259583 -82.352371 0.000011 0.504167
64.410004 -83.303810 -0.000025 0.538971
82.553970 -63.350563 10.755385 1.000000
82.553970 -63.350567 9.549223 1.000000
82.553970 -63.350563 8.359999 1.000000
82.553970 -63.350563 7.184856 1.000000
82.553978 -63.350555 6.021073 1.000000
82.553970 -63.350559 4.866020 1.000000
82.553970 -63.350563 3.717153 1.000000
82.553978 -63.350555 2.571976 1.000000
82.553970 -63.350559 1.428024 1.000000
82.553970 -63.350563 0.282847 1.000000
75.464577 -71.179344 -0.000012 0.334436
70.760986 -76.373505 0.000085 0.543627
68.142265 -79.265343 -0.000025 0.527451
66.469955 -81.112068 -0.000005 0.549020
65.307648 -82.395599 0.000012 0.533578
64.451447 -83.341103 -0.000021 0.541299
82.841553 -63.398170 10.795115 1.000000
82.841560 -63.398163 9.583481 1.000000
82.841553 -63.398170 8.388855 1.000000
82.841560 -63.398163 7.208384 1.000000
82.841553 -63.398167 6.039318 1.000000
82.841553 -63.398167 4.879025 1.000000
82.841560 -63.398163 3.724945 1.000000
82.841545 -63.398170 2.574571 1.000000
82.841545 -63.398170 1.425429 1.000000
82.841553 -63.398167 0.275054 1.000000
75.590401 -71.294083 -0.000011 0.332843
70.850388 -76.455574 0.000131 0.528799
68.211609 -79.329002 0.000022 0.535172
66.526505 -81.163940 0.000037 0.546569
65.355270 -82.439316 0.000056 0.555882
64.492477 -83.378830 0.000037 0.561152
83.131775 -63.446217 10.835636 1.000000
83.131775 -63.446213 9.618422 1.000000
83.131775 -63.446217 8.418293 1.000000
83.131775 -63.446213 7.232380 1.000000
83.131775 -63.446220 6.057928 1.000000
83.131775 -63.446213 4.892290 1.000000
83.131775 -63.446213 3.732893 1.000000
83.131775 -63.446217 2.577219 1.000000
83.131775 -63.446213 1.422781 1.000000
83.131775 -63.446217 0.267108 1.000000
75.715416 -71.409714 -0.000011 0.334191
70.939545 -76.537918 0.000122 0.522549
68.280746 -79.392868 0.000013 0.531495
66.582855 -81.216026 0.000032 0.531740
65.402771 -82.483177 0.000046 0.555270
64.533440 -83.416634 0.000023 0.527819
83.424698 -63.494705 10.876968 1.000000
83.424690 -63.494709 9.654056 1.000000
83.424698 -63.494713 8.448317 1.000000
83.424698 -63.494705 7.256856 1.000000
83.424698 -63.494705 6.076910 1.000000
83.424698 -63.494709 4.905820 1.000000
83.424698 -63.494705 3.740999 1.000000
83.424698 -63.494705 2.579918 1.000000
83.424698 -63.494705 1.420081 1.000000
83.424683 -63.494713 0.259002 1.000000
75.839622 -71.526199 -0.000010 0.333456
71.028725 -76.620247 0.000013 0.540441
68.349396 -79.457268 0.000016 0.529534
66.638817 -81.268532 0.000035 0.576593
65.450043 -82.527260 0.000008 0.528064
64.574074 -83.454796 0.000031 0.568873
83.720375 -63.543663 10.919124 1.000000
83.720367 -63.543667 9.690405 1.000000
83.720367 -63.543667 8.478937 1.000000
83.720375 -63.543663 7.281820 1.000000
83.720375 -63.543663 6.096273 1.000000
83.720383 -63.543655 4.919619 1.000000
83.720383 -63.543655 3.749267 1.000000
83.720375 -63.543663 2.582672 1.000000
83.720375 -63.543663 1.417328 1.000000
83.720375 -63.543671 0.250733 1.000000
75.963013 -71.643555 -0.000010 0.331373
71.116730 -76.703835 0.000003 0.529779
68.417595 -79.522141 0.000017 0.544730
66.694420 -81.321404 0.000035 0.528554
65.496925 -82.571777 -0.000003 0.551471
64.614494 -83.493179 0.000021 0.506740
84.018898 -63.593082 10.962123 1.000000
84.018898 -63.593082 9.727482 1.000000
84.018898 -63.593086 8.510173 1.000000
84.018906 -63.593075 7.307284 1.000000
84.018898 -63.593082 6.116019 1.000000
84.018898 -63.593079 4.933694 1.000000
84.018898 -63.593079 3.757700 1.000000
84.018906 -63.593075 2.585482 1.000000
84.018898 -63.593079 1.414519 1.000000
84.018898 -63.593079 0.242300 1.000000
76.085587 -71.761765 -0.000011 0.331863
71.204056 -76.788116 0.000008 0.542525
68.485329 -79.587509 0.000022 0.547794
66.749641 -81.374687 0.000038 0.547794
65.543434 -82.616684 0.000005 0.560417
64.654579 -83.531914 0.000035 0.540931
84.320328 -63.642994 11.005977 1.000000
84.320328 -63.642986 9.765294 1.000000
84.320328 -63.642994 8.542029 1.000000
84.320335 -63.642982 7.333254 1.000000
84.320335 -63.642982 6.136161 1.000000
84.320328 -63.642990 4.948050 1.000000
84.320335 -63.642982 3.766301 1.000000
84.320328 -63.642986 2.588347 1.000000
84.320328 -63.642986 1.411653 1.000000
84.320328 -63.642986 0.233699 1.000000
76.207344 -71.880814 -0.000011 0.331495
71.290894 -76.872910 -0.000002 0.538725
68.552666 -79.653275 0.000013 0.524755
66.804535 -81.428307 0.000029 0.527574
65.589676 -82.661865 -0.000003 0.542402
64.694450 -83.570862 0.000027 0.536520
84.624741 -63.693382 11.050710 1.000000
84.624733 -63.693382 9.803863 1.000000
84.624733 -63.693382 8.574523 1.000000
84.624741 -63.693378 7.359745 1.000000
84.624741 -63.693382 6.156705 1.000000
84.624741 -63.693382 4.962692 1.000000
84.624741 -63.693382 3.775074 1.000000
84.624741 -63.693378 2.591269 1.000000
84.624741 -63.693378 1.408731 1.000000
84.624741 -63.693382 0.224926 1.000000
76.328247 -72.000725 -0.000012 0.331373
71.377136 -76.958321 -0.000012 0.529289
68.619537 -79.719513 0.000004 0.550490
66.859047 -81.482307 0.000021 0.508578
65.635582 -82.707375 -0.000004 0.538480
64.734055 -83.610085 0.000016 0.476716
84.932213 -63.744282 11.096334 1.000000
84.932213 -63.744278 9.843204 1.000000
84.932213 -63.744278 8.607666 1.000000
84.932213 -63.744282 7.386763 1.000000
84.932205 -63.744282 6.177659 1.000000
84.932205 -63.744286 4.977626 1.000000
84.932213 -63.744282 3.784021 1.000000
84.932205 -63.744286 2.594249 1.000000
84.932205 -63.744289 1.405751 1.000000
84.932213 -63.744278 0.215978 1.000000
76.448326 -72.121468 -0.000013 0.334559
71.462669 -77.044418 -0.000006 0.530637
68.685883 -79.786293 0.000009 0.516667
66.913139 -81.536736 0.000025 0.520221
65.681145 -82.753242 0.000003 0.561275
64.773277 -83.649689 0.000046 0.531740
85.242798 -63.795712 11.142861 1.000000
85.242783 -63.795715 9.883322 1.000000
85.242798 -63.795712 8.641464 1.000000
85.242798 -63.795700 7.414319 1.000000
85.242798 -63.795708 6.199028 1.000000
85.242798 -63.795708 4.992859 1.000000
85.242798 -63.795708 3.793148 1.000000
85.242798 -63.795708 2.597290 1.000000
85.242798 -63.795708 1.402711 1.000000
85.242790 -63.795712 0.206852 1.000000
76.567551 -72.243050 -0.000013 0.331863
71.547707 -77.131035 -0.000015 0.529044
68.751831 -79.853455 0.000000 0.561029
66.966858 -81.591545 0.000028 0.539216
65.726418 -82.799385 -0.000002 0.548162
64.812332 -83.689461 0.000034 0.520466
85.556602 -63.847660 11.190327 1.000000
85.556602 -63.847660 9.924248 1.000000
85.556602 -63.847660 8.675942 1.000000
85.556602 -63.847660 7.442422 1.000000
85.556602 -63.847660 6.220826 1.000000
85.556602 -63.847660 5.008394 1.000000
85.556595 -63.847664 3.802456 1.000000
85.556602 -63.847660 2.600389 1.000000
85.556602 -63.847660 1.399610 1.000000
85.556595 -63.847664 0.197544 1.000000
76.685928 -72.365463 -0.000015 0.332230
71.632042 -77.218307 -0.000011 0.537623
68.817245 -79.921135 0.000003 0.521446
67.020241 -81.646660 0.000018 0.540441
65.771385 -82.845833 -0.000011 0.534559
64.851105 -83.729507 0.000028 0.530270
85.873695 -63.900158 11.238735 1.000000
85.873695 -63.900158 9.965987 1.000000
85.873695 -63.900166 8.711105 1.000000
85.873703 -63.900150 7.471092 1.000000
85.873695 -63.900158 6.243059 1.000000
85.873703 -63.900150 5.024241 1.000000
85.873703 -63.900150 3.811951 1.000000
85.873703 -63.900150 2.603553 1.000000
85.873695 -63.900158 1.396448 1.000000
85.873695 -63.900158 0.188049 1.000000
76.803459 -72.488693 -0.000015 0.331250
71.715782 -77.306168 -0.000008 0.539951
68.882187 -79.989273 0.000006 0.559069
67.073166 -81.702225 0.000024 0.520956
65.815918 -82.892708 0.000015 0.569363
64.889534 -83.769882 0.000039 0.519730
86.194168 -63.953209 11.288115 1.000000
86.194168 -63.953209 10.008562 1.000000
86.194168 -63.953209 8.746977 1.000000
86.194168 -63.953209 7.500332 1.000000
86.194168 -63.953209 6.265737 1.000000
86.194168 -63.953205 5.040406 1.000000
86.194168 -63.953213 3.821633 1.000000
86.194168 -63.953209 2.606778 1.000000
86.194168 -63.953213 1.393223 1.000000
86.194168 -63.953209 0.178365 1.000000
76.920113 -72.612755 -0.000016 0.332598
71.798973 -77.394547 -0.000015 0.513235
68.946701 -80.057816 -0.000001 0.548652
67.125771 -81.758095 0.000016 0.542034
65.860229 -82.939781 0.000007 0.543627
64.927734 -83.810478 0.000033 0.518873
86.518089 -64.006844 11.338475 1.000000
86.518089 -64.006844 10.051988 1.000000
86.518089 -64.006844 8.783560 1.000000
86.518112 -64.006828 7.530160 1.000000
86.518105 -64.006836 6.288870 1.000000
86.518112 -64.006828 5.056893 1.000000
86.518112 -64.006828 3.831512 1.000000
86.518105 -64.006836 2.610069 1.000000
86.518097 -64.006836 1.389932 1.000000
86.518105 -64.006836 0.168486 1.000000
77.035889 -72.737617 -0.000015 0.334314
71.881485 -77.483559 -0.000013 0.521201
69.010689 -80.126862 0.000003 0.547059
67.178085 -81.814240 -0.000020 0.571691
65.904175 -82.987198 0.000011 0.517034
64.965637 -83.851349 0.000034 0.518260
86.845581 -64.061050 11.389853 1.000000
86.845581 -64.061050 10.096288 1.000000
86.845581 -64.061050 8.820882 1.000000
86.845581 -64.061050 7.560583 1.000000
86.845581 -64.061043 6.312465 1.000000
86.845581 -64.061043 5.073710 1.000000
86.845581 -64.061050 3.841588 1.000000
86.845581 -64.061050 2.613425 1.000000
86.845581 -64.061050 1.386575 1.000000
86.845581 -64.061050 0.158411 1.000000
77.150795 -72.863289 -0.000015 0.331863
71.963120 -77.573364 0.000028 0.543750
69.073952 -80.196548 0.000053 0.511029
67.229706 -81.871010 0.000020 0.523284
65.947624 -83.035057 0.000060 0.535294
65.003235 -83.892502 0.000039 0.500368
87.176682 -64.115875 11.442261 1.000000
87.176682 -64.115875 10.141472 1.000000
87.176682 -64.115875 8.858948 1.000000
87.176697 -64.115875 7.591616 1.000000
87.176682 -64.115875 6.336531 1.000000
87.176697 -64.115875 5.090864 1.000000
87.176697 -64.115875 3.851866 1.000000
87.176697 -64.115875 2.616848 1.000000
87.176682 -64.115875 1.383152 1.000000
87.176682 -64.115875 0.148133 1.000000
77.264824 -72.989761 -0.000016 0.333701
72.044456 -77.663460 0.000018 0.543015
69.137024 -80.266411 0.000043 0.551471
67.281113 -81.927979 0.000012 0.559681
65.990944 -83.083038 0.000050 0.554657
65.040581 -83.933884 0.000030 0.542034
87.511536 -64.171303 11.495719 1.000000
87.511528 -64.171310 10.187567 1.000000
87.511536 -64.171310 8.897782 1.000000
87.511536 -64.171303 7.623274 1.000000
87.511536 -64.171303 6.361084 1.000000
87.511536 -64.171310 5.108364 1.000000
87.511536 -64.171310 3.862351 1.000000
87.511536 -64.171303 2.620340 1.000000
87.511528 -64.171310 1.379660 1.000000
87.511536 -64.171310 0.137648 1.000000
77.377960 -73.117027 -0.000016 0.334559
72.124992 -77.754257 0.000034 0.538848
69.199554 -80.336769 0.000046 0.549755
67.331993 -81.985413 0.000037 0.554902
