# This PCD file was generated using the MATLABÂ® pcwrite function
# from Computer Vision ToolboxÂ®.
# .PCD v.7 - Point Cloud Data file format
VERSION .7
FIELDS x y z intensity
SIZE 4 4 4 4
TYPE F F F F
COUNT 1 1 1 1
WIDTH 1279
HEIGHT 1
VIEWPOINT 0 0 0 1 0 0 0
POINTS 1279
DATA ascii
-22.001579 -41.004066 6.641823 1.000000
-22.001579 -41.004066 6.002355 1.000000
-22.001579 -41.004066 5.371865 1.000000
-22.001579 -41.004063 4.748843 1.000000
-22.001579 -41.004066 4.131842 1.000000
-22.001579 -41.004066 3.519471 1.000000
-22.001579 -41.004066 2.910379 1.000000
-22.001579 -41.004066 2.303243 1.000000
-22.001579 -41.004066 1.696757 1.000000
-22.001579 -41.004066 1.089621 1.000000
-22.001579 -41.004066 0.480528 1.000000
-21.850065 -42.138809 -0.000142 0.527941
-21.333593 -46.006840 -0.000165 0.528676
-21.003864 -48.476280 -0.000183 0.530147
-20.774611 -50.193253 -0.000067 0.539828
-20.605776 -51.457703 -0.000084 0.537132
-21.928288 -40.552334 6.751666 1.000000
-21.928288 -40.552334 6.097066 1.000000
-21.928288 -40.552334 5.451656 1.000000
-21.928288 -40.552334 4.813890 1.000000
-21.928288 -40.552334 4.182290 1.000000
-21.928288 -40.552334 3.555428 1.000000
-21.928288 -40.552334 2.931922 1.000000
-21.928288 -40.552334 2.310419 1.000000
-21.928288 -40.552334 1.689581 1.000000
-21.928288 -40.552334 1.068078 1.000000
-21.928288 -40.552334 0.444571 1.000000
-21.729645 -42.123585 -0.000093 0.533824
-21.240202 -45.995026 -0.000118 0.537255
-20.927731 -48.466637 -0.000138 0.566912
-20.710472 -50.185120 -0.000023 0.515196
-20.550474 -51.450691 -0.000040 0.521936
-21.851440 -40.078682 6.867077 1.000000
-21.851440 -40.078678 6.196579 1.000000
-21.851440 -40.078678 5.535493 1.000000
-21.851440 -40.078678 4.882237 1.000000
-21.851440 -40.078678 4.235295 1.000000
-21.851440 -40.078678 3.593207 1.000000
-21.851440 -40.078678 2.954557 1.000000
-21.851440 -40.078678 2.317958 1.000000
-21.851440 -40.078678 1.682041 1.000000
-21.851440 -40.078678 1.045443 1.000000
-21.851440 -40.078678 0.406793 1.000000
-21.609123 -42.109192 -0.000046 0.521446
-21.146734 -45.983852 -0.000072 0.556985
-20.851532 -48.457531 -0.000091 0.544730
-20.646282 -50.177448 0.000023 0.580024
-20.495125 -51.444084 0.000008 0.561397
-21.770763 -39.581421 6.988483 1.000000
-21.770763 -39.581417 6.301260 1.000000
-21.770763 -39.581417 5.623683 1.000000
-21.770763 -39.581417 4.954133 1.000000
-21.770763 -39.581417 4.291053 1.000000
-21.770763 -39.581413 3.632949 1.000000
-21.770763 -39.581421 2.978368 1.000000
-21.770763 -39.581417 2.325890 1.000000
-21.770763 -39.581417 1.674110 1.000000
-21.770763 -39.581421 1.021632 1.000000
-21.770763 -39.581413 0.367050 1.000000
-21.488657 -42.094337 -0.000149 0.539461
-21.053303 -45.972336 -0.000175 0.535539
-20.775362 -48.448154 -0.000191 0.540319
-20.582115 -50.169548 -0.000077 0.554412
-20.439796 -51.437279 -0.000091 0.557966
-21.685951 -39.058697 7.116357 1.000000
-21.685951 -39.058701 6.411516 1.000000
-21.685951 -39.058704 5.716570 1.000000
-21.685951 -39.058701 5.029858 1.000000
-21.685951 -39.058701 4.349781 1.000000
-21.685951 -39.058701 3.674807 1.000000
-21.685951 -39.058697 3.003447 1.000000
-21.685951 -39.058704 2.334243 1.000000
-21.685951 -39.058704 1.665756 1.000000
-21.685951 -39.058697 0.996552 1.000000
-21.685951 -39.058701 0.325193 1.000000
-21.367947 -42.081615 -0.000103 0.532230
-20.959684 -45.962479 -0.000127 0.538603
-20.699041 -48.440125 -0.000144 0.528676
-20.517820 -50.162769 -0.000032 0.497549
-20.384361 -51.431431 -0.000046 0.549020
-21.596676 -38.508434 7.251222 1.000000
-21.596676 -38.508434 6.527802 1.000000
-21.596676 -38.508434 5.814539 1.000000
-21.596676 -38.508434 5.109724 1.000000
-21.596676 -38.508434 4.411720 1.000000
-21.596676 -38.508434 3.718955 1.000000
-21.596676 -38.508434 3.029897 1.000000
-21.596676 -38.508434 2.343054 1.000000
-21.596676 -38.508434 1.656946 1.000000
-21.596676 -38.508434 0.970102 1.000000
-21.596676 -38.508434 0.281045 1.000000
-21.247152 -42.069744 -0.000056 0.551716
-20.866003 -45.953266 -0.000082 0.558701
-20.622667 -48.432617 -0.000097 0.557598
-20.453484 -50.156452 0.000016 0.538603
-20.328886 -51.425983 0.000002 0.547672
-21.502562 -37.928360 7.393657 1.000000
-21.502562 -37.928360 6.650614 1.000000
-21.502562 -37.928360 5.918006 1.000000
-21.502562 -37.928360 5.194073 1.000000
-21.502562 -37.928360 4.477136 1.000000
-21.502562 -37.928360 3.765580 1.000000
-21.502562 -37.928360 3.057833 1.000000
-21.502562 -37.928360 2.352359 1.000000
-21.502562 -37.928360 1.647641 1.000000
-21.502562 -37.928364 0.942167 1.000000
-21.502562 -37.928360 0.234420 1.000000
-21.126390 -42.057526 -0.000147 0.548407
-20.772346 -45.943790 -0.000172 0.534681
-20.546318 -48.424873 -0.000190 0.535172
-20.389162 -50.149940 -0.000075 0.552451
-20.273424 -51.420364 -0.000090 0.554779
-21.403191 -37.315899 7.544315 1.000000
-21.403191 -37.315899 6.780518 1.000000
-21.403191 -37.315899 6.027444 1.000000
-21.403191 -37.315899 5.283291 1.000000
-21.403191 -37.315899 4.546328 1.000000
-21.403191 -37.315899 3.814897 1.000000
-21.403191 -37.315899 3.087380 1.000000
-21.403191 -37.315899 2.362201 1.000000
-21.403191 -37.315899 1.637799 1.000000
-21.403191 -37.315899 0.912619 1.000000
-21.403191 -37.315899 0.185103 1.000000
-21.005436 -42.047375 -0.000096 0.531863
-20.678541 -45.935905 -0.000123 0.541299
-20.469843 -48.418457 -0.000140 0.529167
-20.324738 -50.144524 -0.000027 0.531618
-20.217876 -51.415691 -0.000042 0.530882
-21.298107 -36.668217 7.703914 1.000000
-21.298107 -36.668213 6.918130 1.000000
-21.298107 -36.668213 6.143379 1.000000
-21.298107 -36.668217 5.377804 1.000000
-21.298107 -36.668213 4.619628 1.000000
-21.298107 -36.668213 3.867141 1.000000
-21.298107 -36.668213 3.118682 1.000000
-21.298107 -36.668213 2.372627 1.000000
-21.298107 -36.668213 1.627372 1.000000
-21.298107 -36.668213 0.881317 1.000000
-21.298107 -36.668213 0.132860 1.000000
-20.884418 -42.038040 -0.000049 0.540686
-20.584686 -45.928673 -0.000075 0.517279
-20.393330 -48.412556 -0.000093 0.537623
-20.260283 -50.139557 0.000022 0.517647
-20.162298 -51.411411 0.000006 0.531005
-21.186785 -35.982105 7.873270 1.000000
-21.186785 -35.982105 7.064156 1.000000
-21.186785 -35.982109 6.266401 1.000000
-21.186785 -35.982105 5.478095 1.000000
-21.186785 -35.982105 4.697407 1.000000
-21.186785 -35.982105 3.922577 1.000000
-21.186785 -35.982105 3.151897 1.000000
-21.186785 -35.982105 2.383692 1.000000
-21.186785 -35.982105 1.616309 1.000000
-21.186785 -35.982105 0.848102 1.000000
-21.186785 -35.982105 0.077422 1.000000
-20.763433 -42.028236 -0.000152 0.552574
-20.490854 -45.921082 -0.000178 0.549265
-20.316835 -48.406376 -0.000194 0.535907
-20.195841 -50.134354 -0.000079 0.488603
-20.106735 -51.406925 -0.000094 0.536520
-21.068651 -35.253960 8.053295 1.000000
-21.068651 -35.253960 7.219381 1.000000
-21.068651 -35.253956 6.397173 1.000000
-21.068651 -35.253963 5.584703 1.000000
-21.068651 -35.253960 4.780087 1.000000
-21.068651 -35.253960 3.981508 1.000000
-21.068651 -35.253963 3.187204 1.000000
-21.068651 -35.253960 2.395452 1.000000
-21.068651 -35.253960 1.604548 1.000000
-21.068651 -35.253963 0.812795 1.000000
-21.068651 -35.253960 0.018492 1.000000
-20.642298 -42.020599 -0.000105 0.526716
-20.396908 -45.915138 -0.000132 0.535294
-20.240246 -48.401524 -0.000149 0.529779
-20.131321 -50.130272 -0.000034 0.480025
-20.051104 -51.403400 -0.000050 0.518382
-20.943029 -34.479786 8.245007 1.000000
-20.943033 -34.479729 7.384693 1.000000
-20.943033 -34.479729 6.536444 1.000000
-20.943033 -34.479729 5.698241 1.000000
-20.943033 -34.479729 4.868140 1.000000
-20.943033 -34.479729 4.044268 1.000000
-20.943033 -34.479725 3.224807 1.000000
-20.943033 -34.479729 2.407977 1.000000
-20.943033 -34.479729 1.592023 1.000000
-20.943033 -34.479729 0.775193 1.000000
-20.912863 -35.018463 -0.000026 0.531863
-20.521111 -42.013794 -0.000058 0.519118
-20.302921 -45.909866 -0.000084 0.542647
-20.163624 -48.397228 -0.000101 0.523284
-20.066772 -50.126640 0.000012 0.525735
-19.995447 -51.400284 -0.000001 0.560294
-20.809189 -33.654907 8.449587 1.000000
-20.809195 -33.654812 7.561097 1.000000
-20.809195 -33.654808 6.685061 1.000000
-20.809195 -33.654812 5.819397 1.000000
-20.809195 -33.654816 4.962102 1.000000
-20.809195 -33.654812 4.111238 1.000000
-20.809195 -33.654816 3.264932 1.000000
-20.809195 -33.654812 2.421343 1.000000
-20.809195 -33.654812 1.578657 1.000000
-20.809195 -33.654816 0.735068 1.000000
-20.742781 -35.010124 0.000022 0.535662
-20.399883 -42.007839 -0.000010 0.526961
-20.208904 -45.905243 -0.000038 0.571936
-20.086977 -48.393467 -0.000054 0.546446
-20.002205 -50.123478 0.000060 0.505882
-19.939774 -51.397537 0.000043 0.540196
-20.666277 -32.774006 8.668388 1.000000
-20.666279 -32.773975 7.749743 1.000000
-20.666279 -32.773975 6.843986 1.000000
-20.666279 -32.773979 5.948960 1.000000
-20.666279 -32.773979 5.062582 1.000000
-20.666279 -32.773979 4.182856 1.000000
-20.666279 -32.773979 3.307841 1.000000
-20.666279 -32.773979 2.435636 1.000000
-20.666279 -32.773979 1.564364 1.000000
-20.666279 -32.773979 0.692158 1.000000
-20.572727 -35.001118 -0.000082 0.530147
-20.278673 -42.001446 -0.000112 0.536274
-20.114899 -45.900272 -0.000141 0.543505
-20.010342 -48.389423 -0.000155 0.536642
-19.937643 -50.120071 -0.000040 0.529289
-19.884108 -51.394600 -0.000058 0.543995
-20.513321 -31.831287 8.902877 1.000000
-20.513321 -31.831285 7.951923 1.000000
-20.513323 -31.831219 7.014330 1.000000
-20.513325 -31.831221 6.087829 1.000000
-20.513325 -31.831223 5.170282 1.000000
-20.513325 -31.831221 4.259618 1.000000
-20.513323 -31.831217 3.353832 1.000000
-20.513323 -31.831219 2.450955 1.000000
-20.513323 -31.831219 1.549044 1.000000
-20.513323 -31.831219 0.646167 1.000000
-20.402542 -34.995152 -0.000033 0.539828
-20.157372 -41.997189 -0.000065 0.541422
-20.020824 -45.896973 -0.000093 0.531863
-19.933649 -48.386707 -0.000112 0.557966
-19.873035 -50.117794 0.000005 0.523162
-19.828400 -51.392632 -0.000014 0.545956
-20.349205 -30.819746 9.154837 1.000000
-20.349205 -30.819742 8.169170 1.000000
-20.349207 -30.819689 7.197353 1.000000
-20.349207 -30.819689 6.237034 1.000000
-20.349207 -30.819689 5.285997 1.000000
-20.349207 -30.819685 4.342094 1.000000
-20.349207 -30.819687 3.403247 1.000000
-20.349207 -30.819691 2.467415 1.000000
-20.349207 -30.819691 1.532585 1.000000
-20.349207 -30.819687 0.596752 1.000000
-20.232321 -34.990353 0.000014 0.546814
-20.036045 -41.993763 -0.000019 0.530760
-19.926729 -45.894314 -0.000047 0.548407
-19.856937 -48.384544 -0.000065 0.519730
-19.808414 -50.115967 0.000051 0.545588
-19.772678 -51.391068 0.000034 0.570466
-20.172646 -29.731577 9.426245 1.000000
-20.172646 -29.731577 8.403189 1.000000
-20.172646 -29.731583 7.394495 1.000000
-20.172647 -29.731480 6.397765 1.000000
-20.172649 -29.731478 5.410650 1.000000
-20.172646 -29.731480 4.430942 1.000000
-20.172647 -29.731476 3.456480 1.000000
-20.172647 -29.731478 2.485147 1.000000
-20.172647 -29.731478 1.514854 1.000000
-20.172647 -29.731476 0.543520 1.000000
-20.062115 -34.984936 -0.000089 0.549510
-19.914728 -41.989914 -0.000119 0.538235
-19.832640 -45.891396 -0.000138 0.549387
-19.780233 -48.382111 -0.000165 0.558088
-19.743797 -50.113918 -0.000050 0.537623
-19.716963 -51.389297 -0.000067 0.513235
-19.982153 -28.557455 9.719465 1.000000
-19.982153 -28.557457 8.656014 1.000000
-19.982153 -28.557467 7.607492 1.000000
-19.982155 -28.557371 6.571406 1.000000
-19.982155 -28.557375 5.545315 1.000000
-19.982155 -28.557379 4.526924 1.000000
-19.982155 -28.557379 3.513987 1.000000
-19.982155 -28.557375 2.504302 1.000000
-19.982155 -28.557375 1.495698 1.000000
-19.982155 -28.557379 0.486013 1.000000
-19.891838 -34.982521 -0.000042 0.536029
-19.793362 -41.988186 -0.000073 0.541054
-19.738514 -45.890057 -0.000092 0.540196
-19.703501 -48.381027 -0.000118 0.600858
-19.679153 -50.112995 -0.000004 0.528922
-19.661224 -51.388496 -0.000022 0.541299
-19.775990 -27.286751 10.037197 1.000000
-19.775988 -27.286757 8.929976 1.000000
-19.775990 -27.286758 7.838298 1.000000
-19.775990 -27.286684 6.759562 1.000000
-19.775990 -27.286688 5.691239 1.000000
-19.775990 -27.286684 4.630931 1.000000
-19.775990 -27.286688 3.576302 1.000000
-19.775990 -27.286678 2.525059 1.000000
-19.775990 -27.286678 1.474941 1.000000
-19.775990 -27.286688 0.423698 1.000000
-19.721554 -34.981297 0.000005 0.539338
-19.671989 -41.987312 -0.000026 0.530025
-19.644386 -45.889366 -0.000046 0.535417
-19.626760 -48.380463 -0.000073 0.520221
-19.614513 -50.111900 -0.000093 0.506618
-19.605484 -51.388084 0.000022 0.532721
-19.552114 -25.906954 10.382618 1.000000
-19.552114 -25.906958 9.227809 1.000000
-19.552114 -25.906961 8.089214 1.000000
-19.552114 -25.906958 6.964106 1.000000
-19.552116 -25.906847 5.849884 1.000000
-19.552116 -25.906851 4.744005 1.000000
-19.552116 -25.906843 3.644049 1.000000
-19.552116 -25.906851 2.547625 1.000000
-19.552116 -25.906851 1.452375 1.000000
-19.552116 -25.906843 0.355950 1.000000
-19.551271 -34.979435 -0.000097 0.540809
-19.550619 -41.985977 -0.000129 0.516667
-19.550255 -45.888355 -0.000146 0.525980
-19.550022 -48.379635 -0.000173 0.537010
-19.549864 -50.111214 -0.000191 0.541422
-19.549742 -51.387516 -0.000071 0.535049
-19.308121 -24.403017 10.759543 1.000000
-19.308121 -24.403017 9.552807 1.000000
-19.308119 -24.403013 8.363018 1.000000
-19.308121 -24.403025 7.187316 1.000000
-19.308121 -24.402987 6.022985 1.000000
-19.308121 -24.402990 4.867383 1.000000
-19.308121 -24.402987 3.717969 1.000000
-19.308121 -24.402990 2.572247 1.000000
-19.308121 -24.402990 1.427752 1.000000
-19.308121 -24.402987 0.282030 1.000000
-19.380981 -34.980591 -0.000050 0.542525
-19.429245 -41.986908 -0.000070 0.535907
-19.456123 -45.888988 -0.000100 0.538358
-19.473282 -48.380165 -0.000125 0.522304
-19.485210 -50.111645 -0.000145 0.512990
-19.494001 -51.387924 -0.000015 0.541544
-19.041138 -22.757544 11.172387 1.000000
-19.041140 -22.757540 9.908777 1.000000
-19.041140 -22.757536 8.662912 1.000000
-19.041140 -22.757536 7.431802 1.000000
-19.041140 -22.757540 6.212587 1.000000
-19.041138 -22.757412 5.002533 1.000000
-19.041138 -22.757408 3.798944 1.000000
-19.041138 -22.757408 2.599219 1.000000
-19.041138 -22.757408 1.400780 1.000000
-19.041138 -22.757408 0.201055 1.000000
-19.210712 -34.983086 0.000010 0.536520
-19.307880 -41.988590 -0.000021 0.541667
-19.362000 -45.890285 -0.000052 0.554534
-19.396549 -48.381207 -0.000080 0.558456
-19.420565 -50.112522 -0.000101 0.544608
-19.438265 -51.388683 0.000029 0.494853
-18.747730 -20.949089 11.626591 1.000000
-18.747728 -20.949085 10.300411 1.000000
-18.747728 -20.949078 8.992851 1.000000
-18.747728 -20.949085 7.700775 1.000000
-18.747728 -20.949089 6.421189 1.000000
-18.747726 -20.948996 5.151212 1.000000
-18.747726 -20.949013 3.888022 1.000000
-18.747726 -20.949013 2.628891 1.000000
-18.747726 -20.949013 1.371109 1.000000
-18.747726 -20.949017 0.111978 1.000000
-19.040426 -34.984795 -0.000092 0.533456
-19.186508 -41.989803 -0.000124 0.535417
-19.267868 -45.891224 -0.000155 0.536520
-19.319811 -48.381981 -0.000181 0.527941
-19.355913 -50.113190 -0.000199 0.525980
-19.382524 -51.389275 -0.000065 0.520098
nan nan nan 0.000000
-18.423737 -18.952204 10.733274 1.000000
-18.423737 -18.952211 9.357525 1.000000
-18.423737 -18.952219 7.998067 1.000000
-18.423737 -18.952223 6.651751 1.000000
-18.423733 -18.952084 5.315548 1.000000
-18.423733 -18.952084 3.986483 1.000000
-18.423733 -18.952084 2.661688 1.000000
-18.423733 -18.952084 1.338311 1.000000
-18.423733 -18.952084 0.013515 1.000000
-18.870203 -34.989521 -0.000044 0.551103
-19.065178 -41.993168 -0.000077 0.531005
-19.173771 -45.893837 -0.000108 0.541422
-19.243099 -48.384125 -0.000131 0.545343
-19.291285 -50.114979 -0.000152 0.494853
-19.326801 -51.390804 -0.000021 0.530025
nan nan nan 0.000000
-18.064064 -16.735363 11.214269 1.000000
-18.064064 -16.735373 9.762745 1.000000
-18.064064 -16.735373 8.328416 1.000000
-18.064064 -16.735380 6.907949 1.000000
-18.064064 -16.735380 5.498142 1.000000
-18.064060 -16.735268 4.095891 1.000000
-18.064060 -16.735256 2.698131 1.000000
-18.064060 -16.735256 1.301868 1.000000
-18.132023 -18.686689 0.000035 0.533701
-18.700016 -34.995419 0.000002 0.544240
-18.943874 -41.997372 -0.000030 0.542770
-19.079695 -45.897106 -0.000060 0.544118
-19.166405 -48.386768 -0.000087 0.514951
-19.226669 -50.117207 -0.000109 0.525000
-19.271093 -51.392727 0.000023 0.554657
nan nan nan 0.000000
-17.662449 -14.260071 11.751812 1.000000
-17.662449 -14.260071 10.215611 1.000000
-17.662449 -14.260086 8.697605 1.000000
-17.662449 -14.260078 7.194273 1.000000
-17.662447 -14.260090 5.702218 1.000000
-17.662437 -14.259839 4.218166 1.000000
-17.662437 -14.259831 2.738862 1.000000
-17.662437 -14.259835 1.261139 1.000000
-17.847935 -18.695494 -0.000067 0.536152
-18.529802 -35.000706 -0.000100 0.535049
-18.822556 -42.001156 -0.000130 0.536765
-18.985603 -45.900021 -0.000162 0.551593
-19.089695 -48.389160 -0.000187 0.530270
-19.162046 -50.119232 -0.000206 0.556740
-19.215376 -51.394474 -0.000074 0.570221
nan nan nan 0.000000
nan nan nan 0.000000
-17.211044 -11.477818 10.725062 1.000000
-17.211046 -11.477821 9.112926 1.000000
-17.211044 -11.477814 7.516371 1.000000
-17.211044 -11.477821 5.931794 1.000000
-17.211046 -11.477821 4.355704 1.000000
-17.211037 -11.477640 2.784676 1.000000
-17.211037 -11.477640 1.215324 1.000000
-17.564049 -18.709322 -0.000020 0.536029
-18.359713 -35.008995 -0.000051 0.530270
-18.701323 -42.007076 -0.000081 0.537255
-18.891581 -45.904621 -0.000112 0.549387
-19.013048 -48.392956 -0.000129 0.533824
-19.097469 -50.122379 -0.000159 0.578186
-19.159698 -51.397167 -0.000031 0.539583
nan nan nan 0.000000
nan nan nan 0.000000
-16.699932 -8.327587 11.302344 1.000000
-16.699932 -8.327591 9.583544 1.000000
-16.699932 -8.327602 7.881351 1.000000
-16.699932 -8.327610 6.191935 1.000000
-16.699932 -8.327606 4.511564 1.000000
-16.699924 -8.327456 2.836592 1.000000
-16.699924 -8.327456 1.163407 1.000000
-17.280272 -18.725145 0.000028 0.532353
-18.189688 -35.018463 -0.000005 0.531863
-18.580135 -42.013824 -0.000034 0.534559
-18.797594 -45.909855 -0.000065 0.562990
-18.936426 -48.397221 -0.000082 0.526103
-19.032917 -50.125965 -0.000114 0.545833
-19.104042 -51.400269 0.000016 0.528309
nan nan nan 0.000000
nan nan nan 0.000000
-16.116352 -4.730708 11.961965 1.000000
-16.116352 -4.730709 10.121283 1.000000
-16.116352 -4.730709 8.298393 1.000000
-16.116354 -4.730716 6.489180 1.000000
-16.116352 -4.730712 4.689656 1.000000
-16.116344 -4.730581 2.895914 1.000000
-16.116344 -4.730581 1.104086 1.000000
-16.996618 -18.742945 0.000076 0.537010
-18.019735 -35.029133 0.000044 0.543382
-18.459000 -42.021412 0.000013 0.542034
-18.703646 -45.915726 -0.000020 0.556250
-18.859837 -48.402008 -0.000037 0.552819
-18.968395 -50.130066 -0.000055 0.559314
-19.048412 -51.403790 0.000071 0.491912
nan nan nan 0.000000
nan nan nan 0.000000
nan nan nan 0.000000
-15.443688 -0.584820 10.741527 1.000000
-15.443687 -0.584812 8.779419 1.000000
-15.443690 -0.584831 6.832033 1.000000
-15.443689 -0.584824 4.895073 1.000000
-15.443688 -0.584820 2.964336 1.000000
-15.443666 -0.584487 1.035658 1.000000
-16.712896 -18.759668 -0.000027 0.537990
-17.849743 -35.039154 -0.000059 0.539951
-18.337835 -42.028557 -0.000089 0.537132
-18.609676 -45.921284 -0.000121 0.537500
-18.783230 -48.406555 -0.000135 0.558088
-18.903858 -50.133904 -0.000150 0.513113
-18.992769 -51.407089 -0.000027 0.528554
nan nan nan 0.000000
nan nan nan 0.000000
nan nan nan 0.000000
-14.659693 4.247389 11.464908 1.000000
-14.659692 4.247401 9.340434 1.000000
-14.659692 4.247377 7.231893 1.000000
-14.659692 4.247386 5.134647 1.000000
-14.659691 4.247393 3.044136 1.000000
-14.659674 4.247622 0.955860 1.000000
-16.429506 -18.781424 0.000020 0.535784
-17.679951 -35.052189 -0.000011 0.541054
-18.216814 -42.037842 -0.000043 0.538358
-18.515823 -45.928562 -0.000062 0.515196
-18.706713 -48.412415 -0.000090 0.522304
-18.839392 -50.138821 -0.000110 0.569485
-18.937187 -51.411350 0.000019 0.536274
nan nan nan 0.000000
nan nan nan 0.000000
nan nan nan 0.000000
nan nan nan 0.000000
-13.734214 9.951567 10.003067 1.000000
-13.734212 9.951568 7.704188 1.000000
-13.734215 9.951544 5.417618 1.000000
-13.734212 9.951568 3.138391 1.000000
-13.734213 9.951560 0.861607 1.000000
-16.146057 -18.802387 -0.000069 0.530637
-17.510120 -35.064751 -0.000101 0.534069
-18.095766 -42.046791 -0.000132 0.538725
-18.421944 -45.935501 -0.000152 0.523652
-18.630178 -48.418064 -0.000180 0.543382
-18.774916 -50.143612 -0.000194 0.578676
-18.881598 -51.415478 -0.000066 0.528064
nan nan nan 0.000000
nan nan nan 0.000000
nan nan nan 0.000000
nan nan nan 0.000000
nan nan nan 0.000000
nan nan nan 0.000000
nan nan nan 0.000000
nan nan nan 0.000000
-12.358592 19.718666 0.700425 1.000000
-15.863000 -18.828081 -0.000022 0.536887
-17.340528 -35.080147 -0.000053 0.538848
-17.974886 -42.057766 -0.000085 0.531863
-18.328196 -45.944012 -0.000105 0.535907
-18.553751 -48.425003 -0.000133 0.551838
-18.710526 -50.149437 -0.000151 0.554902
-18.826080 -51.420498 -0.000024 0.541912
nan nan nan 0.000000
nan nan nan 0.000000
nan nan nan 0.000000
nan nan nan 0.000000
nan nan nan 0.000000
nan nan nan 0.000000
nan nan nan 0.000000
nan nan nan 0.000000
-11.810726 19.624546 0.701115 1.000000
-15.580133 -18.855761 0.000026 0.536397
-17.171047 -35.096741 -0.000005 0.533824
-17.854086 -42.069576 -0.000039 0.530882
-18.234512 -45.953178 -0.000058 0.535907
-18.477375 -48.432472 -0.000087 0.527328
-18.646179 -50.155727 -0.000105 0.563235
-18.770603 -51.425919 0.000022 0.530882
nan nan nan 0.000000
nan nan nan 0.000000
nan nan nan 0.000000
nan nan nan 0.000000
nan nan nan 0.000000
nan nan nan 0.000000
nan nan nan 0.000000
nan nan nan 0.000000
-11.263412 19.530531 0.701743 1.000000
-15.297472 -18.885405 0.000072 0.531373
-17.001690 -35.114483 0.000040 0.531740
-17.733376 -42.082249 0.000009 0.546446
-18.140894 -45.962990 -0.000011 0.544363
-18.401058 -48.440533 -0.000030 0.526103
-18.581881 -50.162479 -0.000057 0.546814
-18.715170 -51.431763 0.000077 0.549020
nan nan nan 0.000000
nan nan nan 0.000000
nan nan nan 0.000000
nan nan nan 0.000000
nan nan nan 0.000000
nan nan nan 0.000000
nan nan nan 0.000000
nan nan nan 0.000000
-10.503029 21.342302 0.670924 1.000000
-15.014704 -18.914051 -0.000027 0.533456
-16.832268 -35.131641 -0.000060 0.537377
-17.612627 -42.094551 -0.000082 0.519975
-18.047243 -45.972507 -0.000108 0.543995
-18.324711 -48.448288 -0.000126 0.534681
-18.517563 -50.169044 -0.000145 0.491054
-18.659714 -51.437408 -0.000017 0.529534
nan nan nan 0.000000
nan nan nan 0.000000
nan nan nan 0.000000
nan nan nan 0.000000
nan nan nan 0.000000
nan nan nan 0.000000
nan nan nan 0.000000
nan nan nan 0.000000
-9.943472 21.246002 0.671439 1.000000
-14.732477 -18.947639 0.000020 0.538358
-16.663176 -35.151794 -0.000011 0.540564
-17.492102 -42.108906 -0.000035 0.530147
-17.953770 -45.983627 -0.000061 0.551961
-18.240976 -48.394127 -0.011666 1.000000
-18.453363 -50.176685 -0.000098 0.528799
-18.604361 -51.443981 0.000026 0.569118
nan nan nan 0.000000
nan nan nan 0.000000
nan nan nan 0.000000
nan nan nan 0.000000
nan nan nan 0.000000
nan nan nan 0.000000
nan nan nan 0.000000
nan nan nan 0.000000
-9.384314 21.149811 0.671887 1.000000
-14.450482 -18.983095 0.000062 0.533824
-16.494217 -35.173027 0.000030 0.534069
-17.371675 -42.124043 0.000007 0.533824
-17.860371 -45.995354 -0.000022 0.533088
-18.172367 -48.466919 -0.000040 0.523284
-18.389219 -50.184753 -0.000055 0.536887
-18.549053 -51.450928 0.000067 0.527574
nan nan nan 0.000000
nan nan nan 0.000000
nan nan nan 0.000000
nan nan nan 0.000000
nan nan nan 0.000000
nan nan nan 0.000000
nan nan nan 0.000000
nan nan nan 0.000000
-8.825512 21.053658 0.672269 1.000000
-14.168406 -19.017927 -0.000025 0.536152
-16.325207 -35.193871 -0.000059 0.530882
-17.251215 -42.138916 -0.000080 0.543750
-17.766945 -46.006874 -0.000111 0.531618
-18.096207 -48.476330 -0.000125 0.505515
-18.325054 -50.192680 -0.000142 0.500123
-18.493740 -51.457821 -0.000005 0.537868
nan nan nan 0.000000
nan nan nan 0.000000
nan nan nan 0.000000
nan nan nan 0.000000
nan nan nan 0.000000
nan nan nan 0.000000
nan nan nan 0.000000
nan nan nan 0.000000
-8.267008 20.957560 0.672588 1.000000
-13.886944 -19.057390 0.000020 0.534926
-16.156593 -35.217697 0.000002 0.527696
-17.131016 -42.155766 -0.000035 0.548284
-17.673737 -46.020042 -0.000050 0.518382
-18.020210 -48.486988 -0.000079 0.544853
-18.261028 -50.201656 -0.000097 0.511397
-18.438538 -51.465553 0.000040 0.526593
nan nan nan 0.000000
nan nan nan 0.000000
nan nan nan 0.000000
nan nan nan 0.000000
nan nan nan 0.000000
nan nan nan 0.000000
nan nan nan 0.000000
nan nan nan 0.000000
-7.708748 20.861509 0.672841 1.000000
-13.605775 -19.098845 0.000067 0.537623
-15.988131 -35.242519 0.000047 0.524142
-17.010946 -42.173485 0.000013 0.548162
-17.580618 -46.033783 -0.000003 0.523652
-17.944298 -48.498222 -0.000024 0.550735
-18.197073 -50.211113 -0.000043 0.536274
-18.383390 -51.473656 0.000079 0.525123
nan nan nan 0.000000
nan nan nan 0.000000
nan nan nan 0.000000
nan nan nan 0.000000
nan nan nan 0.000000
nan nan nan 0.000000
nan nan nan 0.000000
nan nan nan 0.000000
-7.150661 20.765469 0.673031 1.000000
-13.324445 -19.139301 -0.000033 0.534804
-15.819572 -35.266773 -0.000052 0.533333
-16.890804 -42.190762 -0.000086 0.537868
-17.487442 -46.047188 -0.000102 0.529657
-17.868340 -48.509155 -0.000123 0.526103
-18.133080 -50.220333 -0.000140 0.534681
-18.328218 -51.481613 -0.000016 0.523529
nan nan nan 0.000000
nan nan nan 0.000000
nan nan nan 0.000000
nan nan nan 0.000000
nan nan nan 0.000000
nan nan nan 0.000000
nan nan nan 0.000000
nan nan nan 0.000000
-6.592720 20.669474 0.673156 1.000000
-13.043916 -19.184927 0.000026 0.534314
-15.651491 -35.294094 0.000006 0.539338
-16.771002 -42.210232 -0.000029 0.547549
-17.394527 -46.062279 -0.000046 0.549142
-17.792593 -48.521454 -0.000067 0.531618
-18.069271 -50.230728 -0.000077 0.542525
-18.273117 -51.490055 -0.000085 0.503186
nan nan nan 0.000000
nan nan nan 0.000000
nan nan nan 0.000000
nan nan nan 0.000000
nan nan nan 0.000000
nan nan nan 0.000000
nan nan nan 0.000000
nan nan nan 0.000000
-6.034845 20.573473 0.673215 1.000000
-12.763668 -19.232243 0.000072 0.538113
-15.483584 -35.322453 0.000053 0.529412
-16.651321 -42.230442 0.000018 0.547917
-17.301708 -46.077934 -0.000002 0.554657
-17.716930 -48.534260 -0.000015 0.516912
-18.005522 -50.241489 -0.000032 0.549755
-18.218149 -51.499325 -0.000041 0.541789
nan nan nan 0.000000
nan nan nan 0.000000
nan nan nan 0.000000
nan nan nan 0.000000
nan nan nan 0.000000
nan nan nan 0.000000
nan nan nan 0.000000
nan nan nan 0.000000
-5.477005 20.477486 0.673210 1.000000
-12.483257 -19.278597 -0.000027 0.536397
-15.315578 -35.350239 -0.000046 0.523039
-16.531590 -42.250336 -0.000070 0.535049
-17.208839 -46.093311 -0.000098 0.566544
-17.641224 -48.546810 -0.000109 0.564828
-17.941740 -50.252064 -0.000124 0.498284
-18.163155 -51.508438 -0.000135 0.543382
nan nan nan 0.000000
nan nan nan 0.000000
nan nan nan 0.000000
nan nan nan 0.000000
nan nan nan 0.000000
nan nan nan 0.000000
nan nan nan 0.000000
nan nan nan 0.000000
-4.919125 20.381510 0.673140 1.000000
-12.203699 -19.329844 0.000020 0.534804
-15.148077 -35.380917 -0.000001 0.537132
-16.412201 -42.272209 -0.000025 0.542034
-17.116264 -46.110348 -0.000041 0.527083
-17.565744 -48.560669 -0.000057 0.532108
-17.878147 -50.263706 -0.000081 0.506495
-18.108318 -51.518478 -0.000092 0.517770
nan nan nan 0.000000
nan nan nan 0.000000
nan nan nan 0.000000
nan nan nan 0.000000
nan nan nan 0.000000
nan nan nan 0.000000
nan nan nan 0.000000
nan nan nan 0.000000
-4.361166 20.285494 0.673006 1.000000
-11.924026 -19.380491 -0.000060 0.532353
-14.980814 -35.412853 0.000051 0.539338
-16.292978 -42.294941 0.000024 0.531618
-17.023804 -46.127995 0.000010 0.541912
-17.490368 -48.575050 -0.000007 0.536029
-17.814644 -50.275829 -0.000029 0.542034
-18.053574 -51.528976 -0.000027 0.512745
nan nan nan 0.000000
nan nan nan 0.000000
nan nan nan 0.000000
nan nan nan 0.000000
nan nan nan 0.000000
nan nan nan 0.000000
nan nan nan 0.000000
nan nan nan 0.000000
-3.803062 20.189468 0.672806 1.000000
-11.644638 -19.432770 -0.000157 0.540686
-14.813429 -35.444164 -0.000046 0.533701
-16.173679 -42.317295 -0.000068 0.531740
-16.931278 -46.145317 -0.000084 0.520956
-17.414940 -48.589180 -0.000101 0.554902
-17.751101 -50.287746 -0.000120 0.519975
-17.998783 -51.539249 -0.000120 0.556863
nan nan nan 0.000000
nan nan nan 0.000000
nan nan nan 0.000000
nan nan nan 0.000000
nan nan nan 0.000000
nan nan nan 0.000000
nan nan nan 0.000000
nan nan nan 0.000000
-3.244766 20.093407 0.672543 1.000000
-11.366186 -19.489807 -0.000113 0.533946
-14.646606 -35.478340 -0.000001 0.522672
-16.054777 -42.341660 -0.000024 0.545588
-16.839064 -46.164219 -0.000039 0.531740
-17.339760 -48.604576 -0.000057 0.566299
-17.687769 -50.300739 -0.000071 0.556863
-17.944172 -51.550423 -0.000078 0.507230
nan nan nan 0.000000
nan nan nan 0.000000
nan nan nan 0.000000
nan nan nan 0.000000
nan nan nan 0.000000
nan nan nan 0.000000
nan nan nan 0.000000
nan nan nan 0.000000
-2.686205 19.997292 0.672214 1.000000
-11.088202 -19.549091 -0.000053 0.537132
-14.480061 -35.513840 0.000057 0.547059
-15.936067 -42.366951 0.000033 0.553186
-16.746996 -46.183819 0.000016 0.532230
-17.264706 -48.620564 -0.000001 0.523652
-17.624538 -50.314213 -0.000014 0.534191
-17.889658 -51.562080 -0.000011 0.569485
nan nan nan 0.000000
nan nan nan 0.000000
nan nan nan 0.000000
nan nan nan 0.000000
nan nan nan 0.000000
nan nan nan 0.000000
nan nan nan 0.000000
nan nan nan 0.000000
-2.127359 19.901150 0.671820 1.000000
-10.809976 -19.607210 -0.000150 0.533824
-14.313403 -35.548798 -0.000028 0.531863
-15.817263 -42.391777 -0.000062 0.551103
-16.654860 -46.203094 -0.000077 0.563603
-17.189602 -48.636322 -0.000084 0.533701
-17.561256 -50.327457 -0.000105 0.540196
-17.835094 -51.573486 -0.000104 0.513726
nan nan nan 0.000000
nan nan nan 0.000000
nan nan nan 0.000000
nan nan nan 0.000000
nan nan nan 0.000000
nan nan nan 0.000000
nan nan nan 0.000000
nan nan nan 0.000000
-1.568150 19.804909 0.671361 1.000000
-10.532842 -19.670349 -0.000091 0.544976
-14.147368 -35.586617 0.000030 0.530025
-15.698941 -42.418831 0.000007 0.535049
-16.563091 -46.224045 -0.000011 0.547917
-17.114779 -48.653355 -0.000029 0.572059
-17.498219 -50.341808 -0.000049 0.546569
-17.780741 -51.585861 -0.000049 0.566176
nan nan nan 0.000000
nan nan nan 0.000000
-5.345915 1.208271 13.321893 0.430025
-5.345907 1.208299 11.229945 0.434436
-5.345888 1.208378 9.158216 0.438480
-5.345867 1.208476 7.102027 0.443015
-5.345861 1.208492 5.056841 0.447549
-5.345837 1.208606 3.018222 0.449632
-5.345821 1.208661 0.981779 0.453554
-10.256100 -19.735172 -0.000046 0.530637
-13.981569 -35.625450 0.000076 0.524632
-15.580766 -42.446507 0.000052 0.542157
-16.471443 -46.245525 0.000036 0.548529
-17.040066 -48.670872 0.000020 0.566789
-17.435284 -50.356594 0.000007 0.520466
-17.726471 -51.598602 0.000004 0.510539
nan nan nan 0.000000
nan nan nan 0.000000
-5.379385 -0.778202 12.968864 0.454412
-5.379383 -0.778201 10.942138 0.464093
-5.379383 -0.778209 8.935000 0.432475
-5.379383 -0.778205 6.942924 0.421324
-5.379383 -0.778205 4.961512 0.430147
-5.379381 -0.778194 2.986467 0.421446
-5.379381 -0.778194 1.013534 0.437745
-9.979218 -19.799393 -0.000128 0.536274
-13.815687 -35.663918 -0.000007 0.542525
-15.462530 -42.473923 -0.000031 0.537132
-16.379745 -46.266777 -0.000048 0.541544
-16.965317 -48.688225 -0.000060 0.538725
-17.372305 -50.371197 -0.000076 0.538235
-17.672298 -51.611729 0.000060 0.534559
nan nan nan 0.000000
nan nan nan 0.000000
-4.962866 -0.847266 12.974729 0.424020
-4.962866 -0.847270 10.946920 0.465196
-4.962866 -0.847274 8.938710 0.448284
-4.962870 -0.847278 6.945567 0.469363
-4.962868 -0.847274 4.963095 0.540196
-4.962868 -0.847274 2.986994 0.579167
-4.962868 -0.847274 1.013007 0.585294
-9.703401 -19.868053 -0.000083 0.539828
-13.650442 -35.705044 0.000038 0.549632
-15.344752 -42.503239 0.000014 0.519608
-16.288403 -46.289520 -0.000003 0.518627
-16.890846 -48.706749 -0.000017 0.544118
-17.309566 -50.386814 -0.000031 0.549020
-17.618078 -51.624672 -0.000030 0.537623
nan nan nan 0.000000
nan nan nan 0.000000
-5.124603 -3.171215 12.557565 0.461275
-5.124622 -3.171289 10.606824 0.454534
-5.124634 -3.171325 8.674948 0.452696
-5.124657 -3.171423 6.757563 0.445711
-5.124681 -3.171514 4.850450 0.446201
-5.124655 -3.171412 2.949474 0.451593
-5.124651 -3.171400 1.050526 0.456005
-9.427398 -19.935968 -0.000173 0.538848
-13.485093 -35.745758 -0.000051 0.542279
-15.226892 -42.532242 -0.000076 0.539828
-16.197020 -46.312096 -0.000080 0.543627
-16.816328 -48.725082 -0.000108 0.555270
-17.246805 -50.402321 -0.000109 0.535417
-17.563955 -51.638023 -0.000113 0.510417
nan nan nan 0.000000
-5.815922 -7.375044 13.615403 0.475613
-5.815907 -7.374977 11.785645 0.661029
-5.815908 -7.374989 9.977542 0.471691
-5.815910 -7.375001 8.186915 0.627083
-5.815908 -7.374997 6.409727 0.459926
-5.815945 -7.375127 4.642045 0.485784
-5.815948 -7.375139 2.880054 0.388358
-5.815948 -7.375139 1.119948 0.286397
-9.152562 -20.008478 -0.000129 0.537132
-13.320431 -35.789177 -0.000008 0.525245
-15.109531 -42.563198 -0.000032 0.545588
-16.106001 -46.336105 -0.000035 0.534926
-16.742134 -48.744678 -0.000059 0.559436
-17.184296 -50.418827 -0.000061 0.529289
-17.510048 -51.652218 -0.000075 0.547549
-8.654069 -19.257479 12.412227 0.488358
-8.654069 -19.257479 10.977816 0.569975
-8.654070 -19.257473 9.563544 0.333824
-8.654070 -19.257479 8.166021 0.407353
-8.654071 -19.257475 6.782008 0.406005
-8.654072 -19.257483 5.408377 0.532108
-8.654071 -19.257483 4.042102 0.431495
-8.654072 -19.257483 2.680214 0.526348
-8.654072 -19.257483 1.319786 0.478799
-8.878316 -20.083145 -0.000071 0.540931
-13.156131 -35.833912 0.000050 0.532598
-14.992441 -42.595142 0.000033 0.545466
-16.015171 -46.360802 0.000017 0.516299
-16.668098 -48.764862 0.000003 0.536274
-17.121752 -50.435200 -0.000141 0.551471
-17.456127 -51.666355 -0.000148 0.526348
-8.366110 -19.305233 12.419845 0.505637
-8.366111 -19.305233 10.984384 0.478799
-8.366110 -19.305229 9.569075 0.438235
-8.366112 -19.305237 8.170530 0.489461
-8.366111 -19.305233 6.785504 0.382598
-8.366111 -19.305233 5.410869 0.465196
-8.366112 -19.305233 4.043595 0.441667
-8.366111 -19.305237 2.680712 0.513726
-8.366112 -19.305244 1.319288 0.490809
-8.603775 -20.156759 -0.000164 0.540319
-12.991657 -35.878040 -0.000042 0.539461
-14.875208 -42.626587 -0.000060 0.538603
-15.924263 -46.385223 -0.000070 0.557476
-16.593983 -48.784756 -0.000087 0.535662
-17.059483 -50.452591 -0.000088 0.565441
-17.402435 -51.681351 -0.000098 0.532475
-8.077716 -19.353060 12.427977 0.496814
-8.077720 -19.353064 10.991395 0.442402
-8.077717 -19.353060 9.574984 0.405270
-8.077718 -19.353060 8.175348 0.447426
-8.077717 -19.353060 6.789239 0.461275
-8.077718 -19.353060 5.413533 0.474510
-8.077718 -19.353064 4.045190 0.437623
-8.077719 -19.353067 2.681242 0.473284
-8.077719 -19.353064 1.318757 0.449755
-8.330598 -20.235273 -0.000106 0.539706
-12.827987 -35.925049 0.000014 0.548652
-14.758551 -42.660088 -0.000004 0.543750
-15.833782 -46.411182 -0.000017 0.542402
-16.520229 -48.805954 -0.000028 0.542647
-16.997334 -50.470398 -0.000042 0.547917
-17.348843 -51.696686 -0.000055 0.575735
-7.788857 -19.400963 12.436636 0.478922
-7.788856 -19.400963 10.998861 0.528431
-7.788855 -19.400959 9.581274 0.413603
-7.788855 -19.400959 8.180476 0.455760
-7.788855 -19.400963 6.793216 0.459069
-7.788855 -19.400959 5.416367 0.487745
-7.788855 -19.400959 4.046888 0.436520
-7.788853 -19.400959 2.681809 0.474265
-7.788853 -19.400959 1.318191 0.475858
-8.057967 -20.315643 -0.000050 0.530515
-12.664608 -35.973049 0.000058 0.552328
-14.642108 -42.694332 0.000042 0.541912
-15.743492 -46.437794 0.000038 0.550980
-16.446398 -48.826889 -0.000117 0.549265
-16.935133 -50.488033 -0.000131 0.554779
-17.295225 -51.711941 -0.000131 0.504044
-8.162927 -21.647051 11.870689 0.445466
-8.162930 -21.647055 10.510880 0.477083
-8.162930 -21.647055 9.170164 0.415074
-8.162930 -21.647055 7.845328 0.452574
-8.162929 -21.647055 6.533294 0.483088
-8.162932 -21.647072 5.231106 0.427819
-8.162933 -21.647072 3.935891 0.447672
-8.162930 -21.647062 2.644836 0.477819
-8.162926 -21.647051 1.355163 0.398284
-8.162894 -21.646944 0.064102 0.443750
-12.501114 -36.020657 -0.000030 0.536029
-14.525570 -42.728245 -0.000047 0.545956
-15.653114 -46.464104 -0.000051 0.554044
-16.372934 -48.849068 -0.000067 0.528186
-16.873262 -50.506790 -0.000065 0.557598
-17.241867 -51.728073 -0.000076 0.577451
-8.489514 -23.633041 11.371034 0.382108
-8.489514 -23.633041 10.080060 0.492279
-8.489516 -23.633053 8.807207 0.250245
-8.489515 -23.633049 7.549436 0.387377
-8.489519 -23.633057 6.303818 0.241054
-8.489511 -23.633034 5.067549 0.461397
-8.489520 -23.633057 3.837897 0.506618
-8.489517 -23.633045 2.612195 0.646078
-8.489516 -23.633049 1.387805 0.541667
-8.489498 -23.632990 0.162099 0.487623
-12.338450 -36.071045 0.000023 0.538235
-14.409664 -42.764263 0.000018 0.546446
-15.563205 -46.491974 0.000005 0.534926
-16.299639 -48.871796 -0.000011 0.552083
-16.811506 -50.525913 -0.000013 0.518015
-17.188627 -51.744602 -0.000014 0.649020
-8.784653 -25.427746 10.919939 0.452083
-8.784654 -25.427750 9.691109 0.391667
-8.784653 -25.427746 8.479531 0.565441
-8.784655 -25.427750 7.282301 0.567892
-8.784653 -25.427746 6.096646 0.400368
-8.784643 -25.427710 4.919888 0.433211
-8.784704 -25.427908 3.749418 0.423284
-8.784701 -25.427900 2.582722 0.709069
-8.784699 -25.427896 1.417277 0.685784
-8.784647 -25.427725 0.250573 0.416176
-12.176118 -36.122459 0.000067 0.527574
-14.293966 -42.800919 0.000063 0.532353
-15.473490 -46.520458 0.000058 0.540686
-16.226269 -48.894276 -0.000098 0.570588
-16.749704 -50.544895 -0.000092 0.535539
-17.135332 -51.760941 -0.000099 0.518260
-9.052703 -27.057734 10.510660 0.513848
-9.052703 -27.057726 9.338213 0.461275
-9.052706 -27.057741 8.182226 0.791912
-9.052709 -27.057747 7.039929 0.498897
-9.052700 -27.057718 5.908679 0.444730
-9.052684 -27.057671 4.785915 0.426593
-9.052723 -27.057796 3.669153 0.537377
-9.052725 -27.057800 2.555987 0.410049
-9.052725 -27.057800 1.444013 0.381618
-9.052702 -27.057726 0.330844 0.461397
-12.013694 -36.173607 -0.000010 0.538358
-14.178196 -42.837368 -0.000014 0.566789
-15.383690 -46.548679 -0.000027 0.542770
-16.153292 -48.918022 -0.000042 0.515564
-16.688210 -50.564850 -0.000046 0.530637
-17.082308 -51.778141 -0.000056 0.562745
-9.297244 -28.544756 10.137676 0.442770
-9.297247 -28.544762 9.016609 0.462868
-9.297249 -28.544771 7.911283 0.355882
-9.297249 -28.544765 6.819052 0.333701
-9.297240 -28.544743 5.737378 0.474387
-9.297225 -28.544697 4.663822 0.446936
-9.297243 -28.544748 3.596005 0.300490
-9.297242 -28.544746 2.531621 0.321691
-9.297242 -28.544746 1.468379 0.125368
-9.297231 -28.544714 0.403993 0.444608
-11.852122 -36.227390 0.000043 0.529412
-14.063008 -42.875622 0.000028 0.557476
-15.294101 -46.577572 -0.000105 0.535784
-16.080261 -48.941589 -0.000118 0.525245
-16.626686 -50.584717 -0.000120 0.522059
-17.029335 -51.795498 -0.000069 0.542157
-9.521261 -29.906967 9.796375 0.440809
-9.521262 -29.906969 8.722330 0.267034
-9.521259 -29.906963 7.663364 0.666789
-9.521260 -29.906965 6.616940 0.291299
-9.521252 -29.906942 5.580632 0.459804
-9.521235 -29.906889 4.552101 0.508946
-9.521231 -29.906876 3.529072 0.256985
-9.521235 -29.906887 2.509326 0.394240
-9.521235 -29.906887 1.490674 0.316299
-9.521234 -29.906883 0.470929 0.477941
-11.690431 -36.280804 -0.000034 0.562623
-13.947759 -42.913685 -0.000049 0.561520
-15.205000 -46.607933 -0.000051 0.529289
-16.007618 -48.966328 -0.000066 0.571569
-16.565508 -50.605618 -0.000055 0.535784
-16.976410 -51.813007 -0.000139 0.517279
-9.727253 -31.159576 9.482903 0.459681
-9.727253 -31.159584 8.452039 0.609436
-9.727252 -31.159576 7.435652 0.368260
-9.727253 -31.159584 6.431302 0.225368
-9.727243 -31.159554 5.436664 0.439828
-9.727229 -31.159506 4.449486 0.424142
-9.727228 -31.159506 3.467591 0.445466
-9.727228 -31.159506 2.488847 0.430515
-9.727227 -31.159506 1.511152 0.450980
-9.727222 -31.159498 0.532409 0.425000
-11.529586 -36.336727 0.000010 0.536274
-13.833147 -42.953636 0.000005 0.538480
-15.116108 -46.638905 0.000001 0.557966
-15.935152 -48.991577 -0.000014 0.520956
-16.504440 -50.626842 -0.000013 0.511520
-16.923761 -51.831329 -0.000093 0.523897
-9.917326 -32.315392 9.194002 0.432353
-9.917325 -32.315392 8.202942 0.269975
-9.917328 -32.315399 7.225792 0.312132
-9.917327 -32.315395 6.260219 0.480392
-9.917314 -32.315361 5.303982 0.436520
-9.917308 -32.315342 4.354915 0.492892
-9.917306 -32.315334 3.410929 0.479289
-9.917308 -32.315342 2.469974 0.527451
-9.917300 -32.315319 1.530026 0.502574
-9.917291 -32.315289 0.589068 0.513848
-11.369185 -36.393890 0.000063 0.541299
-13.718415 -42.993237 -0.000080 0.523529
-15.027134 -46.669628 -0.000082 0.571936
-15.862610 -49.016613 -0.000099 0.508333
-16.443331 -50.647942 -0.000097 0.548652
-16.871254 -51.850044 -0.000039 0.521814
-10.093279 -33.385338 8.926905 0.449632
-10.093277 -33.385330 7.972640 0.411520
-10.093281 -33.385338 7.031771 0.274632
-10.093275 -33.385326 6.102049 0.440931
-10.093266 -33.385300 5.181314 0.441667
-10.093266 -33.385303 4.267481 0.484069
-10.093261 -33.385292 3.358544 0.360907
-10.093251 -33.385258 2.452525 0.441299
-10.093244 -33.385239 1.547475 0.369853
-10.093240 -33.385227 0.641452 0.472794
-11.208657 -36.450699 -0.000012 0.535417
-13.604377 -43.034794 -0.000026 0.536642
-14.938683 -46.701832 -0.000031 0.555882
-15.790526 -49.042934 -0.000036 0.543873
-16.382484 -50.669796 -0.000107 0.525123
-16.818708 -51.868656 -0.000109 0.577941
-10.256644 -34.378727 8.679243 0.199877
-10.256640 -34.378719 7.759097 0.212010
-10.256641 -34.378723 6.851868 0.193995
-10.256636 -34.378708 5.955387 0.466544
-10.256633 -34.378700 5.067569 0.489461
-10.256628 -34.378681 4.186411 0.459314
-10.256621 -34.378666 3.309971 0.526838
-10.256614 -34.378643 2.436345 0.469485
-10.256606 -34.378624 1.563654 0.432966
-10.256601 -34.378616 0.690025 0.499632
-11.049017 -36.509968 0.000031 0.522181
-13.490626 -43.077129 0.000028 0.535417
-14.850498 -46.734749 0.000036 0.541544
-15.718609 -49.069702 0.000019 0.561275
-16.321888 -50.692326 -0.000058 0.524142
-16.766459 -51.888088 -0.000059 0.523407
-10.408731 -35.303574 8.448984 0.270098
-10.408731 -35.303574 7.560556 0.304289
-10.408728 -35.303566 6.684606 0.305760
-10.408728 -35.303566 5.819028 0.454167
-10.408722 -35.303543 4.961818 0.474877
-10.408712 -35.303524 4.111038 0.592770
-10.408709 -35.303513 3.264812 0.448652
-10.408702 -35.303497 2.421303 0.530760
-10.408693 -35.303482 1.578696 0.447304
-10.408688 -35.303459 0.735185 0.491176
-10.889334 -36.569122 -0.000035 0.550858
-13.376780 -43.119205 -0.000048 0.524142
-14.762177 -46.767315 -0.000051 0.545221
-15.646620 -49.096275 -0.000063 0.569118
-16.261457 -50.715302 -0.000004 0.523897
-16.714365 -51.907925 0.000002 0.566422
-10.508223 -36.057289 8.263791 0.425980
-10.508222 -36.057285 7.400877 0.491544
-10.508221 -36.057285 6.550079 0.496201
-10.508223 -36.057289 5.709357 0.364706
-10.508223 -36.057289 4.876760 0.418750
-10.508223 -36.057289 4.050412 0.374265
-10.508224 -36.057293 3.228488 0.401716
-10.508222 -36.057285 2.409203 0.405270
-10.508223 -36.057289 1.590797 0.473407
-10.508224 -36.057293 0.771512 0.378554
-10.730030 -36.629303 -0.000108 0.542892
-13.263631 -43.163124 0.000006 0.537745
-14.674424 -46.801369 0.000002 0.544730
-15.575096 -49.124081 -0.000002 0.515074
-16.200979 -50.738152 -0.000076 0.551961
-16.662239 -51.927681 -0.000056 0.557966
-10.332026 -36.086491 8.273079 0.431495
-10.332026 -36.086491 7.408886 0.485049
-10.332021 -36.086483 6.556828 0.517524
-10.332021 -36.086483 5.714860 0.379167
-10.332020 -36.086483 4.881029 0.410417
-10.332019 -36.086479 4.053454 0.390074
-10.332022 -36.086483 3.230310 0.458211
-10.332022 -36.086483 2.409811 0.376348
-10.332021 -36.086483 1.590190 0.575858
-10.332023 -36.086483 0.769689 0.468137
-10.571713 -36.692047 -0.000053 0.527451
-13.150393 -43.206810 -0.000067 0.530270
-14.586634 -46.835327 -0.000059 0.538725
-15.503607 -49.151970 -0.000022 0.552819
-16.140865 -50.761944 -0.000028 0.546201
-16.610394 -51.948154 -0.000018 0.525245
-10.155308 -36.115810 8.282697 0.345711
-10.155308 -36.115807 7.417180 0.423897
-10.155306 -36.115803 6.563813 0.507475
-10.155303 -36.115799 5.720554 0.246691
-10.155303 -36.115799 4.885445 0.378431
-10.155302 -36.115795 4.056602 0.445956
-10.155300 -36.115788 3.232197 0.496814
-10.155300 -36.115791 2.410439 0.331618
-10.155298 -36.115788 1.589561 0.208333
-10.155297 -36.115788 0.767802 0.420711
-10.413789 -36.755741 -0.000011 0.530270
-13.037820 -43.252190 -0.000027 0.525980
-14.499326 -46.870514 -0.000021 0.527819
-15.432222 -49.180130 -0.000088 0.540441
-16.080727 -50.785664 -0.000093 0.516789
-16.558552 -51.968643 -0.000074 0.538603
-9.978040 -36.145226 8.292648 0.434069
-9.978036 -36.145218 7.425760 0.437500
-9.978034 -36.145210 6.571043 0.503554
-9.978034 -36.145210 5.726449 0.440441
-9.978031 -36.145210 4.890017 0.577696
-9.978030 -36.145206 4.059859 0.449877
-9.978029 -36.145195 3.234149 0.513603
-9.978029 -36.145195 2.411089 0.436029
-9.978029 -36.145195 1.588911 0.485294
-9.978026 -36.145191 0.765850 0.360784
-10.256367 -36.820667 0.000042 0.539951
-12.925655 -43.298565 0.000038 0.544608
-14.412314 -46.906418 0.000035 0.543505
-15.361282 -49.209396 -0.000032 0.552451
-16.020964 -50.810333 -0.000036 0.536520
-16.507013 -51.989880 -0.000025 0.516422
-9.800201 -36.174717 8.302942 0.403309
-9.800201 -36.174717 7.434636 0.387377
-9.800201 -36.174717 6.578519 0.538358
-9.800199 -36.174709 5.732544 0.543873
-9.800197 -36.174709 4.894743 0.598162
-9.800195 -36.174706 4.063230 0.386275
-9.800193 -36.174698 3.236168 0.427819
-9.800194 -36.174702 2.411762 0.393505
-9.800192 -36.174694 1.588238 0.488848
-9.800190 -36.174694 0.763831 0.431495
-10.098817 -36.885281 -0.000030 0.539461
-12.813365 -43.344624 -0.000033 0.541054
-14.325224 -46.942131 -0.000037 0.541544
-15.290527 -49.239094 0.000010 0.521936
-15.961360 -50.835358 0.000008 0.543137
-16.455624 -52.011475 0.000023 0.530270
-9.621771 -36.204327 8.313576 0.453186
-9.621769 -36.204319 7.443805 0.357843
-9.621768 -36.204315 6.586246 0.466912
-9.621766 -36.204311 5.738841 0.547181
-9.621763 -36.204311 4.899628 0.467524
-9.621762 -36.204304 4.066710 0.455270
-9.621761 -36.204304 3.238254 0.471201
-9.621761 -36.204304 2.412457 0.401471
-9.621759 -36.204300 1.587544 0.475000
-9.621758 -36.204296 0.761746 0.431005
-9.942304 -36.952374 0.000021 0.547549
-12.701761 -43.392330 0.000003 0.550858
-14.238192 -46.978012 -0.000181 0.560784
-15.219750 -49.268749 -0.000054 0.562010
-15.901737 -50.860355 -0.000052 0.546691
-16.404202 -52.032993 -0.000046 0.542892
-9.442730 -36.234028 8.324554 0.468015
-9.442727 -36.234016 7.453271 0.363725
-9.442723 -36.234013 6.594221 0.545711
-9.442723 -36.234013 5.745343 0.513358
-9.442724 -36.234013 4.904670 0.521324
-9.442721 -36.234005 4.070304 0.452083
-9.442720 -36.234001 3.240406 0.591422
-9.442719 -36.234001 2.413174 0.430515
-9.442719 -36.234001 1.586826 0.548039
-9.442716 -36.233994 0.759593 0.428186
-9.785739 -37.019344 -0.000037 0.543873
-12.590213 -43.440163 -0.000042 0.524632
-14.151970 -47.015793 -0.000116 0.541789
-15.149467 -49.299553 0.000012 0.546569
-15.842532 -50.886322 0.000017 0.538971
-16.353138 -52.055347 0.000014 0.521691
-9.263048 -36.263836 8.335880 0.567770
-9.263048 -36.263832 7.463037 0.406373
-9.263045 -36.263824 6.602447 0.523162
-9.263044 -36.263821 5.752050 0.439706
-9.263044 -36.263821 4.909871 0.482230
-9.263041 -36.263821 4.074012 0.516912
-9.263040 -36.263813 3.242628 0.602574
-9.263038 -36.263805 2.413914 0.495466
-9.263038 -36.263805 1.586086 0.602083
-9.263036 -36.263805 0.757371 0.525245
-9.630172 -37.088615 0.000014 0.552574
-12.479329 -43.489525 0.000008 0.541299
-14.065644 -47.053345 -0.000186 0.546201
-15.079092 -49.330154 -0.000059 0.509804
-15.783234 -50.912079 -0.000060 0.537623
