# This PCD file was generated using the MATLABÂ® pcwrite function
# from Computer Vision ToolboxÂ®.
# .PCD v.7 - Point Cloud Data file format
VERSION .7
FIELDS x y z intensity
SIZE 4 4 4 4
TYPE F F F F
COUNT 1 1 1 1
WIDTH 1160
HEIGHT 1
VIEWPOINT 0 0 0 1 0 0 0
POINTS 1160
DATA ascii
486.164001 -410.906189 1.672097 0.657966
486.161407 -410.912079 1.015906 0.616054
486.158752 -410.917999 0.358026 0.518137
485.083649 -413.329163 -0.000006 0.529167
483.494476 -416.893219 -0.000003 0.334681
482.479950 -419.168518 -0.000000 0.330392
481.774811 -420.749969 -0.000003 0.327941
481.255280 -421.915070 -0.000004 0.337990
486.355713 -410.822479 7.058115 0.490809
486.352844 -410.828796 6.359802 0.455515
486.350006 -410.834991 5.671763 0.482230
486.347229 -410.841095 4.992333 0.546446
486.344482 -410.847198 4.319912 0.517647
486.341736 -410.853210 3.652976 0.514338
486.339020 -410.859192 2.990046 0.466422
486.336304 -410.865143 2.329672 0.520343
486.333649 -410.871033 1.670434 0.421078
486.330933 -410.876984 1.010917 0.543382
486.328217 -410.882965 0.349704 0.501103
485.194519 -413.378540 -0.000061 0.535784
483.580322 -416.931824 -0.000008 0.334926
482.549927 -419.200043 -0.000001 0.332966
481.833771 -420.776489 -0.000002 0.331740
481.306152 -421.937958 -0.000003 0.329779
486.527588 -410.786652 7.084219 0.863113
486.524658 -410.793030 6.382294 0.728431
486.521759 -410.799286 5.690700 0.707230
486.518890 -410.805450 5.007759 0.616544
486.516083 -410.811523 4.331867 0.524877
486.513275 -410.817596 3.661492 0.524510
486.510498 -410.823608 2.995144 0.489828
486.507751 -410.829590 2.331370 0.524632
486.504944 -410.835602 1.668738 0.464216
486.502197 -410.841583 1.005827 0.651838
486.499390 -410.847565 0.341215 0.458456
485.304657 -413.429504 -0.000015 0.547181
483.665894 -416.971039 -0.000008 0.331863
482.619690 -419.232025 0.000000 0.334436
481.892548 -420.803436 -0.000001 0.327328
481.356781 -421.961182 -0.000002 0.337377
486.701294 -410.750458 7.110845 0.513971
486.698273 -410.756866 6.405236 0.443137
486.695313 -410.763153 5.710013 0.460907
486.692413 -410.769348 5.023495 0.512500
486.689484 -410.775543 4.344062 0.552451
486.686615 -410.781616 3.670179 0.512990
486.683777 -410.787659 3.000345 0.566422
486.680939 -410.793732 2.333101 0.484069
486.678101 -410.799744 1.667008 0.489706
486.675232 -410.805756 1.000637 0.570588
486.672394 -410.811798 0.332557 0.517647
485.414795 -413.480530 -0.000056 0.529289
483.751190 -417.010864 -0.000008 0.332966
482.689209 -419.264496 -0.000001 0.328064
481.951080 -420.830780 0.000000 0.338358
481.407288 -421.984772 -0.000002 0.341054
486.876831 -410.713898 7.138001 0.642770
486.873749 -410.720337 6.428636 0.494853
486.870697 -410.726685 5.729714 0.680147
486.867706 -410.732910 5.039544 0.592525
486.864716 -410.739136 4.356501 0.634559
486.861786 -410.745270 3.679038 0.567524
486.858887 -410.751343 3.005650 0.574265
486.855957 -410.757477 2.334867 0.595221
486.853027 -410.763519 1.665243 0.615809
486.850098 -410.769592 0.995342 0.539706
486.847198 -410.775696 0.323727 0.557966
485.524292 -413.532928 -0.000022 0.552083
483.836182 -417.051270 -0.000008 0.332966
482.758484 -419.297424 -0.000002 0.338848
482.009491 -420.858551 0.000001 0.330882
481.457642 -422.008728 -0.000002 0.338113
487.054260 -410.676910 7.165700 0.661642
487.051086 -410.683411 6.452503 0.473775
487.048004 -410.689789 5.749809 0.646691
487.044891 -410.696075 5.055915 0.526471
487.041840 -410.702332 4.369188 0.643260
487.038818 -410.708527 3.688076 0.656250
487.035828 -410.714691 3.011061 0.624142
487.032837 -410.720795 2.336668 0.539093
487.029846 -410.726929 1.663443 0.624877
487.026855 -410.733032 0.989943 0.506005
487.023865 -410.739166 0.314719 0.627451
485.633423 -413.585999 0.000005 0.515074
483.920929 -417.092285 -0.000008 0.337500
482.827576 -419.330872 -0.000002 0.319975
482.067688 -420.886719 0.000001 0.334314
481.507813 -422.032990 -0.000002 0.336029
487.233612 -410.639557 7.193957 0.585539
487.230377 -410.646088 6.476850 0.542402
487.227173 -410.652527 5.770308 0.617279
487.224030 -410.658844 5.072613 0.708211
487.220886 -410.665161 4.382131 0.604657
487.217804 -410.671387 3.697294 0.600613
487.214722 -410.677582 3.016580 0.636152
487.211670 -410.683746 2.338505 0.598529
487.208588 -410.689911 1.661607 0.497181
487.205536 -410.696075 0.984434 0.590441
487.202454 -410.702271 0.305532 0.524510
485.742462 -413.639343 -0.000037 0.536029
484.005371 -417.133911 -0.000008 0.335172
482.896423 -419.364777 -0.000005 0.330760
482.125671 -420.915314 0.000001 0.333211
481.557831 -422.057648 -0.000002 0.341667
487.414978 -410.601746 7.222781 0.708578
487.411621 -410.608337 6.501686 0.632475
487.408356 -410.614807 5.791217 0.603064
487.405121 -410.621185 5.089647 0.670956
487.401917 -410.627533 4.395332 0.702696
487.398743 -410.633820 3.706697 0.602206
487.395569 -410.640045 3.022210 0.577083
487.392456 -410.646301 2.340379 0.622549
487.389282 -410.652496 1.659734 0.613113
487.386169 -410.658691 0.978815 0.632966
487.382996 -410.664917 0.296160 0.593505
485.850769 -413.694122 0.000012 0.524265
484.089478 -417.176086 -0.000007 0.325613
482.964996 -419.399139 -0.000007 0.335907
482.183472 -420.944275 0.000001 0.344730
481.607635 -422.082611 -0.000002 0.338113
487.598358 -410.563507 7.252185 0.554167
487.594940 -410.570160 6.527021 0.628064
487.591583 -410.576660 5.812547 0.520343
487.588257 -410.583130 5.107024 0.501471
487.584961 -410.589539 4.408799 0.510172
487.581696 -410.595856 3.716289 0.530637
487.578461 -410.602142 3.027953 0.637745
487.575256 -410.608398 2.342291 0.540319
487.572021 -410.614655 1.657824 0.551348
487.568817 -410.620911 0.973084 0.531127
487.565582 -410.627167 0.286600 0.532108
485.959106 -413.748840 -0.000043 0.522794
484.173309 -417.218903 -0.000007 0.328309
483.033356 -419.434052 -0.000002 0.335784
482.241028 -420.973663 0.000002 0.339093
481.657288 -422.107941 -0.000002 0.323652
487.783813 -410.524872 7.282181 0.668750
487.780304 -410.531555 6.552868 0.627083
487.776855 -410.538116 5.834307 0.684926
487.773468 -410.544617 5.124749 0.534436
487.770081 -410.551086 4.422536 0.557108
487.766754 -410.557434 3.726074 0.576348
487.763428 -410.563782 3.033812 0.574387
487.760132 -410.570099 2.344241 0.560172
487.756836 -410.576385 1.655875 0.490686
487.753540 -410.582733 0.967237 0.614951
487.750214 -410.589020 0.276848 0.541422
486.066620 -413.805145 0.000004 0.537255
484.256866 -417.262238 -0.000007 0.337623
483.101471 -419.469421 0.000000 0.339216
482.298401 -421.003448 0.000002 0.340564
481.706787 -422.133606 -0.000002 0.322059
487.971405 -410.485779 7.312782 0.502574
487.967834 -410.492493 6.579237 0.599510
487.964294 -410.499115 5.856506 0.570711
487.960815 -410.505676 5.142835 0.643750
487.957367 -410.512177 4.436552 0.543627
487.953949 -410.518585 3.736056 0.539461
487.950531 -410.524994 3.039789 0.541667
487.947144 -410.531342 2.346231 0.472059
487.943756 -410.537720 1.653887 0.523162
487.940399 -410.544037 0.961272 0.470711
487.936981 -410.550415 0.266899 0.530025
486.173859 -413.862000 0.000031 0.544485
484.340118 -417.306213 -0.000007 0.329167
483.169312 -419.505219 -0.000001 0.335417
482.355560 -421.033630 0.000002 0.330025
481.756073 -422.159668 -0.000003 0.332108
488.161194 -410.446228 7.344003 0.474142
488.157532 -410.452972 6.606137 0.502451
488.153900 -410.459656 5.879152 0.473162
488.150360 -410.466278 5.161283 0.572794
488.146790 -410.472809 4.450850 0.516176
488.143311 -410.479279 3.746241 0.494485
488.139801 -410.485748 3.045886 0.518137
488.136322 -410.492157 2.348261 0.592647
488.132843 -410.498535 1.651859 0.532353
488.129395 -410.504944 0.955187 0.658578
488.125946 -410.511383 0.256750 0.491176
486.280914 -413.919159 -0.000002 0.532353
484.423065 -417.350708 -0.000007 0.334926
483.236908 -419.541534 -0.000000 0.329902
482.412537 -421.064209 0.000002 0.333088
481.805176 -422.186035 -0.000002 0.333456
488.353271 -410.406158 7.375862 0.567279
488.349518 -410.412994 6.633583 0.519975
488.345795 -410.419739 5.902260 0.461275
488.342133 -410.426392 5.180108 0.478799
488.338501 -410.433014 4.465439 0.568873
488.334900 -410.439514 3.756631 0.592279
488.331329 -410.445984 3.052108 0.574755
488.327759 -410.452484 2.350331 0.510417
488.324219 -410.458923 1.649789 0.479289
488.320679 -410.465393 0.948978 0.719853
488.317108 -410.471863 0.246395 0.611274
486.387238 -413.977661 0.000045 0.539216
484.505676 -417.395813 -0.000007 0.337255
483.304291 -419.578308 -0.000000 0.340074
482.469269 -421.095184 0.000002 0.329167
481.854095 -422.212738 -0.000002 0.343750
488.547638 -410.365631 7.408365 0.508578
488.543793 -410.372528 6.661588 0.238480
488.539978 -410.379333 5.925835 0.245711
488.536224 -410.386017 5.199314 0.466422
488.532501 -410.392670 4.480324 0.585539
488.528809 -410.399292 3.767233 0.509436
488.525177 -410.405823 3.058455 0.529044
488.521484 -410.412323 2.352444 0.443505
488.517883 -410.418823 1.647678 0.508211
488.514221 -410.425354 0.942644 0.486275
488.510590 -410.431885 0.235830 0.510049
486.493500 -414.036377 0.000015 0.531985
484.587982 -417.441528 -0.000007 0.330147
483.371399 -419.615509 -0.000004 0.337500
482.525818 -421.126556 0.000001 0.334681
481.902832 -422.239777 -0.000001 0.337868
488.744415 -410.324585 7.441531 0.728676
488.740448 -410.331573 6.690166 0.196569
488.736542 -410.338409 5.949891 0.243137
488.732697 -410.345184 5.218913 0.656250
488.728851 -410.351898 4.495511 0.661520
488.725098 -410.358521 3.778051 0.754044
488.721344 -410.365112 3.064932 0.522672
488.717621 -410.371704 2.354600 0.578186
488.713898 -410.378265 1.645524 0.614216
488.710114 -410.384827 0.936181 0.565809
488.706390 -410.391418 0.225049 0.645588
486.598999 -414.096344 0.000060 0.538603
484.669952 -417.487762 -0.000007 0.329902
483.438232 -419.653229 -0.000006 0.333088
482.582123 -421.158325 0.000001 0.336887
481.951385 -422.267181 -0.000001 0.336029
488.943573 -410.283081 7.475375 0.658088
488.939514 -410.290100 6.719326 0.272304
488.935516 -410.296997 5.974440 0.270588
488.931580 -410.303802 5.238913 0.545343
488.927673 -410.310608 4.511010 0.598529
488.923798 -410.317291 3.789089 0.548897
488.919952 -410.323944 3.071541 0.599755
488.916107 -410.330566 2.356800 0.616544
488.912292 -410.337158 1.643325 0.494853
488.908478 -410.343811 0.929586 0.596691
488.904633 -410.350433 0.214049 0.635417
486.704437 -414.156464 0.000030 0.524877
484.751617 -417.534607 -0.000007 0.337745
483.504761 -419.691437 0.000001 0.328799
482.638184 -421.190491 0.000000 0.333578
481.999756 -422.294922 -0.000000 0.337132
489.145264 -410.240997 7.509917 0.467892
489.141113 -410.248077 6.749087 0.820466
489.137024 -410.255066 5.999493 0.721201
489.132996 -410.261932 5.259320 0.575858
489.128967 -410.268799 4.526827 0.518505
489.125000 -410.275543 3.800354 0.502083
489.121063 -410.282227 3.078286 0.675368
489.117157 -410.288910 2.359046 0.661029
489.113220 -410.295563 1.641082 0.600980
489.109283 -410.302246 0.922855 0.614828
489.105347 -410.308960 0.202824 0.620588
486.809692 -414.216888 -0.000062 0.528186
484.832947 -417.581970 -0.000007 0.337132
483.571075 -419.730042 -0.000002 0.333333
482.694061 -421.223022 0.000000 0.337377
482.047882 -422.322998 0.000000 0.329289
489.349548 -410.198425 7.545166 0.565931
489.345276 -410.205566 6.779456 0.568995
489.341064 -410.212585 6.025062 0.531985
489.336945 -410.219543 5.280149 0.602328
489.332825 -410.226440 4.542968 0.619240
489.328766 -410.233215 3.811851 0.563848
489.324707 -410.239990 3.085170 0.595956
489.320709 -410.246735 2.361336 0.642770
489.316681 -410.253448 1.638792 0.589461
489.312653 -410.260193 0.915986 0.624877
489.308655 -410.266937 0.191368 0.567034
486.914001 -414.278931 -0.000035 0.520098
484.913910 -417.629913 -0.000007 0.331618
483.637115 -419.769135 -0.000002 0.335049
482.749664 -421.255981 0.000000 0.336642
482.095886 -422.351379 0.000001 0.347426
489.556427 -410.155273 7.581144 0.656863
489.552063 -410.162476 6.810455 0.575368
489.547791 -410.169556 6.051158 0.580515
489.543518 -410.176544 5.301408 0.490809
489.539307 -410.183533 4.559443 0.590931
489.535156 -410.190399 3.823586 0.516054
489.531006 -410.197205 3.092195 0.645588
489.526886 -410.204010 2.363675 0.604044
489.522766 -410.210815 1.636455 0.527328
489.518646 -410.217560 0.908976 0.722304
489.514526 -410.224365 0.179675 0.518015
487.018127 -414.341339 -0.000059 0.535172
484.994598 -417.678467 -0.000006 0.336397
483.702850 -419.808685 -0.000002 0.330025
482.805084 -421.289307 0.000000 0.338235
482.143616 -422.380127 0.000001 0.332843
489.766052 -410.111572 7.617869 0.510784
489.761597 -410.118805 6.842097 0.521814
489.757172 -410.125977 6.077795 0.588358
489.752838 -410.133026 5.323107 0.532966
489.748505 -410.140045 4.576260 0.546324
489.744263 -410.146973 3.835563 0.664338
489.740021 -410.153839 3.099366 0.532230
489.735779 -410.160736 2.366061 0.535417
489.731537 -410.167542 1.634070 0.399510
489.727325 -410.174438 0.901820 0.670343
489.723114 -410.181274 0.167740 0.594363
487.121490 -414.404968 -0.000010 0.544118
485.074890 -417.727570 -0.000006 0.326961
483.768341 -419.848724 -0.000002 0.340564
482.860260 -421.323029 0.000000 0.327328
482.191193 -422.409210 0.000002 0.337868
489.978455 -410.067261 7.655359 0.554657
489.973877 -410.074585 6.874397 0.573407
489.969360 -410.081787 6.104987 0.422917
489.964905 -410.088928 5.345259 0.509559
489.960480 -410.096008 4.593426 0.602819
489.956085 -410.102997 3.847790 0.528554
489.951752 -410.109924 3.106686 0.668873
489.947449 -410.116852 2.368498 0.540686
489.943115 -410.123749 1.631635 0.506127
489.938782 -410.130707 0.894516 0.626471
489.934448 -410.137634 0.155558 0.496691
487.224945 -414.468445 -0.000085 0.537990
485.154877 -417.777191 -0.000007 0.334436
483.833527 -419.889191 -0.000002 0.331863
482.915161 -421.357117 -0.000000 0.332843
482.238556 -422.438599 0.000002 0.344976
490.193726 -410.022339 7.693633 0.519485
490.189056 -410.029755 6.907374 0.484681
490.184418 -410.037018 6.132747 0.485539
490.179840 -410.044220 5.367873 0.560172
490.175323 -410.051361 4.610951 0.578799
490.170807 -410.058411 3.860271 0.481863
490.166382 -410.065430 3.114159 0.547794
490.161926 -410.072418 2.370986 0.597181
490.157501 -410.079376 1.629149 0.542279
490.153046 -410.086365 0.887059 0.523652
490.148621 -410.093353 0.143122 0.666789
487.327728 -414.532990 -0.000114 0.548652
485.234497 -417.827393 -0.000006 0.339828
483.898468 -419.930115 -0.000002 0.340809
482.969849 -421.391541 -0.000005 0.340686
482.285706 -422.468323 0.000002 0.339461
490.411957 -409.976868 7.732709 0.594853
490.407135 -409.984314 6.941041 0.671814
490.402405 -409.991638 6.161090 0.541667
490.397705 -409.998901 5.390961 0.554044
490.393066 -410.006104 4.628844 0.629289
490.388458 -410.013245 3.873014 0.488113
490.383911 -410.020294 3.121788 0.572917
490.379364 -410.027374 2.373525 0.581373
490.374817 -410.034393 1.626612 0.569363
490.370300 -410.041443 0.879446 0.668137
490.365723 -410.048462 0.130425 0.615441
487.429688 -414.598816 -0.000059 0.529044
485.313751 -417.878174 -0.000006 0.331863
483.963074 -419.971497 -0.000003 0.331495
483.024292 -421.426422 -0.000002 0.338603
482.332642 -422.498383 0.000003 0.329044
490.633179 -409.930695 7.772611 0.513113
490.628265 -409.938202 6.975418 0.767524
490.623413 -409.945648 6.190029 0.729412
490.618622 -409.952942 5.414537 0.568627
490.613861 -409.960236 4.647113 0.554902
490.609131 -409.967407 3.886027 0.473407
490.604462 -409.974548 3.129579 0.540686
490.599792 -409.981659 2.376118 0.535294
490.595154 -409.988770 1.624021 0.574755
490.590485 -409.995880 0.871673 0.604657
490.585846 -410.002991 0.117461 0.638358
487.531403 -414.665070 -0.000051 0.528431
485.392700 -417.929474 -0.000006 0.331863
483.997314 -420.059265 0.009995 1.000000
483.078491 -421.461700 0.000001 0.336887
482.379395 -422.528748 0.000003 0.338480
490.857574 -409.883881 7.813355 0.528922
490.852509 -409.891510 7.010520 0.523775
490.847504 -409.899017 6.219579 0.547304
490.842590 -409.906372 5.438608 0.629044
490.837708 -409.913696 4.665769 0.461765
490.832886 -409.920959 3.899313 0.481618
490.828125 -409.928162 3.137533 0.711520
490.823334 -409.935364 2.378766 0.511275
490.818573 -409.942535 1.621375 0.611520
490.813812 -409.949707 0.863736 0.521324
490.809021 -409.956879 0.104223 0.607598
487.632843 -414.731720 -0.000078 0.570098
485.471222 -417.981323 -0.000006 0.334681
484.061035 -420.101349 0.009995 1.000000
483.132446 -421.497284 0.000000 0.327941
482.425903 -422.559479 0.000003 0.314093
491.085144 -409.836426 7.854969 0.626838
491.079956 -409.844116 7.046373 0.360784
491.074829 -409.851685 6.249757 0.326471
491.069794 -409.859131 5.463191 0.585662
491.064819 -409.866547 4.684823 0.633333
491.059845 -409.873840 3.912883 0.705024
491.054932 -409.881134 3.145658 0.673652
491.050049 -409.888367 2.381470 0.530270
491.045135 -409.895599 1.618673 0.653554
491.040283 -409.902832 0.855630 0.533333
491.035370 -409.910126 0.090704 0.755270
487.733398 -414.799744 -0.000019 0.523162
485.549408 -418.033722 -0.000006 0.333088
484.124451 -420.143860 0.009995 1.000000
483.186157 -421.533295 0.000000 0.341912
482.472198 -422.590515 0.000003 0.336275
491.315979 -409.788269 7.897471 0.589951
491.310669 -409.796021 7.082991 0.351348
491.305420 -409.803680 6.280581 0.238480
491.300262 -409.811218 5.488299 0.666789
491.295166 -409.818665 4.704284 0.718015
491.290100 -409.826050 3.926743 0.652083
491.285034 -409.833405 3.153955 0.608824
491.280029 -409.840729 2.384232 0.550000
491.274994 -409.848022 1.615913 0.572549
491.269989 -409.855347 0.847351 0.550858
491.264954 -409.862671 0.076896 0.554779
487.833862 -414.867798 -0.000046 0.550368
485.627258 -418.086670 -0.000006 0.331740
484.187561 -420.186829 0.009995 1.000000
483.239594 -421.569641 0.000000 0.338603
482.518280 -422.621887 0.000003 0.334191
491.550232 -409.739410 7.940890 0.525368
491.544769 -409.747223 7.120397 0.371446
491.539429 -409.754944 6.312070 0.234069
491.534088 -409.762573 5.513948 0.688848
491.528870 -409.770081 4.724162 0.554534
491.523682 -409.777557 3.940901 0.514951
491.518524 -409.784973 3.162431 0.594730
491.513397 -409.792358 2.387053 0.580760
491.508240 -409.799744 1.613094 0.406495
491.503082 -409.807129 0.838895 0.551348
491.497955 -409.814545 0.062792 0.511765
487.933685 -414.936829 -0.000038 0.561520
485.704681 -418.140198 -0.000006 0.338848
484.281769 -420.185089 -0.000004 0.331863
483.292786 -421.606415 0.000001 0.341912
482.564148 -422.653564 0.000003 0.340196
491.787964 -409.689789 7.985248 0.674020
491.782379 -409.697693 7.158610 0.757353
491.776855 -409.705505 6.344238 0.744240
491.771423 -409.713226 5.540152 0.554657
491.766083 -409.720795 4.744470 0.494118
491.760742 -409.728333 3.955363 0.481618
491.755463 -409.735840 3.171090 0.572304
491.750183 -409.743286 2.389935 0.529167
491.744934 -409.750763 1.610214 0.481495
491.739655 -409.758209 0.830256 0.448284
491.734375 -409.765686 0.048385 0.587132
488.033081 -415.006500 -0.000041 0.545343
485.781769 -418.194183 -0.000006 0.331618
484.344604 -420.229126 -0.000004 0.338358
483.345734 -421.643524 0.000001 0.333824
482.609802 -422.685547 0.000002 0.345466
492.029327 -409.639404 8.030578 0.691054
492.023560 -409.647430 7.197663 0.617647
492.017914 -409.655304 6.377111 0.505515
492.012360 -409.663086 5.566928 0.648529
492.006836 -409.670746 4.765219 0.706127
492.001404 -409.678375 3.970141 0.491912
491.995972 -409.685944 3.179936 0.629534
491.990570 -409.693481 2.392880 0.561029
491.985168 -409.701019 1.607272 0.578309
491.979767 -409.708557 0.821429 0.635907
491.974365 -409.716095 0.033664 0.707108
488.132019 -415.076782 -0.000047 0.540809
485.858459 -418.248749 -0.000006 0.330147
484.407135 -420.273621 -0.000004 0.330637
483.398407 -421.680969 0.000001 0.349387
482.655212 -422.717865 0.000002 0.320221
468.468323 -442.316711 6.060486 0.555025
468.464874 -442.321411 5.502371 0.609681
468.461487 -442.326111 4.951692 0.341176
468.458160 -442.330688 4.407146 0.321324
468.454803 -442.335236 3.867490 0.641176
468.451477 -442.339844 3.331521 0.596324
468.448181 -442.344330 2.798045 0.472059
468.444916 -442.348846 2.265916 0.576716
468.441650 -442.353363 1.733993 0.542157
468.438354 -442.357849 1.201135 0.618505
468.435089 -442.362396 0.666192 0.671324
468.431763 -442.366943 0.127999 0.651838
470.072815 -440.110840 0.000030 0.527451
471.538208 -438.096222 0.000035 0.533456
472.556793 -436.695862 0.000054 0.542034
473.307037 -435.664429 0.000002 0.561397
468.436737 -442.168915 6.035297 0.672672
468.433289 -442.173553 5.480637 0.650735
468.429932 -442.178131 4.933368 0.322794
468.426605 -442.182617 4.392199 0.239951
468.423309 -442.187103 3.855890 0.625735
468.419952 -442.191650 3.323246 0.592402
468.416656 -442.196106 2.793084 0.490319
468.413391 -442.200500 2.264262 0.514093
468.410126 -442.204926 1.735648 0.602328
468.406891 -442.209351 1.206106 0.645466
468.403595 -442.213806 0.674495 0.569608
468.400299 -442.218262 0.139656 0.596814
469.997040 -440.054993 0.000066 0.530270
471.476318 -438.050873 0.000029 0.553064
472.504639 -436.657715 0.000047 0.535784
473.262268 -435.631226 0.000075 0.480025
468.405548 -442.022919 6.010614 0.770833
468.402130 -442.027496 5.459338 0.547059
468.398773 -442.031982 4.915411 0.342279
468.395447 -442.036407 4.377550 0.226838
468.392151 -442.040833 3.844522 0.444853
468.388824 -442.045288 3.315139 0.484681
468.385529 -442.049622 2.788223 0.613358
468.382294 -442.053986 2.262642 0.581618
468.379059 -442.058319 1.737269 0.624020
468.375793 -442.062653 1.210977 0.592279
468.372498 -442.067047 0.682631 0.521936
468.369202 -442.071411 0.151078 0.568627
469.921509 -439.998810 0.000072 0.530515
471.414825 -438.004944 0.000059 0.555025
472.452667 -436.619202 0.000024 0.529657
473.217438 -435.598114 0.000038 0.502819
468.374756 -441.878723 5.986424 0.534926
468.371338 -441.883209 5.438463 0.510784
468.367981 -441.887604 4.897812 0.344118
468.364655 -441.891998 4.363194 0.244485
468.361359 -441.896301 3.833384 0.501348
468.358063 -441.900665 3.307192 0.491912
468.354797 -441.904938 2.783458 0.540931
468.351563 -441.909241 2.261054 0.581863
468.348328 -441.913513 1.738858 0.498774
468.345062 -441.917755 1.215751 0.569853
468.341827 -441.922058 0.690604 0.555760
468.338531 -441.926392 0.162273 0.566667
469.846466 -439.942017 0.000093 0.561887
471.353668 -437.958557 0.000095 0.538235
472.401184 -436.580139 0.000060 0.532108
473.173004 -435.564423 0.000075 0.508456
468.344330 -441.736206 5.962714 0.566299
468.340942 -441.740631 5.418006 0.680147
468.337555 -441.744965 4.880566 0.586397
468.334290 -441.749268 4.349124 0.500980
468.330994 -441.753510 3.822463 0.526593
468.327667 -441.757813 3.299404 0.627328
468.324432 -441.762024 2.778789 0.717647
468.321198 -441.766205 2.259498 0.541299
468.317963 -441.770386 1.740416 0.571446
468.314728 -441.774597 1.220430 0.600245
468.311462 -441.778839 0.698418 0.697426
468.308197 -441.783051 0.173245 0.556127
469.771393 -439.885254 0.000011 0.546814
471.292480 -437.912292 0.000014 0.552083
472.349823 -436.540863 0.000053 0.524265
473.128693 -435.530640 0.000043 0.532475
468.314240 -441.595398 5.939478 0.619608
468.310852 -441.599731 5.397954 0.547917
468.307526 -441.604004 4.863661 0.732598
468.304230 -441.608215 4.335335 0.516912
468.300934 -441.612427 3.811761 0.577696
468.297638 -441.616608 3.291771 0.624632
468.294403 -441.620758 2.774212 0.709681
468.291199 -441.624878 2.257972 0.589951
468.287964 -441.628998 1.741942 0.562623
468.284729 -441.633118 1.225015 0.605760
468.281464 -441.637268 0.706077 0.609436
468.278229 -441.641449 0.183997 0.548774
469.697052 -439.827484 0.000014 0.552083
471.231903 -437.865204 0.000019 0.568382
472.298584 -436.501495 -0.000014 0.574020
473.084686 -435.496399 0.000052 0.533578
468.284515 -441.456207 5.916700 0.737377
468.281158 -441.460480 5.378300 0.839216
468.277832 -441.464691 4.847092 0.724510
468.274506 -441.468811 4.321818 0.573652
468.271271 -441.472961 3.801271 0.526961
468.267975 -441.477081 3.284289 0.662255
468.264771 -441.481140 2.769727 0.665931
468.261536 -441.485199 2.256477 0.547426
468.258301 -441.489258 1.743438 0.574510
468.255066 -441.493317 1.229510 0.464216
468.251862 -441.497406 0.713584 0.635172
468.248596 -441.501495 0.194536 0.497426
469.623260 -439.769073 0.000049 0.547672
471.171692 -437.817627 0.000036 0.532475
472.247894 -436.461365 0.000019 0.534436
473.040802 -435.462067 0.000008 0.547549
468.255127 -441.318634 5.894371 0.553186
468.251770 -441.322815 5.359034 0.631495
468.248444 -441.326965 4.830850 0.568873
468.245178 -441.331024 4.308568 0.519118
468.241913 -441.335052 3.790988 0.546201
468.238647 -441.339111 3.276955 0.732108
468.235413 -441.343109 2.765330 0.675613
468.232208 -441.347107 2.255011 0.548407
468.229004 -441.351105 1.744905 0.468382
468.225800 -441.355103 1.233916 0.525980
468.222595 -441.359100 0.720943 0.462745
468.219330 -441.363129 0.204867 0.712990
469.549805 -439.710205 0.000072 0.525858
471.111877 -437.769562 0.000076 0.536765
472.197510 -436.420807 0.000061 0.528676
472.997375 -435.427094 0.000066 0.554657
468.226105 -441.182617 5.872484 0.596936
468.222717 -441.186737 5.340150 0.665441
468.219421 -441.190765 4.814930 0.534191
468.216125 -441.194794 4.295582 0.648529
468.212891 -441.198761 3.780910 0.525123
468.209625 -441.202728 3.269766 0.636152
468.206421 -441.206665 2.761019 0.474387
468.203217 -441.210602 2.253575 0.498897
468.200043 -441.214539 1.746343 0.422672
468.196808 -441.218414 1.238235 0.462010
468.193604 -441.222382 0.728155 0.583824
468.190338 -441.226349 0.214993 0.600858
469.476501 -439.651154 0.000023 0.558701
471.052094 -437.721466 0.000029 0.520098
472.147125 -436.380280 0.000011 0.508824
472.953979 -435.392120 0.000017 0.491789
468.197357 -441.048065 5.851027 0.536887
468.194000 -441.052124 5.321637 0.464338
468.190704 -441.056122 4.799323 0.628922
468.187439 -441.060059 4.282850 0.597181
468.184174 -441.063965 3.771029 0.507475
468.180969 -441.067871 3.262718 0.612010
468.177765 -441.071747 2.756794 0.503554
468.174561 -441.075592 2.252166 0.418137
468.171387 -441.079468 1.747751 0.484804
468.168182 -441.083313 1.242468 0.545833
468.164978 -441.087189 0.735226 0.518260
468.161713 -441.091064 0.224920 0.507721
469.403778 -439.591370 0.000024 0.529167
470.992859 -437.672668 0.000032 0.525858
472.097198 -436.339264 0.000012 0.529044
472.910919 -435.356720 0.000019 0.498284
468.168945 -440.915039 5.829991 0.466667
468.165619 -440.919006 5.303487 0.560539
468.162292 -440.922943 4.784024 0.525980
468.159027 -440.926819 4.270370 0.560662
468.155823 -440.930664 3.761343 0.479044
468.152588 -440.934509 3.255810 0.520711
468.149414 -440.938324 2.752652 0.564706
468.146240 -440.942078 2.250786 0.508333
468.143005 -440.945892 1.749133 0.520221
468.139832 -440.949707 1.246618 0.662132
468.136627 -440.953491 0.742157 0.472794
468.133423 -440.957336 0.234651 0.513603
469.331421 -439.531189 0.000001 0.533701
470.933868 -437.623566 0.000023 0.550980
472.047607 -436.297760 0.000031 0.539093
472.868103 -435.321045 0.000015 0.520466
468.140839 -440.783417 5.809371 0.564338
468.137543 -440.787323 5.285694 0.531618
468.134247 -440.791199 4.769023 0.506005
468.130981 -440.795013 4.258133 0.416054
468.127747 -440.798767 3.751848 0.490564
468.124512 -440.802551 3.249036 0.486520
468.121338 -440.806305 2.748591 0.500980
468.118195 -440.810028 2.249432 0.594608
468.114990 -440.813782 1.750487 0.439706
468.111816 -440.817505 1.250686 0.514216
468.108612 -440.821259 0.748952 0.499020
468.105408 -440.825012 0.244191 0.507353
469.259735 -439.470184 0.000040 0.526838
470.875275 -437.574036 0.000018 0.521446
471.998230 -436.256012 0.000023 0.518015
472.825531 -435.285034 0.000010 0.568873
468.113037 -440.653198 5.789155 0.644118
468.109711 -440.657043 5.268250 0.447181
468.106445 -440.660828 4.754317 0.535049
468.103180 -440.664612 4.246136 0.605882
468.099976 -440.668335 3.742538 0.576226
468.096771 -440.672058 3.242396 0.507108
468.093597 -440.675720 2.744610 0.457598
468.090424 -440.679382 2.248105 0.566176
468.087250 -440.683044 1.751815 0.504044
468.084106 -440.686707 1.254675 0.583824
468.080902 -440.690399 0.755614 0.600613
468.077698 -440.694092 0.253543 0.598774
469.188263 -439.408936 0.000034 0.528554
470.817200 -437.523926 0.000056 0.549632
471.949280 -436.213806 0.000065 0.525000
472.783325 -435.248657 0.000049 0.594608
468.085541 -440.524384 5.769334 0.565441
468.082245 -440.528168 5.251148 0.521446
468.078949 -440.531891 4.739901 0.601471
468.075714 -440.535583 4.234374 0.557230
468.072510 -440.539246 3.733411 0.583578
468.069305 -440.542908 3.235886 0.490809
468.066162 -440.546509 2.740707 0.474265
468.062988 -440.550110 2.246805 0.578554
468.059845 -440.553711 1.753117 0.530637
468.056671 -440.557312 1.258586 0.527941
468.053497 -440.560944 0.762145 0.652083
468.050293 -440.564606 0.262712 0.608946
469.117157 -439.347290 0.000009 0.565564
470.759216 -437.473633 0.000031 0.552451
471.900482 -436.171387 0.000054 0.548897
472.741272 -435.212067 0.000038 0.588726
468.058380 -440.396820 5.749877 0.246814
468.055054 -440.400543 5.234364 0.258824
468.051788 -440.404205 4.725750 0.293750
468.048584 -440.407837 4.222833 0.314706
468.045349 -440.411438 3.724454 0.313235
468.042175 -440.415009 3.229498 0.325980
468.039001 -440.418579 2.736878 0.359069
468.035858 -440.422150 2.245528 0.423039
468.032684 -440.425690 1.754394 0.417279
468.029541 -440.429230 1.262421 0.440441
468.026367 -440.432800 0.768550 0.429902
468.023193 -440.436401 0.271704 0.462255
469.046753 -439.284790 0.000049 0.543750
470.701813 -437.422729 0.000067 0.540441
471.851898 -436.128754 0.000012 0.540686
472.699371 -435.175293 -0.000004 0.513971
468.031433 -440.270569 5.730823 0.217647
468.028137 -440.274231 5.217920 0.203922
468.024872 -440.277863 4.711885 0.209069
468.021667 -440.281433 4.211522 0.209804
468.018463 -440.284973 3.715675 0.208824
468.015320 -440.288483 3.223236 0.212745
468.012146 -440.291992 2.733123 0.211765
468.009003 -440.295471 2.244277 0.210172
468.005859 -440.298981 1.755646 0.203922
468.002716 -440.302460 1.266183 0.206373
467.999542 -440.305969 0.774833 0.206373
467.996338 -440.309509 0.280524 0.206618
468.976593 -439.222046 0.000043 0.531863
470.644318 -437.371887 -0.000015 0.547304
471.803711 -436.085663 0.000006 0.556495
472.657806 -435.138153 -0.000006 0.548529
468.004730 -440.145691 5.712152 0.613725
468.001465 -440.149292 5.201811 0.567157
467.998169 -440.152863 4.698308 0.474877
467.994995 -440.156342 4.200446 0.409804
467.991791 -440.159851 3.707081 0.544730
467.988617 -440.163330 3.217106 0.685294
467.985474 -440.166748 2.729448 0.487990
467.982361 -440.170166 2.243052 0.450490
467.979218 -440.173584 1.756872 0.566789
467.976074 -440.177032 1.269868 0.711887
467.972961 -440.180450 0.780989 0.525490
467.969788 -440.183899 0.289168 0.470833
468.906982 -439.158661 0.000063 0.536397
470.587616 -437.320190 0.000017 0.544363
471.755951 -436.042084 0.000045 0.549632
472.616638 -435.100616 0.000022 0.489583
467.978333 -440.021973 5.693832 0.576471
467.975067 -440.025513 5.186006 0.535172
467.971802 -440.029022 4.684983 0.499265
467.968597 -440.032471 4.189576 0.714216
467.965424 -440.035889 3.698645 0.587377
467.962250 -440.039337 3.211091 0.696814
467.959137 -440.042664 2.725842 0.495711
467.956024 -440.046051 2.241849 0.517402
467.952881 -440.049408 1.758075 0.582966
467.949768 -440.052795 1.273481 0.689706
467.946625 -440.056183 0.787023 0.613480
467.943481 -440.059570 0.297641 0.546324
468.837341 -439.095367 -0.000024 0.542279
470.531097 -437.268280 -0.000002 0.539216
471.708252 -435.998474 -0.000004 0.511275
472.575592 -435.062866 0.000019 0.511765
467.952209 -439.899475 5.675869 0.708456
467.948914 -439.902985 5.170508 0.538848
467.945679 -439.906403 4.671918 0.616789
467.942474 -439.909821 4.178919 0.539461
467.939331 -439.913177 3.690375 0.556740
467.936157 -439.916534 3.205193 0.550613
467.933044 -439.919861 2.722306 0.562745
467.929932 -439.923187 2.240671 0.590441
467.926819 -439.926483 1.759255 0.533456
467.923706 -439.929810 1.277024 0.706863
467.920563 -439.933136 0.792939 0.526838
467.917419 -439.936493 0.305946 0.492892
468.768616 -439.031036 -0.000007 0.545098
470.475159 -437.215790 0.000032 0.520221
471.661072 -435.954285 0.000016 0.543750
472.534912 -435.024780 0.000036 0.576838
467.926300 -439.778168 5.658259 0.572672
467.923035 -439.781586 5.155313 0.559069
467.919830 -439.784973 4.659109 0.505392
467.916595 -439.788330 4.168469 0.696446
467.913452 -439.791656 3.682266 0.590441
467.910309 -439.794952 3.199410 0.632108
467.907196 -439.798218 2.718839 0.580882
467.904083 -439.801483 2.239516 0.556373
467.900970 -439.804718 1.760411 0.636029
467.897858 -439.808014 1.280497 0.766667
467.894745 -439.811279 0.798740 0.682966
467.891602 -439.814575 0.314090 0.658456
468.700226 -438.966339 -0.000012 0.518505
470.419220 -437.163208 -0.000015 0.554167
471.614105 -435.909882 0.000010 0.540074
472.494415 -434.986450 0.000032 0.534804
467.900665 -439.657990 5.640993 0.631618
467.897400 -439.661346 5.140416 0.517524
467.894196 -439.664703 4.646550 0.603431
467.890991 -439.667999 4.158225 0.780270
467.887848 -439.671265 3.674315 0.480025
467.884705 -439.674530 3.193740 0.506373
467.881592 -439.677734 2.715440 0.625735
467.878479 -439.680939 2.238382 0.725490
467.875397 -439.684143 1.761544 0.629534
467.872284 -439.687378 1.283902 0.536887
467.869171 -439.690582 0.804428 0.583578
467.866028 -439.693817 0.322074 0.519730
468.632599 -438.900909 0.000042 0.541544
470.364105 -437.109833 0.000046 0.538603
471.567719 -435.864838 0.000087 0.586765
472.454315 -434.947754 0.000067 0.585417
467.875275 -439.538940 5.624063 0.534804
467.872009 -439.542267 5.125809 0.484804
467.868805 -439.545532 4.634237 0.409559
467.865601 -439.548798 4.148180 0.522794
467.862457 -439.551971 3.666521 0.582721
467.859314 -439.555206 3.188181 0.552941
467.856232 -439.558380 2.712107 0.678309
467.853149 -439.561523 2.237272 0.580515
467.850037 -439.564667 1.762656 0.553186
467.846954 -439.567841 1.287241 0.636397
467.843842 -439.570984 0.810004 0.503064
467.840729 -439.574188 0.329902 0.527328
468.565033 -438.835358 0.000019 0.541544
470.309113 -437.056305 0.000042 0.532230
471.521240 -435.819885 0.000037 0.550980
472.414337 -434.908905 0.000057 0.518505
467.850128 -439.420990 5.607465 0.462990
467.846863 -439.424255 5.111489 0.640931
467.843658 -439.427490 4.622165 0.587255
467.840485 -439.430695 4.138333 0.633211
467.837341 -439.433838 3.658879 0.712255
467.834198 -439.437012 3.182732 0.539706
467.831085 -439.440094 2.708840 0.664706
467.828033 -439.443237 2.236183 0.538358
467.824921 -439.446320 1.763746 0.545098
467.821838 -439.449432 1.290514 0.555270
467.818726 -439.452545 0.815470 0.612255
467.815613 -439.455688 0.337577 0.611642
468.498199 -438.769073 0.000052 0.520343
470.254456 -437.002441 0.000033 0.550123
471.475342 -435.774353 0.000073 0.589951
472.374634 -434.869751 0.000053 0.544976
467.825165 -439.304077 5.591193 0.459191
467.821930 -439.307312 5.097449 0.665196
467.818726 -439.310486 4.610330 0.480760
467.815582 -439.313629 4.128678 0.614951
467.812439 -439.316772 3.651387 0.494240
467.809296 -439.319855 3.177388 0.497794
467.806213 -439.322937 2.705637 0.629044
467.803131 -439.325958 2.235115 0.486520
467.800049 -439.329041 1.764814 0.522426
467.796967 -439.332092 1.293723 0.565074
467.793854 -439.335175 0.820829 0.486520
467.790741 -439.338257 0.345100 0.511397
468.431549 -438.702576 0.000028 0.535294
470.200165 -436.948242 0.000010 0.536029
471.429596 -435.728699 0.000048 0.549020
472.335144 -434.830444 0.000008 0.499632
467.800476 -439.188293 5.575240 0.561520
467.797211 -439.191437 5.083684 0.573162
467.794037 -439.194550 4.598726 0.497181
467.790863 -439.197662 4.119213 0.795098
467.787750 -439.200684 3.644042 0.601348
467.784607 -439.203766 3.172150 0.469976
467.781525 -439.206757 2.702496 0.536397
467.778442 -439.209808 2.234068 0.532598
467.775360 -439.212799 1.765861 0.600858
467.772308 -439.215820 1.296870 0.533701
467.769196 -439.218842 0.826083 0.677574
467.766083 -439.221893 0.352476 0.599020
468.365479 -438.635559 0.000020 0.556250
470.146271 -436.893585 0.000004 0.542647
471.383911 -435.682922 -0.000041 0.544363
472.295990 -434.790771 0.000001 0.538603
467.775970 -439.073425 5.559602 0.616422
467.772736 -439.076538 5.070191 0.525245
467.769562 -439.079620 4.587351 0.526838
467.766388 -439.082672 4.109933 0.561152
467.763275 -439.085693 3.636841 0.513480
467.760162 -439.088684 3.167014 0.644608
467.757080 -439.091675 2.699418 0.618873
467.753998 -439.094635 2.233042 0.556740
467.750946 -439.097595 1.766888 0.585417
467.747864 -439.100555 1.299953 0.518627
467.744781 -439.103516 0.831234 0.451593
467.741699 -439.106537 0.359707 0.505147
468.300171 -438.567749 0.000080 0.523407
470.093140 -436.838257 0.000083 0.542525
471.339111 -435.636322 0.000037 0.568750
472.257355 -434.750549 0.000077 0.536397
467.751678 -438.959625 5.544271 0.566667
467.748474 -438.962677 5.056964 0.643995
467.745300 -438.965729 4.576200 0.451471
467.742126 -438.968689 4.100837 0.654657
467.739014 -438.971680 3.629782 0.570466
467.735901 -438.974640 3.161980 0.673774
467.732819 -438.977570 2.696400 0.547549
467.729767 -438.980469 2.232037 0.534926
467.726685 -438.983368 1.767894 0.552696
467.723633 -438.986298 1.302977 0.629044
467.720551 -438.989227 0.836283 0.654412
467.717468 -438.992157 0.366795 0.536029
468.234863 -438.500031 0.000033 0.552451
470.039948 -436.782928 0.000058 0.559804
471.294373 -435.589661 0.000029 0.523162
472.218658 -434.710449 0.000025 0.548774
467.727600 -438.846771 5.529243 0.600490
467.724396 -438.849792 5.043997 0.601838
467.721222 -438.852753 4.565269 0.482353
467.718079 -438.855682 4.091920 0.713480
467.714966 -438.858612 3.622862 0.515441
467.711853 -438.861542 3.157046 0.636152
467.708801 -438.864441 2.693441 0.627328
467.705719 -438.867279 2.231051 0.560539
467.702698 -438.870148 1.768881 0.492279
467.699615 -438.873016 1.305941 0.546324
467.696533 -438.875885 0.841232 0.449265
467.693481 -438.878815 0.373744 0.514951
468.170105 -438.431702 0.000008 0.552451
469.986938 -436.727448 -0.000020 0.512868
471.249908 -435.542725 0.000005 0.558333
472.180389 -434.669922 0.000024 0.526961
467.703735 -438.734863 5.514510 0.602941
467.700531 -438.737823 5.031287 0.779289
467.697357 -438.740753 4.554554 0.724877
467.694244 -438.743652 4.083180 0.680637
467.691132 -438.746521 3.616079 0.507108
467.688019 -438.749390 3.152208 0.625858
467.684967 -438.752228 2.690542 0.497059
467.681915 -438.755035 2.230084 0.558946
467.678864 -438.757874 1.769848 0.534191
467.675812 -438.760681 1.308846 0.548284
467.672729 -438.763550 0.846084 0.573529
467.669647 -438.766388 0.380555 0.529289
468.106110 -438.362671 0.000042 0.537745
469.934784 -436.671173 0.000015 0.533088
471.205841 -435.495453 0.000001 0.543137
472.142456 -434.629089 0.000042 0.465809
467.680054 -438.623871 5.500070 0.610662
467.676880 -438.626770 5.018828 0.486029
467.673706 -438.629669 4.544052 0.481005
467.670593 -438.632538 4.074612 0.464951
467.667480 -438.635345 3.609431 0.461397
467.664368 -438.638184 3.147468 0.548652
467.661316 -438.640961 2.687699 0.480882
467.658295 -438.643738 2.229137 0.670588
467.655212 -438.646515 1.770796 0.674265
467.652161 -438.649292 1.311693 0.548897
467.649109 -438.652100 0.850839 0.576593
467.646027 -438.654907 0.387230 0.570466
468.042297 -438.293488 0.000018 0.550490
469.882782 -436.614746 -0.000009 0.529044
471.162048 -435.447845 -0.000007 0.539706
472.104584 -434.588165 -0.000005 0.531863
467.656586 -438.513794 5.485917 0.752328
467.653412 -438.516663 5.006617 0.513235
467.650269 -438.519470 4.533757 0.561887
467.647125 -438.522308 4.066216 0.523775
467.644012 -438.525085 3.602915 0.654779
467.640930 -438.527863 3.142820 0.502451
467.637878 -438.530609 2.684913 0.756740
467.634827 -438.533325 2.228209 0.637868
467.631805 -438.536072 1.771725 0.760294
467.628754 -438.538818 1.314484 0.571446
467.625702 -438.541565 0.855500 0.584191
467.622650 -438.544312 0.393773 0.592892
467.979279 -438.223541 0.000051 0.538725
469.831390 -436.557739 0.000026 0.550980
471.118713 -435.399902 0.000010 0.567279
472.067261 -434.546783 0.000026 0.535049
467.633301 -438.404572 5.472044 0.542279
467.630127 -438.407410 4.994649 0.497794
467.626984 -438.410187 4.523669 0.493137
467.623840 -438.412964 4.057986 0.436029
467.620758 -438.415680 3.596529 0.710662
467.617676 -438.418427 3.138266 0.540809
467.614624 -438.421143 2.682183 0.551716
467.611572 -438.423828 2.227298 0.715074
467.608551 -438.426514 1.772635 0.709926
467.605499 -438.429230 1.317219 0.643873
467.602448 -438.431946 0.860067 0.840441
467.599396 -438.434662 0.400185 0.654167
467.916687 -438.153259 0.000068 0.546569
469.780365 -436.500458 0.000039 0.506740
471.075775 -435.351593 0.000045 0.512745
472.030243 -434.505096 0.000060 0.535539
467.610199 -438.296234 5.458451 0.516789
467.607025 -438.299011 4.982921 0.360662
467.603882 -438.301758 4.513782 0.294363
467.600769 -438.304474 4.049921 0.316544
467.597656 -438.307190 3.590271 0.651103
467.594604 -438.309875 3.133803 0.552696
467.591553 -438.312531 2.679507 0.541299
467.588501 -438.315186 2.226407 0.777941
467.585480 -438.317810 1.773528 0.675123
467.582458 -438.320496 1.319899 0.605637
467.579437 -438.323151 0.864544 0.510539
467.576355 -438.325836 0.406469 0.674142
467.854309 -438.082764 0.000038 0.513971
469.729401 -436.443054 -0.000014 0.540931
471.032867 -435.303223 -0.000009 0.522917
471.993317 -434.463348 0.000033 0.595956
467.587280 -438.188721 5.445131 0.586152
467.584106 -438.191437 4.971429 0.352819
467.580963 -438.194153 4.504094 0.222181
467.577850 -438.196838 4.042018 0.279779
467.574768 -438.199493 3.584138 0.572304
467.571716 -438.202148 3.129430 0.534436
467.568634 -438.204773 2.676886 0.507230
467.565613 -438.207397 2.225533 0.688971
467.562592 -438.209991 1.774402 0.626348
467.559570 -438.212585 1.322525 0.543015
467.556519 -438.215210 0.868929 0.536887
467.553467 -438.217865 0.412626 0.571936
467.792328 -438.011932 -0.000012 0.550000
469.679169 -436.385040 0.000007 0.543260
470.990570 -435.254333 0.000015 0.544976
471.956635 -434.421387 -0.000011 0.557353
467.564514 -438.082031 5.432078 0.627451
467.561371 -438.084717 4.960167 0.358701
467.558228 -438.087372 4.494602 0.267892
467.555145 -438.089996 4.034275 0.260172
467.552063 -438.092621 3.578130 0.533456
467.548981 -438.095276 3.125144 0.557721
467.545929 -438.097839 2.674317 0.531005
467.542908 -438.100403 2.224677 0.743260
467.539917 -438.102966 1.775259 0.637132
467.536896 -438.105530 1.325099 0.523039
467.533844 -438.108124 0.873227 0.537745
467.530792 -438.110718 0.418659 0.528676
467.731201 -437.940338 -0.000000 0.532721
469.629395 -436.326630 0.000037 0.542157
470.948669 -435.205109 0.000052 0.532108
471.920471 -434.378967 0.000013 0.600123
467.541962 -437.976166 5.419291 0.576226
467.538788 -437.978790 4.949135 0.353064
467.535675 -437.981415 4.485301 0.215809
467.532562 -437.983978 4.026688 0.282108
467.529510 -437.986572 3.572242 0.582108
467.526428 -437.989166 3.120946 0.580270
467.523407 -437.991699 2.671800 0.646691
467.520386 -437.994232 2.223838 0.737500
467.517365 -437.996735 1.776098 0.772181
467.514343 -437.999298 1.327620 0.715931
467.511322 -438.001831 0.877438 0.653799
467.508270 -438.004395 0.424570 0.763235
467.670441 -437.868469 -0.000007 0.535049
469.579803 -436.268097 0.000011 0.531127
470.906921 -435.155731 0.000049 0.541544
471.884491 -434.336395 0.000009 0.501348
467.519531 -437.871033 5.406763 0.756863
467.516388 -437.873627 4.938326 0.352941
467.513275 -437.876221 4.476189 0.188235
467.510162 -437.878754 4.019256 0.275980
467.507111 -437.881317 3.566476 0.491054
467.504059 -437.883850 3.116833 0.745588
467.501007 -437.886353 2.669334 0.476961
467.497986 -437.888824 2.223016 0.713603
467.494995 -437.891327 1.776920 0.594363
467.491974 -437.893829 1.330090 0.644118
467.488953 -437.896301 0.881562 0.579289
467.485931 -437.898834 0.430361 0.527941
467.610291 -437.796021 0.000010 0.534926
469.530884 -436.209015 0.000047 0.541789
470.865662 -435.105988 0.000064 0.524632
471.848907 -434.293518 0.000026 0.495588
467.497314 -437.766663 5.394491 0.599265
467.494171 -437.769257 4.927738 0.455760
467.491028 -437.771790 4.467264 0.440809
467.487946 -437.774292 4.011976 0.403676
467.484894 -437.776825 3.560827 0.543873
467.481812 -437.779297 3.112804 0.619485
467.478790 -437.781738 2.666919 0.481250
467.475769 -437.784210 2.222211 0.696078
467.472809 -437.786652 1.777726 0.571201
467.469788 -437.789124 1.332509 0.532966
467.466766 -437.791595 0.885603 0.524755
467.463715 -437.794037 0.436033 0.500245
467.550568 -437.723297 0.000004 0.544485
469.482086 -436.149750 0.000023 0.540809
470.824310 -435.056274 -0.000030 0.484314
471.813385 -434.250519 -0.000022 0.534926
467.475250 -437.663086 5.382471 0.514338
467.472076 -437.665588 4.917367 0.594485
467.468964 -437.668121 4.458522 0.471936
467.465881 -437.670563 4.004844 0.444730
467.462830 -437.673035 3.555295 0.599142
467.459747 -437.675507 3.108858 0.664216
467.456757 -437.677948 2.664553 0.567647
467.453735 -437.680328 2.221422 0.670833
467.450745 -437.682770 1.778515 0.619240
467.447723 -437.685150 1.334879 0.555270
467.444702 -437.687592 0.889560 0.629412
467.441681 -437.690002 0.441588 0.565809
467.491669 -437.649841 0.000063 0.553064
469.433960 -436.089966 0.000060 0.550123
470.783844 -435.005859 0.000027 0.546814
471.778564 -434.207001 0.000056 0.530392
467.453308 -437.560181 5.370698 0.599142
467.450134 -437.562683 4.907211 0.936275
467.447021 -437.565155 4.449960 0.737377
467.443970 -437.567596 3.997861 0.682476
467.440887 -437.570038 3.549876 0.646814
467.437836 -437.572418 3.104993 0.600490
467.434845 -437.574829 2.662236 0.620098
467.431854 -437.577179 2.220651 0.566789
467.428833 -437.579559 1.779287 0.612010
467.425842 -437.581940 1.337200 0.564338
467.422821 -437.584351 0.893436 0.465686
467.419800 -437.586700 0.447029 0.558946
467.416748 -437.589142 -0.003012 0.452696
469.386017 -436.030060 0.000029 0.517157
470.743500 -434.955353 0.000012 0.553922
471.743744 -434.163452 0.000027 0.531495
467.431519 -437.458038 5.359169 0.665686
467.428375 -437.460480 4.897265 0.439583
467.425262 -437.462891 4.441577 0.450858
467.422211 -437.465302 3.991022 0.565441
467.419128 -437.467712 3.544570 0.507966
467.416077 -437.470062 3.101209 0.566789
467.413086 -437.472412 2.659968 0.641299
467.410095 -437.474762 2.219894 0.547304
467.407104 -437.477081 1.780044 0.573039
467.404114 -437.479431 1.339472 0.624632
467.401093 -437.481750 0.897231 0.625735
467.398071 -437.484131 0.452357 0.509436
467.395020 -437.486542 0.003862 0.553676
469.338745 -435.969635 0.000066 0.528186
470.703613 -434.904480 0.000034 0.540074
471.709412 -434.119568 0.000067 0.537255
467.409912 -437.356537 5.347882 0.536152
467.406769 -437.358948 4.887527 0.550245
467.403656 -437.361359 4.433368 0.520221
467.400574 -437.363708 3.984327 0.632966
467.397522 -437.366089 3.539376 0.654534
467.394470 -437.368408 3.097504 0.620221
467.391479 -437.370728 2.657746 0.636887
467.388489 -437.373016 2.219154 0.597549
467.385529 -437.375305 1.780784 0.584191
467.382507 -437.377594 1.341697 0.700490
467.379486 -437.379913 0.900947 0.646324
467.376495 -437.382233 0.457573 0.632230
467.373413 -437.384583 0.010591 0.618995
469.291656 -435.909058 0.000041 0.549265
470.664001 -434.853394 0.000026 0.571569
471.675201 -434.075562 0.000043 0.531127
467.388428 -437.255737 5.336833 0.480270
467.385284 -437.258118 4.877995 0.641176
467.382202 -437.260468 4.425332 0.518015
467.379120 -437.262756 3.977772 0.623775
467.376038 -437.265106 3.534290 0.510294
467.373016 -437.267426 3.093876 0.600613
467.369995 -437.269684 2.655572 0.544240
467.367004 -437.271942 2.218429 0.581250
467.364075 -437.274231 1.781509 0.499387
467.361053 -437.276489 1.343876 0.623897
467.358063 -437.278748 0.904585 0.524142
467.355042 -437.281036 0.462679 0.661152
467.352020 -437.283325 0.017179 0.586520
469.245026 -435.848114 0.000029 0.525490
470.624573 -434.802185 -0.000027 0.555147
471.641205 -434.031372 -0.000005 0.543137
