# This PCD file was generated using the MATLABÂ® pcwrite function
# from Computer Vision ToolboxÂ®.
# .PCD v.7 - Point Cloud Data file format
VERSION .7
FIELDS x y z intensity
SIZE 4 4 4 4
TYPE F F F F
COUNT 1 1 1 1
WIDTH 1213
HEIGHT 1
VIEWPOINT 0 0 0 1 0 0 0
POINTS 1213
DATA ascii
296.058075 -355.620728 0.272018 1.000000
296.666351 -355.870117 0.000003 0.555392
298.268402 -356.526917 -0.000008 0.501225
299.448792 -357.010834 -0.000002 0.515074
296.199677 -355.591797 4.887944 1.000000
296.199677 -355.591797 4.490094 1.000000
296.199677 -355.591797 4.097832 1.000000
296.199677 -355.591797 3.710214 1.000000
296.199677 -355.591797 3.326342 1.000000
296.199677 -355.591797 2.945351 1.000000
296.199677 -355.591797 2.566399 1.000000
296.199677 -355.591797 2.188665 1.000000
296.199677 -355.591797 1.811335 1.000000
296.199677 -355.591797 1.433600 1.000000
296.199677 -355.591797 1.054649 1.000000
296.199677 -355.591797 0.673658 1.000000
296.199677 -355.591797 0.289786 1.000000
296.695770 -355.799255 0.000012 0.542157
298.293274 -356.467224 0.000018 0.540441
299.470154 -356.959351 0.000009 0.547917
296.338440 -355.563446 4.858687 1.000000
296.338440 -355.563446 4.464868 1.000000
296.338409 -355.563416 4.076582 1.000000
296.338409 -355.563416 3.692891 1.000000
296.338409 -355.563416 3.312907 1.000000
296.338409 -355.563416 2.935775 1.000000
296.338409 -355.563416 2.560662 1.000000
296.338409 -355.563416 2.186754 1.000000
296.338409 -355.563416 1.813246 1.000000
296.338409 -355.563416 1.439338 1.000000
296.338409 -355.563416 1.064224 1.000000
296.338409 -355.563416 0.687092 1.000000
296.338409 -355.563416 0.307109 1.000000
296.725586 -355.728516 0.000003 0.559559
298.318390 -356.407654 0.000013 0.512010
299.491821 -356.908020 0.000002 0.535784
296.474396 -355.535645 4.830156 1.000000
296.474365 -355.535645 4.440271 1.000000
296.474365 -355.535645 4.055857 1.000000
296.474365 -355.535645 3.675994 1.000000
296.474365 -355.535645 3.299803 1.000000
296.474365 -355.535645 2.926435 1.000000
296.474365 -355.535645 2.555067 1.000000
296.474365 -355.535645 2.184890 1.000000
296.474365 -355.535645 1.815110 1.000000
296.474365 -355.535645 1.444933 1.000000
296.474365 -355.535645 1.073564 1.000000
296.474365 -355.535645 0.700197 1.000000
296.474365 -355.535645 0.324006 1.000000
296.755920 -355.658051 0.000005 0.558088
298.343933 -356.348297 0.000011 0.502941
299.513885 -356.856812 0.000006 0.541789
296.607697 -355.508423 4.802326 1.000000
296.607666 -355.508423 4.416276 1.000000
296.607666 -355.508423 4.035642 1.000000
296.607666 -355.508423 3.659514 1.000000
296.607666 -355.508423 3.287022 1.000000
296.607666 -355.508423 2.917325 1.000000
296.607666 -355.508423 2.549608 1.000000
296.607666 -355.508423 2.183072 1.000000
296.607666 -355.508423 1.816928 1.000000
296.607666 -355.508423 1.450392 1.000000
296.607666 -355.508423 1.082675 1.000000
296.607666 -355.508423 0.712978 1.000000
296.607666 -355.508423 0.340486 1.000000
296.786774 -355.587769 0.000004 0.557843
298.369904 -356.289063 0.000008 0.529044
299.536316 -356.805786 0.000014 0.611274
296.738342 -355.481720 4.775174 1.000000
296.738342 -355.481720 4.392862 1.000000
296.738342 -355.481720 4.015916 1.000000
296.738342 -355.481720 3.643433 1.000000
296.738342 -355.481720 3.274551 1.000000
296.738342 -355.481720 2.908437 1.000000
296.738342 -355.481720 2.544283 1.000000
296.738342 -355.481720 2.181298 1.000000
296.738342 -355.481720 1.818702 1.000000
296.738342 -355.481720 1.455717 1.000000
296.738342 -355.481720 1.091563 1.000000
296.738342 -355.481720 0.725448 1.000000
296.738342 -355.481720 0.356566 1.000000
296.818054 -355.517700 -0.000003 0.528309
298.396271 -356.230042 0.000001 0.543873
299.559052 -356.754852 0.000007 0.555392
296.866577 -355.455566 4.748669 1.000000
296.866547 -355.455536 4.370011 1.000000
296.866547 -355.455536 3.996664 1.000000
296.866547 -355.455536 3.627739 1.000000
296.866547 -355.455536 3.262379 1.000000
296.866547 -355.455536 2.899761 1.000000
296.866547 -355.455536 2.539085 1.000000
296.866547 -355.455536 2.179567 1.000000
296.866547 -355.455536 1.820433 1.000000
296.866547 -355.455536 1.460915 1.000000
296.866547 -355.455536 1.100239 1.000000
296.866547 -355.455536 0.737621 1.000000
296.866547 -355.455536 0.372261 1.000000
296.866547 -355.455536 0.003336 1.000000
298.423126 -356.171265 0.000012 0.537010
299.582153 -356.704163 0.000013 0.513726
296.992310 -355.429840 4.722805 1.000000
296.992310 -355.429840 4.347708 1.000000
296.992310 -355.429840 3.977873 1.000000
296.992310 -355.429840 3.612421 1.000000
296.992310 -355.429840 3.250499 1.000000
296.992310 -355.429840 2.891294 1.000000
296.992310 -355.429840 2.534011 1.000000
296.992310 -355.429840 2.177877 1.000000
296.992310 -355.429840 1.822123 1.000000
296.992310 -355.429840 1.465988 1.000000
296.992310 -355.429840 1.108706 1.000000
296.992310 -355.429840 0.749501 1.000000
296.992310 -355.429840 0.387580 1.000000
296.992310 -355.429840 0.022126 1.000000
298.450287 -356.112610 0.000005 0.535172
299.605621 -356.653595 0.000012 0.536029
297.115784 -355.404663 4.697544 1.000000
297.115753 -355.404633 4.325930 1.000000
297.115753 -355.404633 3.959526 1.000000
297.115753 -355.404633 3.597463 1.000000
297.115753 -355.404633 3.238899 1.000000
297.115753 -355.404633 2.883026 1.000000
297.115753 -355.404633 2.529058 1.000000
297.115753 -355.404633 2.176227 1.000000
297.115753 -355.404633 1.823773 1.000000
297.115753 -355.404633 1.470942 1.000000
297.115753 -355.404633 1.116974 1.000000
297.115753 -355.404633 0.761101 1.000000
297.115753 -355.404633 0.402537 1.000000
297.115753 -355.404633 0.040474 1.000000
298.477936 -356.054138 0.000004 0.544485
299.629425 -356.603180 0.000004 0.543995
297.236938 -355.379883 4.672881 1.000000
297.236908 -355.379883 4.304665 1.000000
297.236908 -355.379883 3.941612 1.000000
297.236908 -355.379852 3.582859 1.000000
297.236908 -355.379883 3.227573 1.000000
297.236908 -355.379852 2.874953 1.000000
297.236908 -355.379883 2.524221 1.000000
297.236908 -355.379883 2.174616 1.000000
297.236908 -355.379883 1.825384 1.000000
297.236908 -355.379883 1.475779 1.000000
297.236908 -355.379852 1.125046 1.000000
297.236908 -355.379883 0.772427 1.000000
297.236908 -355.379852 0.417141 1.000000
297.236908 -355.379883 0.058388 1.000000
298.505920 -355.995850 -0.000003 0.530025
299.653534 -356.552948 -0.000002 0.532966
297.355896 -355.355560 4.648799 1.000000
297.355896 -355.355560 4.283895 1.000000
297.355896 -355.355560 3.924114 1.000000
297.355896 -355.355560 3.568594 1.000000
297.355896 -355.355560 3.216510 1.000000
297.355896 -355.355560 2.867068 1.000000
297.355896 -355.355560 2.519497 1.000000
297.355896 -355.355560 2.173042 1.000000
297.355896 -355.355560 1.826958 1.000000
297.355896 -355.355560 1.480503 1.000000
297.355896 -355.355560 1.132932 1.000000
297.355896 -355.355560 0.783490 1.000000
297.355896 -355.355560 0.431406 1.000000
297.355896 -355.355560 0.075886 1.000000
298.534393 -355.937836 0.000006 0.513603
299.678040 -356.502869 -0.000011 0.526348
297.472748 -355.331665 4.625267 1.000000
297.472748 -355.331696 4.263605 1.000000
297.472748 -355.331696 3.907021 1.000000
297.472748 -355.331696 3.554658 1.000000
297.472748 -355.331665 3.205703 1.000000
297.472748 -355.331696 2.859365 1.000000
297.472748 -355.331665 2.514882 1.000000
297.472748 -355.331665 2.171504 1.000000
297.472748 -355.331665 1.828495 1.000000
297.472748 -355.331665 1.485118 1.000000
297.472748 -355.331696 1.140635 1.000000
297.472748 -355.331665 0.794297 1.000000
297.472748 -355.331665 0.445342 1.000000
297.472748 -355.331665 0.092980 1.000000
298.563263 -355.879974 0.000016 0.563480
299.702942 -356.452972 -0.000001 0.515564
297.587555 -355.308258 4.602278 1.000000
297.587555 -355.308258 4.243783 1.000000
297.587555 -355.308258 3.890320 1.000000
297.587555 -355.308258 3.541044 1.000000
297.587555 -355.308258 3.195144 1.000000
297.587555 -355.308258 2.851839 1.000000
297.587555 -355.308258 2.510373 1.000000
297.587555 -355.308258 2.170003 1.000000
297.587555 -355.308258 1.829997 1.000000
297.587555 -355.308258 1.489627 1.000000
297.587555 -355.308258 1.148160 1.000000
297.587555 -355.308258 0.804856 1.000000
297.587555 -355.308258 0.458956 1.000000
297.587555 -355.308258 0.109679 1.000000
298.592499 -355.822327 0.000012 0.521078
299.728210 -356.403320 0.000015 0.542157
297.700378 -355.285187 4.579813 1.000000
297.700378 -355.285187 4.224412 1.000000
297.700378 -355.285187 3.874001 1.000000
297.700378 -355.285187 3.527740 1.000000
297.700378 -355.285187 3.184826 1.000000
297.700378 -355.285187 2.844485 1.000000
297.700378 -355.285187 2.505967 1.000000
297.700378 -355.285187 2.168535 1.000000
297.700378 -355.285187 1.831465 1.000000
297.700378 -355.285187 1.494033 1.000000
297.700378 -355.285187 1.155514 1.000000
297.700378 -355.285187 0.815174 1.000000
297.700378 -355.285187 0.472260 1.000000
297.700378 -355.285187 0.125999 1.000000
298.622131 -355.764862 0.000012 0.523162
299.753754 -356.353729 0.000005 0.511152
297.811279 -355.262543 4.557854 1.000000
297.811279 -355.262543 4.205478 1.000000
297.811279 -355.262543 3.858050 1.000000
297.811279 -355.262543 3.514737 1.000000
297.811279 -355.262543 3.174741 1.000000
297.811279 -355.262543 2.837297 1.000000
297.811279 -355.262543 2.501660 1.000000
297.811279 -355.262543 2.167100 1.000000
297.811279 -355.262543 1.832899 1.000000
297.811279 -355.262543 1.498340 1.000000
297.811279 -355.262543 1.162703 1.000000
297.811279 -355.262543 0.825259 1.000000
297.811279 -355.262543 0.485263 1.000000
297.811279 -355.262543 0.141950 1.000000
298.652130 -355.707611 0.000003 0.532721
299.779602 -356.304382 -0.000005 0.545098
297.920319 -355.240265 4.536389 1.000000
297.920319 -355.240265 4.186971 1.000000
297.920319 -355.240265 3.842458 1.000000
297.920319 -355.240265 3.502026 1.000000
297.920319 -355.240265 3.164884 1.000000
297.920319 -355.240265 2.830271 1.000000
297.920319 -355.240265 2.497450 1.000000
297.920319 -355.240265 2.165699 1.000000
297.920319 -355.240265 1.834302 1.000000
297.920319 -355.240265 1.502550 1.000000
297.920319 -355.240265 1.169729 1.000000
297.920319 -355.240265 0.835117 1.000000
297.920319 -355.240265 0.497974 1.000000
297.920319 -355.240265 0.157542 1.000000
298.682556 -355.650574 -0.000000 0.558333
299.805878 -356.255219 -0.000001 0.520343
298.027527 -355.218353 4.515401 1.000000
298.027527 -355.218353 4.168874 1.000000
298.027527 -355.218353 3.827212 1.000000
298.027527 -355.218353 3.489596 1.000000
298.027527 -355.218353 3.155244 1.000000
298.027527 -355.218353 2.823400 1.000000
298.027527 -355.218353 2.493334 1.000000
298.027527 -355.218353 2.164327 1.000000
298.027527 -355.218353 1.835673 1.000000
298.027527 -355.218353 1.506666 1.000000
298.027527 -355.218353 1.176599 1.000000
298.027527 -355.218353 0.844756 1.000000
298.027527 -355.218353 0.510404 1.000000
298.027527 -355.218353 0.172788 1.000000
298.713440 -355.593750 0.000004 0.530637
299.832458 -356.206207 0.000005 0.539461
298.132996 -355.196808 4.494879 1.000000
298.132996 -355.196808 4.151179 1.000000
298.132996 -355.196808 3.812304 1.000000
298.132996 -355.196808 3.477444 1.000000
298.132996 -355.196808 3.145819 1.000000
298.132996 -355.196808 2.816683 1.000000
298.132996 -355.196808 2.489309 1.000000
298.132996 -355.196808 2.162986 1.000000
298.132996 -355.196808 1.837013 1.000000
298.132996 -355.196808 1.510691 1.000000
298.132996 -355.196808 1.183317 1.000000
298.132996 -355.196808 0.854181 1.000000
298.132996 -355.196808 0.522556 1.000000
298.132996 -355.196808 0.187696 1.000000
298.744690 -355.537170 0.000009 0.494853
299.859375 -356.157440 -0.000005 0.590931
298.236755 -355.175629 4.474811 1.000000
298.236755 -355.175629 4.133875 1.000000
298.236755 -355.175629 3.797727 1.000000
298.236755 -355.175629 3.465559 1.000000
298.236755 -355.175629 3.136602 1.000000
298.236755 -355.175629 2.810114 1.000000
298.236755 -355.175629 2.485373 1.000000
298.236755 -355.175629 2.161675 1.000000
298.236755 -355.175629 1.838324 1.000000
298.236755 -355.175629 1.514627 1.000000
298.236755 -355.175629 1.189886 1.000000
298.236755 -355.175629 0.863398 1.000000
298.236755 -355.175629 0.534441 1.000000
298.236755 -355.175629 0.202273 1.000000
298.776306 -355.480804 0.000008 0.557476
299.886719 -356.108826 0.000011 0.488113
298.338837 -355.154755 4.455180 1.000000
298.338837 -355.154755 4.116949 1.000000
298.338837 -355.154755 3.783466 1.000000
298.338837 -355.154755 3.453934 1.000000
298.338837 -355.154755 3.127587 1.000000
298.338837 -355.154755 2.803688 1.000000
298.338837 -355.154755 2.481523 1.000000
298.338837 -355.154755 2.160393 1.000000
298.338837 -355.154755 1.839607 1.000000
298.338837 -355.154755 1.518477 1.000000
298.338837 -355.154755 1.196312 1.000000
298.338837 -355.154755 0.872414 1.000000
298.338837 -355.154755 0.546066 1.000000
298.338837 -355.154755 0.216534 1.000000
298.808289 -355.424591 -0.000002 0.569853
299.914307 -356.060364 0.000001 0.531618
298.439392 -355.134216 4.435976 1.000000
298.439392 -355.134216 4.100390 1.000000
298.439392 -355.134216 3.769516 1.000000
298.439392 -355.134216 3.442561 1.000000
298.439392 -355.134216 3.118766 1.000000
298.439392 -355.134216 2.797401 1.000000
298.439392 -355.134216 2.477757 1.000000
298.439392 -355.134216 2.159138 1.000000
298.439392 -355.134216 1.840862 1.000000
298.439392 -355.134216 1.522243 1.000000
298.439392 -355.134216 1.202599 1.000000
298.439392 -355.134216 0.881234 1.000000
298.439392 -355.134216 0.557439 1.000000
298.439392 -355.134216 0.230484 1.000000
298.840729 -355.368713 0.000006 0.537132
299.942261 -356.012177 0.000010 0.599877
298.538330 -355.113983 4.417187 1.000000
298.538330 -355.113983 4.084190 1.000000
298.538330 -355.113983 3.755868 1.000000
298.538330 -355.113983 3.431435 1.000000
298.538330 -355.113983 3.110137 1.000000
298.538330 -355.113983 2.791251 1.000000
298.538330 -355.113983 2.474072 1.000000
298.538330 -355.113983 2.157911 1.000000
298.538330 -355.113983 1.842089 1.000000
298.538330 -355.113983 1.525928 1.000000
298.538330 -355.113983 1.208749 1.000000
298.538330 -355.113983 0.889862 1.000000
298.538330 -355.113983 0.568565 1.000000
298.538330 -355.113983 0.244132 1.000000
298.873535 -355.312988 0.000004 0.552819
299.970520 -355.964142 0.000001 0.489583
298.635773 -355.094086 4.398800 1.000000
298.635773 -355.094086 4.068336 1.000000
298.635773 -355.094086 3.742512 1.000000
298.635773 -355.094086 3.420547 1.000000
298.635773 -355.094086 3.101693 1.000000
298.635773 -355.094086 2.785232 1.000000
298.635773 -355.094086 2.470466 1.000000
298.635773 -355.094086 2.156710 1.000000
298.635773 -355.094086 1.843290 1.000000
298.635773 -355.094086 1.529534 1.000000
298.635773 -355.094086 1.214768 1.000000
298.635773 -355.094086 0.898307 1.000000
298.635773 -355.094086 0.579453 1.000000
298.635773 -355.094086 0.257488 1.000000
298.906708 -355.257507 -0.000000 0.538971
299.999146 -355.916290 -0.000001 0.523897
298.731750 -355.074493 4.380809 1.000000
298.731750 -355.074493 4.052823 1.000000
298.731750 -355.074493 3.729442 1.000000
298.731750 -355.074493 3.409893 1.000000
298.731750 -355.074493 3.093430 1.000000
298.731750 -355.074493 2.779343 1.000000
298.731750 -355.074493 2.466937 1.000000
298.731750 -355.074493 2.155535 1.000000
298.731750 -355.074493 1.844465 1.000000
298.731750 -355.074493 1.533063 1.000000
298.731750 -355.074493 1.220657 1.000000
298.731750 -355.074493 0.906570 1.000000
298.731750 -355.074493 0.590108 1.000000
298.731750 -355.074493 0.270558 1.000000
298.940277 -355.202240 -0.000002 0.535662
300.028107 -355.868683 0.000006 0.614461
298.826294 -355.055176 4.363200 1.000000
298.826294 -355.055176 4.037641 1.000000
298.826294 -355.055176 3.716651 1.000000
298.826294 -355.055176 3.399464 1.000000
298.826294 -355.055176 3.085343 1.000000
298.826294 -355.055176 2.773578 1.000000
298.826294 -355.055176 2.463483 1.000000
298.826294 -355.055176 2.154384 1.000000
298.826294 -355.055176 1.845616 1.000000
298.826294 -355.055176 1.536517 1.000000
298.826294 -355.055176 1.226421 1.000000
298.826294 -355.055176 0.914657 1.000000
298.826294 -355.055176 0.600536 1.000000
298.826294 -355.055176 0.283348 1.000000
298.974274 -355.147247 0.000003 0.544976
300.057373 -355.821259 0.000003 0.512255
298.919434 -355.036133 4.345961 1.000000
298.919434 -355.036133 4.022777 1.000000
298.919434 -355.036133 3.704129 1.000000
298.919434 -355.036133 3.389256 1.000000
298.919434 -355.036133 3.077426 1.000000
298.919434 -355.036133 2.767936 1.000000
298.919434 -355.036133 2.460103 1.000000
298.919434 -355.036133 2.153258 1.000000
298.919434 -355.036133 1.846742 1.000000
298.919434 -355.036133 1.539897 1.000000
298.919434 -355.036133 1.232064 1.000000
298.919434 -355.036133 0.922574 1.000000
298.919434 -355.036133 0.610744 1.000000
298.919434 -355.036133 0.295871 1.000000
299.008636 -355.092499 0.000009 0.532598
300.087006 -355.773987 0.000005 0.575123
299.011292 -355.017395 4.329086 1.000000
299.011292 -355.017395 4.008225 1.000000
299.011292 -355.017395 3.691870 1.000000
299.011292 -355.017395 3.379262 1.000000
299.011292 -355.017395 3.069675 1.000000
299.011292 -355.017395 2.762412 1.000000
299.011292 -355.017395 2.456793 1.000000
299.011292 -355.017395 2.152155 1.000000
299.011292 -355.017395 1.847844 1.000000
299.011292 -355.017395 1.543207 1.000000
299.011292 -355.017395 1.237588 1.000000
299.011292 -355.017395 0.930325 1.000000
299.011292 -355.017395 0.620738 1.000000
299.011292 -355.017395 0.308129 1.000000
299.043335 -355.037933 0.000005 0.538235
300.116913 -355.726990 0.000000 0.545343
299.101776 -354.998871 4.312562 1.000000
299.101776 -354.998871 3.993979 1.000000
299.101776 -354.998871 3.679868 1.000000
299.101776 -354.998871 3.369478 1.000000
299.101776 -354.998871 3.062087 1.000000
299.101776 -354.998871 2.757003 1.000000
299.101776 -354.998871 2.453552 1.000000
299.101776 -354.998871 2.151076 1.000000
299.101776 -354.998871 1.848924 1.000000
299.101776 -354.998871 1.546448 1.000000
299.101776 -354.998871 1.242997 1.000000
299.101776 -354.998871 0.937913 1.000000
299.101776 -354.998871 0.630523 1.000000
299.101776 -354.998871 0.320132 1.000000
299.101776 -354.998871 0.006021 1.000000
300.147217 -355.680176 -0.000003 0.518137
299.191040 -354.980652 4.296383 1.000000
299.191040 -354.980652 3.980029 1.000000
299.191040 -354.980652 3.668115 1.000000
299.191040 -354.980652 3.359896 1.000000
299.191040 -354.980652 3.054656 1.000000
299.191040 -354.980652 2.751706 1.000000
299.191040 -354.980652 2.450379 1.000000
299.191040 -354.980652 2.150019 1.000000
299.191040 -354.980652 1.849981 1.000000
299.191040 -354.980652 1.549621 1.000000
299.191040 -354.980652 1.248293 1.000000
299.191040 -354.980652 0.945344 1.000000
299.191040 -354.980652 0.640104 1.000000
299.191040 -354.980652 0.331885 1.000000
299.191040 -354.980652 0.019972 1.000000
300.177826 -355.633575 0.000005 0.550613
335.298096 -379.159698 10.588595 1.000000
335.298096 -379.159698 9.405409 1.000000
335.298096 -379.159698 8.238836 1.000000
335.298096 -379.159698 7.086083 1.000000
335.298096 -379.159698 5.944469 1.000000
335.298096 -379.159698 4.811421 1.000000
335.298096 -379.159698 3.684441 1.000000
335.298096 -379.159698 2.561080 1.000000
335.298096 -379.159698 1.438921 1.000000
335.298096 -379.159698 0.315559 1.000000
327.082977 -373.640930 0.000059 0.520466
321.267487 -369.734161 0.000022 0.544976
318.028320 -367.558167 0.000020 0.512132
315.960510 -366.169037 -0.000008 0.536152
314.523071 -365.203369 0.000028 0.465319
313.464264 -364.492096 -0.000000 0.551593
335.369110 -379.497894 10.650814 1.000000
335.369141 -379.497894 9.459059 1.000000
335.369110 -379.497864 8.284035 1.000000
335.369110 -379.497864 7.122930 1.000000
335.369110 -379.497864 5.973045 1.000000
335.369110 -379.497894 4.831789 1.000000
335.369110 -379.497864 3.696644 1.000000
335.369110 -379.497894 2.565144 1.000000
335.369110 -379.497894 1.434856 1.000000
335.369110 -379.497864 0.303356 1.000000
326.987549 -373.781952 0.000059 0.534191
321.199432 -369.834686 0.000020 0.546201
317.975586 -367.636108 0.000018 0.572181
315.917480 -366.232544 -0.000002 0.527941
314.486877 -365.256927 0.000023 0.573529
313.432861 -364.538147 0.000037 0.522426
335.441193 -379.841003 10.714371 1.000000
335.441193 -379.841003 9.513860 1.000000
335.441193 -379.841003 8.330204 1.000000
335.441193 -379.841003 7.160567 1.000000
335.441193 -379.841003 6.002235 1.000000
335.441193 -379.841003 4.852594 1.000000
335.441193 -379.841003 3.709109 1.000000
335.441193 -379.841003 2.569296 1.000000
335.441193 -379.841003 1.430704 1.000000
335.441193 -379.841003 0.290891 1.000000
326.891418 -373.922516 0.000030 0.548407
321.130920 -369.934875 -0.000011 0.539338
317.922363 -367.713745 0.000000 0.514828
315.874023 -366.295807 0.000001 0.534191
314.450348 -365.310272 -0.000001 0.529412
313.401428 -364.584167 0.000009 0.514216
335.514343 -380.189240 10.779297 1.000000
335.514374 -380.189240 9.569842 1.000000
335.514343 -380.189240 8.377366 1.000000
335.514374 -380.189240 7.199017 1.000000
335.514343 -380.189240 6.032053 1.000000
335.514374 -380.189240 4.873847 1.000000
335.514374 -380.189240 3.721843 1.000000
335.514343 -380.189240 2.573537 1.000000
335.514343 -380.189240 1.426463 1.000000
335.514374 -380.189240 0.278157 1.000000
326.794006 -374.062195 0.000027 0.544608
321.061462 -370.034393 -0.000003 0.533824
317.868500 -367.790985 -0.000001 0.494975
315.830109 -366.358734 0.000000 0.529902
314.413361 -365.363312 -0.000004 0.578309
313.369537 -364.629883 0.000003 0.538113
335.588623 -380.542755 10.845634 1.000000
335.588623 -380.542755 9.627043 1.000000
335.588623 -380.542755 8.425556 1.000000
335.588623 -380.542755 7.238300 1.000000
335.588623 -380.542755 6.062520 1.000000
335.588623 -380.542755 4.895562 1.000000
335.588623 -380.542755 3.734853 1.000000
335.588593 -380.542755 2.577872 1.000000
335.588593 -380.542755 1.422129 1.000000
335.588623 -380.542755 0.265146 1.000000
326.695465 -374.201019 0.000046 0.534314
320.991211 -370.133331 0.000017 0.549387
317.814026 -367.867737 0.000019 0.556373
315.785736 -366.421295 0.000017 0.543505
314.376068 -365.416107 -0.000014 0.517647
313.337250 -364.675354 0.000027 0.560784
335.664001 -380.901611 10.913420 1.000000
335.664001 -380.901611 9.685488 1.000000
335.664001 -380.901611 8.474794 1.000000
335.664001 -380.901611 7.278442 1.000000
335.664001 -380.901611 6.093651 1.000000
335.664001 -380.901611 4.917751 1.000000
335.664001 -380.901611 3.748147 1.000000
335.664001 -380.901611 2.582300 1.000000
335.664001 -380.901611 1.417700 1.000000
335.664001 -380.901611 0.251852 1.000000
326.596039 -374.339264 0.000055 0.539216
320.920410 -370.231903 0.000013 0.537132
317.759155 -367.944183 0.000012 0.537868
315.740906 -366.483612 0.000026 0.512990
314.338318 -365.468567 -0.000004 0.582108
313.304718 -364.720612 0.000025 0.543873
335.740570 -381.266083 10.982696 1.000000
335.740540 -381.266052 9.745218 1.000000
335.740540 -381.266052 8.525116 1.000000
335.740540 -381.266052 7.319465 1.000000
335.740540 -381.266052 6.125467 1.000000
335.740540 -381.266052 4.940427 1.000000
335.740540 -381.266052 3.761733 1.000000
335.740540 -381.266052 2.586824 1.000000
335.740540 -381.266052 1.413175 1.000000
335.740540 -381.266052 0.238266 1.000000
326.495880 -374.476990 0.000038 0.537745
320.848999 -370.330078 -0.000002 0.527696
317.703796 -368.020294 -0.000005 0.522794
315.695770 -366.545685 0.000008 0.560907
314.300293 -365.520874 -0.000022 0.541789
313.271973 -364.765717 0.000005 0.552206
335.818329 -381.636230 11.053499 1.000000
335.818329 -381.636230 9.806269 1.000000
335.818329 -381.636230 8.576548 1.000000
335.818329 -381.636230 7.361395 1.000000
335.818329 -381.636230 6.157984 1.000000
335.818329 -381.636230 4.963606 1.000000
335.818329 -381.636230 3.775620 1.000000
335.818329 -381.636200 2.591451 1.000000
335.818329 -381.636200 1.408549 1.000000
335.818329 -381.636230 0.224379 1.000000
326.394501 -374.613800 0.000049 0.525858
320.776794 -370.427612 0.000006 0.556373
317.647766 -368.095947 0.000005 0.544363
315.650116 -366.607330 0.000017 0.528922
314.261810 -365.572784 -0.000011 0.554044
313.238770 -364.810455 0.000021 0.543873
335.897308 -382.012299 11.125873 1.000000
335.897308 -382.012268 9.868671 1.000000
335.897308 -382.012299 8.629124 1.000000
335.897308 -382.012299 7.404254 1.000000
335.897308 -382.012299 6.191226 1.000000
335.897308 -382.012299 4.987296 1.000000
335.897308 -382.012299 3.789815 1.000000
335.897308 -382.012299 2.596179 1.000000
335.897308 -382.012299 1.403821 1.000000
335.897308 -382.012299 0.210185 1.000000
326.292480 -374.750122 0.000030 0.523775
320.703674 -370.524475 0.000043 0.511029
317.591156 -368.171173 0.000022 0.537990
315.604004 -366.668701 0.000021 0.525613
314.222992 -365.624512 -0.000009 0.501716
313.205292 -364.855042 0.000023 0.568137
335.977600 -382.394440 11.199869 1.000000
335.977600 -382.394440 9.932474 1.000000
335.977600 -382.394440 8.682875 1.000000
335.977600 -382.394440 7.448074 1.000000
335.977600 -382.394440 6.225209 1.000000
335.977600 -382.394440 5.011518 1.000000
335.977600 -382.394440 3.804327 1.000000
335.977600 -382.394440 2.601013 1.000000
335.977600 -382.394440 1.398987 1.000000
335.977600 -382.394440 0.195672 1.000000
326.189423 -374.885712 0.000017 0.536642
320.630219 -370.621124 0.000029 0.546446
317.534241 -368.246124 0.000002 0.548897
315.557617 -366.729797 0.000003 0.517157
314.183838 -365.675964 -0.000015 0.556495
313.171661 -364.899475 -0.000011 0.518873
336.059204 -382.782837 11.275527 1.000000
336.059204 -382.782837 9.997711 1.000000
336.059204 -382.782837 8.737834 1.000000
336.059204 -382.782837 7.492878 1.000000
336.059204 -382.782837 6.259955 1.000000
336.059204 -382.782837 5.036285 1.000000
336.059204 -382.782837 3.819166 1.000000
336.059204 -382.782837 2.605955 1.000000
336.059204 -382.782837 1.394044 1.000000
336.059204 -382.782837 0.180833 1.000000
326.085175 -375.020325 0.000032 0.543015
320.555847 -370.717010 0.000055 0.536765
317.476593 -368.320526 0.000021 0.549387
315.510590 -366.790436 0.000030 0.523897
314.144135 -365.726990 0.000031 0.560172
313.137512 -364.943573 -0.000001 0.556005
336.142151 -383.177734 11.352904 1.000000
336.142151 -383.177734 10.064428 1.000000
336.142151 -383.177734 8.794041 1.000000
336.142151 -383.177734 7.538700 1.000000
336.142151 -383.177734 6.295494 1.000000
336.142151 -383.177734 5.061613 1.000000
336.142151 -383.177734 3.834341 1.000000
336.142120 -383.177734 2.611010 1.000000
336.142120 -383.177734 1.388989 1.000000
336.142120 -383.177734 0.165658 1.000000
325.980255 -375.154449 0.000018 0.541912
320.481079 -370.812622 0.000040 0.557353
317.418610 -368.394684 0.000006 0.548774
315.463318 -366.850891 0.000013 0.536274
314.104309 -365.777924 0.000014 0.545956
313.103149 -364.987457 -0.000004 0.524265
336.226501 -383.579254 11.432044 1.000000
336.226501 -383.579254 10.132665 1.000000
336.226501 -383.579254 8.851528 1.000000
336.226501 -383.579254 7.585566 1.000000
336.226501 -383.579254 6.331839 1.000000
336.226501 -383.579254 5.087519 1.000000
336.226501 -383.579254 3.849863 1.000000
336.226501 -383.579254 2.616180 1.000000
336.226501 -383.579254 1.383820 1.000000
336.226501 -383.579254 0.150137 1.000000
325.874268 -375.287750 0.000016 0.534926
320.405548 -370.907623 0.000036 0.541912
317.359985 -368.468353 0.000009 0.541299
315.415558 -366.910950 0.000006 0.527451
314.064087 -365.828522 0.000008 0.561887
313.068481 -365.031067 -0.000008 0.557353
336.312286 -383.987671 11.513002 1.000000
336.312286 -383.987671 10.202469 1.000000
336.312286 -383.987671 8.910337 1.000000
336.312286 -383.987671 7.633508 1.000000
336.312286 -383.987671 6.369020 1.000000
336.312286 -383.987640 5.114020 1.000000
336.312286 -383.987671 3.865741 1.000000
336.312286 -383.987640 2.621470 1.000000
336.312286 -383.987640 1.378531 1.000000
336.312286 -383.987671 0.134259 1.000000
325.767426 -375.420349 0.000008 0.524265
320.329407 -371.002136 0.000028 0.555515
317.300934 -368.541626 0.000001 0.552451
315.367432 -366.970734 -0.000002 0.559314
314.023529 -365.878845 0.000008 0.581618
313.033478 -365.074463 -0.000016 0.537010
336.399567 -384.403168 11.595831 1.000000
336.399567 -384.403168 10.273890 1.000000
336.399567 -384.403168 8.970507 1.000000
336.399567 -384.403168 7.682561 1.000000
336.399567 -384.403168 6.407063 1.000000
336.399567 -384.403168 5.141135 1.000000
336.399567 -384.403168 3.881986 1.000000
336.399567 -384.403168 2.626880 1.000000
336.399567 -384.403168 1.373119 1.000000
336.399567 -384.403168 0.118014 1.000000
325.659424 -375.552002 0.000024 0.536765
320.252563 -371.096100 0.000023 0.557966
317.241241 -368.614410 0.000016 0.543750
315.318787 -367.030060 0.000012 0.520711
313.982513 -365.928833 0.000019 0.558946
312.998138 -365.117584 -0.000004 0.454167
336.488403 -384.825989 11.680595 1.000000
336.488403 -384.825989 10.346975 1.000000
336.488403 -384.825989 9.032078 1.000000
336.488403 -384.825989 7.732757 1.000000
336.488403 -384.825989 6.445991 1.000000
336.488403 -384.825989 5.168882 1.000000
336.488403 -384.825989 3.898611 1.000000
336.488403 -384.825989 2.632418 1.000000
336.488403 -384.825989 1.367582 1.000000
336.488403 -384.825989 0.101390 1.000000
325.550781 -375.683136 0.000013 0.546446
320.175110 -371.189545 0.000013 0.555025
317.181213 -368.686920 0.000000 0.527696
315.269775 -367.089111 0.000007 0.534804
313.941284 -365.978638 0.000007 0.543015
312.962555 -365.160492 -0.000006 0.466912
336.578796 -385.256348 11.767349 1.000000
336.578796 -385.256348 10.421778 1.000000
336.578796 -385.256378 9.095099 1.000000
336.578796 -385.256348 7.784131 1.000000
336.578796 -385.256348 6.485835 1.000000
336.578796 -385.256348 5.197279 1.000000
336.578796 -385.256348 3.915624 1.000000
336.578796 -385.256348 2.638086 1.000000
336.578796 -385.256348 1.361914 1.000000
336.578796 -385.256348 0.084375 1.000000
325.441010 -375.813293 0.000026 0.531740
320.096924 -371.282410 0.000014 0.537990
317.120544 -368.758881 0.000006 0.556863
315.220367 -367.147797 0.000008 0.536274
313.899628 -366.028046 0.000017 0.563603
312.926605 -365.203094 0.000015 0.520588
336.670868 -385.694550 11.856159 1.000000
336.670868 -385.694550 10.498350 1.000000
336.670868 -385.694550 9.159610 1.000000
336.670868 -385.694550 7.836722 1.000000
336.670868 -385.694550 6.526621 1.000000
336.670868 -385.694550 5.226351 1.000000
336.670868 -385.694550 3.933043 1.000000
336.670868 -385.694550 2.643887 1.000000
336.670868 -385.694550 1.356112 1.000000
336.670868 -385.694550 0.066957 1.000000
325.330383 -375.942780 0.000030 0.540931
320.018127 -371.374664 0.000017 0.527083
317.059448 -368.830505 0.000006 0.551348
315.170502 -367.206177 0.000013 0.496691
313.857635 -366.077209 0.000019 0.515319
312.890411 -365.245483 0.000011 0.536887
336.764587 -386.140808 11.947085 1.000000
336.764587 -386.140808 10.576753 1.000000
336.764587 -386.140808 9.225660 1.000000
336.764587 -386.140808 7.890570 1.000000
336.764587 -386.140808 6.568383 1.000000
336.764587 -386.140808 5.256115 1.000000
336.764587 -386.140808 3.950875 1.000000
336.764587 -386.140808 2.649828 1.000000
336.764587 -386.140808 1.350173 1.000000
336.764587 -386.140808 0.049124 1.000000
325.218872 -376.071442 0.000034 0.537623
319.938599 -371.466339 0.000029 0.547549
316.997803 -368.901642 0.000009 0.543873
315.120270 -367.264191 0.000013 0.540441
313.815308 -366.126068 0.000019 0.543015
312.853912 -365.287598 0.000018 0.500245
336.860107 -386.595398 12.040201 1.000000
336.860107 -386.595398 10.657038 1.000000
336.860107 -386.595398 9.293300 1.000000
336.860107 -386.595398 7.945711 1.000000
336.860107 -386.595398 6.611145 1.000000
336.860107 -386.595398 5.286596 1.000000
336.860107 -386.595398 3.969138 1.000000
336.860107 -386.595398 2.655911 1.000000
336.860107 -386.595398 1.344090 1.000000
336.860107 -386.595398 0.030862 1.000000
325.106628 -376.199493 0.000022 0.526716
319.858551 -371.557587 0.000020 0.529167
316.935547 -368.972260 0.000032 0.537868
315.069702 -367.321869 -0.000002 0.541422
313.772675 -366.174652 0.000011 0.535417
312.817108 -365.329498 0.000015 0.546691
336.957428 -387.058563 12.135574 1.000000
336.957428 -387.058563 10.739274 1.000000
336.957428 -387.058563 9.362577 1.000000
336.957428 -387.058563 8.002191 1.000000
336.957397 -387.058563 6.654947 1.000000
336.957428 -387.058563 5.317816 1.000000
336.957428 -387.058563 3.987843 1.000000
336.957397 -387.058563 2.662140 1.000000
336.957397 -387.058563 1.337859 1.000000
336.957428 -387.058563 0.012156 1.000000
324.993317 -376.326599 0.000027 0.528676
319.777802 -371.648193 0.000025 0.549265
316.873016 -369.042572 0.000022 0.547059
315.018646 -367.379150 0.000004 0.509926
313.729706 -366.222961 0.000008 0.519975
312.780060 -365.371124 0.000014 0.543750
337.056580 -387.530670 12.233278 1.000000
337.056580 -387.530670 10.823519 1.000000
337.056580 -387.530670 9.433554 1.000000
337.056580 -387.530670 8.060050 1.000000
337.056580 -387.530670 6.699822 1.000000
337.056580 -387.530670 5.349799 1.000000
337.056580 -387.530670 4.007005 1.000000
337.056580 -387.530670 2.668524 1.000000
337.056580 -387.530670 1.331476 1.000000
336.950470 -387.434143 0.000041 0.534191
324.879120 -376.452911 0.000031 0.572304
319.696442 -371.738251 0.000025 0.530147
316.809906 -369.112396 0.000026 0.552941
314.967133 -367.436066 0.000016 0.512868
313.686310 -366.270905 0.000021 0.558946
312.742676 -365.412445 0.000020 0.500123
337.157715 -388.011993 12.333392 1.000000
337.157715 -388.011993 10.909842 1.000000
337.157715 -388.012024 9.506277 1.000000
337.157715 -388.012024 8.119337 1.000000
337.157715 -388.011993 6.745800 1.000000
337.157715 -388.011993 5.382571 1.000000
337.157715 -388.012024 4.026640 1.000000
337.157715 -388.011993 2.675064 1.000000
337.157684 -388.011993 1.324936 1.000000
336.758606 -387.643829 0.000034 0.531005
324.764221 -376.578613 0.000019 0.532230
319.614502 -371.827789 0.000019 0.512132
316.746368 -369.181854 0.000017 0.541176
314.915344 -367.492676 0.000005 0.533578
313.642700 -366.318573 0.000008 0.548774
312.705048 -365.453583 0.000006 0.543015
337.260803 -388.502838 12.436003 1.000000
337.260803 -388.502838 10.998316 1.000000
337.260803 -388.502838 9.580813 1.000000
337.260803 -388.502838 8.180101 1.000000
337.260803 -388.502838 6.792927 1.000000
337.260803 -388.502838 5.416160 1.000000
337.260803 -388.502838 4.046765 1.000000
337.260803 -388.502838 2.681767 1.000000
337.260803 -388.502838 1.318233 1.000000
336.565063 -387.851959 0.000041 0.538848
324.648254 -376.703278 0.000026 0.540809
319.531860 -371.916687 0.000021 0.518505
316.682251 -369.250763 0.000023 0.514828
314.863098 -367.548889 0.000007 0.537500
313.598663 -366.365967 0.000015 0.498407
312.667084 -365.494415 0.000018 0.514093
337.365997 -389.003571 12.541184 1.000000
337.365997 -389.003571 11.089011 1.000000
337.365997 -389.003571 9.657221 1.000000
337.365997 -389.003571 8.242390 1.000000
337.365997 -389.003571 6.841234 1.000000
337.365997 -389.003571 5.450589 1.000000
337.365997 -389.003571 4.067393 1.000000
337.365997 -389.003571 2.688639 1.000000
337.365997 -389.003571 1.311361 1.000000
336.370117 -388.058746 0.000045 0.532721
324.531464 -376.827209 0.000029 0.543505
319.448608 -372.005005 0.000024 0.527083
316.617737 -369.319275 0.000023 0.535294
314.810486 -367.604736 0.000009 0.493015
313.554321 -366.412994 0.000011 0.561887
312.628876 -365.534973 0.000020 0.524142
337.473328 -389.514526 12.649036 1.000000
337.473328 -389.514526 11.181999 1.000000
337.473328 -389.514526 9.735563 1.000000
337.473297 -389.514526 8.306256 1.000000
337.473328 -389.514526 6.890766 1.000000
337.473328 -389.514526 5.485894 1.000000
337.473328 -389.514526 4.088546 1.000000
337.473328 -389.514526 2.695684 1.000000
337.473328 -389.514526 1.304315 1.000000
336.173859 -388.264374 0.000038 0.539951
324.413910 -376.950409 0.000020 0.531373
319.364807 -372.092804 0.000018 0.522181
316.552734 -369.387390 0.000017 0.530760
314.757538 -367.660278 -0.000005 0.550858
313.509735 -366.459778 0.000003 0.600613
312.590363 -365.575317 0.000009 0.545343
337.582886 -390.036072 12.759645 1.000000
337.582886 -390.036072 11.277374 1.000000
337.582886 -390.036072 9.815912 1.000000
337.582886 -390.036072 8.371759 1.000000
337.582886 -390.036072 6.941565 1.000000
337.582886 -390.036072 5.522101 1.000000
337.582886 -390.036072 4.110239 1.000000
337.582886 -390.036072 2.702911 1.000000
337.582886 -390.036072 1.297089 1.000000
335.976105 -388.468475 0.000039 0.532108
324.295380 -377.072693 0.000024 0.549020
319.280365 -372.179993 0.000019 0.525000
316.487213 -369.454956 0.000025 0.522794
314.704132 -367.715393 -0.000000 0.533456
313.464691 -366.506165 0.000012 0.527083
312.551605 -365.615356 0.000004 0.543015
337.694763 -390.568573 12.873117 1.000000
337.694763 -390.568573 11.375211 1.000000
337.694763 -390.568573 9.898338 1.000000
337.694763 -390.568573 8.438958 1.000000
337.694763 -390.568573 6.993678 1.000000
337.694763 -390.568573 5.559245 1.000000
337.694763 -390.568573 4.132493 1.000000
337.694763 -390.568573 2.710324 1.000000
337.694763 -390.568573 1.289676 1.000000
335.776886 -388.671143 0.000043 0.538971
324.176025 -377.194092 0.000029 0.534069
319.195282 -372.266541 0.000022 0.543137
316.421173 -369.522064 0.000032 0.533946
314.650238 -367.769989 0.000029 0.572794
313.419373 -366.552277 0.000020 0.532475
312.512512 -365.655090 0.000015 0.497304
337.808990 -391.112457 12.989546 1.000000
337.809021 -391.112457 11.475603 1.000000
337.808990 -391.112457 9.982912 1.000000
337.808990 -391.112457 8.507906 1.000000
337.808990 -391.112457 7.047151 1.000000
337.808990 -391.112457 5.597357 1.000000
337.808990 -391.112457 4.155328 1.000000
337.808990 -391.112457 2.717929 1.000000
337.808990 -391.112457 1.282070 1.000000
335.576385 -388.872589 0.000036 0.542034
324.055878 -377.314819 0.000021 0.537868
319.109619 -372.352509 0.000024 0.525490
316.354797 -369.588776 0.000022 0.553799
314.596130 -367.824402 0.000020 0.553186
313.373779 -366.598114 0.000005 0.578799
312.473175 -365.694611 0.000010 0.558578
337.925720 -391.668121 13.109037 1.000000
337.925720 -391.668152 11.578632 1.000000
337.925720 -391.668152 10.069714 1.000000
337.925720 -391.668121 8.578665 1.000000
337.925720 -391.668121 7.102030 1.000000
337.925720 -391.668152 5.636475 1.000000
337.925720 -391.668121 4.178763 1.000000
337.925720 -391.668121 2.725736 1.000000
337.925720 -391.668152 1.274264 1.000000
335.374329 -389.072449 0.000041 0.537500
323.934784 -377.434509 0.000034 0.540196
319.023346 -372.437866 0.000027 0.542402
316.287903 -369.654999 0.000022 0.520588
314.541565 -367.878357 0.000024 0.541667
313.327850 -366.643585 0.000005 0.530637
312.433563 -365.733795 0.000007 0.551225
338.045044 -392.236053 13.231718 1.000000
338.045044 -392.236053 11.684409 1.000000
338.045044 -392.236053 10.158828 1.000000
338.045044 -392.236053 8.651316 1.000000
338.045044 -392.236053 7.158372 1.000000
338.045044 -392.236053 5.676630 1.000000
338.045044 -392.236053 4.202825 1.000000
338.045044 -392.236053 2.733751 1.000000
338.045044 -392.236053 1.266250 1.000000
335.170898 -389.270935 0.000044 0.532721
323.812897 -377.553406 0.000034 0.529657
318.936462 -372.522614 0.000029 0.539461
316.220581 -369.720764 0.000021 0.514461
314.486664 -367.931976 0.000022 0.538725
313.281586 -366.688721 0.000011 0.554412
312.393677 -365.772736 0.000009 0.482108
338.167023 -392.816711 13.357695 1.000000
338.167023 -392.816711 11.793030 1.000000
338.167023 -392.816711 10.250340 1.000000
338.167023 -392.816711 8.725919 1.000000
338.167023 -392.816711 7.216230 1.000000
338.167023 -392.816711 5.717868 1.000000
338.167023 -392.816681 4.227530 1.000000
338.167023 -392.816711 2.741981 1.000000
338.167023 -392.816711 1.258019 1.000000
334.966095 -389.467957 0.000048 0.535662
323.690155 -377.671448 0.000040 0.545956
318.848999 -372.606781 0.000031 0.541912
316.152710 -369.786011 0.000026 0.532108
314.431366 -367.985168 0.000026 0.539461
313.235016 -366.733582 0.000010 0.590564
312.353516 -365.811401 0.000013 0.496569
338.291779 -393.410522 13.487092 1.000000
338.291779 -393.410522 11.904605 1.000000
338.291779 -393.410522 10.344336 1.000000
338.291779 -393.410522 8.802547 1.000000
338.291748 -393.410522 7.275657 1.000000
338.291779 -393.410522 5.760226 1.000000
338.291779 -393.410553 4.252911 1.000000
338.291779 -393.410522 2.750434 1.000000
338.291779 -393.410553 1.249567 1.000000
334.760071 -389.663788 0.000039 0.538358
323.566742 -377.788757 0.000033 0.545588
318.761047 -372.690399 0.000022 0.529412
316.084503 -369.850830 0.000021 0.539583
314.375732 -368.038025 0.000014 0.508946
313.188110 -366.778046 0.000011 0.518627
312.313110 -365.849792 0.000004 0.486152
338.419403 -394.018127 13.620049 1.000000
338.419403 -394.018127 12.019246 1.000000
338.419403 -394.018127 10.440916 1.000000
338.419403 -394.018127 8.881281 1.000000
338.419403 -394.018127 7.336720 1.000000
338.419403 -394.018127 5.803750 1.000000
338.419403 -394.018127 4.278986 1.000000
338.419403 -394.018127 2.759120 1.000000
338.419403 -394.018127 1.240881 1.000000
334.552521 -389.857941 0.000042 0.539706
323.442383 -377.905090 0.000035 0.548284
318.672394 -372.773315 0.000028 0.521078
316.015747 -369.915161 0.000021 0.531373
314.319702 -368.090454 0.000018 0.538235
313.140900 -366.822205 0.000019 0.520221
312.272369 -365.887848 0.000018 0.524632
338.550049 -394.639923 13.756698 1.000000
338.550049 -394.639954 12.137073 1.000000
338.550049 -394.639954 10.540182 1.000000
338.550018 -394.639923 8.962205 1.000000
338.550049 -394.639954 7.399481 1.000000
338.550018 -394.639923 5.848480 1.000000
338.550049 -394.639954 4.305786 1.000000
338.550018 -394.639923 2.768046 1.000000
338.550049 -394.639923 1.231954 1.000000
334.343689 -390.050720 0.000041 0.533333
323.317261 -378.020630 0.000032 0.525245
318.583221 -372.855652 0.000021 0.545466
315.946625 -369.979034 0.000017 0.525000
314.263275 -368.142487 0.000024 0.565441
313.093384 -366.866058 0.000020 0.470098
312.231415 -365.925659 0.000012 0.529902
338.683777 -395.276581 13.897187 1.000000
338.683777 -395.276581 12.258204 1.000000
338.683777 -395.276581 10.642232 1.000000
338.683777 -395.276581 9.045401 1.000000
338.683777 -395.276581 7.464002 1.000000
338.683777 -395.276581 5.894467 1.000000
338.683777 -395.276581 4.333340 1.000000
338.683777 -395.276581 2.777224 1.000000
338.683746 -395.276611 1.222775 1.000000
334.133484 -390.241974 0.000044 0.540564
323.191345 -378.135193 0.000037 0.534559
318.493469 -372.937347 0.000026 0.520711
315.876953 -370.042297 0.000029 0.541422
314.206543 -368.194122 0.000026 0.525735
313.045563 -366.909576 0.000021 0.530515
312.190216 -365.963196 0.000013 0.579902
nan nan nan 0.000000
nan nan nan 0.000000
nan nan nan 0.000000
nan nan nan 0.000000
nan nan nan 0.000000
nan nan nan 0.000000
nan nan nan 0.000000
nan nan nan 0.000000
nan nan nan 0.000000
333.921875 -390.431671 0.000052 0.533946
323.064545 -378.248871 0.000043 0.533333
318.403137 -373.018372 0.000031 0.518382
315.806854 -370.105164 0.000036 0.535049
314.149414 -368.245361 0.000028 0.553922
312.997406 -366.952728 0.000028 0.553922
312.148712 -366.000397 0.000017 0.558946
nan nan nan 0.000000
nan nan nan 0.000000
nan nan nan 0.000000
nan nan nan 0.000000
nan nan nan 0.000000
nan nan nan 0.000000
nan nan nan 0.000000
nan nan nan 0.000000
nan nan nan 0.000000
333.709106 -390.620148 0.000046 0.538971
322.937073 -378.361786 0.000035 0.552328
318.312286 -373.098877 0.000020 0.540441
315.736420 -370.167572 0.000025 0.531985
314.091980 -368.296234 0.000022 0.530025
312.949036 -366.995605 0.000018 0.512500
312.106964 -366.037354 0.000009 0.512255
nan nan nan 0.000000
nan nan nan 0.000000
nan nan nan 0.000000
nan nan nan 0.000000
nan nan nan 0.000000
nan nan nan 0.000000
nan nan nan 0.000000
nan nan nan 0.000000
nan nan nan 0.000000
333.495026 -390.807068 0.000041 0.541299
322.808838 -378.473816 0.000027 0.537010
318.220856 -373.178680 0.000017 0.529902
315.665527 -370.229523 0.000019 0.542402
314.034210 -368.346741 0.000013 0.512255
312.900360 -367.038147 0.000013 0.543382
312.064972 -366.074005 0.000013 0.557230
nan nan nan 0.000000
nan nan nan 0.000000
nan nan nan 0.000000
nan nan nan 0.000000
nan nan nan 0.000000
nan nan nan 0.000000
nan nan nan 0.000000
nan nan nan 0.000000
nan nan nan 0.000000
333.279480 -390.992340 0.000049 0.539093
322.679718 -378.584808 0.000035 0.546446
318.128784 -373.257813 0.000024 0.536029
315.594147 -370.290863 0.000028 0.543995
313.976013 -368.396759 0.000019 0.531863
312.851288 -367.080261 0.000024 0.521569
312.022736 -366.110352 0.000008 0.493995
nan nan nan 0.000000
nan nan nan 0.000000
nan nan nan 0.000000
nan nan nan 0.000000
nan nan nan 0.000000
nan nan nan 0.000000
nan nan nan 0.000000
nan nan nan 0.000000
nan nan nan 0.000000
333.062744 -391.176178 0.000049 0.534926
322.549927 -378.695007 0.000028 0.536520
318.036285 -373.336365 0.000018 0.531740
315.522430 -370.351807 0.000015 0.505637
313.917511 -368.446442 0.000011 0.530760
312.802032 -367.122070 0.000020 0.542279
311.980255 -366.146454 -0.000007 0.519240
nan nan nan 0.000000
nan nan nan 0.000000
nan nan nan 0.000000
nan nan nan 0.000000
nan nan nan 0.000000
nan nan nan 0.000000
nan nan nan 0.000000
nan nan nan 0.000000
nan nan nan 0.000000
332.844452 -391.358154 0.000070 0.535294
322.419128 -378.804077 0.000049 0.528431
317.943054 -373.414032 0.000044 0.533824
315.450104 -370.412079 0.000036 0.536397
313.858582 -368.495605 0.000030 0.550858
312.752380 -367.163513 0.000033 0.577696
311.937469 -366.182220 -0.000001 0.510294
nan nan nan 0.000000
nan nan nan 0.000000
nan nan nan 0.000000
nan nan nan 0.000000
nan nan nan 0.000000
nan nan nan 0.000000
nan nan nan 0.000000
nan nan nan 0.000000
nan nan nan 0.000000
332.625397 -391.539246 0.000052 0.531495
322.287903 -378.912598 0.000027 0.531985
317.849487 -373.491364 0.000028 0.522549
315.377563 -370.472046 0.000020 0.545098
313.799438 -368.544464 0.000018 0.594363
312.702576 -367.204712 0.000014 0.499632
311.894409 -366.217590 0.000027 0.545466
nan nan nan 0.000000
nan nan nan 0.000000
nan nan nan 0.000000
nan nan nan 0.000000
nan nan nan 0.000000
nan nan nan 0.000000
nan nan nan 0.000000
nan nan nan 0.000000
nan nan nan 0.000000
332.404724 -391.718353 0.000063 0.536520
322.155701 -379.019897 0.000038 0.537500
317.755249 -373.567841 0.000038 0.536520
315.304504 -370.531403 0.000027 0.548652
313.739838 -368.592804 0.000028 0.517402
312.652405 -367.245483 0.000014 0.545956
311.851166 -366.252777 0.000025 0.573775
nan nan nan 0.000000
nan nan nan 0.000000
nan nan nan 0.000000
nan nan nan 0.000000
nan nan nan 0.000000
nan nan nan 0.000000
nan nan nan 0.000000
nan nan nan 0.000000
nan nan nan 0.000000
332.183044 -391.896210 0.000055 0.539461
322.022888 -379.126495 0.000028 0.539828
317.660614 -373.643860 0.000024 0.551103
315.231079 -370.590332 0.000015 0.543505
313.679993 -368.640839 0.000022 0.480637
312.601929 -367.285858 0.000026 0.521078
311.807648 -366.287628 0.000030 0.578799
nan nan nan 0.000000
nan nan nan 0.000000
nan nan nan 0.000000
nan nan nan 0.000000
nan nan nan 0.000000
nan nan nan 0.000000
nan nan nan 0.000000
nan nan nan 0.000000
nan nan nan 0.000000
331.959900 -392.072205 0.000067 0.538603
321.889160 -379.231934 0.000041 0.539216
317.565308 -373.718994 0.000037 0.543995
315.157166 -370.648590 0.000028 0.559559
313.619751 -368.688354 0.000030 0.534559
312.551178 -367.325928 0.000031 0.518750
311.763947 -366.322174 0.000024 0.499265
nan nan nan 0.000000
nan nan nan 0.000000
nan nan nan 0.000000
nan nan nan 0.000000
nan nan nan 0.000000
nan nan nan 0.000000
nan nan nan 0.000000
nan nan nan 0.000000
nan nan nan 0.000000
331.735809 -392.247009 0.000055 0.533946
321.754883 -379.336670 0.000031 0.537868
317.469604 -373.793640 0.000026 0.532721
315.082916 -370.706421 0.000025 0.555760
313.559235 -368.735565 0.000018 0.540686
312.500183 -367.365662 0.000026 0.505270
311.719940 -366.356415 0.000023 0.530025
nan nan nan 0.000000
nan nan nan 0.000000
nan nan nan 0.000000
nan nan nan 0.000000
nan nan nan 0.000000
nan nan nan 0.000000
nan nan nan 0.000000
nan nan nan 0.000000
nan nan nan 0.000000
