# This PCD file was generated using the MATLAB® pcwrite function
# from Computer Vision Toolbox®.
# .PCD v.7 - Point Cloud Data file format
VERSION .7
FIELDS x y z intensity
SIZE 4 4 4 4
TYPE F F F F
COUNT 1 1 1 1
WIDTH 1163
HEIGHT 1
VIEWPOINT 0 0 0 1 0 0 0
POINTS 1163
DATA ascii
430.617615 -366.323730 0.727874 0.565809
429.746429 -365.098175 0.000046 0.525123
425.687073 -359.387665 0.000046 0.556863
423.426178 -356.207092 0.000060 0.543627
421.982849 -354.176697 0.000052 0.575245
420.979706 -352.765472 0.000044 0.550000
420.240631 -351.725800 0.000033 0.559559
430.436432 -366.380157 8.471667 0.644118
430.435120 -366.378235 7.579615 0.291422
430.433807 -366.376373 6.700242 0.639828
430.432465 -366.374451 5.831428 0.627819
430.431213 -366.372650 4.971181 0.360784
430.429901 -366.370850 4.117527 0.305270
430.428619 -366.368988 3.268589 0.562377
430.427368 -366.367188 2.422525 0.585294
430.426086 -366.365387 1.577511 0.293137
430.424835 -366.363617 0.731735 0.608333
429.607574 -365.196777 0.000004 0.557230
425.588043 -359.457794 0.000020 0.543505
423.349365 -356.261536 0.000035 0.533578
421.920258 -354.221039 0.000026 0.552696
420.927002 -352.802917 0.000003 0.553554
420.195099 -351.757996 0.000018 0.528186
430.244598 -366.419739 8.452386 0.619240
430.243286 -366.417877 7.562993 0.184069
430.242004 -366.415955 6.686239 0.571201
430.240692 -366.414063 5.820016 0.605637
430.239441 -366.412292 4.962333 0.360294
430.238190 -366.410461 4.111219 0.259436
430.236908 -366.408600 3.264812 0.555270
430.235687 -366.406799 2.421267 0.576471
430.234467 -366.405029 1.578769 0.182108
430.233215 -366.403229 0.735510 0.642524
429.467682 -365.293823 0.000017 0.538235
425.488342 -359.527008 0.000033 0.546691
423.272095 -356.315247 0.000033 0.523897
421.857178 -354.264771 0.000050 0.543137
420.873871 -352.839783 0.000016 0.561397
420.149323 -351.789734 0.000032 0.535294
430.053925 -366.459137 8.433531 0.533578
430.052643 -366.457214 7.546736 0.753309
430.051361 -366.455322 6.672548 0.567892
430.050079 -366.453461 5.808856 0.535907
430.048859 -366.451660 4.953680 0.928922
430.047607 -366.449829 4.105053 0.655515
430.046356 -366.447998 3.261117 0.581985
430.045135 -366.446198 2.420037 0.523652
430.043915 -366.444427 1.579998 0.677206
430.042694 -366.442596 0.739203 0.630270
429.327271 -365.390137 0.000009 0.520711
425.388214 -359.595612 0.000027 0.520098
423.194458 -356.368469 0.000025 0.535539
421.793884 -354.308167 0.000041 0.561765
420.820496 -352.876221 0.000035 0.507475
420.103363 -351.821320 0.000010 0.534559
429.864349 -366.498260 8.415099 0.560172
429.863068 -366.496368 7.530845 0.561765
429.861816 -366.494476 6.659163 0.552328
429.860535 -366.492615 5.797948 0.554779
429.859344 -366.490814 4.945220 0.562255
429.858124 -366.488983 4.099023 0.484436
429.856903 -366.487152 3.257507 0.484314
429.855682 -366.485352 2.418834 0.504289
429.854492 -366.483582 1.581201 0.600245
429.853302 -366.481781 0.742812 0.631863
429.186127 -365.485443 0.000005 0.532230
425.287628 -359.663544 0.000022 0.526103
423.116455 -356.421143 0.000019 0.536520
421.730286 -354.351074 0.000041 0.557108
420.766876 -352.912384 0.000039 0.493505
420.057190 -351.852509 0.000004 0.532721
429.675842 -366.537201 8.397083 0.556985
429.674561 -366.535278 7.515314 0.552574
429.673340 -366.533417 6.646079 0.544976
429.672089 -366.531525 5.787286 0.560907
429.670898 -366.529755 4.936950 0.605270
429.669708 -366.527893 4.093132 0.582353
429.668488 -366.526093 3.253977 0.621569
429.667297 -366.524292 2.417659 0.652451
429.666138 -366.522491 1.582377 0.617279
429.664978 -366.520721 0.746340 0.634559
429.044159 -365.579468 0.000025 0.526103
425.186462 -359.730591 0.000040 0.503431
423.037964 -356.473145 0.000041 0.556250
421.666321 -354.393463 0.000056 0.558211
420.713013 -352.948090 0.000059 0.498039
420.010742 -351.883331 0.000007 0.578064
429.488373 -366.575897 8.379478 0.589093
429.487122 -366.574005 7.500137 0.573162
429.485901 -366.572113 6.633295 0.591544
429.484711 -366.570221 5.776867 0.607721
429.483521 -366.568420 4.928870 0.621201
429.482330 -366.566620 4.087374 0.568137
429.481171 -366.564819 3.250527 0.592157
429.479980 -366.562988 2.416509 0.564951
429.478821 -366.561188 1.583525 0.610294
429.477692 -366.559418 0.749787 0.617157
428.901764 -365.672882 0.000012 0.539828
425.085052 -359.797272 0.000012 0.529902
422.959259 -356.524750 0.000028 0.544853
421.602203 -354.435638 0.000029 0.553309
420.658905 -352.983551 0.000046 0.547672
419.964081 -351.913849 0.000022 0.537377
429.301941 -366.614410 8.362279 0.603309
429.300720 -366.612488 7.485311 0.584069
429.299530 -366.610626 6.620806 0.531005
429.298340 -366.608734 5.766686 0.603309
429.297180 -366.606934 4.920976 0.590931
429.295990 -366.605103 4.081748 0.632475
429.294830 -366.603333 3.247158 0.584926
429.293671 -366.601501 2.415387 0.551348
429.292542 -366.599731 1.584647 0.541912
429.291382 -366.597931 0.753156 0.598407
428.758667 -365.765137 0.000011 0.534069
424.983032 -359.863037 0.000011 0.532353
422.880219 -356.575836 0.000012 0.518750
421.537689 -354.477203 0.000029 0.533333
420.604645 -353.018616 0.000031 0.532843
419.917267 -351.944092 0.000008 0.531863
429.116486 -366.652679 8.345482 0.512377
429.115295 -366.650818 7.470829 0.519730
429.114105 -366.648926 6.608607 0.517647
429.112915 -366.647034 5.756744 0.503186
429.111755 -366.645233 4.913264 0.560172
429.110626 -366.643433 4.076255 0.627083
429.109497 -366.641602 3.243866 0.549632
429.108337 -366.639771 2.414291 0.546814
429.107239 -366.638000 1.585743 0.542647
429.106110 -366.636230 0.756446 0.535539
428.614990 -365.856537 -0.000004 0.551716
424.880615 -359.928162 -0.000003 0.537745
422.800812 -356.626373 -0.000002 0.531373
421.472992 -354.518463 0.000002 0.521691
420.550079 -353.053284 0.000021 0.535662
419.870209 -351.973999 -0.000004 0.523652
428.931976 -366.690765 8.329081 0.568505
428.930817 -366.688873 7.456692 0.491176
428.929626 -366.686981 6.596697 0.593260
428.928497 -366.685150 5.747036 0.576838
428.927368 -366.683319 4.905736 0.492402
428.926270 -366.681519 4.070890 0.493995
428.925140 -366.679718 3.240654 0.546936
428.924011 -366.677887 2.413221 0.505024
428.922913 -366.676117 1.586813 0.527696
428.921783 -366.674316 0.759658 0.594485
428.470490 -365.946625 0.000015 0.534681
424.777588 -359.992279 0.000026 0.526961
422.720886 -356.676086 0.000030 0.526226
421.407867 -354.559052 0.000018 0.538480
420.495178 -353.087433 0.000049 0.567279
419.822876 -352.003387 0.000036 0.540564
428.748474 -366.728668 8.313070 0.572304
428.747314 -366.726776 7.442889 0.293750
428.746155 -366.724884 6.585071 0.611152
428.745026 -366.723022 5.737559 0.545098
428.743896 -366.721191 4.898387 0.338848
428.742798 -366.719421 4.065653 0.307598
428.741699 -366.717621 3.237517 0.622672
428.740601 -366.715820 2.412176 0.638726
428.739502 -366.714020 1.587858 0.298897
428.738403 -366.712219 0.762793 0.644975
428.325287 -366.035583 0.000041 0.530515
424.674133 -360.055786 0.000041 0.535417
422.640656 -356.725342 0.000044 0.545221
421.342377 -354.599030 0.000063 0.537623
420.440125 -353.121277 0.000061 0.535049
419.775299 -352.032440 0.000082 0.547549
428.565857 -366.766388 8.297448 0.543627
428.564728 -366.764496 7.429421 0.176716
428.563599 -366.762604 6.573725 0.534926
428.562469 -366.760742 5.728312 0.569608
428.561371 -366.758911 4.891216 0.354044
428.560272 -366.757111 4.060544 0.371201
428.559204 -366.755310 3.234456 0.584559
428.558105 -366.753510 2.411157 0.606495
428.557037 -366.751709 1.588877 0.181495
428.555939 -366.749939 0.765853 0.615931
428.179718 -366.123962 0.000027 0.521201
424.570404 -360.118774 0.000028 0.541544
422.560211 -356.774200 0.000028 0.553799
421.276794 -354.638855 0.000048 0.555147
420.384827 -353.154816 0.000049 0.554412
419.727661 -352.061401 0.000068 0.580270
428.384094 -366.803925 8.282207 0.568750
428.382996 -366.802032 7.416283 0.653186
428.381866 -366.800140 6.562659 0.488113
428.380768 -366.798279 5.719292 0.576103
428.379700 -366.796448 4.884222 0.818382
428.378662 -366.794647 4.055560 0.500858
428.377594 -366.792847 3.231469 0.617770
428.376526 -366.791046 2.410162 0.544485
428.375458 -366.789246 1.589872 0.541544
428.374390 -366.787445 0.768838 0.622794
428.033386 -366.211029 0.000041 0.535539
424.466125 -360.180847 0.000041 0.526103
422.479309 -356.822327 0.000043 0.552451
421.210907 -354.678192 0.000046 0.526471
420.329285 -353.187897 0.000064 0.515196
419.679749 -352.089935 0.000065 0.538848
428.203247 -366.841248 8.267345 0.534681
428.202148 -366.839355 7.403468 0.472059
428.201050 -366.837463 6.551864 0.465196
428.199951 -366.835602 5.710493 0.500613
428.198914 -366.833801 4.877402 0.508211
428.197876 -366.832001 4.050699 0.596936
428.196808 -366.830200 3.228557 0.558824
428.195770 -366.828400 2.409193 0.586152
428.194733 -366.826599 1.590842 0.536274
428.193695 -366.824829 0.771748 0.564461
427.886688 -366.297516 0.000014 0.536642
424.361542 -360.242462 0.000016 0.549510
422.398224 -356.870117 0.000016 0.527696
421.144806 -354.717133 0.000019 0.529289
420.273621 -353.220764 0.000022 0.548284
419.631744 -352.118256 0.000041 0.542279
428.023254 -366.878418 8.252857 0.541422
428.022156 -366.876495 7.390973 0.515074
428.021088 -366.874634 6.541341 0.553554
428.020020 -366.872772 5.701918 0.629902
428.018982 -366.870972 4.870754 0.581127
428.017944 -366.869171 4.045959 0.539338
428.016907 -366.867371 3.225718 0.565686
428.015869 -366.865570 2.408247 0.471324
428.014832 -366.863770 1.591787 0.606618
428.013824 -366.862000 0.774586 0.588235
427.739227 -366.382690 0.000013 0.541544
424.256378 -360.303040 0.000030 0.534926
422.316650 -356.917114 0.000031 0.540931
421.078339 -354.755524 0.000019 0.555637
420.217651 -353.253113 0.000020 0.516789
419.583466 -352.146118 0.000040 0.528309
427.844025 -366.915405 8.238735 0.553431
427.842957 -366.913483 7.378798 0.589093
427.841888 -366.911621 6.531086 0.618382
427.840881 -366.909790 5.693564 0.656618
427.839844 -366.907959 4.864272 0.533578
427.838806 -366.906158 4.041339 0.562132
427.837799 -366.904358 3.222952 0.600368
427.836792 -366.902588 2.407326 0.650980
427.835815 -366.900787 1.592708 0.550000
427.834808 -366.899017 0.777350 0.652083
427.591095 -366.466675 0.000027 0.536152
424.150787 -360.362885 0.000044 0.537255
422.234833 -356.963623 0.000030 0.555392
421.011597 -354.793365 0.000032 0.547059
420.161438 -353.284973 0.000034 0.532108
419.535034 -352.173676 0.000038 0.540196
427.665619 -366.952240 8.224979 0.591299
427.664581 -366.950317 7.366941 0.615319
427.663544 -366.948486 6.521103 0.605147
427.662506 -366.946625 5.685422 0.529534
427.661499 -366.944824 4.857959 0.578064
427.660492 -366.943024 4.036842 0.617034
427.659546 -366.941223 3.220258 0.572917
427.658539 -366.939453 2.406429 0.601593
427.657562 -366.937653 1.593605 0.606373
427.656555 -366.935883 0.780043 0.641299
427.442535 -366.549896 0.000012 0.540809
424.044983 -360.422363 0.000013 0.535784
422.152710 -357.009644 0.000015 0.549142
420.944672 -354.830902 0.000018 0.547549
420.104950 -353.316467 0.000051 0.551225
419.486389 -352.200897 0.000026 0.517524
427.488007 -366.988892 8.211586 0.643873
427.486969 -366.986969 7.355398 0.601961
427.485962 -366.985138 6.511379 0.541789
427.484955 -366.983276 5.677496 0.491299
427.483948 -366.981476 4.851815 0.557353
427.483002 -366.979675 4.032464 0.591422
427.482025 -366.977875 3.217634 0.600245
427.481049 -366.976105 2.405555 0.544118
427.480072 -366.974335 1.594478 0.581495
427.479095 -366.972565 0.782664 0.650980
427.293243 -366.631805 0.000028 0.543627
423.938568 -360.480743 0.000027 0.534191
422.070190 -357.054901 0.000030 0.534804
420.877350 -354.867737 0.000046 0.547549
420.048248 -353.347565 0.000063 0.522426
419.437469 -352.227631 0.000068 0.531127
427.311127 -367.025391 8.198553 0.562990
427.310120 -367.023499 7.344163 0.585172
427.309113 -367.021637 6.501917 0.442034
427.308136 -367.019836 5.669786 0.488358
427.307159 -367.018005 4.845836 0.522304
427.306213 -367.016205 4.028202 0.570343
427.305267 -367.014435 3.215082 0.584926
427.304291 -367.012634 2.404705 0.558333
427.303345 -367.010864 1.595328 0.528431
427.302399 -367.009094 0.785216 0.573652
427.143555 -366.712982 0.000012 0.537010
423.831909 -360.538605 0.000012 0.527574
421.987396 -357.099701 0.000029 0.544363
420.809875 -354.904297 0.000032 0.553431
419.991486 -353.378448 0.000034 0.523775
419.388489 -352.254181 0.000053 0.551471
427.135010 -367.061768 8.185878 0.529044
427.134003 -367.059875 7.333240 0.560907
427.133026 -367.058044 6.492715 0.497794
427.132080 -367.056183 5.662285 0.551961
427.131104 -367.054382 4.840019 0.608333
427.130157 -367.052582 4.024058 0.543873
427.129242 -367.050812 3.212599 0.531985
427.128296 -367.049042 2.403878 0.461642
427.127350 -367.047272 1.596155 0.596446
427.126404 -367.045471 0.787698 0.601961
426.993164 -366.792786 0.000027 0.542647
423.724670 -360.595459 0.000028 0.541544
421.904236 -357.143799 0.000044 0.531863
420.742096 -354.940277 0.000047 0.523529
419.934357 -353.408752 0.000048 0.567892
419.339264 -352.280365 0.000052 0.570466
426.959595 -367.097992 8.173552 0.600368
426.958618 -367.096100 7.322611 0.532598
426.957642 -367.094238 6.483762 0.564216
426.956696 -367.092407 5.654987 0.503431
426.955750 -367.090576 4.834360 0.526961
426.954834 -367.088806 4.020028 0.556127
426.953888 -367.087036 3.210185 0.582108
426.952972 -367.085266 2.403074 0.643382
426.952087 -367.083496 1.596959 0.598162
426.951141 -367.081696 0.790110 0.646936
426.842316 -366.871826 0.000011 0.535907
423.617249 -360.651947 -0.000003 0.527941
421.820892 -357.187531 0.000029 0.534926
420.674164 -354.975922 0.000030 0.541544
419.877106 -353.438751 0.000033 0.531495
419.289917 -352.306305 0.000023 0.533333
426.784821 -367.134033 8.161575 0.575123
426.783875 -367.132141 7.312285 0.605882
426.782928 -367.130280 6.475062 0.594853
426.781982 -367.128448 5.647897 0.580882
426.781097 -367.126648 4.828861 0.630147
426.780151 -367.124847 4.016105 0.580637
426.779236 -367.123077 3.207835 0.563603
426.778320 -367.121277 2.402291 0.595466
426.777435 -367.119507 1.597741 0.582475
426.776520 -367.117706 0.792459 0.623284
426.690826 -366.949554 0.000026 0.539706
423.509216 -360.707306 0.000012 0.547181
421.737122 -357.230438 0.000045 0.517647
420.605865 -355.010925 0.000045 0.510662
419.819641 -353.468292 0.000034 0.511887
419.240326 -352.331757 0.000037 0.516789
426.610779 -367.169983 8.149946 0.618137
426.609833 -367.168060 7.302257 0.587132
426.608887 -367.166199 6.466614 0.628922
426.607971 -367.164368 5.641010 0.583824
426.607056 -367.162567 4.823523 0.575858
426.606171 -367.160767 4.012300 0.597549
426.605255 -367.158997 3.205557 0.580882
426.604370 -367.157227 2.401533 0.640074
426.603485 -367.155426 1.598500 0.536520
426.602600 -367.153625 0.794737 0.581740
426.538910 -367.026520 0.000011 0.531250
423.400970 -360.762177 -0.000004 0.515319
421.653137 -357.273010 0.000028 0.559681
420.537445 -355.045654 0.000015 0.547549
419.761963 -353.497528 0.000017 0.509191
419.190582 -352.356934 0.000022 0.572672
426.437347 -367.205811 8.138659 0.589216
426.436432 -367.203918 7.292528 0.581127
426.435486 -367.201996 6.458416 0.569118
426.434601 -367.200165 5.634328 0.514583
426.433685 -367.198364 4.818341 0.538848
426.432800 -367.196564 4.008608 0.580882
426.431946 -367.194794 3.203345 0.644240
426.431091 -367.193024 2.400795 0.561397
426.430206 -367.191254 1.599236 0.617647
426.429321 -367.189423 0.796948 0.654044
426.428406 -367.187622 -0.007792 1.000000
423.292236 -360.816040 0.000010 0.549020
421.568817 -357.314789 0.000042 0.530637
420.468658 -355.079742 0.000030 0.561520
419.704041 -353.526245 0.000031 0.520466
419.140656 -352.381653 0.000037 0.547059
426.264557 -367.241455 8.127708 0.542647
426.263641 -367.239563 7.283090 0.549387
426.262726 -367.237701 6.450468 0.503186
426.261841 -367.235840 5.627847 0.514216
426.260956 -367.234039 4.813313 0.502696
426.260101 -367.232239 4.005026 0.569118
426.259247 -367.230438 3.201200 0.517892
426.258392 -367.228668 2.400081 0.547794
426.257538 -367.226898 1.599951 0.663113
426.256653 -367.225128 0.799092 0.615441
426.255768 -367.223297 -0.004214 1.000000
423.183105 -360.869202 0.000022 0.540564
421.484314 -357.356262 0.000008 0.544118
420.399811 -355.113556 -0.000003 0.537010
419.645935 -353.554657 0.000016 0.518750
419.090576 -352.406128 0.000033 0.530637
426.092377 -367.276978 8.117098 0.514461
426.091461 -367.275116 7.273944 0.526471
426.090576 -367.273254 6.442765 0.532108
426.089691 -367.271393 5.621568 0.559926
426.088867 -367.269562 4.808443 0.462132
426.087982 -367.267792 4.001555 0.554657
426.087158 -367.265991 3.199120 0.620711
426.086304 -367.264221 2.399389 0.603064
426.085449 -367.262451 1.600643 0.575858
426.084595 -367.260681 0.801170 0.539461
426.083740 -367.258850 -0.000746 1.000000
423.073578 -360.921509 0.000036 0.534804
421.399384 -357.396851 0.000024 0.535172
420.330566 -355.146637 0.000011 0.556863
419.587585 -353.582458 0.000045 0.582230
419.040253 -352.430176 0.000049 0.548407
425.920776 -367.312439 8.106821 0.594730
425.919891 -367.310577 7.265084 0.528064
425.919006 -367.308685 6.435303 0.499387
425.918182 -367.306824 5.615486 0.530882
425.917328 -367.304993 4.803726 0.537255
425.916473 -367.303192 3.998192 0.613971
425.915649 -367.301453 3.197106 0.593260
425.914825 -367.299622 2.398719 0.592525
425.913971 -367.297882 1.601314 0.558824
425.913147 -367.296082 0.803183 0.627083
425.912292 -367.294281 0.002612 1.000000
422.963806 -360.973328 0.000020 0.546814
421.314270 -357.437042 0.000006 0.542770
420.261200 -355.179382 -0.000005 0.525980
419.529144 -353.610077 0.000027 0.568382
418.989899 -352.454010 0.000015 0.545466
425.749725 -367.347748 8.096875 0.527451
425.748871 -367.345856 7.256508 0.714583
425.748016 -367.343994 6.428081 0.616299
425.747162 -367.342163 5.609599 0.565931
425.746338 -367.340332 4.799163 0.747549
425.745514 -367.338501 3.994939 0.638235
425.744720 -367.336731 3.195157 0.639828
425.743896 -367.334961 2.398069 0.567892
425.743073 -367.333191 1.601963 0.701348
425.742249 -367.331421 0.805131 0.558333
425.741425 -367.329590 0.005863 1.000000
422.853607 -361.024139 0.000036 0.516544
421.228790 -357.476440 0.000021 0.547304
420.191406 -355.211365 0.000040 0.531005
419.470428 -353.637146 0.000042 0.509804
418.939240 -352.477356 0.000032 0.523652
425.579254 -367.382935 8.087256 0.548284
425.578400 -367.381042 7.248214 0.469976
425.577576 -367.379181 6.421095 0.551103
425.576752 -367.377350 5.603908 0.549142
425.575928 -367.375519 4.794748 0.535172
425.575104 -367.373688 3.991793 0.486397
425.574341 -367.371948 3.193272 0.679167
425.573517 -367.370148 2.397441 0.628064
425.572723 -367.368378 1.602590 0.529534
425.571930 -367.366608 0.807015 0.598284
425.571106 -367.364807 0.009006 1.000000
422.743164 -361.074463 0.000016 0.528676
421.143158 -357.515533 -0.000012 0.528799
420.121582 -355.243164 0.000023 0.547304
419.411652 -353.663971 0.000009 0.507966
418.888550 -352.500458 0.000014 0.577941
425.409302 -367.417999 8.077962 0.670221
425.408478 -367.416107 7.240200 0.220343
425.407654 -367.414276 6.414348 0.582598
425.406830 -367.412445 5.598406 0.548652
425.406036 -367.410583 4.790482 0.249877
425.405212 -367.408752 3.988754 0.250980
425.404449 -367.407013 3.191452 0.589706
425.403656 -367.405243 2.396835 0.587010
425.402893 -367.403473 1.603197 0.219363
425.402100 -367.401672 0.808835 0.605760
425.401306 -367.399872 0.012043 1.000000
422.632080 -361.123413 0.000067 0.538113
421.057129 -357.553711 0.000004 0.528431
420.051453 -355.274323 0.000037 0.566054
419.352539 -353.690216 0.000023 0.559681
418.837585 -352.523071 0.000027 0.578676
425.239838 -367.453003 8.068993 0.726838
425.239014 -367.451080 7.232467 0.501716
425.238220 -367.449249 6.407835 0.539828
425.237457 -367.447418 5.593098 0.515196
425.236633 -367.445557 4.786364 0.571201
425.235870 -367.443726 3.985820 0.410049
425.235107 -367.441986 3.189694 0.601961
425.234314 -367.440216 2.396250 0.538113
425.233551 -367.438446 1.603782 0.353676
425.232788 -367.436646 0.810591 0.571446
425.231995 -367.434845 0.014974 1.000000
422.520844 -361.171906 0.000082 0.522672
420.970856 -357.591339 0.000020 0.522917
419.981140 -355.305054 0.000037 0.538971
419.293304 -353.716095 0.000024 0.530147
418.786499 -352.545349 0.000044 0.567770
425.070892 -367.487854 8.060343 0.529657
425.070099 -367.485962 7.225011 0.559436
425.069305 -367.484131 6.401555 0.596446
425.068542 -367.482300 5.587978 0.531985
425.067749 -367.480408 4.782394 0.569240
425.066956 -367.478607 3.982992 0.578186
425.066223 -367.476868 3.188000 0.576716
425.065491 -367.475098 2.395685 0.631127
425.064728 -367.473297 1.604346 0.548284
425.063965 -367.471527 0.812284 0.593137
425.063202 -367.469727 0.017800 1.000000
422.409332 -361.219757 0.000077 0.543137
420.884277 -357.628265 0.000045 0.534804
419.910614 -355.335297 0.000032 0.551961
419.233917 -353.741608 0.000018 0.551348
418.735260 -352.567261 0.000053 0.515564
424.902405 -367.522644 8.052017 0.580147
424.901611 -367.520752 7.217834 0.567770
424.900848 -367.518921 6.395508 0.566299
424.900085 -367.517090 5.583050 0.591912
424.899323 -367.515198 4.778573 0.569730
424.898590 -367.513397 3.980268 0.610049
424.897858 -367.511658 3.186369 0.650368
424.897095 -367.509918 2.395143 0.554534
424.896362 -367.508087 1.604889 0.586520
424.895599 -367.506317 0.813914 0.585294
424.894867 -367.504517 0.020521 1.000000
422.297394 -361.266693 0.000093 0.541912
420.797455 -357.664673 0.000060 0.557476
419.839874 -355.364960 0.000047 0.513848
419.174286 -353.766602 0.000034 0.554779
418.683838 -352.588806 0.000069 0.548652
424.734406 -367.557312 8.044004 0.643137
424.733612 -367.555450 7.210928 0.643505
424.732880 -367.553619 6.389692 0.626225
424.732117 -367.551727 5.578307 0.623407
424.731354 -367.549896 4.774899 0.542157
424.730621 -367.548096 3.977649 0.562255
424.729889 -367.546326 3.184799 0.609314
424.729156 -367.544586 2.394620 0.540319
424.728424 -367.542786 1.605412 0.615441
424.727722 -367.541016 0.815483 0.614093
424.726990 -367.539185 0.023138 1.000000
422.185242 -361.313110 0.000074 0.526961
420.710480 -357.700653 0.000041 0.548652
419.768982 -355.394348 0.000028 0.508211
419.114532 -353.791321 0.000015 0.514828
418.632355 -352.610199 0.000036 0.496446
424.566803 -367.591919 8.036311 0.601961
424.566040 -367.590057 7.204295 0.615931
424.565308 -367.588226 6.384105 0.618750
424.564575 -367.586365 5.573753 0.575000
424.563812 -367.584503 4.771366 0.457966
424.563110 -367.582703 3.975133 0.514461
424.562378 -367.580963 3.183291 0.623652
424.561707 -367.579163 2.394118 0.595343
424.560974 -367.577393 1.605914 0.545956
424.560272 -367.575623 0.816990 0.504044
424.559540 -367.573792 0.025653 1.000000
422.072693 -361.358551 0.000076 0.532721
420.623199 -357.735840 0.000056 0.556495
419.697815 -355.423065 0.000029 0.576961
419.054565 -353.815491 0.000030 0.500123
418.580658 -352.631012 0.000051 0.563848
424.399628 -367.626434 8.028927 0.580024
424.398895 -367.624573 7.197933 0.555637
424.398163 -367.622742 6.378744 0.555637
424.397430 -367.620850 5.569384 0.537010
424.396698 -367.619019 4.767979 0.540074
424.395996 -367.617218 3.972719 0.600000
424.395325 -367.615448 3.181845 0.568627
424.394623 -367.613678 2.393636 0.477574
424.393921 -367.611908 1.606395 0.611397
424.393219 -367.610107 0.818435 0.585662
424.392517 -367.608307 0.028066 1.000000
421.959930 -361.403412 0.000057 0.534069
420.535736 -357.770599 0.000038 0.537255
419.626495 -355.451447 0.000011 0.540441
418.994507 -353.839386 0.000012 0.546201
418.528870 -352.651611 0.000033 0.522059
424.232849 -367.660889 8.021854 0.537868
424.232117 -367.658997 7.191836 0.616176
424.231415 -367.657166 6.373608 0.541789
424.230682 -367.655304 5.565199 0.561397
424.230011 -367.653442 4.764734 0.589706
424.229309 -367.651672 3.970407 0.548897
424.228638 -367.649902 3.180459 0.597549
424.227936 -367.648071 2.393175 0.638113
424.227264 -367.646332 1.606857 0.612745
424.226593 -367.644562 0.819820 0.621324
424.225891 -367.642731 0.030376 1.000000
421.846741 -361.447205 0.000073 0.507475
420.447845 -357.804352 0.000087 0.545711
419.554932 -355.479095 0.000026 0.532966
418.934174 -353.862610 0.000044 0.563603
418.476868 -352.671722 0.000045 0.557353
424.066467 -367.695221 8.015094 0.744608
424.065735 -367.693329 7.186008 0.673039
424.065033 -367.691498 6.368698 0.511152
424.064392 -367.689667 5.561197 0.626471
424.063690 -367.687805 4.761632 0.681618
424.063019 -367.686035 3.968196 0.534681
424.062317 -367.684204 3.179134 0.586275
424.061646 -367.682434 2.392733 0.570343
424.061005 -367.680695 1.607298 0.606863
424.060303 -367.678894 0.821144 0.625735
424.059631 -367.677094 0.032585 1.000000
421.733337 -361.490448 0.000054 0.525368
420.359924 -357.837921 0.000068 0.532843
419.483246 -355.506470 0.000005 0.553799
418.873779 -353.885651 0.000027 0.504534
418.424805 -352.691589 0.000029 0.541176
423.900421 -367.729523 8.008643 0.401961
423.899750 -367.727631 7.180444 0.514461
423.899048 -367.725769 6.364011 0.625980
423.898407 -367.723938 5.557379 0.591176
423.897736 -367.722107 4.758671 0.538971
423.897064 -367.720276 3.966085 0.508946
423.896393 -367.718506 3.177870 0.566544
423.895721 -367.716705 2.392312 0.630024
423.895081 -367.714935 1.607719 0.557108
423.894409 -367.713165 0.822408 0.628922
423.893738 -367.711365 0.034694 1.000000
421.619537 -361.532623 0.000071 0.537377
420.271667 -357.870605 0.000085 0.528922
419.411285 -355.533173 0.000020 0.568137
418.813171 -353.908112 0.000043 0.496569
418.372528 -352.710999 0.000044 0.562010
423.734772 -367.763702 8.002495 0.350735
423.734070 -367.761841 7.175144 0.221936
423.733398 -367.759979 6.359547 0.557353
423.732758 -367.758118 5.553740 0.574265
423.732117 -367.756317 4.755849 0.232475
423.731445 -367.754517 3.964075 0.247672
423.730804 -367.752716 3.176666 0.562990
423.730164 -367.750916 2.391910 0.583701
423.729523 -367.749146 1.608120 0.219363
423.728882 -367.747345 0.823613 0.689706
423.728210 -367.745575 0.036703 1.000000
421.505524 -361.574219 0.000063 0.561275
420.183228 -357.902863 0.000079 0.528676
419.339203 -355.559448 0.000014 0.538603
418.752441 -353.930328 0.000023 0.560294
418.320160 -352.730103 0.000024 0.543873
423.569427 -367.797852 7.996654 0.362010
423.568756 -367.795990 7.170109 0.327451
423.568085 -367.794128 6.355305 0.543015
423.567444 -367.792267 5.550282 0.493137
423.566803 -367.790436 4.753167 0.280637
423.566193 -367.788635 3.962164 0.298039
423.565552 -367.786835 3.175522 0.569118
423.564911 -367.785065 2.391530 0.527941
423.564270 -367.783264 1.608501 0.201716
423.563660 -367.781494 0.824757 0.686642
423.563019 -367.779694 0.038612 1.000000
421.391205 -361.614960 0.000064 0.535662
420.094635 -357.934662 0.000046 0.521078
419.266937 -355.585266 -0.000004 0.541789
418.691589 -353.952087 0.000004 0.534681
418.267700 -352.748901 0.000007 0.533456
423.404388 -367.831940 7.991117 0.504044
423.403748 -367.830048 7.165333 0.556495
423.403107 -367.828186 6.351282 0.576593
423.402466 -367.826355 5.547004 0.530147
423.401825 -367.824493 4.750625 0.587500
423.401184 -367.822723 3.960352 0.516176
423.400574 -367.820892 3.174436 0.652083
423.399994 -367.819122 2.391168 0.611642
423.399353 -367.817322 1.608863 0.631373
423.398743 -367.815521 0.825843 0.653309
423.398132 -367.813782 0.040422 1.000000
421.276520 -361.654724 0.000079 0.531495
420.005707 -357.965546 0.000060 0.546324
419.194336 -355.610077 0.000078 0.537132
418.630524 -353.973328 0.000018 0.575858
418.215027 -352.767181 0.000020 0.542892
423.239655 -367.865967 7.985880 0.634559
423.239044 -367.864075 7.160820 0.605760
423.238403 -367.862183 6.347479 0.525980
423.237793 -367.860382 5.543904 0.526226
423.237152 -367.858490 4.748221 0.539461
423.236542 -367.856720 3.958639 0.596324
423.235931 -367.854919 3.173410 0.574877
423.235321 -367.853119 2.390827 0.593382
423.234711 -367.851318 1.609205 0.534436
423.234131 -367.849548 0.826868 0.613848
423.233551 -367.847778 0.042133 1.000000
421.161713 -361.694000 0.000061 0.533946
419.916656 -357.996002 0.000043 0.543750
419.121735 -355.634918 0.000060 0.550490
418.569336 -353.994232 0.000001 0.528186
418.162262 -352.785126 0.000021 0.571936
423.075195 -367.899933 7.980944 0.589216
423.074554 -367.898041 7.156565 0.620343
423.073975 -367.896149 6.343894 0.594118
423.073364 -367.894318 5.540982 0.605882
423.072754 -367.892456 4.745955 0.599020
423.072174 -367.890656 3.957024 0.554167
423.071564 -367.888885 3.172443 0.646569
423.070984 -367.887054 2.390504 0.544363
423.070374 -367.885254 1.609527 0.614461
423.069794 -367.883484 0.827835 0.667402
423.069214 -367.881744 0.043747 1.000000
421.046509 -361.732239 0.000076 0.530392
419.827301 -358.025604 0.000058 0.526348
419.048920 -355.659088 0.000075 0.558946
418.507996 -354.014587 0.000013 0.534681
418.109344 -352.802673 0.000036 0.547672
422.911011 -367.933838 7.976309 0.642157
422.910400 -367.931915 7.152567 0.576961
422.909790 -367.930054 6.340526 0.561029
422.909210 -367.928223 5.538238 0.610907
422.908600 -367.926361 4.743826 0.525368
422.908020 -367.924591 3.955508 0.606863
422.907471 -367.922760 3.171534 0.643260
422.906891 -367.920959 2.390202 0.584681
422.906311 -367.919159 1.609829 0.613480
422.905731 -367.917419 0.828742 0.581740
422.905151 -367.915619 0.045261 1.000000
420.931091 -361.769775 0.000071 0.532230
419.737793 -358.054749 0.000050 0.542892
418.975952 -355.682831 0.000068 0.550858
418.446533 -354.034607 0.000004 0.489461
418.056366 -352.819946 0.000029 0.533211
422.747070 -367.967682 7.971972 0.556495
422.746490 -367.965790 7.148825 0.551471
422.745880 -367.963898 6.337374 0.582230
422.745331 -367.962097 5.535670 0.544240
422.744720 -367.960205 4.741835 0.510417
422.744171 -367.958405 3.954088 0.536029
422.743591 -367.956604 3.170684 0.533946
422.743042 -367.954834 2.389919 0.574632
422.742462 -367.953064 1.610112 0.587623
422.741943 -367.951263 0.829592 0.493260
422.741364 -367.949493 0.046679 1.000000
420.815369 -361.806366 0.000087 0.536520
419.648071 -358.083130 0.000067 0.527083
418.902771 -355.705963 0.000083 0.515809
418.384888 -354.054138 0.000019 0.535049
418.003204 -352.836761 0.000039 0.555392
422.583344 -368.001495 7.967931 0.552451
422.582764 -367.999603 7.145339 0.560662
422.582184 -367.997742 6.334439 0.583333
422.581635 -367.995880 5.533278 0.550368
422.581085 -367.994019 4.739980 0.501838
422.580536 -367.992218 3.952766 0.574020
422.579987 -367.990417 3.169892 0.547181
422.535248 -367.844208 2.387183 0.519363
422.534698 -367.842438 1.612847 0.610294
422.534180 -367.840637 0.837802 0.510784
422.533630 -367.838867 0.060382 0.570343
420.699493 -361.842438 0.000067 0.523529
419.558197 -358.111145 0.000043 0.519118
418.829529 -355.728851 0.000049 0.555147
418.323151 -354.073303 0.000001 0.518015
417.950012 -352.853333 0.000020 0.551838
422.419861 -368.035278 7.964185 0.584681
422.419281 -368.033356 7.142111 0.548039
422.418732 -368.031464 6.331718 0.557966
422.418182 -368.029633 5.531061 0.594485
422.417633 -368.027802 4.738260 0.606250
422.417084 -368.025970 3.951540 0.640074
422.416534 -368.024170 3.169158 0.566176
422.416016 -368.022400 2.389411 0.354534
422.415497 -368.020569 1.610620 0.215319
422.414948 -368.018799 0.831118 0.196201
422.414398 -368.016968 0.049228 0.096569
420.583282 -361.877441 0.000080 0.540809
419.468048 -358.138245 0.000059 0.542034
418.756042 -355.750946 0.000065 0.533456
418.261169 -354.091644 0.000083 0.552206
417.896606 -352.869385 0.000039 0.529412
422.256561 -368.069000 7.960735 0.405760
422.255981 -368.067078 7.139135 0.539951
422.255432 -368.065186 6.329212 0.576471
422.254944 -368.063385 5.529019 0.626471
422.254395 -368.061493 4.736676 0.538113
422.253845 -368.059692 3.950413 0.504657
422.253326 -368.057892 3.168482 0.602451
422.252808 -368.056091 2.389185 0.376348
422.252289 -368.054291 1.610845 0.285294
422.251740 -368.052490 0.831794 0.235049
422.251221 -368.050690 0.050356 0.135294
420.466858 -361.911774 0.000071 0.529167
419.377777 -358.164886 0.000052 0.548162
418.682465 -355.772675 0.000056 0.504902
418.199158 -354.109924 0.000074 0.534559
417.843140 -352.885162 0.000030 0.554902
422.093445 -368.102692 7.957577 0.344240
422.092896 -368.100739 7.136414 0.270343
422.092346 -368.098877 6.326921 0.589461
422.091827 -368.097046 5.527151 0.635662
422.091309 -368.095184 4.735229 0.250245
422.090790 -368.093353 3.949380 0.305637
422.090271 -368.091583 3.167863 0.545466
422.089752 -368.089752 2.388979 0.333578
422.089294 -368.087952 1.611051 0.290319
422.088776 -368.086151 0.832413 0.267034
422.088257 -368.084351 0.051388 0.207475
420.350189 -361.945099 0.000088 0.540809
419.287262 -358.190735 0.000067 0.513971
418.608673 -355.793732 0.000072 0.522059
418.136993 -354.127686 0.000090 0.506373
417.789581 -352.900543 0.000029 0.597672
421.930481 -368.136353 7.954715 0.356005
421.929932 -368.134430 7.133946 0.241422
421.929413 -368.132507 6.324841 0.586520
421.928925 -368.130707 5.525455 0.613848
421.928436 -368.128815 4.733914 0.209926
421.927917 -368.127014 3.948444 0.283211
421.927429 -368.125214 3.167303 0.539338
421.926910 -368.123383 2.388792 0.306863
421.926422 -368.121582 1.611238 0.334191
421.925903 -368.119751 0.832973 0.237255
421.925415 -368.117981 0.052325 0.244608
420.233337 -361.977936 0.000068 0.528676
419.196655 -358.216187 0.000049 0.537500
418.534790 -355.814484 0.000055 0.521324
418.074768 -354.145172 0.000072 0.568750
417.735901 -352.915588 0.000011 0.552328
421.767670 -368.169952 7.952147 0.836520
421.767151 -368.168060 7.131732 0.713603
421.766663 -368.166138 6.322975 0.522672
421.766174 -368.164337 5.523935 0.534681
421.765656 -368.162445 4.732735 0.789338
421.765167 -368.160614 3.947603 0.561029
421.764679 -368.158813 3.166800 0.596814
421.764191 -368.157013 2.388625 0.422059
421.763702 -368.155182 1.611406 0.262500
421.763214 -368.153381 0.833477 0.214338
421.762756 -368.151550 0.053166 0.233578
420.116180 -362.009644 0.000085 0.519118
419.105804 -358.240753 0.000065 0.538725
418.460754 -355.834534 0.000067 0.543873
418.012360 -354.162109 0.000075 0.557843
417.682098 -352.930145 0.000028 0.573284
421.604980 -368.203583 7.949869 0.534681
421.604492 -368.201630 7.129770 0.516789
421.604004 -368.199738 6.321319 0.582475
421.603516 -368.197906 5.522587 0.584069
421.603027 -368.196014 4.731691 0.578676
421.602539 -368.194214 3.946859 0.481127
421.602112 -368.192383 3.166353 0.669118
421.601624 -368.190582 2.388476 0.227083
421.601135 -368.188751 1.611555 0.228799
421.600677 -368.186951 0.833924 0.204779
421.600189 -368.185120 0.053911 0.179534
419.998840 -362.040710 0.000075 0.540196
419.014771 -358.264740 0.000076 0.522549
418.386536 -355.854187 0.000059 0.541422
417.949890 -354.178680 0.000065 0.538358
417.628204 -352.944427 0.000019 0.558946
421.442444 -368.237152 7.947882 0.599755
421.441956 -368.235229 7.128058 0.623529
421.441467 -368.233276 6.319878 0.585662
421.441010 -368.231506 5.521413 0.540319
421.440552 -368.229614 4.730780 0.540196
421.440063 -368.227783 3.946209 0.543995
421.439606 -368.225952 3.165964 0.568382
421.402222 -368.078278 2.385884 0.595711
421.401764 -368.076477 1.614146 0.567279
421.401306 -368.074677 0.841702 0.656740
421.400879 -368.072876 0.066892 0.598652
419.881256 -362.070770 0.000091 0.539583
418.923584 -358.288055 0.000093 0.540809
418.312225 -355.873199 0.000075 0.558946
417.887238 -354.194702 0.000081 0.542892
417.574188 -352.958130 0.000064 0.524142
421.279968 -368.270721 7.946186 0.576593
421.279510 -368.268768 7.126599 0.574632
421.279022 -368.266846 6.318647 0.609191
421.278595 -368.265045 5.520410 0.617647
421.278137 -368.263153 4.730003 0.587010
421.277679 -368.261353 3.945656 0.516299
421.277222 -368.259491 3.165631 0.636765
421.276764 -368.257721 2.388236 0.543873
421.276367 -368.255920 1.611794 0.595221
421.275909 -368.254089 0.834642 0.658946
421.275452 -368.252258 0.055110 1.000000
419.763550 -362.100311 0.000073 0.550368
418.832306 -358.310944 0.000075 0.519608
418.237793 -355.891876 0.000055 0.522426
417.824554 -354.210419 0.000062 0.534681
417.520111 -352.971680 0.000047 0.513358
421.117584 -368.304230 7.944781 0.581250
421.117126 -368.302338 7.125390 0.547917
421.116669 -368.300385 6.317628 0.570098
421.116241 -368.298584 5.519579 0.645466
421.115784 -368.296692 4.729360 0.524265
421.115387 -368.294861 3.945196 0.579167
421.114929 -368.293030 3.165356 0.592892
421.114502 -368.291229 2.388144 0.553676
421.114075 -368.289429 1.611886 0.608701
421.113647 -368.287598 0.834917 0.575490
421.113190 -368.285767 0.055569 1.000000
419.645569 -362.128723 0.000091 0.530147
418.740784 -358.332977 0.000092 0.518750
418.163208 -355.909851 0.000071 0.567279
417.761719 -354.225555 0.000080 0.513603
417.465942 -352.984741 0.000064 0.547794
420.955322 -368.337738 7.943666 0.604534
420.954865 -368.335815 7.124429 0.530270
420.954437 -368.333923 6.316821 0.619118
420.954010 -368.332092 5.518920 0.535662
420.953552 -368.330231 4.728849 0.524755
420.953156 -368.328400 3.944834 0.484436
420.952698 -368.326508 3.165138 0.534559
420.952301 -368.324738 2.388072 0.573284
420.951874 -368.322937 1.611959 0.573284
420.951447 -368.321106 0.835135 0.487255
420.951019 -368.319275 0.055933 1.000000
419.527466 -362.156647 0.000066 0.544485
418.649170 -358.354584 0.000080 0.554289
418.088470 -355.927429 0.000063 0.574142
417.698792 -354.240387 0.000066 0.530147
417.411682 -352.997498 0.000053 0.558946
420.793060 -368.371277 7.942842 0.578799
420.792633 -368.369324 7.123719 0.501471
420.792175 -368.367432 6.316223 0.572672
420.791779 -368.365601 5.518432 0.549632
420.791351 -368.363739 4.728472 0.524510
420.790955 -368.361908 3.944565 0.586765
420.790527 -368.360046 3.164977 0.546078
420.790131 -368.358215 2.388018 0.517647
420.789703 -368.356415 1.612012 0.667525
420.789337 -368.354584 0.835297 0.596078
420.788910 -368.352753 0.056202 1.000000
419.409149 -362.183716 0.000047 0.545343
418.557404 -358.375549 0.000062 0.538603
418.013672 -355.944427 0.000065 0.534926
417.635773 -354.254822 0.000047 0.520956
417.357330 -353.009857 0.000056 0.571078
420.630829 -368.404755 7.942311 0.450123
420.630402 -368.402863 7.123258 0.497794
420.630005 -368.400909 6.315837 0.607721
420.629608 -368.399078 5.518117 0.583456
420.629181 -368.397217 4.728228 0.480760
420.628815 -368.395386 3.944390 0.473162
420.628418 -368.393555 3.164873 0.538603
420.628021 -368.391754 2.387984 0.627206
420.627625 -368.389893 1.612047 0.490809
420.627228 -368.388092 0.835401 0.569853
420.626831 -368.386230 0.056376 1.000000
419.290588 -362.209656 0.000065 0.515196
418.465454 -358.395660 0.000080 0.532843
417.938690 -355.960846 0.000083 0.536642
417.572601 -354.268646 0.000063 0.546569
417.302856 -353.021759 0.000075 0.564706
420.468658 -368.438263 7.942067 0.358701
420.468262 -368.436340 7.123050 0.304657
420.467834 -368.434448 6.315661 0.569363
420.467468 -368.432587 5.517974 0.605882
420.467072 -368.430695 4.728113 0.282353
420.466675 -368.428864 3.944309 0.346691
420.466309 -368.427032 3.164826 0.576226
420.465912 -368.425201 2.387967 0.557966
420.465515 -368.423401 1.612063 0.295098
420.465149 -368.421570 0.835449 0.663971
420.464752 -368.419708 0.056455 1.000000
419.171875 -362.234985 0.000054 0.542279
418.373383 -358.415314 0.000068 0.531618
417.863647 -355.976868 0.000072 0.526716
417.509399 -354.282104 0.000051 0.543137
417.248352 -353.033386 0.000064 0.516789
420.306458 -368.471802 7.942113 0.356740
420.306061 -368.469849 7.123089 0.245588
420.305664 -368.467926 6.315695 0.593750
420.305298 -368.466095 5.518000 0.640441
420.304932 -368.464172 4.728132 0.195711
420.304535 -368.462341 3.944323 0.366054
420.304169 -368.460541 3.164835 0.564583
420.303802 -368.458710 2.387971 0.583946
420.303436 -368.456848 1.612060 0.183946
420.303101 -368.455048 0.835439 0.695098
420.302704 -368.453186 0.056440 1.000000
419.052979 -362.259247 0.000071 0.528922
418.281189 -358.434143 0.000085 0.541544
417.788483 -355.992218 0.000087 0.533088
417.446045 -354.295044 0.000067 0.522426
417.193726 -353.044556 0.000082 0.561887
420.144257 -368.505280 7.942451 0.763971
420.143860 -368.503357 7.123380 0.536397
420.143494 -368.501434 6.315939 0.542034
420.143127 -368.499573 5.518197 0.592647
420.142761 -368.497681 4.728286 0.654657
420.142395 -368.495819 3.944433 0.463848
420.142090 -368.494019 3.164901 0.544485
420.141724 -368.492188 2.387993 0.588603
420.141357 -368.490356 1.612038 0.487623
420.140991 -368.488525 0.835373 0.687377
420.140625 -368.486664 0.056331 1.000000
418.933960 -362.283020 0.000053 0.531005
418.188904 -358.452637 0.000053 0.541422
417.713257 -356.007202 0.000069 0.538971
417.382629 -354.307709 0.000049 0.556863
417.139069 -353.055450 0.000064 0.562377
419.982056 -368.538788 7.943076 0.498652
419.981689 -368.536865 7.123920 0.497549
419.981323 -368.534973 6.316395 0.511520
419.980957 -368.533051 5.518566 0.497794
419.980621 -368.531158 4.728572 0.518015
419.980255 -368.529297 3.944636 0.505760
419.979919 -368.527527 3.165023 0.553309
419.979584 -368.525696 2.388033 0.528922
419.979218 -368.523834 1.611997 0.650613
419.978882 -368.522034 0.835250 0.589583
419.978546 -368.520172 0.056126 1.000000
418.814697 -362.305634 0.000070 0.568015
418.096405 -358.470184 0.000070 0.518873
417.637848 -356.021484 0.000087 0.542402
417.319153 -354.319733 0.000067 0.574755
417.084320 -353.065857 0.000080 0.502451
419.819763 -368.572327 7.943994 0.542402
419.819427 -368.570374 7.124709 0.634926
419.819061 -368.568451 6.317060 0.568015
419.818726 -368.566559 5.519107 0.555270
419.818390 -368.564667 4.728992 0.524020
419.818054 -368.562836 3.944937 0.512500
419.817719 -368.561005 3.165203 0.657843
419.817383 -368.559204 2.388093 0.566912
419.817047 -368.557343 1.611937 0.537255
419.816742 -368.555511 0.835071 0.490074
419.816437 -368.553650 0.055826 1.000000
418.695343 -362.327637 0.000059 0.534926
418.003876 -358.487274 0.000059 0.559314
417.562378 -356.035431 0.000075 0.548407
417.255585 -354.331543 0.000043 0.535907
417.029510 -353.075989 0.000060 0.544853
419.657440 -368.605835 7.945201 0.534314
419.657104 -368.603912 7.125747 0.601838
419.656769 -368.601990 6.317937 0.570466
419.656433 -368.600067 5.519821 0.603431
419.656097 -368.598175 4.729548 0.573284
419.655792 -368.596344 3.945331 0.536029
419.655457 -368.594543 3.165440 0.553554
419.655182 -368.592712 2.388172 0.606373
419.654877 -368.590881 1.611859 0.539951
419.654541 -368.589020 0.834835 0.575735
419.654205 -368.587158 0.055431 1.000000
418.575806 -362.348572 0.000077 0.538113
417.911133 -358.503479 0.000079 0.497304
417.486786 -356.048645 0.000094 0.505760
417.191895 -354.342682 0.000060 0.550490
416.974609 -353.085602 0.000077 0.525613
419.495056 -368.639404 7.946699 0.606863
419.494720 -368.637421 7.127036 0.576348
419.494415 -368.635559 6.319024 0.575368
419.494110 -368.633636 5.520707 0.602451
419.493774 -368.631744 4.730237 0.590931
419.493469 -368.629883 3.945821 0.520956
419.493164 -368.628082 3.165733 0.628554
419.492859 -368.626251 2.388270 0.566789
419.492554 -368.624390 1.611761 0.595098
419.492249 -368.622559 0.834541 0.682721
419.491943 -368.620697 0.054942 1.000000
418.456146 -362.368927 0.000066 0.527451
417.818359 -358.519257 0.000067 0.538358
417.411163 -356.061615 0.000069 0.517524
417.128143 -354.353516 0.000050 0.533088
416.919647 -353.094940 0.000066 0.508211
419.332550 -368.672974 7.948488 0.587745
419.332245 -368.670990 7.128578 0.558333
419.331940 -368.669098 6.320321 0.591789
419.331635 -368.667206 5.521765 0.590809
419.331329 -368.665314 4.731058 0.551961
419.331055 -368.663422 3.946405 0.571446
419.330750 -368.661621 3.166083 0.576348
419.330444 -368.659790 2.388386 0.548162
419.330170 -368.657928 1.611644 0.606250
419.329865 -368.656097 0.834191 0.573529
419.329590 -368.654236 0.054357 1.000000
418.336365 -362.388489 0.000048 0.535294
417.725433 -358.534454 0.000048 0.523529
417.335419 -356.073975 0.000051 0.525858
417.064362 -354.363983 0.000030 0.579902
416.864624 -353.103943 0.000050 0.475735
419.169952 -368.706573 7.950568 0.586887
419.169647 -368.704590 7.130370 0.544853
419.169373 -368.702698 6.321832 0.608701
419.169067 -368.700775 5.522996 0.592279
419.168793 -368.698914 4.732015 0.475000
419.168518 -368.696991 3.947087 0.495588
419.168243 -368.695190 3.166490 0.560907
419.167969 -368.693359 2.388522 0.593015
419.167694 -368.691498 1.611508 0.545098
419.167419 -368.689667 0.833783 0.499877
419.167114 -368.687805 0.053678 1.000000
418.216400 -362.406921 0.000066 0.545466
417.632416 -358.548737 0.000067 0.538971
417.259583 -356.085632 0.000068 0.558211
417.000458 -354.373779 0.000050 0.503554
416.809540 -353.112396 0.000069 0.556495
419.007263 -368.740173 7.952937 0.444853
419.006958 -368.738220 7.132411 0.496814
419.006683 -368.736298 6.323553 0.553431
419.006409 -368.734375 5.524400 0.540196
419.006134 -368.732513 4.733103 0.512745
419.005859 -368.730591 3.947863 0.538113
419.005615 -368.728790 3.166955 0.541176
419.005341 -368.726959 2.388677 0.496569
419.005066 -368.725098 1.611353 0.624877
419.004791 -368.723236 0.833319 0.506250
419.004517 -368.721375 0.052903 1.000000
418.096375 -362.424774 0.000053 0.542402
417.539307 -358.562592 0.000054 0.524755
417.183685 -356.096924 0.000057 0.554779
416.936523 -354.383270 0.000038 0.525735
416.754425 -353.120575 0.000056 0.532598
418.844391 -368.773834 7.955597 0.356250
418.844116 -368.771851 7.134706 0.307108
418.843872 -368.769928 6.325487 0.648529
418.843597 -368.768005 5.525978 0.573652
418.843323 -368.766113 4.734324 0.327696
418.843079 -368.764252 3.948733 0.387623
418.842834 -368.762421 3.167477 0.566544
418.842560 -368.760559 2.388850 0.624265
418.842346 -368.758698 1.611180 0.415809
418.842072 -368.756836 0.832798 0.567892
418.841827 -368.755005 0.052032 1.000000
417.976166 -362.441528 0.000072 0.532598
417.446106 -358.575592 0.000073 0.519118
417.107666 -356.107513 0.000075 0.564461
416.872498 -354.392212 0.000055 0.510172
416.699219 -353.128296 0.000075 0.534314
418.681396 -368.807495 7.958551 0.365196
418.681152 -368.805511 7.137255 0.240931
418.680908 -368.803619 6.327634 0.605025
418.680634 -368.801697 5.527728 0.625735
418.680389 -368.799774 4.735680 0.194730
418.680145 -368.797913 3.949700 0.391176
418.679901 -368.796051 3.168056 0.559804
418.679657 -368.794220 2.389044 0.568505
418.679413 -368.792389 1.610987 0.219363
418.679169 -368.790497 0.832220 0.558333
418.678925 -368.788635 0.051065 1.000000
417.855896 -362.457733 0.000054 0.521324
417.352814 -358.588135 0.000056 0.524755
417.031647 -356.117767 0.000058 0.554289
416.808441 -354.400818 0.000038 0.555270
416.643982 -353.135742 0.000057 0.555515
418.518219 -368.841187 7.961797 0.459069
418.517975 -368.839233 7.140059 0.467034
418.517731 -368.837280 6.329993 0.574142
418.517487 -368.835388 5.529651 0.621569
418.517273 -368.833466 4.737172 0.557721
418.517029 -368.831604 3.950764 0.478186
418.516785 -368.829742 3.168693 0.599142
418.516571 -368.827911 2.389256 0.605637
418.516327 -368.826050 1.610775 0.525980
418.516144 -368.824127 0.831583 0.536642
418.515900 -368.822327 0.050003 1.000000
417.735474 -362.472900 0.000064 0.530025
417.259430 -358.599792 0.000080 0.533333
416.955505 -356.127258 0.000082 0.551348
416.744293 -354.408844 0.000062 0.566789
416.588654 -353.142700 0.000064 0.544853
418.354858 -368.874969 7.965343 0.506863
418.354645 -368.872986 7.143118 0.533578
418.354401 -368.871063 6.332568 0.563603
418.354187 -368.869110 5.531750 0.635049
418.353973 -368.867218 4.738800 0.604289
418.353760 -368.865326 3.951924 0.526103
418.353516 -368.863495 3.169389 0.592402
418.353302 -368.861664 2.389487 0.579902
418.353088 -368.859741 1.610544 0.615686
418.352875 -368.857849 0.830890 0.631127
418.352661 -368.856018 0.048844 1.000000
417.614960 -362.487427 0.000046 0.539583
417.165955 -358.611084 0.000062 0.531127
416.879333 -356.136444 0.000065 0.543260
416.680115 -354.416565 0.000044 0.542770
416.533325 -353.149384 0.000048 0.533333
418.191284 -368.908783 7.969188 0.486152
418.191071 -368.906799 7.146430 0.485907
418.190857 -368.904846 6.335358 0.561029
418.190643 -368.902924 5.534025 0.510417
