# This PCD file was generated using the MATLABÂ® pcwrite function
# from Computer Vision ToolboxÂ®.
# .PCD v.7 - Point Cloud Data file format
VERSION .7
FIELDS x y z intensity
SIZE 4 4 4 4
TYPE F F F F
COUNT 1 1 1 1
WIDTH 1163
HEIGHT 1
VIEWPOINT 0 0 0 1 0 0 0
POINTS 1163
DATA ascii
279.929321 -358.915710 3.627707 1.000000
279.929321 -358.915710 3.326954 1.000000
279.929321 -358.915710 3.029108 1.000000
279.929321 -358.915710 2.733497 1.000000
279.929321 -358.915710 2.439469 1.000000
279.929321 -358.915710 2.146385 1.000000
279.929321 -358.915710 1.853615 1.000000
279.929321 -358.915710 1.560531 1.000000
279.929321 -358.915710 1.266503 1.000000
279.929321 -358.915710 0.970892 1.000000
279.929321 -358.915710 0.673046 1.000000
279.929321 -358.915710 0.372293 1.000000
279.929321 -358.915710 0.067936 1.000000
280.715454 -359.468475 -0.000037 0.533333
280.012909 -358.898621 4.226145 1.000000
280.012939 -358.898621 3.919466 1.000000
280.012939 -358.898621 3.617093 1.000000
280.012909 -358.898621 3.318302 1.000000
280.012939 -358.898621 3.022398 1.000000
280.012939 -358.898621 2.728714 1.000000
280.012909 -358.898621 2.436604 1.000000
280.012909 -358.898590 2.145431 1.000000
280.012939 -358.898621 1.854570 1.000000
280.012939 -358.898621 1.563397 1.000000
280.012939 -358.898621 1.271286 1.000000
280.012939 -358.898621 0.977603 1.000000
280.012939 -358.898621 0.681699 1.000000
280.012939 -358.898621 0.382908 1.000000
280.012939 -358.898621 0.080535 1.000000
280.747711 -359.423004 -0.000030 0.529657
280.095428 -358.881744 4.211830 1.000000
280.095428 -358.881744 3.907124 1.000000
280.095428 -358.881744 3.606695 1.000000
280.095428 -358.881744 3.309824 1.000000
280.095428 -358.881744 3.015824 1.000000
280.095398 -358.881744 2.724029 1.000000
280.095398 -358.881744 2.433796 1.000000
280.095398 -358.881744 2.144495 1.000000
280.095428 -358.881744 1.855505 1.000000
280.095428 -358.881744 1.566204 1.000000
280.095428 -358.881744 1.275971 1.000000
280.095428 -358.881744 0.984177 1.000000
280.095428 -358.881744 0.690176 1.000000
280.095428 -358.881744 0.393305 1.000000
280.095428 -358.881744 0.092877 1.000000
280.780182 -359.377716 -0.000049 0.561887
280.176849 -358.865112 4.197804 1.000000
280.176849 -358.865112 3.895030 1.000000
280.176849 -358.865143 3.596506 1.000000
280.176849 -358.865112 3.301519 1.000000
280.176849 -358.865112 3.009382 1.000000
280.176849 -358.865112 2.719437 1.000000
280.176849 -358.865112 2.431045 1.000000
280.176849 -358.865112 2.143579 1.000000
280.176849 -358.865143 1.856421 1.000000
280.176849 -358.865143 1.568955 1.000000
280.176849 -358.865143 1.280563 1.000000
280.176849 -358.865143 0.990618 1.000000
280.176849 -358.865143 0.698481 1.000000
280.176849 -358.865143 0.403494 1.000000
280.176849 -358.865143 0.104970 1.000000
280.812958 -359.332642 -0.000063 0.563725
280.257294 -358.848694 4.184062 1.000000
280.257294 -358.848694 3.883180 1.000000
280.257294 -358.848694 3.586524 1.000000
280.257294 -358.848694 3.293380 1.000000
280.257294 -358.848694 3.003070 1.000000
280.257294 -358.848694 2.714939 1.000000
280.257294 -358.848694 2.428350 1.000000
280.257294 -358.848694 2.142681 1.000000
280.257324 -358.848694 1.857319 1.000000
280.257324 -358.848694 1.571650 1.000000
280.257294 -358.848694 1.285061 1.000000
280.257294 -358.848694 0.996930 1.000000
280.257294 -358.848694 0.706620 1.000000
280.257294 -358.848694 0.413476 1.000000
280.257294 -358.848694 0.116820 1.000000
280.846527 -359.288086 0.000049 0.507598
280.336731 -358.832458 4.170595 1.000000
280.336731 -358.832458 3.871569 1.000000
280.336731 -358.832458 3.576742 1.000000
280.336731 -358.832458 3.285406 1.000000
280.336731 -358.832458 2.996886 1.000000
280.336731 -358.832458 2.710530 1.000000
280.336731 -358.832458 2.425709 1.000000
280.336731 -358.832458 2.141802 1.000000
280.336731 -358.832458 1.858199 1.000000
280.336731 -358.832458 1.574291 1.000000
280.336731 -358.832458 1.289469 1.000000
280.336731 -358.832458 1.003114 1.000000
280.336731 -358.832458 0.714595 1.000000
280.336731 -358.832458 0.423259 1.000000
280.336731 -358.832458 0.128431 1.000000
280.879730 -359.243347 -0.000035 0.521324
280.415192 -358.816437 4.157399 1.000000
280.415192 -358.816437 3.860190 1.000000
280.415192 -358.816437 3.567155 1.000000
280.415192 -358.816437 3.277590 1.000000
280.415192 -358.816437 2.990825 1.000000
280.415192 -358.816437 2.706210 1.000000
280.415192 -358.816437 2.423120 1.000000
280.415192 -358.816437 2.140939 1.000000
280.415192 -358.816437 1.859061 1.000000
280.415192 -358.816437 1.576880 1.000000
280.415192 -358.816437 1.293789 1.000000
280.415192 -358.816437 1.009175 1.000000
280.415192 -358.816437 0.722410 1.000000
280.415192 -358.816437 0.432845 1.000000
280.415192 -358.816437 0.139811 1.000000
280.913452 -359.198975 -0.000052 0.555882
280.492706 -358.800598 4.144464 1.000000
280.492737 -358.800598 3.849038 1.000000
280.492706 -358.800598 3.557760 1.000000
280.492737 -358.800598 3.269931 1.000000
280.492706 -358.800598 2.984885 1.000000
280.492706 -358.800598 2.701977 1.000000
280.492706 -358.800598 2.420584 1.000000
280.492706 -358.800598 2.140095 1.000000
280.492737 -358.800598 1.859905 1.000000
280.492737 -358.800598 1.579416 1.000000
280.492706 -358.800598 1.298023 1.000000
280.492737 -358.800598 1.015116 1.000000
280.492737 -358.800598 0.730069 1.000000
280.492737 -358.800598 0.442240 1.000000
280.492737 -358.800598 0.150963 1.000000
280.947510 -359.154816 -0.000071 0.501593
280.569305 -358.784943 4.131788 1.000000
280.569336 -358.784943 3.838108 1.000000
280.569336 -358.784943 3.548551 1.000000
280.569336 -358.784973 3.262424 1.000000
280.569336 -358.784943 2.979062 1.000000
280.569336 -358.784943 2.697827 1.000000
280.569336 -358.784943 2.418097 1.000000
280.569305 -358.784943 2.139266 1.000000
280.569336 -358.784973 1.860734 1.000000
280.569336 -358.784973 1.581903 1.000000
280.569336 -358.784973 1.302173 1.000000
280.569336 -358.784973 1.020938 1.000000
280.569336 -358.784973 0.737577 1.000000
280.569336 -358.784973 0.451450 1.000000
280.569336 -358.784943 0.161893 1.000000
280.982056 -359.111084 -0.000022 0.478554
280.645020 -358.769470 4.119363 1.000000
280.645020 -358.769470 3.827394 1.000000
280.645020 -358.769470 3.539526 1.000000
280.645020 -358.769470 3.255066 1.000000
280.645020 -358.769470 2.973356 1.000000
280.645020 -358.769470 2.693760 1.000000
280.645020 -358.769470 2.415661 1.000000
280.645020 -358.769470 2.138455 1.000000
280.645020 -358.769470 1.861545 1.000000
280.645020 -358.769470 1.584339 1.000000
280.645020 -358.769470 1.306240 1.000000
280.645020 -358.769470 1.026644 1.000000
280.645020 -358.769470 0.744934 1.000000
280.645020 -358.769470 0.460474 1.000000
280.645020 -358.769470 0.172606 1.000000
281.016724 -359.067444 -0.000035 0.521691
280.719849 -358.754181 4.107185 1.000000
280.719849 -358.754181 3.816894 1.000000
280.719849 -358.754181 3.530679 1.000000
280.719849 -358.754181 3.247854 1.000000
280.719849 -358.754181 2.967763 1.000000
280.719849 -358.754181 2.689774 1.000000
280.719849 -358.754181 2.413272 1.000000
280.719849 -358.754181 2.137659 1.000000
280.719849 -358.754181 1.862341 1.000000
280.719849 -358.754181 1.586728 1.000000
280.719849 -358.754181 1.310226 1.000000
280.719849 -358.754181 1.032237 1.000000
280.719849 -358.754181 0.752146 1.000000
280.719849 -358.754181 0.469321 1.000000
280.719849 -358.754181 0.183107 1.000000
281.051697 -359.023987 -0.000056 0.559069
280.793823 -358.739075 4.095247 1.000000
280.793823 -358.739075 3.806601 1.000000
280.793823 -358.739075 3.522008 1.000000
280.793823 -358.739075 3.240785 1.000000
280.793823 -358.739075 2.962281 1.000000
280.793823 -358.739075 2.685866 1.000000
280.793823 -358.739075 2.410931 1.000000
280.793823 -358.739075 2.136879 1.000000
280.793823 -358.739075 1.863121 1.000000
280.793823 -358.739075 1.589069 1.000000
280.793823 -358.739075 1.314134 1.000000
280.793823 -358.739075 1.037720 1.000000
280.793823 -358.739075 0.759215 1.000000
280.793823 -358.739075 0.477993 1.000000
280.793823 -358.739075 0.193400 1.000000
281.087128 -358.981018 -0.000007 0.546324
280.866974 -358.724121 4.083545 1.000000
280.866974 -358.724121 3.796510 1.000000
280.866974 -358.724121 3.513506 1.000000
280.866974 -358.724121 3.233855 1.000000
280.866974 -358.724121 2.956906 1.000000
280.866974 -358.724121 2.682035 1.000000
280.866974 -358.724121 2.408636 1.000000
280.866974 -358.724121 2.136115 1.000000
280.866974 -358.724121 1.863885 1.000000
280.866974 -358.724121 1.591364 1.000000
280.866974 -358.724121 1.317965 1.000000
280.866974 -358.724121 1.043095 1.000000
280.866974 -358.724121 0.766145 1.000000
280.866974 -358.724121 0.486494 1.000000
280.866974 -358.724121 0.203490 1.000000
281.122772 -358.938141 -0.000005 0.546201
280.939301 -358.709351 4.072073 1.000000
280.939301 -358.709351 3.786619 1.000000
280.939301 -358.709351 3.505173 1.000000
280.939301 -358.709351 3.227061 1.000000
280.939301 -358.709351 2.951637 1.000000
280.939301 -358.709351 2.678280 1.000000
280.939301 -358.709351 2.406386 1.000000
280.939301 -358.709351 2.135365 1.000000
280.939301 -358.709351 1.864635 1.000000
280.939301 -358.709351 1.593614 1.000000
280.939301 -358.709351 1.321720 1.000000
280.939301 -358.709351 1.048363 1.000000
280.939301 -358.709351 0.772939 1.000000
280.939301 -358.709351 0.494827 1.000000
280.939301 -358.709351 0.213382 1.000000
281.158600 -358.895447 -0.000026 0.555147
281.010864 -358.694763 4.060825 1.000000
281.010864 -358.694763 3.776921 1.000000
281.010864 -358.694763 3.497004 1.000000
281.010864 -358.694763 3.220401 1.000000
281.010864 -358.694763 2.946472 1.000000
281.010864 -358.694763 2.674598 1.000000
281.010864 -358.694763 2.404180 1.000000
281.010864 -358.694763 2.134630 1.000000
281.010864 -358.694763 1.865370 1.000000
281.010864 -358.694763 1.595820 1.000000
281.010864 -358.694763 1.325402 1.000000
281.010864 -358.694763 1.053528 1.000000
281.010864 -358.694763 0.779599 1.000000
281.010864 -358.694763 0.502997 1.000000
281.010864 -358.694763 0.223079 1.000000
281.194946 -358.853149 0.000010 0.539951
281.081635 -358.680298 4.049800 1.000000
281.081635 -358.680298 3.767415 1.000000
281.081635 -358.680298 3.488995 1.000000
281.081635 -358.680298 3.213872 1.000000
281.081635 -358.680298 2.941409 1.000000
281.081635 -358.680298 2.670990 1.000000
281.081635 -358.680298 2.402018 1.000000
281.081635 -358.680298 2.133910 1.000000
281.081635 -358.680298 1.866090 1.000000
281.081635 -358.680298 1.597982 1.000000
281.081635 -358.680298 1.329011 1.000000
281.081635 -358.680298 1.058592 1.000000
281.081635 -358.680298 0.786128 1.000000
281.081635 -358.680298 0.511005 1.000000
281.081635 -358.680298 0.232586 1.000000
281.231384 -358.810974 -0.000015 0.555515
281.151642 -358.665985 4.038990 1.000000
281.151642 -358.665985 3.758095 1.000000
281.151642 -358.665985 3.481142 1.000000
281.151642 -358.665985 3.207471 1.000000
281.151642 -358.665985 2.936444 1.000000
281.151642 -358.665985 2.667451 1.000000
281.151642 -358.665985 2.399898 1.000000
281.151642 -358.665985 2.133204 1.000000
281.151642 -358.665985 1.866796 1.000000
281.151642 -358.665985 1.600102 1.000000
281.151642 -358.665985 1.332549 1.000000
281.151642 -358.665985 1.063556 1.000000
281.151642 -358.665985 0.792529 1.000000
281.151642 -358.665985 0.518858 1.000000
281.151642 -358.665985 0.241905 1.000000
281.267914 -358.768860 -0.000108 0.550735
281.220947 -358.651825 4.028392 1.000000
281.220947 -358.651825 3.748956 1.000000
281.220947 -358.651825 3.473444 1.000000
281.220947 -358.651825 3.201195 1.000000
281.220947 -358.651825 2.931577 1.000000
281.220947 -358.651825 2.663981 1.000000
281.220947 -358.651825 2.397819 1.000000
281.220947 -358.651825 2.132512 1.000000
281.220947 -358.651825 1.867488 1.000000
281.220947 -358.651825 1.602181 1.000000
281.220947 -358.651825 1.336019 1.000000
281.220947 -358.651825 1.068424 1.000000
281.220947 -358.651825 0.798805 1.000000
281.220947 -358.651825 0.526556 1.000000
281.220947 -358.651825 0.251043 1.000000
281.305145 -358.727386 -0.000057 0.509069
281.289551 -358.637817 4.018002 1.000000
281.289551 -358.637817 3.739996 1.000000
281.289551 -358.637817 3.465896 1.000000
281.289551 -358.637817 3.195041 1.000000
281.289551 -358.637817 2.926804 1.000000
281.289551 -358.637817 2.660579 1.000000
281.289551 -358.637817 2.395781 1.000000
281.289551 -358.637817 2.131833 1.000000
281.289551 -358.637817 1.868167 1.000000
281.289551 -358.637817 1.604219 1.000000
281.289551 -358.637817 1.339420 1.000000
281.289551 -358.637817 1.073196 1.000000
281.289551 -358.637817 0.804959 1.000000
281.289551 -358.637817 0.534105 1.000000
281.289551 -358.637817 0.260002 1.000000
281.342377 -358.685944 -0.000100 0.547304
281.357422 -358.623932 4.007814 1.000000
281.357422 -358.623932 3.731214 1.000000
281.357422 -358.623932 3.458496 1.000000
281.357422 -358.623932 3.189009 1.000000
281.357422 -358.623932 2.922126 1.000000
281.357422 -358.623932 2.657245 1.000000
281.357422 -358.623932 2.393783 1.000000
281.357422 -358.623932 2.131167 1.000000
281.357422 -358.623932 1.868833 1.000000
281.357422 -358.623932 1.606217 1.000000
281.357422 -358.623932 1.342755 1.000000
281.357422 -358.623932 1.077875 1.000000
281.357422 -358.623932 0.810991 1.000000
281.357422 -358.623932 0.541504 1.000000
281.357422 -358.623932 0.268786 1.000000
281.379974 -358.644775 -0.000124 0.554289
281.424652 -358.610199 3.997827 1.000000
281.424652 -358.610199 3.722601 1.000000
281.424652 -358.610199 3.451241 1.000000
281.424652 -358.610199 3.183095 1.000000
281.424652 -358.610199 2.917539 1.000000
281.424652 -358.610199 2.653976 1.000000
281.424652 -358.610199 2.391824 1.000000
281.424652 -358.610199 2.130515 1.000000
281.424652 -358.610199 1.869485 1.000000
281.424652 -358.610199 1.608176 1.000000
281.424652 -358.610199 1.346024 1.000000
281.424652 -358.610199 1.082462 1.000000
281.424652 -358.610199 0.816907 1.000000
281.424652 -358.610199 0.548760 1.000000
281.424652 -358.610199 0.277399 1.000000
281.424652 -358.610199 0.002173 1.000000
281.491211 -358.596619 3.988034 1.000000
281.491180 -358.596619 3.714159 1.000000
281.491180 -358.596619 3.444128 1.000000
281.491211 -358.596619 3.177295 1.000000
281.491211 -358.596619 2.913041 1.000000
281.491211 -358.596619 2.650770 1.000000
281.491211 -358.596619 2.389904 1.000000
281.491211 -358.596619 2.129875 1.000000
281.491211 -358.596619 1.870125 1.000000
281.491211 -358.596619 1.610096 1.000000
281.491211 -358.596619 1.349230 1.000000
281.491211 -358.596619 1.086959 1.000000
281.491211 -358.596619 0.822706 1.000000
281.491211 -358.596619 0.555873 1.000000
281.491211 -358.596619 0.285842 1.000000
281.491211 -358.596619 0.011966 1.000000
281.557098 -358.583160 3.978434 1.000000
281.557098 -358.583160 3.705879 1.000000
281.557098 -358.583160 3.437153 1.000000
281.557098 -358.583160 3.171609 1.000000
281.557098 -358.583160 2.908632 1.000000
281.557098 -358.583160 2.647628 1.000000
281.557098 -358.583160 2.388021 1.000000
281.557098 -358.583160 2.129248 1.000000
281.557098 -358.583160 1.870752 1.000000
281.557098 -358.583160 1.611979 1.000000
281.557098 -358.583160 1.352372 1.000000
281.557098 -358.583160 1.091369 1.000000
281.557098 -358.583160 0.828391 1.000000
281.557098 -358.583160 0.562847 1.000000
281.557098 -358.583160 0.294121 1.000000
281.557098 -358.583160 0.021567 1.000000
281.622345 -358.569794 3.969021 1.000000
281.622345 -358.569794 3.697764 1.000000
281.622345 -358.569794 3.430316 1.000000
281.622375 -358.569824 3.166035 1.000000
281.622345 -358.569794 2.904309 1.000000
281.622345 -358.569794 2.644547 1.000000
281.622345 -358.569794 2.386175 1.000000
281.622375 -358.569824 2.128633 1.000000
281.622345 -358.569794 1.871367 1.000000
281.622375 -358.569824 1.613825 1.000000
281.622375 -358.569824 1.355453 1.000000
281.622375 -358.569824 1.095691 1.000000
281.622375 -358.569824 0.833965 1.000000
281.622375 -358.569824 0.569684 1.000000
281.622375 -358.569824 0.302237 1.000000
281.622375 -358.569824 0.030980 1.000000
281.687042 -358.556610 3.959791 1.000000
281.687042 -358.556610 3.689806 1.000000
281.687042 -358.556610 3.423612 1.000000
281.687042 -358.556610 3.160570 1.000000
281.687042 -358.556610 2.900070 1.000000
281.687042 -358.556610 2.641525 1.000000
281.687042 -358.556610 2.384365 1.000000
281.687042 -358.556610 2.128030 1.000000
281.687042 -358.556610 1.871970 1.000000
281.687042 -358.556610 1.615635 1.000000
281.687042 -358.556610 1.358475 1.000000
281.687042 -358.556610 1.099930 1.000000
281.687042 -358.556610 0.839431 1.000000
281.687042 -358.556610 0.576389 1.000000
281.687042 -358.556610 0.310195 1.000000
281.687042 -358.556610 0.040210 1.000000
281.751099 -358.543518 3.950743 1.000000
281.751099 -358.543518 3.682004 1.000000
281.751099 -358.543518 3.417038 1.000000
281.751099 -358.543518 3.155211 1.000000
281.751099 -358.543518 2.895914 1.000000
281.751099 -358.543518 2.638563 1.000000
281.751099 -358.543518 2.382590 1.000000
281.751099 -358.543518 2.127439 1.000000
281.751099 -358.543518 1.872561 1.000000
281.751099 -358.543518 1.617410 1.000000
281.751099 -358.543518 1.361437 1.000000
281.751099 -358.543518 1.104086 1.000000
281.751099 -358.543518 0.844789 1.000000
281.751099 -358.543518 0.582962 1.000000
281.751099 -358.543518 0.317997 1.000000
281.751099 -358.543518 0.049258 1.000000
281.814575 -358.530548 3.941871 1.000000
281.814575 -358.530548 3.674355 1.000000
281.814575 -358.530548 3.410594 1.000000
281.814575 -358.530548 3.149958 1.000000
281.814575 -358.530548 2.891840 1.000000
281.814575 -358.530548 2.635659 1.000000
281.814575 -358.530548 2.380850 1.000000
281.814575 -358.530548 2.126859 1.000000
281.814575 -358.530548 1.873141 1.000000
281.814575 -358.530548 1.619150 1.000000
281.814575 -358.530548 1.364341 1.000000
281.814575 -358.530548 1.108160 1.000000
281.814575 -358.530548 0.850043 1.000000
281.814575 -358.530548 0.589406 1.000000
281.814575 -358.530548 0.325645 1.000000
281.814575 -358.530548 0.058129 1.000000
281.877472 -358.517700 3.933175 1.000000
281.877472 -358.517700 3.666856 1.000000
281.877472 -358.517700 3.404277 1.000000
281.877472 -358.517700 3.144808 1.000000
281.877472 -358.517700 2.887846 1.000000
281.877472 -358.517700 2.632812 1.000000
281.877472 -358.517700 2.379144 1.000000
281.877472 -358.517700 2.126291 1.000000
281.877472 -358.517700 1.873709 1.000000
281.877472 -358.517700 1.620856 1.000000
281.877472 -358.517700 1.367188 1.000000
281.877472 -358.517700 1.112154 1.000000
281.877472 -358.517700 0.855193 1.000000
281.877472 -358.517700 0.595724 1.000000
281.877472 -358.517700 0.333144 1.000000
281.877472 -358.517700 0.066826 1.000000
281.939819 -358.504944 3.924649 1.000000
281.939819 -358.504944 3.659506 1.000000
281.939819 -358.504944 3.398084 1.000000
281.939819 -358.504944 3.139759 1.000000
281.939819 -358.504944 2.883930 1.000000
281.939819 -358.504944 2.630022 1.000000
281.939819 -358.504944 2.377472 1.000000
281.939819 -358.504944 2.125734 1.000000
281.939819 -358.504944 1.874266 1.000000
281.939819 -358.504944 1.622527 1.000000
281.939819 -358.504944 1.369978 1.000000
281.939819 -358.504944 1.116070 1.000000
281.939819 -358.504944 0.860241 1.000000
281.939819 -358.504944 0.601916 1.000000
281.939819 -358.504944 0.340495 1.000000
281.939819 -358.504944 0.075351 1.000000
282.001587 -358.492310 3.916291 1.000000
282.001587 -358.492310 3.652299 1.000000
282.001587 -358.492310 3.392012 1.000000
282.001587 -358.492310 3.134809 1.000000
282.001587 -358.492310 2.880092 1.000000
282.001587 -358.492310 2.627286 1.000000
282.001587 -358.492310 2.375833 1.000000
282.001587 -358.492340 2.125188 1.000000
282.001587 -358.492340 1.874812 1.000000
282.001587 -358.492310 1.624167 1.000000
282.001587 -358.492310 1.372714 1.000000
282.001587 -358.492340 1.119908 1.000000
282.001587 -358.492310 0.865191 1.000000
282.001587 -358.492340 0.607988 1.000000
282.001587 -358.492310 0.347702 1.000000
282.001587 -358.492310 0.083709 1.000000
282.062866 -358.479828 3.908098 1.000000
282.062866 -358.479828 3.645234 1.000000
282.062866 -358.479828 3.386061 1.000000
282.062866 -358.479828 3.129957 1.000000
282.062866 -358.479828 2.876328 1.000000
282.062866 -358.479828 2.624604 1.000000
282.062866 -358.479828 2.374226 1.000000
282.062866 -358.479828 2.124653 1.000000
282.062866 -358.479828 1.875347 1.000000
282.062866 -358.479828 1.625774 1.000000
282.062866 -358.479828 1.375396 1.000000
282.062866 -358.479828 1.123672 1.000000
282.062866 -358.479828 0.870043 1.000000
282.062866 -358.479828 0.613939 1.000000
282.062866 -358.479828 0.354766 1.000000
282.062866 -358.479828 0.091902 1.000000
282.123627 -358.467407 3.900067 1.000000
282.123627 -358.467407 3.638309 1.000000
282.123627 -358.467407 3.380227 1.000000
282.123627 -358.467407 3.125201 1.000000
282.123627 -358.467407 2.872640 1.000000
282.123627 -358.467407 2.621974 1.000000
282.123627 -358.467407 2.372651 1.000000
282.123627 -358.467407 2.124128 1.000000
282.123627 -358.467438 1.875872 1.000000
282.123627 -358.467438 1.627349 1.000000
282.123627 -358.467407 1.378025 1.000000
282.123627 -358.467407 1.127360 1.000000
282.123627 -358.467438 0.874799 1.000000
282.123627 -358.467407 0.619774 1.000000
282.123627 -358.467407 0.361691 1.000000
282.123627 -358.467407 0.099933 1.000000
282.183838 -358.455109 3.892195 1.000000
282.183838 -358.455109 3.631522 1.000000
282.183838 -358.455109 3.374509 1.000000
282.183838 -358.455109 3.120540 1.000000
282.183838 -358.455109 2.869025 1.000000
282.183838 -358.455109 2.619398 1.000000
282.183838 -358.455109 2.371107 1.000000
282.183838 -358.455109 2.123614 1.000000
282.183838 -358.455109 1.876386 1.000000
282.183838 -358.455109 1.628893 1.000000
282.183838 -358.455109 1.380602 1.000000
282.183838 -358.455109 1.130975 1.000000
282.183838 -358.455109 0.879461 1.000000
282.183838 -358.455109 0.625491 1.000000
282.183838 -358.455109 0.368479 1.000000
282.183838 -358.455109 0.107806 1.000000
282.243622 -358.442902 3.884480 1.000000
282.243622 -358.442902 3.624869 1.000000
282.243622 -358.442902 3.368904 1.000000
282.243622 -358.442902 3.115970 1.000000
282.243622 -358.442902 2.865482 1.000000
282.243622 -358.442902 2.616872 1.000000
282.243622 -358.442902 2.369594 1.000000
282.243622 -358.442902 2.123110 1.000000
282.243622 -358.442902 1.876890 1.000000
282.243622 -358.442902 1.630406 1.000000
282.243622 -358.442902 1.383128 1.000000
282.243622 -358.442902 1.134518 1.000000
282.243622 -358.442902 0.884030 1.000000
282.243622 -358.442902 0.631096 1.000000
282.243622 -358.442902 0.375131 1.000000
282.243622 -358.442902 0.115521 1.000000
282.302856 -358.430786 3.876917 1.000000
282.302856 -358.430786 3.618349 1.000000
282.302856 -358.430786 3.363411 1.000000
282.302856 -358.430786 3.111493 1.000000
282.302856 -358.430786 2.862009 1.000000
282.302856 -358.430786 2.614397 1.000000
282.302856 -358.430786 2.368111 1.000000
282.302856 -358.430786 2.122616 1.000000
282.302856 -358.430786 1.877384 1.000000
282.302856 -358.430786 1.631889 1.000000
282.302856 -358.430786 1.385603 1.000000
282.302856 -358.430786 1.137992 1.000000
282.302856 -358.430786 0.888508 1.000000
282.302856 -358.430786 0.636590 1.000000
282.302856 -358.430786 0.381652 1.000000
282.302856 -358.430786 0.123084 1.000000
282.361664 -358.418793 3.869506 1.000000
282.361664 -358.418793 3.611959 1.000000
282.361664 -358.418793 3.358028 1.000000
282.361664 -358.418793 3.107104 1.000000
282.361664 -358.418793 2.858605 1.000000
282.361664 -358.418793 2.611971 1.000000
282.361664 -358.418793 2.366657 1.000000
282.361664 -358.418793 2.122132 1.000000
282.361664 -358.418793 1.877868 1.000000
282.361664 -358.418793 1.633343 1.000000
282.361664 -358.418793 1.388029 1.000000
282.361664 -358.418793 1.141395 1.000000
282.361664 -358.418793 0.892897 1.000000
282.361664 -358.418793 0.641973 1.000000
282.361664 -358.418793 0.388042 1.000000
282.361664 -358.418793 0.130494 1.000000
282.419983 -358.406860 3.862245 1.000000
282.419983 -358.406860 3.605698 1.000000
282.419983 -358.406860 3.352753 1.000000
282.419983 -358.406860 3.102804 1.000000
282.419983 -358.406860 2.855270 1.000000
282.419983 -358.406860 2.609594 1.000000
282.419983 -358.406860 2.365233 1.000000
282.419983 -358.406860 2.121657 1.000000
282.419983 -358.406860 1.878343 1.000000
282.419983 -358.406860 1.634767 1.000000
282.419983 -358.406860 1.390406 1.000000
282.419983 -358.406860 1.144730 1.000000
282.419983 -358.406860 0.897197 1.000000
282.419983 -358.406860 0.647247 1.000000
282.419983 -358.406860 0.394303 1.000000
282.419983 -358.406860 0.137756 1.000000
282.477875 -358.395020 3.855129 1.000000
282.477875 -358.395020 3.599562 1.000000
282.477875 -358.395020 3.347584 1.000000
282.477875 -358.395020 3.098589 1.000000
282.477875 -358.395020 2.852002 1.000000
282.477875 -358.395020 2.607265 1.000000
282.477875 -358.395020 2.363838 1.000000
282.477875 -358.395020 2.121193 1.000000
282.477875 -358.395020 1.878807 1.000000
282.477875 -358.395020 1.636162 1.000000
282.477875 -358.395020 1.392735 1.000000
282.477875 -358.395020 1.147998 1.000000
282.477875 -358.395020 0.901411 1.000000
282.477875 -358.395020 0.652416 1.000000
282.477875 -358.395020 0.400438 1.000000
282.477875 -358.395020 0.144872 1.000000
282.535309 -358.383301 3.848158 1.000000
282.535309 -358.383301 3.593552 1.000000
282.535309 -358.383301 3.342520 1.000000
282.535309 -358.383301 3.094461 1.000000
282.535309 -358.383301 2.848800 1.000000
282.535309 -358.383301 2.604983 1.000000
282.535309 -358.383301 2.362471 1.000000
282.535309 -358.383301 2.120737 1.000000
282.535309 -358.383301 1.879263 1.000000
282.535309 -358.383301 1.637529 1.000000
282.535309 -358.383301 1.395017 1.000000
282.535309 -358.383301 1.151200 1.000000
282.535309 -358.383301 0.905539 1.000000
282.535309 -358.383301 0.657480 1.000000
282.535309 -358.383301 0.406449 1.000000
282.535309 -358.383301 0.151843 1.000000
282.592346 -358.371643 3.841327 1.000000
282.592316 -358.371643 3.587662 1.000000
282.592316 -358.371643 3.337558 1.000000
282.592316 -358.371643 3.090416 1.000000
282.592316 -358.371643 2.845664 1.000000
282.592316 -358.371643 2.602747 1.000000
282.592346 -358.371674 2.361131 1.000000
282.592346 -358.371674 2.120291 1.000000
282.592346 -358.371674 1.879709 1.000000
282.592346 -358.371674 1.638869 1.000000
282.592346 -358.371643 1.397253 1.000000
282.592346 -358.371643 1.154337 1.000000
282.592346 -358.371674 0.909584 1.000000
282.592346 -358.371674 0.662442 1.000000
282.592346 -358.371643 0.412339 1.000000
282.592346 -358.371674 0.158674 1.000000
282.648926 -358.360107 3.834636 1.000000
282.648926 -358.360107 3.581893 1.000000
282.648926 -358.360107 3.332698 1.000000
282.648926 -358.360107 3.086454 1.000000
282.648926 -358.360107 2.842590 1.000000
282.648926 -358.360107 2.600557 1.000000
282.648926 -358.360107 2.359819 1.000000
282.648926 -358.360107 2.119854 1.000000
282.648926 -358.360107 1.880146 1.000000
282.648926 -358.360107 1.640181 1.000000
282.648926 -358.360107 1.399443 1.000000
282.648926 -358.360107 1.157410 1.000000
282.648926 -358.360107 0.913546 1.000000
282.648926 -358.360107 0.667302 1.000000
282.648926 -358.360107 0.418107 1.000000
282.648926 -358.360107 0.165364 1.000000
282.705139 -358.348602 3.828083 1.000000
282.705139 -358.348602 3.576242 1.000000
282.705139 -358.348602 3.327937 1.000000
282.705139 -358.348602 3.082573 1.000000
282.705139 -358.348602 2.839581 1.000000
282.705139 -358.348602 2.598411 1.000000
282.705139 -358.348602 2.358533 1.000000
282.705139 -358.348602 2.119426 1.000000
282.705139 -358.348602 1.880574 1.000000
282.705139 -358.348633 1.641467 1.000000
282.705139 -358.348602 1.401589 1.000000
282.705139 -358.348602 1.160420 1.000000
282.705139 -358.348602 0.917427 1.000000
282.705139 -358.348602 0.672063 1.000000
282.705139 -358.348602 0.423758 1.000000
282.705139 -358.348602 0.171917 1.000000
282.760956 -358.337219 3.821664 1.000000
282.760956 -358.337219 3.570708 1.000000
282.760956 -358.337219 3.323275 1.000000
282.760956 -358.337219 3.078772 1.000000
282.760956 -358.337219 2.836633 1.000000
282.760956 -358.337219 2.596310 1.000000
282.760956 -358.337219 2.357274 1.000000
282.760956 -358.337219 2.119006 1.000000
282.760956 -358.337219 1.880994 1.000000
282.760956 -358.337219 1.642725 1.000000
282.760956 -358.337219 1.403690 1.000000
282.760956 -358.337219 1.163368 1.000000
282.760956 -358.337219 0.921228 1.000000
282.760956 -358.337219 0.676725 1.000000
282.760956 -358.337219 0.429292 1.000000
282.760956 -358.337219 0.178336 1.000000
282.816345 -358.325897 3.815379 1.000000
282.816345 -358.325897 3.565289 1.000000
282.816345 -358.325897 3.318709 1.000000
282.816345 -358.325897 3.075050 1.000000
282.816345 -358.325897 2.833746 1.000000
282.816345 -358.325897 2.594253 1.000000
282.816345 -358.325897 2.356042 1.000000
282.816345 -358.325897 2.118596 1.000000
282.816345 -358.325897 1.881404 1.000000
282.816345 -358.325897 1.643958 1.000000
282.816345 -358.325897 1.405747 1.000000
282.816345 -358.325897 1.166254 1.000000
282.816345 -358.325897 0.924950 1.000000
282.816345 -358.325897 0.681291 1.000000
282.816345 -358.325897 0.434712 1.000000
282.816345 -358.325897 0.184621 1.000000
282.871368 -358.314636 3.809225 1.000000
282.871368 -358.314636 3.559982 1.000000
282.871368 -358.314636 3.314238 1.000000
282.871368 -358.314636 3.071406 1.000000
282.871368 -358.314636 2.830920 1.000000
282.871368 -358.314636 2.592238 1.000000
282.871368 -358.314636 2.354835 1.000000
282.871368 -358.314636 2.118194 1.000000
282.871368 -358.314636 1.881806 1.000000
282.871368 -358.314636 1.645165 1.000000
282.871368 -358.314636 1.407762 1.000000
282.871368 -358.314636 1.169080 1.000000
282.871368 -358.314636 0.928594 1.000000
282.871368 -358.314636 0.685762 1.000000
282.871368 -358.314636 0.440019 1.000000
282.871368 -358.314636 0.190776 1.000000
282.926056 -358.303497 3.803200 1.000000
282.926056 -358.303497 3.554787 1.000000
282.926056 -358.303497 3.309862 1.000000
282.926056 -358.303497 3.067838 1.000000
282.926056 -358.303497 2.828153 1.000000
282.926056 -358.303497 2.590266 1.000000
282.926056 -358.303497 2.353653 1.000000
282.926056 -358.303497 2.117800 1.000000
282.926056 -358.303497 1.882200 1.000000
282.926056 -358.303497 1.646347 1.000000
282.926056 -358.303497 1.409734 1.000000
282.926056 -358.303497 1.171847 1.000000
282.926056 -358.303497 0.932163 1.000000
282.926056 -358.303497 0.690138 1.000000
282.926056 -358.303497 0.445213 1.000000
282.926056 -358.303497 0.196800 1.000000
282.980347 -358.292389 3.797302 1.000000
282.980347 -358.292389 3.549702 1.000000
282.980347 -358.292389 3.305578 1.000000
282.980347 -358.292389 3.064345 1.000000
282.980347 -358.292389 2.825444 1.000000
282.980347 -358.292389 2.588336 1.000000
282.980347 -358.292389 2.352496 1.000000
282.980347 -358.292389 2.117415 1.000000
282.980347 -358.292389 1.882585 1.000000
282.980347 -358.292389 1.647503 1.000000
282.980347 -358.292389 1.411664 1.000000
282.980347 -358.292389 1.174556 1.000000
282.980347 -358.292389 0.935655 1.000000
282.980347 -358.292389 0.694422 1.000000
282.980347 -358.292389 0.450298 1.000000
282.980347 -358.292389 0.202698 1.000000
283.034302 -358.281372 3.791530 1.000000
283.034302 -358.281372 3.544725 1.000000
283.034302 -358.281372 3.301385 1.000000
283.034302 -358.281372 3.060926 1.000000
283.034302 -358.281372 2.822793 1.000000
283.034302 -358.281372 2.586446 1.000000
283.034302 -358.281372 2.351364 1.000000
283.034302 -358.281372 2.117038 1.000000
283.034302 -358.281372 1.882962 1.000000
283.034302 -358.281372 1.648636 1.000000
283.034302 -358.281372 1.413554 1.000000
283.034302 -358.281342 1.177207 1.000000
283.034302 -358.281372 0.939074 1.000000
283.034302 -358.281372 0.698615 1.000000
283.034302 -358.281372 0.455275 1.000000
283.034302 -358.281372 0.208470 1.000000
283.087921 -358.270416 3.785882 1.000000
283.087921 -358.270416 3.539855 1.000000
283.087921 -358.270416 3.297282 1.000000
283.087921 -358.270416 3.057581 1.000000
283.087921 -358.270416 2.820199 1.000000
283.087921 -358.270416 2.584597 1.000000
283.087921 -358.270416 2.350257 1.000000
283.087921 -358.270416 2.116669 1.000000
283.087921 -358.270416 1.883331 1.000000
283.087921 -358.270416 1.649743 1.000000
283.087921 -358.270416 1.415403 1.000000
283.087921 -358.270416 1.179801 1.000000
283.087921 -358.270416 0.942418 1.000000
283.087921 -358.270416 0.702719 1.000000
283.087921 -358.270416 0.460147 1.000000
283.087921 -358.270416 0.214120 1.000000
283.141174 -358.259552 3.780355 1.000000
283.141174 -358.259552 3.535089 1.000000
283.141174 -358.259552 3.293267 1.000000
283.141174 -358.259552 3.054309 1.000000
283.141174 -358.259552 2.817661 1.000000
283.141174 -358.259552 2.582788 1.000000
283.141174 -358.259552 2.349173 1.000000
283.141174 -358.259552 2.116308 1.000000
283.141174 -358.259552 1.883692 1.000000
283.141174 -358.259552 1.650827 1.000000
283.141174 -358.259552 1.417212 1.000000
283.141174 -358.259552 1.182340 1.000000
283.141174 -358.259552 0.945691 1.000000
283.141174 -358.259552 0.706734 1.000000
283.141174 -358.259552 0.464912 1.000000
283.141174 -358.259552 0.219646 1.000000
283.194122 -358.248718 3.774949 1.000000
283.194122 -358.248718 3.530428 1.000000
283.194122 -358.248718 3.289340 1.000000
283.194122 -358.248718 3.051108 1.000000
283.194122 -358.248718 2.815177 1.000000
283.194122 -358.248718 2.581018 1.000000
283.194122 -358.248718 2.348112 1.000000
283.194122 -358.248718 2.115954 1.000000
283.194122 -358.248718 1.884045 1.000000
283.194122 -358.248718 1.651888 1.000000
283.194122 -358.248718 1.418982 1.000000
283.194122 -358.248718 1.184823 1.000000
283.194122 -358.248718 0.948893 1.000000
283.194122 -358.248718 0.710661 1.000000
283.194122 -358.248718 0.469573 1.000000
283.194122 -358.248718 0.225052 1.000000
283.246735 -358.237946 3.769661 1.000000
283.246735 -358.237946 3.525868 1.000000
283.246735 -358.237946 3.285499 1.000000
283.246735 -358.237946 3.047976 1.000000
283.246735 -358.237946 2.812749 1.000000
283.246735 -358.237946 2.579287 1.000000
283.246735 -358.237946 2.347075 1.000000
283.246735 -358.237946 2.115609 1.000000
283.246735 -358.237946 1.884391 1.000000
283.246735 -358.237946 1.652925 1.000000
283.246735 -358.237946 1.420713 1.000000
283.246735 -358.237946 1.187251 1.000000
283.246735 -358.237946 0.952024 1.000000
283.246735 -358.237946 0.714502 1.000000
283.246735 -358.237946 0.474132 1.000000
283.246735 -358.237946 0.230340 1.000000
283.299103 -358.227264 3.764491 1.000000
283.299103 -358.227264 3.521411 1.000000
283.299103 -358.227264 3.281743 1.000000
283.299103 -358.227264 3.044915 1.000000
283.299103 -358.227264 2.810375 1.000000
283.299103 -358.227264 2.577595 1.000000
283.299103 -358.227264 2.346061 1.000000
283.299103 -358.227264 2.115271 1.000000
283.299103 -358.227264 1.884729 1.000000
283.299103 -358.227264 1.653939 1.000000
283.299103 -358.227264 1.422405 1.000000
283.299103 -358.227264 1.189625 1.000000
283.299103 -358.227264 0.955086 1.000000
283.299103 -358.227264 0.718257 1.000000
283.299103 -358.227264 0.478590 1.000000
283.299103 -358.227264 0.235510 1.000000
283.351105 -358.216614 3.759437 1.000000
283.351105 -358.216614 3.517052 1.000000
283.351105 -358.216614 3.278071 1.000000
283.351105 -358.216614 3.041921 1.000000
283.351105 -358.216614 2.808053 1.000000
283.351105 -358.216614 2.575940 1.000000
283.351105 -358.216614 2.345070 1.000000
283.351105 -358.216644 2.114941 1.000000
283.351105 -358.216644 1.885059 1.000000
283.351105 -358.216614 1.654930 1.000000
283.351105 -358.216644 1.424060 1.000000
283.351105 -358.216614 1.191947 1.000000
283.351105 -358.216614 0.958079 1.000000
283.351105 -358.216614 0.721929 1.000000
283.351105 -358.216644 0.482948 1.000000
283.351105 -358.216614 0.240564 1.000000
283.402832 -358.206085 3.754495 1.000000
283.402832 -358.206085 3.512792 1.000000
283.402832 -358.206085 3.274483 1.000000
283.402832 -358.206085 3.038995 1.000000
283.402832 -358.206085 2.805784 1.000000
283.402832 -358.206085 2.574323 1.000000
283.402832 -358.206085 2.344101 1.000000
283.402832 -358.206085 2.114618 1.000000
283.402832 -358.206085 1.885382 1.000000
283.402832 -358.206085 1.655899 1.000000
283.402832 -358.206085 1.425677 1.000000
283.402832 -358.206085 1.194216 1.000000
283.402832 -358.206085 0.961005 1.000000
283.402832 -358.206085 0.725518 1.000000
283.402832 -358.206085 0.487208 1.000000
283.402832 -358.206085 0.245505 1.000000
283.454254 -358.195557 3.749668 1.000000
283.454254 -358.195557 3.508629 1.000000
283.454285 -358.195557 3.270975 1.000000
283.454285 -358.195557 3.036136 1.000000
283.454285 -358.195557 2.803566 1.000000
283.454285 -358.195557 2.572742 1.000000
283.454254 -358.195557 2.343154 1.000000
283.454285 -358.195557 2.114303 1.000000
283.454254 -358.195557 1.885697 1.000000
283.454254 -358.195557 1.656846 1.000000
283.454285 -358.195557 1.427258 1.000000
283.454285 -358.195557 1.196433 1.000000
283.454285 -358.195557 0.963864 1.000000
283.454285 -358.195557 0.729025 1.000000
283.454285 -358.195557 0.491371 1.000000
283.454285 -358.195557 0.250333 1.000000
283.505402 -358.185120 3.744951 1.000000
283.505402 -358.185120 3.504563 1.000000
283.505402 -358.185120 3.267550 1.000000
283.505402 -358.185120 3.033344 1.000000
283.505402 -358.185120 2.801401 1.000000
283.505432 -358.185120 2.571199 1.000000
283.505402 -358.185120 2.342229 1.000000
283.505432 -358.185120 2.113995 1.000000
283.505432 -358.185120 1.886005 1.000000
283.505432 -358.185120 1.657771 1.000000
283.505432 -358.185120 1.428802 1.000000
283.505432 -358.185120 1.198599 1.000000
283.505432 -358.185120 0.966657 1.000000
283.505432 -358.185120 0.732450 1.000000
283.505432 -358.185120 0.495438 1.000000
283.505432 -358.185120 0.255049 1.000000
283.556274 -358.174713 3.740344 1.000000
283.556274 -358.174713 3.500591 1.000000
283.556274 -358.174713 3.264203 1.000000
283.556274 -358.174713 3.030615 1.000000
283.556274 -358.174713 2.799285 1.000000
283.556274 -358.174713 2.569691 1.000000
283.556274 -358.174713 2.341325 1.000000
283.556274 -358.174713 2.113694 1.000000
283.556274 -358.174713 1.886306 1.000000
283.556274 -358.174713 1.658674 1.000000
283.556274 -358.174713 1.430309 1.000000
283.556274 -358.174713 1.200715 1.000000
283.556274 -358.174713 0.969385 1.000000
283.556274 -358.174713 0.735797 1.000000
283.556274 -358.174713 0.499409 1.000000
283.556274 -358.174713 0.259656 1.000000
283.606903 -358.164368 3.735847 1.000000
283.606903 -358.164368 3.496713 1.000000
283.606903 -358.164368 3.260936 1.000000
283.606903 -358.164368 3.027952 1.000000
283.606903 -358.164368 2.797219 1.000000
283.606903 -358.164368 2.568219 1.000000
283.606903 -358.164368 2.340443 1.000000
283.606903 -358.164368 2.113400 1.000000
283.606903 -358.164368 1.886600 1.000000
283.606903 -358.164368 1.659556 1.000000
283.606903 -358.164368 1.431781 1.000000
283.606903 -358.164368 1.202781 1.000000
283.606903 -358.164368 0.972049 1.000000
283.606903 -358.164368 0.739064 1.000000
283.606903 -358.164368 0.503288 1.000000
283.606903 -358.164368 0.264154 1.000000
283.657288 -358.154114 3.731456 1.000000
283.657288 -358.154114 3.492927 1.000000
283.657288 -358.154114 3.257746 1.000000
283.657288 -358.154114 3.025352 1.000000
283.657288 -358.154114 2.795203 1.000000
283.657288 -358.154114 2.566781 1.000000
283.657288 -358.154114 2.339582 1.000000
283.657288 -358.154114 2.113113 1.000000
283.657288 -358.154114 1.886887 1.000000
283.657288 -358.154114 1.660418 1.000000
283.657288 -358.154114 1.433219 1.000000
283.657288 -358.154114 1.204798 1.000000
283.657288 -358.154114 0.974648 1.000000
283.657288 -358.154114 0.742254 1.000000
283.657288 -358.154114 0.507074 1.000000
283.657288 -358.154114 0.268544 1.000000
283.707397 -358.143860 3.727171 1.000000
283.707397 -358.143860 3.489232 1.000000
283.707397 -358.143860 3.254634 1.000000
283.707397 -358.143860 3.022815 1.000000
283.707397 -358.143860 2.793235 1.000000
283.707397 -358.143860 2.565379 1.000000
283.707397 -358.143860 2.338742 1.000000
283.707397 -358.143860 2.112833 1.000000
283.707397 -358.143860 1.887167 1.000000
283.707397 -358.143860 1.661258 1.000000
283.707397 -358.143860 1.434621 1.000000
283.707397 -358.143860 1.206765 1.000000
283.707397 -358.143860 0.977186 1.000000
283.707397 -358.143860 0.745366 1.000000
283.707397 -358.143860 0.510768 1.000000
283.707397 -358.143860 0.272829 1.000000
283.757233 -358.133667 3.722992 1.000000
283.757233 -358.133667 3.485629 1.000000
283.757233 -358.133667 3.251598 1.000000
283.757233 -358.133667 3.020339 1.000000
283.757233 -358.133667 2.791315 1.000000
283.757233 -358.133667 2.564010 1.000000
283.757233 -358.133667 2.337922 1.000000
283.757233 -358.133667 2.112561 1.000000
283.757233 -358.133667 1.887440 1.000000
283.757233 -358.133667 1.662078 1.000000
283.757233 -358.133667 1.435990 1.000000
283.757233 -358.133667 1.208685 1.000000
283.757233 -358.133667 0.979661 1.000000
283.757233 -358.133667 0.748402 1.000000
283.757233 -358.133667 0.514371 1.000000
283.757233 -358.133667 0.277009 1.000000
283.806854 -358.123535 3.718917 1.000000
283.806854 -358.123535 3.482115 1.000000
283.806854 -358.123535 3.248638 1.000000
283.806854 -358.123535 3.017926 1.000000
283.806854 -358.123535 2.789444 1.000000
283.806854 -358.123535 2.562676 1.000000
283.806854 -358.123535 2.337123 1.000000
283.806854 -358.123535 2.112294 1.000000
283.806854 -358.123535 1.887706 1.000000
283.806854 -358.123535 1.662877 1.000000
283.806854 -358.123535 1.437324 1.000000
283.806854 -358.123535 1.210556 1.000000
283.806854 -358.123535 0.982074 1.000000
283.806854 -358.123535 0.751363 1.000000
283.806854 -358.123535 0.517886 1.000000
283.806854 -358.123535 0.281084 1.000000
283.856262 -358.113434 3.714943 1.000000
283.856262 -358.113434 3.478689 1.000000
283.856262 -358.113434 3.245751 1.000000
283.856262 -358.113434 3.015573 1.000000
283.856262 -358.113434 2.787619 1.000000
283.856262 -358.113434 2.561376 1.000000
283.856262 -358.113434 2.336344 1.000000
283.856262 -358.113434 2.112035 1.000000
283.856262 -358.113434 1.887966 1.000000
283.856262 -358.113434 1.663656 1.000000
283.856262 -358.113434 1.438624 1.000000
283.856262 -358.113434 1.212381 1.000000
283.856262 -358.113434 0.984428 1.000000
283.856262 -358.113434 0.754249 1.000000
283.856262 -358.113434 0.521312 1.000000
283.856262 -358.113434 0.285057 1.000000
283.905426 -358.103394 3.711071 1.000000
283.905426 -358.103394 3.475350 1.000000
283.905426 -358.103394 3.242939 1.000000
283.905426 -358.103394 3.013279 1.000000
283.905426 -358.103394 2.785841 1.000000
283.905426 -358.103394 2.560108 1.000000
283.905426 -358.103394 2.335584 1.000000
283.905426 -358.103394 2.111782 1.000000
283.905426 -358.103394 1.888218 1.000000
283.905426 -358.103394 1.664416 1.000000
283.905426 -358.103394 1.439892 1.000000
283.905426 -358.103394 1.214160 1.000000
283.905426 -358.103394 0.986720 1.000000
283.905426 -358.103394 0.757061 1.000000
283.905426 -358.103394 0.524650 1.000000
283.905426 -358.103394 0.288929 1.000000
283.954376 -358.093384 3.707300 1.000000
283.954376 -358.093384 3.472099 1.000000
283.954376 -358.093384 3.240200 1.000000
283.954376 -358.093384 3.011047 1.000000
283.954376 -358.093384 2.784109 1.000000
283.954376 -358.093384 2.558874 1.000000
283.954376 -358.093384 2.334845 1.000000
283.954376 -358.093384 2.111535 1.000000
283.954376 -358.093384 1.888465 1.000000
283.954376 -358.093384 1.665155 1.000000
283.954376 -358.093384 1.441126 1.000000
283.954376 -358.093384 1.215891 1.000000
283.954376 -358.093384 0.988953 1.000000
283.954376 -358.093384 0.759801 1.000000
283.954376 -358.093384 0.527902 1.000000
283.954376 -358.093384 0.292700 1.000000
284.003113 -358.083435 3.703628 1.000000
284.003113 -358.083435 3.468933 1.000000
284.003113 -358.083435 3.237532 1.000000
284.003113 -358.083435 3.008873 1.000000
284.003113 -358.083435 2.782423 1.000000
284.003113 -358.083435 2.557672 1.000000
284.003113 -358.083435 2.334125 1.000000
284.003113 -358.083435 2.111295 1.000000
284.003113 -358.083435 1.888705 1.000000
284.003113 -358.083435 1.665875 1.000000
284.003113 -358.083435 1.442328 1.000000
284.003113 -358.083435 1.217578 1.000000
284.003113 -358.083435 0.991128 1.000000
284.003113 -358.083435 0.762468 1.000000
284.003113 -358.083435 0.531068 1.000000
284.003113 -358.083435 0.296372 1.000000
284.051636 -358.073517 3.700055 1.000000
284.051636 -358.073517 3.465852 1.000000
284.051636 -358.073517 3.234937 1.000000
284.051636 -358.073517 3.006756 1.000000
284.051636 -358.073517 2.780782 1.000000
284.051636 -358.073517 2.556502 1.000000
284.051636 -358.073517 2.333424 1.000000
284.051636 -358.073517 2.111062 1.000000
284.051636 -358.073517 1.888938 1.000000
284.051636 -358.073517 1.666576 1.000000
284.051636 -358.073517 1.443498 1.000000
284.051636 -358.073517 1.219218 1.000000
284.051636 -358.073517 0.993244 1.000000
284.051636 -358.073517 0.765063 1.000000
284.051636 -358.073517 0.534148 1.000000
284.051636 -358.073517 0.299945 1.000000
284.099976 -358.063660 3.696579 1.000000
284.099976 -358.063660 3.462855 1.000000
284.099976 -358.063660 3.232412 1.000000
284.099976 -358.063660 3.004698 1.000000
284.099976 -358.063660 2.779185 1.000000
284.099976 -358.063660 2.555364 1.000000
284.099976 -358.063660 2.332742 1.000000
284.099976 -358.063660 2.110835 1.000000
284.099976 -358.063660 1.889165 1.000000
284.099976 -358.063660 1.667258 1.000000
284.099976 -358.063660 1.444636 1.000000
284.099976 -358.063660 1.220815 1.000000
284.099976 -358.063660 0.995302 1.000000
284.099976 -358.063660 0.767588 1.000000
284.099976 -358.063660 0.537145 1.000000
284.099976 -358.063660 0.303421 1.000000
284.148071 -358.053833 3.693200 1.000000
284.148071 -358.053833 3.459941 1.000000
284.148071 -358.053833 3.229957 1.000000
284.148102 -358.053833 3.002697 1.000000
284.148102 -358.053833 2.777633 1.000000
284.148071 -358.053833 2.554258 1.000000
284.148102 -358.053833 2.332079 1.000000
284.148102 -358.053833 2.110614 1.000000
284.148102 -358.053833 1.889386 1.000000
284.148102 -358.053833 1.667921 1.000000
284.148102 -358.053833 1.445742 1.000000
284.148102 -358.053833 1.222367 1.000000
284.148102 -358.053833 0.997303 1.000000
284.148071 -358.053833 0.770043 1.000000
284.148071 -358.053833 0.540059 1.000000
284.148102 -358.053833 0.306800 1.000000
284.196045 -358.044006 3.689917 1.000000
284.196045 -358.044006 3.457110 1.000000
284.196045 -358.044006 3.227572 1.000000
284.196045 -358.044006 3.000752 1.000000
284.196045 -358.044006 2.776125 1.000000
284.196045 -358.044006 2.553184 1.000000
284.196045 -358.044006 2.331435 1.000000
284.196045 -358.044006 2.110400 1.000000
284.196045 -358.044006 1.889600 1.000000
284.196045 -358.044006 1.668565 1.000000
284.196045 -358.044006 1.446816 1.000000
284.196045 -358.044006 1.223875 1.000000
284.196045 -358.044006 0.999248 1.000000
284.196045 -358.044006 0.772428 1.000000
284.196045 -358.044006 0.542890 1.000000
284.196045 -358.044006 0.310084 1.000000
284.243805 -358.034271 3.686727 1.000000
284.243805 -358.034241 3.454360 1.000000
284.243805 -358.034241 3.225255 1.000000
284.243805 -358.034241 2.998864 1.000000
284.243805 -358.034271 2.774660 1.000000
284.243805 -358.034271 2.552140 1.000000
284.243805 -358.034271 2.330810 1.000000
284.243805 -358.034271 2.110191 1.000000
284.243805 -358.034271 1.889809 1.000000
284.243805 -358.034271 1.669190 1.000000
284.243805 -358.034271 1.447860 1.000000
284.243805 -358.034271 1.225340 1.000000
284.243805 -358.034271 1.001137 1.000000
284.243805 -358.034241 0.774745 1.000000
284.243805 -358.034271 0.545640 1.000000
284.243805 -358.034271 0.313273 1.000000
284.291382 -358.024536 3.683633 1.000000
284.291382 -358.024536 3.451692 1.000000
284.291382 -358.024536 3.223007 1.000000
284.291382 -358.024536 2.997031 1.000000
284.291382 -358.024536 2.773239 1.000000
284.291382 -358.024536 2.551126 1.000000
284.291382 -358.024536 2.330203 1.000000
284.291382 -358.024536 2.109989 1.000000
284.291382 -358.024536 1.890011 1.000000
284.291382 -358.024536 1.669797 1.000000
284.291382 -358.024536 1.448874 1.000000
284.291382 -358.024536 1.226761 1.000000
284.291382 -358.024536 1.002969 1.000000
