# This PCD file was generated using the MATLABÂ® pcwrite function
# from Computer Vision ToolboxÂ®.
# .PCD v.7 - Point Cloud Data file format
VERSION .7
FIELDS x y z intensity
SIZE 4 4 4 4
TYPE F F F F
COUNT 1 1 1 1
WIDTH 1212
HEIGHT 1
VIEWPOINT 0 0 0 1 0 0 0
POINTS 1212
DATA ascii
nan nan nan 0.000000
nan nan nan 0.000000
289.996399 -504.408325 -0.000031 0.229719
273.678741 -504.647888 -0.000042 0.233564
266.671082 -504.750763 0.000164 0.225202
262.769165 -504.808075 0.000225 0.231546
260.277985 -504.844635 0.000312 0.199058
258.548187 -504.870026 0.000041 0.271626
257.272278 -504.888763 0.000138 0.265475
nan nan nan 0.000000
nan nan nan 0.000000
nan nan nan 0.000000
nan nan nan 0.000000
nan nan nan 0.000000
nan nan nan 0.000000
nan nan nan 0.000000
nan nan nan 0.000000
nan nan nan 0.000000
289.999695 -504.692505 -0.000036 0.225779
273.680878 -504.818176 -0.000060 0.226355
266.672241 -504.872131 0.000186 0.226355
262.769867 -504.902161 0.000280 0.239235
260.278778 -504.921387 0.000327 0.234814
258.548828 -504.934662 0.000059 0.239427
257.272705 -504.944519 0.000187 0.308535
nan nan nan 0.000000
nan nan nan 0.000000
nan nan nan 0.000000
nan nan nan 0.000000
nan nan nan 0.000000
nan nan nan 0.000000
nan nan nan 0.000000
nan nan nan 0.000000
nan nan nan 0.000000
290.000977 -504.976715 -0.000041 0.225202
273.681488 -504.988464 -0.000053 0.225971
266.672302 -504.993500 0.000239 0.217513
262.769897 -504.996277 0.000332 0.225779
260.278564 -504.998077 0.000424 0.219531
258.548706 -504.999329 0.000146 0.218954
257.272736 -505.000244 0.000236 0.224337
nan nan nan 0.000000
nan nan nan 0.000000
nan nan nan 0.000000
nan nan nan 0.000000
nan nan nan 0.000000
nan nan nan 0.000000
nan nan nan 0.000000
nan nan nan 0.000000
nan nan nan 0.000000
290.000275 -505.260956 -0.000045 0.225490
273.680969 -505.158752 -0.000049 0.241253
266.671448 -505.114838 0.000296 0.241349
262.769531 -505.090393 0.000351 0.244617
260.278290 -505.074829 0.000434 0.235679
258.548248 -505.063965 0.000208 0.213764
257.272369 -505.055969 0.000289 0.177528
nan nan nan 0.000000
nan nan nan 0.000000
nan nan nan 0.000000
nan nan nan 0.000000
nan nan nan 0.000000
nan nan nan 0.000000
nan nan nan 0.000000
nan nan nan 0.000000
nan nan nan 0.000000
289.997437 -505.545166 -0.000042 0.222126
273.679260 -505.329010 -0.000046 0.222222
266.671539 -505.236206 0.000150 0.201653
262.769318 -505.184540 0.000246 0.253652
260.280060 -505.151550 -0.000026 0.229815
258.548248 -505.128632 0.000067 0.254806
257.272217 -505.111725 0.000190 0.299308
nan nan nan 0.000000
nan nan nan 0.000000
nan nan nan 0.000000
nan nan nan 0.000000
nan nan nan 0.000000
nan nan nan 0.000000
nan nan nan 0.000000
nan nan nan 0.000000
nan nan nan 0.000000
289.992584 -505.829346 -0.000037 0.226259
273.676300 -505.499298 -0.000036 0.220204
266.669312 -505.357574 0.000172 0.258843
262.767609 -505.278625 0.000262 0.210208
260.278656 -505.228271 -0.000003 0.190023
258.546875 -505.193237 0.000130 0.220492
257.271027 -505.167450 0.000252 0.221549
nan nan nan 0.000000
nan nan nan 0.000000
nan nan nan 0.000000
nan nan nan 0.000000
nan nan nan 0.000000
nan nan nan 0.000000
nan nan nan 0.000000
nan nan nan 0.000000
nan nan nan 0.000000
289.985870 -506.113495 -0.000039 0.227701
273.672302 -505.669525 -0.000039 0.234429
266.665955 -505.478851 0.000227 0.231642
262.765015 -505.372711 0.000316 0.220108
260.276550 -505.304993 0.000051 0.206363
258.545105 -505.257874 0.000183 0.278354
257.269714 -505.223175 0.000253 0.217801
nan nan nan 0.000000
nan nan nan 0.000000
nan nan nan 0.000000
nan nan nan 0.000000
nan nan nan 0.000000
nan nan nan 0.000000
nan nan nan 0.000000
nan nan nan 0.000000
nan nan nan 0.000000
289.977203 -506.397552 -0.000040 0.231161
273.667023 -505.839752 -0.000035 0.230392
266.662048 -505.600159 0.000250 0.222607
262.761993 -505.466797 0.000336 0.250481
260.273865 -505.381683 0.000111 0.245771
258.543030 -505.322479 0.000199 0.210015
257.268463 -505.278900 0.000137 0.221357
nan nan nan 0.000000
nan nan nan 0.000000
nan nan nan 0.000000
273.469543 -506.002045 5.589852 0.406127
273.408112 -505.999512 4.777006 0.365319
346.349670 -509.004181 9.965250 0.571691
346.278961 -509.001251 6.768840 0.575368
346.208618 -508.998352 3.587324 0.577574
346.138397 -508.995453 0.413824 0.573775
289.966797 -506.681610 -0.000055 0.230008
273.660675 -506.009918 -0.000038 0.219819
266.656982 -505.721405 0.000307 0.220396
262.758118 -505.560822 0.000384 0.218185
260.270874 -505.458344 0.000127 0.272780
258.540375 -505.387054 0.000249 0.239715
257.266174 -505.334564 0.000185 0.275855
nan nan nan 0.000000
nan nan nan 0.000000
nan nan nan 0.000000
nan nan nan 0.000000
273.555908 -506.175354 4.794894 0.386765
343.157288 -509.529297 9.705675 0.571691
343.091034 -509.526093 6.613533 0.575735
343.025269 -509.522949 3.535668 0.578676
342.959625 -509.519775 0.465408 0.574632
289.954163 -506.965546 -0.000057 0.227509
273.653229 -506.180054 -0.000053 0.232507
266.651398 -505.842621 0.000325 0.243945
262.753815 -505.654816 0.000400 0.221742
260.267120 -505.534973 0.000187 0.208285
258.537201 -505.451630 0.000308 0.215782
257.263428 -505.390228 0.000246 0.276720
nan nan nan 0.000000
nan nan nan 0.000000
273.097656 -506.319916 6.338681 0.373652
nan nan nan 0.000000
273.697876 -506.353027 4.812261 0.347304
340.166260 -510.021301 9.462829 0.573652
340.104248 -510.017883 6.468243 0.569363
340.042572 -510.014496 3.487339 0.565196
339.987427 -510.011444 0.513564 0.672426
289.939453 -507.249390 -0.000057 0.225394
273.644409 -506.350098 -0.000048 0.229431
266.645020 -505.963806 0.000340 0.228470
262.749817 -505.748840 0.000273 0.233852
260.262939 -505.611603 0.000229 0.263745
258.534485 -505.516235 0.000178 0.237313
257.260376 -505.445892 0.000294 0.308055
nan nan nan 0.000000
272.506348 -506.449951 7.024105 0.349265
273.052704 -506.483917 6.332266 0.409191
272.804657 -506.468506 5.494920 0.373897
nan nan nan 0.000000
273.853180 -506.533691 4.018020 0.355637
337.299591 -510.479645 6.332024 0.567279
337.241547 -510.476044 3.442025 0.565686
337.183746 -510.472443 0.558923 0.488235
289.921906 -507.533081 -0.000011 0.332475
273.634521 -506.520081 -0.000057 0.223472
266.637451 -506.084930 0.000391 0.217801
262.744141 -505.842773 0.000297 0.227893
260.258301 -505.688202 0.000254 0.238274
258.530609 -505.580750 0.000199 0.257785
257.256927 -505.501526 0.000340 0.211938
nan nan nan 0.000000
275.231537 -506.801331 7.616403 0.364461
nan nan nan 0.000000
nan nan nan 0.000000
nan nan nan 0.000000
273.496887 -506.681274 3.989661 0.552819
334.660706 -510.914124 6.204061 0.500368
334.606201 -510.910339 3.399460 0.574387
334.551758 -510.906586 0.601433 0.569975
289.903229 -507.816650 -0.000011 0.332230
273.623444 -506.690033 -0.000066 0.238466
266.630890 -506.206116 0.000229 0.247597
262.739899 -505.936829 0.000013 0.252115
260.253967 -505.764771 0.000124 0.190696
258.526947 -505.645264 0.000072 0.235967
257.253723 -505.557159 0.000226 0.204248
nan nan nan 0.000000
272.875092 -506.803772 7.108829 0.438726
nan nan nan 0.000000
272.871429 -506.803497 5.508233 0.411887
nan nan nan 0.000000
273.812958 -506.875244 4.016663 0.395343
332.173248 -511.323669 6.083642 0.575858
332.121674 -511.319733 3.359394 0.577451
332.070251 -511.315796 0.641448 0.580270
289.882751 -508.100128 -0.000017 0.332475
273.611084 -506.859863 -0.000065 0.235390
266.621643 -506.327118 0.000286 0.232795
262.732849 -506.030701 0.000042 0.229047
260.248077 -505.841278 0.000186 0.226740
258.521942 -505.709717 0.000139 0.248654
257.249451 -505.612732 0.000283 0.275567
nan nan nan 0.000000
274.585632 -507.111877 7.482400 0.354044
nan nan nan 0.000000
272.760712 -506.959930 5.493709 0.373652
273.703552 -507.038452 4.818356 0.363480
273.791016 -507.045715 4.015981 0.361765
331.265869 -511.830444 6.041184 0.600858
331.271729 -511.830933 3.346197 0.587010
331.277588 -511.831421 0.653709 0.509191
289.860046 -508.383453 -0.000011 0.331618
273.597565 -507.029633 -0.000065 0.223952
266.611847 -506.448059 0.000302 0.218762
262.725006 -506.124481 0.000096 0.253172
260.241852 -505.917786 0.000209 0.211457
258.516602 -505.774139 0.000184 0.220877
257.245514 -505.668335 0.000159 0.196367
274.259552 -507.260376 8.280172 0.420956
272.452179 -507.097198 7.023061 0.381863
273.437622 -507.186157 6.411819 0.410294
272.691132 -507.118744 5.485460 0.371569
273.394073 -507.182220 4.784318 0.393750
273.837341 -507.222260 4.021019 0.414093
331.383606 -512.417664 6.049440 0.601593
331.389496 -512.418213 3.348947 0.531863
331.395355 -512.418762 0.650958 0.608824
289.835480 -508.666595 -0.000010 0.332230
273.582428 -507.199249 -0.000032 0.232603
266.601440 -506.568970 0.000290 0.210688
262.716736 -506.218262 0.000116 0.220684
260.236023 -505.994293 0.000061 0.210784
258.510895 -505.838531 0.000210 0.226547
257.241180 -505.723907 0.000038 0.188774
nan nan nan 0.000000
272.639038 -507.278503 7.066900 0.387377
274.192902 -507.429749 6.552790 0.416422
nan nan nan 0.000000
275.480225 -507.555023 5.027269 0.368750
273.840759 -507.395477 4.022622 0.364216
331.501831 -513.007385 6.057930 0.618137
331.507721 -513.007935 3.351773 0.600245
331.513611 -513.008545 0.648129 0.636520
289.808899 -508.949554 -0.000010 0.332108
273.566559 -507.368774 -0.000033 0.229719
266.591125 -506.689911 0.000170 0.251250
262.707825 -506.311981 0.000134 0.216551
260.228577 -506.070648 0.000111 0.191369
258.504791 -505.902893 0.000223 0.266148
257.235870 -505.779388 0.000064 0.178777
274.669800 -507.655151 8.392039 0.389461
272.140625 -507.391174 6.962245 0.410049
273.333313 -507.515686 6.398742 0.415686
273.114502 -507.492798 5.553348 0.378431
272.957886 -507.476471 4.737653 0.359681
273.843414 -507.568909 4.024264 0.380147
331.620605 -513.599548 6.066651 0.552083
331.626526 -513.600159 3.354681 0.518505
331.632446 -513.600769 0.645222 0.584926
289.780396 -509.232361 -0.000011 0.332966
273.549530 -507.538208 -0.000038 0.216551
266.579010 -506.810638 0.000164 0.238274
262.698242 -506.405579 0.000160 0.258458
260.220947 -506.147034 0.000104 0.212418
258.498230 -505.967194 0.000240 0.225010
257.230225 -505.834839 0.000079 0.255094
274.615509 -507.828339 8.383176 0.375368
273.003906 -507.648773 7.153584 0.450245
273.972015 -507.756622 6.518986 0.382353
274.252502 -507.787903 5.725874 0.390074
272.847076 -507.631287 4.726888 0.416054
273.073486 -507.656525 3.962268 0.398652
273.680878 -507.724213 3.205703 0.372917
331.745758 -514.195007 3.357664 0.549510
331.751709 -514.195679 0.642238 0.616176
289.749908 -509.514954 -0.000010 0.332598
273.531433 -507.707550 -0.000052 0.222318
266.565521 -506.931244 0.000218 0.225586
262.687958 -506.499146 0.000183 0.226932
260.212463 -506.223297 0.000149 0.207324
258.491089 -506.031464 0.000288 0.217993
257.223907 -505.890228 0.000162 0.230873
nan nan nan 0.000000
272.371948 -507.741608 7.020277 0.367279
274.613739 -508.007294 6.640197 0.382230
272.675873 -507.777618 5.493357 0.417034
272.920074 -507.806549 4.737534 0.370098
273.925049 -507.925690 4.034159 0.370956
331.859619 -514.791748 6.084810 0.434069
331.865601 -514.792480 3.360728 0.593137
331.871521 -514.793152 0.639172 0.522917
289.717438 -509.797272 -0.000011 0.332598
273.512054 -507.876709 -0.000057 0.232411
266.551758 -507.051849 0.000207 0.211457
262.677124 -506.592651 0.000197 0.211649
260.203583 -506.299500 0.000167 0.220588
258.484314 -506.095734 0.000153 0.231642
257.217468 -505.945587 0.000182 0.260381
274.076935 -508.119324 8.257776 0.413971
264.147736 -506.872192 5.234340 0.342279
264.105438 -506.866882 4.717083 0.360784
273.804718 -508.085114 5.665101 0.372917
272.192322 -507.882599 4.655488 0.407230
275.487488 -508.296478 4.165012 0.427083
273.851532 -508.090973 3.216148 0.368627
331.985931 -515.392639 3.363875 0.532353
331.991913 -515.393372 0.636028 0.572672
289.683014 -510.079437 -0.000010 0.331373
273.491425 -508.045776 -0.000061 0.213476
266.536865 -507.172272 0.000229 0.225971
262.665558 -506.686035 0.000222 0.248654
260.194153 -506.375641 0.000192 0.272876
258.476349 -506.159882 0.000182 0.274990
257.210602 -506.000916 0.000206 0.216455
273.733185 -508.249634 8.176569 0.372059
264.193237 -506.983704 5.247175 0.331618
264.201752 -506.984833 4.737208 0.397672
273.260559 -508.186920 5.586977 0.357598
272.864410 -508.134338 4.735879 0.408578
273.191223 -508.177704 3.977032 0.447549
332.100861 -515.994873 6.103936 0.600490
332.106842 -515.995667 3.367100 0.610907
332.112854 -515.996460 0.632801 0.580882
289.646606 -510.361328 -0.000011 0.332353
273.469452 -508.214630 -0.000047 0.224145
266.521149 -507.292603 0.000249 0.228950
262.653351 -506.779358 0.000243 0.225586
260.184174 -506.451721 0.000219 0.222318
258.467896 -506.223938 0.000225 0.212226
257.203888 -506.056244 0.000101 0.226163
264.170166 -507.086456 5.763732 0.328799
264.111694 -507.078308 5.232485 0.360784
264.300507 -507.104675 4.757964 0.405515
264.489929 -507.131165 4.276744 0.349632
272.367523 -508.232544 4.680766 0.380882
273.255951 -508.356720 3.984272 0.403554
273.977997 -508.457672 3.224677 0.461642
332.228333 -516.601563 3.370408 0.513113
332.234375 -516.602417 0.629491 0.587132
289.608246 -510.642914 -0.000010 0.331863
273.446259 -508.383331 -0.000029 0.247597
266.505737 -507.412994 0.000137 0.252307
262.641510 -506.872742 0.000112 0.251922
260.173737 -506.527740 0.000233 0.230200
258.459656 -506.288086 0.000116 0.211265
257.196289 -506.111450 0.000126 0.255190
264.143433 -507.188568 5.760736 0.397672
273.240356 -508.525208 7.228493 0.423407
264.400299 -507.226318 4.779077 0.367402
264.494934 -507.240204 4.279767 0.364828
273.165619 -508.514191 4.776248 0.349387
274.855377 -508.762512 4.118811 0.381863
274.958496 -508.777649 3.274589 0.359926
310.749878 -514.036560 3.016535 0.566176
310.734680 -514.034363 0.983715 0.573407
289.567902 -510.924255 -0.000010 0.332475
273.422150 -508.551910 -0.000034 0.220396
266.488586 -507.533142 0.000128 0.207036
262.628052 -506.965912 0.000131 0.232411
260.162720 -506.603638 0.000260 0.238850
258.450378 -506.352051 0.000138 0.197136
257.188293 -506.166626 0.000139 0.215302
264.116119 -507.290405 5.757766 0.337990
273.182800 -508.687347 7.221413 0.349387
264.546722 -507.356750 4.808956 0.385049
264.317566 -507.321411 4.255547 0.361887
272.016388 -508.507599 4.645398 0.365319
274.858490 -508.945496 4.121299 0.450245
274.952667 -508.960022 3.275639 0.427328
309.774078 -514.325012 3.001447 0.601348
309.759338 -514.322754 0.998796 0.611029
289.525635 -511.205292 -0.000010 0.331985
273.397003 -508.720306 -0.000050 0.227893
266.470337 -507.653107 0.000152 0.241542
262.614044 -507.058960 0.000128 0.200019
260.152008 -506.679657 0.000131 0.203383
258.440643 -506.415955 0.000165 0.214821
257.179932 -506.221741 0.000166 0.255094
264.088531 -507.392029 5.754899 0.359926
nan nan nan 0.000000
264.626099 -507.478699 4.826676 0.353922
264.499725 -507.458313 4.285397 0.391544
271.836670 -508.641266 4.627371 0.405637
272.957489 -508.821960 3.965746 0.387868
274.944183 -509.142273 3.276622 0.442647
308.826752 -514.605042 2.986849 0.616912
308.812439 -514.602722 1.013388 0.593382
289.481323 -511.486053 -0.000010 0.332475
273.370483 -508.888550 -0.000052 0.225490
266.451508 -507.773010 0.000143 0.207420
262.599243 -507.151917 0.000151 0.248174
260.139893 -506.755432 0.000157 0.245290
258.430481 -506.479797 0.000181 0.193099
257.171112 -506.276764 0.000193 0.270857
264.060394 -507.493408 5.752077 0.356495
273.410492 -509.067963 7.283050 0.394118
272.926910 -508.986511 6.361580 0.348652
264.425354 -507.554871 4.276841 0.459191
275.537781 -509.426178 5.062170 0.397549
273.094818 -509.014801 3.979431 0.354412
274.101593 -509.184326 3.236116 0.435539
274.060394 -509.177399 2.411061 0.451961
274.040710 -509.174072 1.589266 0.455392
274.022095 -509.170959 0.767845 0.465686
273.342438 -509.056519 -0.000021 0.230584
266.431580 -507.892731 0.000163 0.219723
262.583801 -507.244751 0.000169 0.202038
260.127380 -506.831085 0.000170 0.237024
258.420532 -506.543671 0.000061 0.186947
257.162018 -506.331757 0.000203 0.265667
264.034485 -507.595062 5.750000 0.400490
275.912903 -509.680756 7.838130 0.365074
273.265961 -509.215973 6.429456 0.461029
264.459839 -507.669708 4.284771 0.350980
271.798431 -508.958282 4.629089 0.385294
275.149963 -509.546783 4.152899 0.379534
307.025848 -515.143738 4.879810 0.195833
307.012299 -515.141357 2.959027 0.575980
306.998871 -515.139038 1.041197 0.641054
274.131836 -509.368011 0.760891 0.460049
273.313660 -509.224335 -0.000027 0.226740
266.410980 -508.012329 0.000166 0.214052
262.568054 -507.337555 0.000141 0.241542
260.114349 -506.906738 0.000172 0.255575
258.409576 -506.607391 0.000059 0.261534
257.152985 -506.386749 0.000096 0.196847
263.768585 -507.652710 5.686987 0.369608
263.668213 -507.634338 5.157020 0.353309
273.233124 -509.382721 6.428921 0.356495
264.508240 -507.787872 4.294931 0.368627
264.571899 -507.799530 3.787259 0.338725
274.749969 -509.660004 4.122251 0.357353
306.155945 -515.400757 4.839970 0.606005
305.738190 -515.324402 2.939031 0.562500
305.725189 -515.322021 1.061185 0.558088
289.336823 -512.326355 -0.000011 0.332475
273.283630 -509.391968 -0.000029 0.233756
266.389709 -508.131805 0.000154 0.210400
262.551331 -507.430206 0.000159 0.232122
260.100861 -506.982269 0.000163 0.194444
258.398071 -506.670990 0.000084 0.222511
257.143097 -506.441589 0.000113 0.222703
272.076660 -509.335938 7.810084 0.410172
274.247498 -509.748444 7.486918 0.374877
264.209778 -507.841125 4.763463 0.346691
264.506531 -507.897522 4.297665 0.352083
271.796783 -509.282776 4.635616 0.354044
272.343872 -509.386749 3.924199 0.356740
305.309845 -515.650757 4.801358 0.635049
305.297089 -515.648376 2.932908 0.448162
305.284454 -515.645935 1.067304 0.219118
289.284760 -512.605774 -0.000010 0.331618
273.252472 -509.559387 -0.000031 0.223183
266.368591 -508.251312 0.000021 0.222030
262.534058 -507.522705 0.000162 0.220492
260.086761 -507.057678 0.000165 0.195117
258.386261 -506.734589 0.000072 0.253941
257.132904 -506.496399 0.000108 0.246540
263.839264 -507.876099 5.714826 0.341054
263.741211 -507.856750 5.181475 0.330760
264.275482 -507.962158 4.779387 0.402328
264.513214 -508.009064 4.301782 0.350980
274.160522 -509.912048 4.916347 0.337255
272.944336 -509.672180 3.976983 0.392770
304.486389 -515.894104 4.763914 0.688113
304.081177 -515.814148 2.913888 0.593750
304.068939 -515.811768 1.086316 0.581495
289.230713 -512.884766 -0.000011 0.332966
273.220123 -509.726563 -0.000031 0.215782
266.345551 -508.370483 0.000018 0.226932
262.516907 -507.615265 0.000047 0.244137
260.072754 -507.133148 0.000065 0.211649
258.373840 -506.798004 0.000103 0.281526
257.122101 -506.551086 0.000159 0.214245
272.792816 -509.812958 8.009208 0.352941
263.779297 -507.969513 5.194342 0.377819
264.341919 -508.084595 4.795627 0.439461
264.569305 -508.131073 4.313504 0.364706
264.535858 -508.124237 3.790291 0.375490
274.387512 -510.139160 4.100543 0.444485
303.684601 -516.131042 4.727590 0.591789
303.672546 -516.128540 2.908345 0.594240
303.660522 -516.126099 1.091855 0.614828
289.174713 -513.163452 -0.000010 0.331618
273.186859 -509.893585 -0.000056 0.223183
266.322327 -508.489624 -0.000062 0.210592
262.497681 -507.707397 0.000155 0.229335
260.056885 -507.208191 0.000200 0.251826
258.360504 -506.861237 0.000234 0.266052
257.110626 -506.605652 0.000286 0.208766
263.332336 -507.980408 5.595650 0.354779
263.813446 -508.082275 5.206523 0.393873
264.535645 -508.235260 4.835722 0.345588
264.533081 -508.234711 4.311376 0.355882
264.525116 -508.233032 3.791632 0.348775
274.990723 -510.449707 4.154154 0.412377
302.903564 -516.361816 4.692336 0.497304
302.891846 -516.359314 2.896608 0.603676
302.880188 -516.356873 1.103587 0.441912
289.116821 -513.441711 -0.000011 0.332230
273.151978 -510.060242 -0.000041 0.217705
266.297272 -508.608398 -0.000027 0.245675
262.478455 -507.799530 0.000158 0.208093
260.041931 -507.283478 0.000071 0.210208
258.347809 -506.924652 0.000126 0.197616
257.099701 -506.660309 0.000171 0.286717
263.950836 -508.218506 5.759671 0.334559
267.454651 -508.986237 6.016431 0.389216
264.475983 -508.333588 4.828882 0.381005
264.496948 -508.338135 4.309368 0.342034
264.514160 -508.341919 3.793041 0.421691
275.636261 -510.778931 4.211583 0.390931
302.142456 -516.586731 4.658108 0.611765
302.131042 -516.584229 2.885213 0.543382
302.119659 -516.581726 1.114978 0.493260
289.056946 -513.719543 -0.000010 0.332230
273.116211 -510.226746 -0.000051 0.214437
266.271820 -508.727051 -0.000037 0.203479
262.458679 -507.891541 0.000153 0.209439
260.025787 -507.358459 0.000074 0.239715
258.334198 -506.987823 0.000128 0.198481
257.088379 -506.714874 0.000068 0.278835
240.436905 -503.001465 4.273527 0.078799
240.436905 -503.001465 3.960320 0.015441
240.436920 -503.001465 3.651511 0.046691
240.436935 -503.001465 3.346360 0.041544
240.436905 -503.001465 3.044159 0.043873
239.936874 -502.888245 2.786264 0.001593
233.679657 -501.471375 2.786263 0.000000
202.427322 -494.394623 2.786259 0.000000
175.621307 -488.324707 0.763985 1.000000
209.590302 -496.016571 0.000342 0.226451
225.502274 -499.619690 0.000203 0.227701
232.335663 -501.167023 0.000272 0.255767
236.140808 -502.028687 0.000240 0.228278
238.570099 -502.578766 0.000211 0.235294
240.258850 -502.961151 0.000248 0.209246
241.502701 -503.242798 0.000197 0.286621
240.390381 -502.925507 4.289152 0.148652
240.390381 -502.925507 3.973793 0.077574
240.390396 -502.925507 3.662861 0.085784
240.390396 -502.925507 3.355613 0.087377
240.390396 -502.925507 3.051334 0.077083
239.951874 -502.822998 2.786265 0.003922
233.704712 -501.362488 2.786263 0.000000
202.502502 -494.067719 2.786259 0.000000
175.219177 -487.689148 0.755240 1.000000
209.654358 -495.739746 0.000358 0.226259
225.540680 -499.453796 0.000221 0.221838
232.362991 -501.048798 0.000287 0.222607
236.162170 -501.936981 0.000278 0.206651
238.587540 -502.504028 0.000251 0.220396
240.273529 -502.898193 0.000290 0.235198
241.515457 -503.188538 0.000265 0.248078
240.343216 -502.848511 4.305103 0.243873
240.343216 -502.848511 3.987546 0.190196
240.343216 -502.848511 3.674450 0.163848
240.343216 -502.848511 3.365060 0.153922
240.343216 -502.848511 3.058661 0.146078
239.967346 -502.757874 2.786264 0.003922
233.730545 -501.253754 2.786263 0.000000
202.579987 -493.741333 2.786259 0.000000
174.811340 -487.044495 0.746309 1.000000
209.715973 -495.462280 0.000154 0.231930
225.578796 -499.287842 0.000118 0.220012
232.390396 -500.930573 0.000210 0.221742
236.183426 -501.845337 0.000202 0.237601
238.604828 -502.429260 0.000171 0.230488
240.287689 -502.835114 0.000115 0.226836
241.527496 -503.134125 0.000051 0.243080
240.295364 -502.770416 4.321397 0.276471
240.295380 -502.770416 4.001595 0.268750
240.295380 -502.770416 3.686284 0.226961
240.295364 -502.770416 3.374709 0.203309
240.295380 -502.770416 3.066144 0.208946
239.983261 -502.692841 2.786264 0.002206
233.757111 -501.145233 2.786263 0.000000
202.659775 -493.415527 2.786259 0.000000
174.397537 -486.390533 0.737187 1.000000
209.783936 -495.186340 0.000174 0.226451
225.619797 -499.122589 0.000161 0.243272
232.418823 -500.812592 0.000158 0.231930
236.205933 -501.753937 0.000221 0.220588
238.622620 -502.354645 0.000085 0.223280
240.303253 -502.772400 0.000159 0.240292
241.540955 -503.080048 0.000102 0.242983
240.246841 -502.691193 4.338036 0.194730
240.246841 -502.691193 4.015943 0.232721
240.246857 -502.691223 3.698371 0.211397
240.246841 -502.691193 3.384563 0.204289
240.246857 -502.691193 3.073786 0.215564
239.999634 -502.627930 2.786265 0.000245
233.784439 -501.036896 2.786263 0.000000
202.741882 -493.090302 2.786259 0.000000
173.977661 -485.726929 0.727868 1.000000
209.854706 -494.911102 0.000236 0.228181
225.662170 -498.957703 0.000222 0.223856
232.448944 -500.695038 0.000212 0.223664
236.229477 -501.662781 0.000302 0.237409
238.641861 -502.280365 0.000175 0.201173
240.319397 -502.709778 0.000233 0.208958
241.554993 -503.026093 0.000204 0.209439
240.197632 -502.610870 4.355028 0.096324
240.197632 -502.610870 4.030595 0.126225
240.197632 -502.610870 3.710716 0.112010
240.197617 -502.610870 3.394627 0.136765
240.197632 -502.610870 3.081590 0.135417
240.016464 -502.563141 2.786265 0.000000
233.812531 -500.928772 2.786263 0.000000
202.826172 -492.765625 2.786259 0.000000
173.551544 -485.053436 0.718349 1.000000
209.926468 -494.636139 0.000254 0.227028
225.705505 -498.793030 0.000268 0.226067
232.479813 -500.577637 0.000255 0.230104
236.252625 -501.571594 0.000223 0.230008
238.661377 -502.206146 0.000217 0.268454
240.335861 -502.647278 0.000280 0.249039
241.569183 -502.972168 0.000249 0.191176
240.147675 -502.529327 4.372389 0.064093
240.147690 -502.529327 4.045563 0.105515
240.147659 -502.529327 3.723327 0.079167
240.147675 -502.529327 3.404906 0.079044
240.147659 -502.529327 3.089564 0.088971
240.033737 -502.498474 2.786264 0.000000
233.841370 -500.820831 2.786262 0.000000
173.118958 -484.369751 3.291377 1.000000
173.118958 -484.369751 0.708622 1.000000
209.999084 -494.361389 0.000215 0.226067
225.748779 -498.628357 0.000209 0.235486
232.510651 -500.460266 0.000196 0.227509
236.276642 -501.480560 0.000182 0.227316
238.680862 -502.131927 0.000159 0.227124
240.351929 -502.584656 0.000141 0.202038
241.583374 -502.918274 0.000203 0.279123
240.096985 -502.446594 4.390122 0.062255
240.096985 -502.446594 4.060853 0.097059
240.096970 -502.446594 3.736209 0.082721
240.096985 -502.446594 3.415407 0.068137
240.096970 -502.446594 3.097708 0.094118
240.051498 -502.433899 2.786264 0.000000
233.870987 -500.713074 2.786262 0.000000
172.679749 -483.675568 3.301318 1.000000
172.679749 -483.675568 0.698682 1.000000
210.074722 -494.087463 0.000234 0.224625
225.794083 -498.464233 0.000227 0.226067
232.543167 -500.343353 0.000240 0.226644
236.301727 -501.389862 0.000204 0.205210
238.701370 -502.057983 0.000191 0.208574
240.369232 -502.522400 0.000183 0.230200
241.597992 -502.864502 0.000160 0.205210
240.045502 -502.362579 4.408245 0.057108
240.045517 -502.362579 4.076479 0.059804
240.045532 -502.362579 3.749371 0.067770
240.045517 -502.362579 3.426139 0.066054
240.045502 -502.362579 3.106031 0.091176
240.045532 -502.362579 2.788323 0.107966
233.901337 -500.605560 2.786262 0.000000
172.233673 -482.970551 3.311476 1.000000
172.233673 -482.970551 0.688525 1.000000
210.150665 -493.813599 0.000172 0.226163
225.839844 -498.300232 0.000185 0.226067
232.574753 -500.226196 0.000076 0.218185
236.327057 -501.299194 0.000170 0.212418
238.722076 -501.984100 0.000166 0.223568
240.386642 -502.460114 0.000150 0.259419
241.612991 -502.810822 0.000126 0.259804
239.993271 -502.277283 4.426760 0.053676
239.993271 -502.277283 4.092445 0.039706
239.993271 -502.277283 3.762823 0.039583
239.993271 -502.277283 3.437105 0.052941
239.993271 -502.277283 3.114534 0.076838
239.993271 -502.277283 2.794385 0.107353
233.932419 -500.498199 2.786262 0.000000
171.780594 -482.254425 3.321858 1.000000
171.780594 -482.254425 0.678141 1.000000
210.230988 -493.541016 0.000235 0.225298
225.887939 -498.136871 0.000246 0.219627
232.609055 -500.109741 0.000138 0.234621
236.353760 -501.208954 0.000247 0.230008
238.743835 -501.910553 0.000243 0.221646
240.404480 -502.397980 0.000115 0.229719
241.628784 -502.757355 0.000202 0.256632
239.940216 -502.190674 4.445682 0.047794
239.940201 -502.190674 4.108761 0.046201
239.940216 -502.190674 3.776567 0.031373
239.940201 -502.190674 3.448310 0.037745
239.940231 -502.190674 3.123224 0.058946
239.940216 -502.190674 2.800578 0.089828
233.964264 -500.391113 2.786263 0.000000
171.320251 -481.526886 3.332471 1.000000
171.320251 -481.526886 0.667527 1.000000
210.311234 -493.268372 0.000196 0.225298
225.935989 -497.973541 0.000206 0.233564
232.643326 -499.993347 0.000102 0.217897
236.380219 -501.118622 0.000189 0.218858
238.765518 -501.836914 0.000207 0.222991
240.422729 -502.335968 0.000077 0.181661
241.644547 -502.703918 0.000165 0.271626
239.886307 -502.102692 4.465026 0.037745
239.886322 -502.102692 4.125437 0.048652
239.886322 -502.102692 3.790618 0.040196
239.886322 -502.102692 3.459763 0.039828
239.886322 -502.102692 3.132108 0.045833
239.886307 -502.102692 2.806911 0.069608
233.996841 -500.284241 2.786263 0.000000
170.852417 -480.787476 3.343323 1.000000
170.852417 -480.787476 0.656676 1.000000
210.395340 -492.996948 0.000258 0.226067
225.986420 -497.810883 0.000271 0.231546
232.679291 -499.877441 0.000167 0.246828
236.408188 -501.028778 0.000273 0.211745
238.787704 -501.763489 0.000173 0.239235
240.441940 -502.274231 0.000159 0.227989
241.661087 -502.650665 0.000239 0.267013
239.831528 -502.013306 4.484800 0.043505
239.831558 -502.013306 4.142487 0.038358
239.831528 -502.013306 3.804983 0.030882
239.831558 -502.013306 3.471473 0.041912
239.831558 -502.013306 3.141189 0.051838
239.831558 -502.013306 2.813383 0.081863
234.030182 -500.177612 2.786263 0.000000
170.376907 -480.035919 3.354420 1.000000
170.376877 -480.035889 0.645580 1.000000
210.478943 -492.725311 0.000198 0.223952
226.036499 -497.648163 0.000209 0.239043
232.715164 -499.761475 0.000128 0.216263
236.436005 -500.938843 0.000232 0.211553
238.810379 -501.690186 0.000128 0.265379
240.461044 -502.212524 0.000117 0.219050
241.677582 -502.597443 0.000206 0.186178
239.775894 -501.922485 4.505013 0.058333
239.775894 -501.922485 4.159918 0.025123
239.775894 -501.922455 3.819668 0.011029
239.775894 -501.922485 3.483445 0.021078
239.775894 -501.922485 3.150474 0.057721
239.775894 -501.922455 2.820001 0.095956
234.064270 -500.071198 2.786262 0.000000
169.893463 -479.271790 3.365770 1.000000
169.893417 -479.271790 0.634231 1.000000
210.565277 -492.454559 0.000180 0.226163
226.088455 -497.486023 0.000211 0.229143
232.752045 -499.645874 0.000112 0.234333
236.464600 -500.849213 0.000214 0.206171
238.833710 -501.617065 0.000115 0.205306
240.480804 -502.150940 0.000125 0.230873
241.694260 -502.544250 0.000120 0.225298
239.719345 -501.830139 4.525681 0.043627
239.719345 -501.830139 4.177739 0.015441
239.719345 -501.830139 3.834679 0.006985
239.719345 -501.830139 3.495685 0.009559
239.719345 -501.830139 3.159966 0.046446
239.719345 -501.830139 2.826766 0.082230
234.099106 -499.965027 2.786262 0.000000
169.401779 -478.494690 3.377376 1.000000
169.401779 -478.494690 0.622623 1.000000
210.654938 -492.184875 0.000237 0.229623
226.142212 -497.324463 0.000271 0.227413
232.790497 -499.530762 0.000188 0.218281
236.493866 -500.759735 0.000203 0.271050
238.858017 -501.544281 0.000193 0.230104
240.501312 -502.089630 0.000207 0.234910
241.711487 -502.491241 0.000087 0.187428
239.661850 -501.736267 4.546822 0.028554
239.661835 -501.736267 4.195967 0.012868
239.661850 -501.736267 3.850034 0.004044
239.661850 -501.736267 3.508204 0.016176
239.661850 -501.736267 3.169675 0.028309
239.661819 -501.736267 2.833686 0.068505
234.134674 -499.859100 2.786262 0.000000
nan nan nan 0.000000
nan nan nan 0.000000
210.744675 -491.915253 0.000199 0.230200
226.195724 -497.162811 0.000213 0.234525
232.828690 -499.415558 0.000135 0.226932
236.522873 -500.670166 0.000053 0.240965
238.882278 -501.471497 0.000161 0.207132
240.521729 -502.028320 0.000172 0.241638
241.729095 -502.438354 0.000051 0.261918
239.603348 -501.640808 4.568446 0.006005
239.603363 -501.640808 4.214608 0.017525
239.603348 -501.640808 3.865743 0.010417
239.603348 -501.640808 3.521009 0.015564
239.603348 -501.640808 3.179606 0.025123
239.603348 -501.640808 2.840765 0.060662
234.170959 -499.753418 2.786262 0.000000
nan nan nan 0.000000
nan nan nan 0.000000
210.838928 -491.647125 0.000299 0.225202
226.251099 -497.001831 0.000218 0.221453
232.869095 -499.301117 0.000254 0.241061
236.554062 -500.581360 0.000149 0.233564
238.907791 -501.399139 0.000271 0.219531
240.542770 -501.967194 0.000181 0.219531
241.747726 -502.385834 0.000185 0.237120
239.543884 -501.543701 4.590565 0.016912
239.543884 -501.543701 4.233680 0.026348
239.543884 -501.543701 3.881810 0.017892
239.543884 -501.543701 3.534107 0.006985
239.543884 -501.543701 3.189764 0.036397
239.543884 -501.543701 2.848004 0.045833
234.207993 -499.647980 2.786263 0.000000
nan nan nan 0.000000
nan nan nan 0.000000
210.932007 -491.378662 0.000241 0.224145
226.306931 -496.840973 0.000164 0.227701
232.908844 -499.186462 0.000196 0.225682
236.585083 -500.492523 0.000120 0.224817
238.932922 -501.326660 0.000216 0.248750
240.564041 -501.906158 0.000147 0.258843
241.766098 -502.333221 0.000162 0.273645
239.483353 -501.444916 4.613195 0.030637
239.483353 -501.444916 4.253197 0.034191
239.483353 -501.444916 3.898252 0.023897
239.483353 -501.444916 3.547511 0.005637
239.483353 -501.444916 3.200160 0.031495
239.483368 -501.444916 2.855413 0.035294
234.245758 -499.542847 2.786263 0.000000
nan nan nan 0.000000
nan nan nan 0.000000
211.027725 -491.111053 0.000222 0.229335
226.364288 -496.680634 0.000146 0.225010
232.949890 -499.072235 0.000197 0.222318
236.616776 -500.403870 0.000099 0.266244
238.958908 -501.254456 0.000225 0.272011
240.585815 -501.845276 0.000127 0.221357
241.784851 -502.280731 0.000137 0.227316
239.421768 -501.344360 4.636359 0.050245
239.421768 -501.344360 4.273170 0.030515
239.421738 -501.344360 3.915079 0.014951
239.421753 -501.344360 3.561229 0.013603
239.421738 -501.344360 3.210798 0.029167
239.421768 -501.344360 2.862995 0.051716
234.284271 -499.437958 2.786263 0.000000
nan nan nan 0.000000
nan nan nan 0.000000
211.126724 -490.844666 0.000278 0.225875
226.423813 -496.521118 0.000220 0.214245
232.992188 -498.958496 0.000255 0.230488
236.649704 -500.315704 0.000179 0.200596
238.985718 -501.182556 0.000295 0.243945
240.608414 -501.784729 0.000203 0.211073
241.804321 -502.228485 0.000208 0.187909
239.359070 -501.242004 4.660069 0.085539
239.359055 -501.242035 4.293612 0.025490
239.359055 -501.242035 3.932301 0.003922
239.359070 -501.242004 3.575266 0.017034
239.359070 -501.242004 3.221684 0.019853
239.359070 -501.242004 2.870756 0.055025
234.323532 -499.333344 2.786262 0.000000
nan nan nan 0.000000
nan nan nan 0.000000
211.226639 -490.578644 0.000284 0.223472
226.483414 -496.361633 0.000204 0.216744
233.034622 -498.844788 0.000233 0.226355
236.682770 -500.227600 0.000181 0.236448
239.012558 -501.110687 0.000275 0.250384
240.631088 -501.724182 0.000194 0.223183
241.823914 -502.176331 0.000210 0.301615
239.295212 -501.137817 4.684340 0.089583
239.295212 -501.137817 4.314540 0.039216
239.295227 -501.137817 3.949929 0.007598
239.295227 -501.137817 3.589639 0.016054
239.295227 -501.137817 3.232831 0.019608
239.295227 -501.137817 2.878701 0.037010
234.363495 -499.229004 2.786262 0.000000
nan nan nan 0.000000
nan nan nan 0.000000
211.328003 -490.313171 0.000269 0.227028
226.544159 -496.202545 0.000189 0.230681
233.078125 -498.731506 0.000244 0.205978
236.716370 -500.139679 0.000170 0.249423
239.039047 -501.038666 0.000090 0.234237
240.654282 -501.663849 0.000213 0.295752
241.843491 -502.124115 0.000115 0.194060
239.230194 -501.031677 4.709190 0.102941
239.230209 -501.031708 4.335963 0.039461
239.230194 -501.031708 3.967980 0.007475
239.230194 -501.031708 3.604356 0.019853
239.230194 -501.031708 3.244245 0.026716
239.230194 -501.031708 2.886836 0.042279
234.404190 -499.124939 2.786262 0.000000
195.581818 -483.786346 2.944973 0.523897
195.537079 -483.768677 1.054240 0.495588
211.431168 -490.048370 0.000252 0.227509
226.606201 -496.043976 0.000192 0.224625
233.122162 -498.618439 0.000227 0.231353
236.750641 -500.052032 0.000169 0.232122
239.067047 -500.967224 0.000098 0.231930
240.677826 -501.603638 0.000212 0.208670
241.863800 -502.072235 0.000116 0.205882
239.163971 -500.923584 4.734637 0.099020
239.163971 -500.923584 4.357907 0.038971
239.163956 -500.923584 3.986468 0.013603
239.163956 -500.923584 3.619427 0.017157
239.163956 -500.923584 3.255933 0.020588
239.163956 -500.923584 2.895166 0.063480
234.445602 -499.021179 2.786262 0.000000
195.995453 -483.518433 2.940312 0.590319
195.951309 -483.500641 1.058909 0.577083
211.536148 -489.784302 0.000233 0.228085
226.669144 -495.885773 0.000176 0.237409
233.166321 -498.505371 0.000123 0.219531
236.785431 -499.964569 0.000154 0.288927
239.095428 -500.895935 0.000087 0.239331
240.701706 -501.543579 0.000191 0.228374
241.884476 -502.020447 0.000119 0.204921
239.096481 -500.813385 4.760700 0.103431
239.096481 -500.813385 4.380381 0.046936
239.096481 -500.813385 4.005400 0.020833
239.096481 -500.813416 3.634861 0.002328
239.096481 -500.813385 3.267903 0.001225
239.096481 -500.813385 2.903697 0.061642
234.487732 -498.917694 2.786262 0.000000
196.405075 -483.253143 2.935741 0.541299
196.361481 -483.235199 1.063488 0.571691
211.643021 -489.520966 0.000216 0.224721
226.733170 -495.727997 0.000160 0.227028
233.211975 -498.392914 0.000107 0.248078
236.820953 -499.877411 0.000157 0.209246
239.124359 -500.824860 0.000083 0.232507
240.726105 -501.483734 0.000196 0.221357
241.905533 -501.968842 0.000128 0.212322
239.027679 -500.701111 4.787407 0.132108
239.027679 -500.701111 4.403408 0.026961
239.027679 -500.701111 4.024800 0.017157
239.027679 -500.701111 3.650676 0.017770
239.027679 -500.701111 3.280168 0.007108
239.027679 -500.701111 2.912440 0.035172
234.530624 -498.814514 2.786262 0.000000
196.810776 -482.990417 2.931259 0.525368
196.767700 -482.972351 1.067976 0.486520
211.751740 -489.258423 0.000200 0.228662
226.798553 -495.570801 0.000166 0.227605
233.258423 -498.280792 0.000093 0.206555
236.856964 -499.790466 0.000142 0.276336
239.153809 -500.754028 0.000088 0.221742
240.750504 -501.423828 0.000101 0.205786
241.926910 -501.917358 0.000129 0.221934
238.957535 -500.586609 4.814775 0.126471
238.957535 -500.586609 4.427006 0.007230
238.957535 -500.586609 4.044681 0.018505
238.957535 -500.586609 3.666883 0.002083
238.957535 -500.586609 3.292737 0.008088
238.957535 -500.586609 2.921398 0.036152
234.574188 -498.711609 2.786262 0.000000
197.212616 -482.730194 2.926866 0.591789
197.170074 -482.711975 1.072377 0.584191
211.864578 -488.997589 0.000305 0.230488
226.865967 -495.414429 0.000253 0.223760
233.306580 -498.169403 0.000197 0.261630
236.894318 -499.704041 0.000245 0.227797
239.184204 -500.683533 0.000179 0.227413
240.776138 -501.364502 0.000203 0.223087
241.949036 -501.866211 0.000232 0.221165
238.885986 -500.469818 4.842826 0.146936
238.885986 -500.469818 4.451192 0.019975
238.885986 -500.469818 4.065056 0.029534
238.885986 -500.469818 3.683495 0.006127
238.885986 -500.469818 3.305620 0.015074
238.885986 -500.469818 2.930580 0.041299
234.618500 -498.609039 2.786262 0.000000
197.610672 -482.472382 2.922559 0.545466
197.568680 -482.454071 1.076691 0.552083
211.976959 -488.736572 0.000291 0.224529
226.933334 -495.258026 0.000241 0.232699
233.354614 -498.057953 0.000185 0.230777
236.931595 -499.617615 0.000237 0.226932
239.214630 -500.613129 0.000179 0.241542
240.801727 -501.305145 0.000192 0.209823
241.971130 -501.815033 0.000229 0.192618
238.813019 -500.350677 4.871577 0.151471
238.813019 -500.350677 4.475983 0.043873
238.813019 -500.350677 4.085942 0.036152
238.813004 -500.350677 3.700524 0.038235
238.813004 -500.350677 3.318826 0.030147
238.813004 -500.350677 2.939993 0.057108
234.663513 -498.506775 2.786262 0.000000
198.005096 -482.216949 2.918334 0.534436
197.963593 -482.198517 1.080921 0.524755
212.091156 -488.476349 0.000274 0.225586
227.001740 -495.102112 0.000224 0.229239
233.403488 -497.946869 0.000184 0.219531
236.968903 -499.531219 0.000137 0.209535
239.245575 -500.542908 0.000188 0.226355
240.827469 -501.245850 0.000120 0.193099
241.993561 -501.764008 0.000224 0.260092
238.738541 -500.229126 4.901063 0.159191
238.738541 -500.229126 4.501406 0.033333
238.738541 -500.229126 4.107360 0.043015
238.738541 -500.229126 3.717981 0.055882
238.738525 -500.229126 3.332368 0.030147
238.738525 -500.229126 2.949646 0.068627
234.709229 -498.404816 2.786262 0.000000
198.395935 -481.963837 2.914195 0.611274
198.354935 -481.945282 1.085068 0.583088
212.207138 -488.216919 0.000257 0.228085
227.071396 -494.946747 0.000221 0.234814
233.453049 -497.836090 0.000169 0.229335
237.007324 -499.445313 0.000123 0.235102
239.276932 -500.472870 0.000177 0.247309
240.853943 -501.186859 0.000123 0.241926
242.016037 -501.713013 0.000132 0.218185
238.662506 -500.105011 4.931305 0.220466
238.662506 -500.105011 4.527482 0.033211
238.662506 -500.105011 4.129328 0.022549
238.662506 -500.105011 3.735890 0.033456
238.662506 -500.105011 3.346255 0.039706
238.662506 -500.104980 2.959545 0.055392
234.755676 -498.303192 2.786262 0.000000
198.783310 -481.713013 2.910136 0.537990
198.742783 -481.694305 1.089135 0.559804
212.325592 -487.958618 0.000275 0.227220
227.142380 -494.792023 0.000240 0.219723
233.503632 -497.725769 0.000188 0.214245
237.046661 -499.359802 0.000159 0.218762
239.308960 -500.403168 0.000203 0.222222
240.880859 -501.128113 0.000135 0.202999
242.039307 -501.662354 0.000158 0.248943
238.584869 -499.978271 4.962330 0.258946
238.584869 -499.978271 4.554234 0.030760
238.584869 -499.978271 4.151866 0.018505
238.584869 -499.978271 3.754264 0.026838
238.584869 -499.978271 3.360504 0.031495
238.584869 -499.978271 2.969701 0.071446
234.802826 -498.201904 2.786262 0.000000
199.167267 -481.464355 2.906157 0.575613
199.127243 -481.445557 1.093120 0.567157
212.445190 -487.700806 0.000258 0.223952
227.214050 -494.637543 0.000226 0.225682
233.554886 -497.615753 0.000193 0.226740
237.086304 -499.274414 0.000144 0.235775
239.341263 -500.333557 0.000190 0.228374
240.908188 -501.069519 0.000145 0.235102
242.062851 -501.611847 0.000166 0.225394
238.505569 -499.848846 4.994165 0.241299
238.505569 -499.848846 4.581682 0.021814
238.505569 -499.848846 4.174990 0.016667
238.505585 -499.848846 3.773115 0.010294
238.505600 -499.848877 3.375124 0.014951
238.505569 -499.848846 2.980121 0.060049
234.850693 -498.100922 2.786262 0.000000
199.547882 -481.217834 2.902256 0.545343
199.508331 -481.198944 1.097028 0.572672
212.566437 -487.443817 0.000233 0.225971
227.287231 -494.483826 0.000248 0.232218
233.607040 -497.506165 0.000216 0.226259
237.126709 -499.189423 0.000163 0.272203
239.373840 -500.264099 0.000132 0.257593
240.936005 -501.011169 0.000180 0.208381
242.086792 -501.561493 0.000184 0.192234
238.424545 -499.716583 5.026844 0.242034
238.424545 -499.716583 4.609859 0.033701
238.424545 -499.716583 4.198727 0.008088
238.424545 -499.716583 3.792466 0.000000
238.424545 -499.716614 3.390131 0.002451
238.424545 -499.716583 2.990819 0.030270
234.899246 -498.000305 2.786261 0.000000
199.925262 -480.973480 2.898432 0.522549
199.886200 -480.954437 1.100857 0.508333
212.689651 -487.187714 0.000217 0.227797
227.361206 -494.330475 0.000246 0.215590
233.659653 -497.396820 0.000200 0.220204
237.167694 -499.104675 0.000173 0.242215
239.407150 -500.194946 0.000124 0.207997
240.964050 -500.952911 0.000167 0.237889
242.111023 -501.511322 0.000191 0.216071
238.341721 -499.581421 5.060391 0.235049
238.341736 -499.581421 4.638785 0.028186
238.341736 -499.581421 4.223097 0.003309
238.341751 -499.581390 3.812334 0.000000
238.341751 -499.581390 3.405540 0.000000
238.341721 -499.581421 3.001800 0.006250
234.948502 -497.900024 2.786262 0.000000
200.299469 -480.731110 2.894684 0.603922
200.260864 -480.711975 1.104611 0.582966
212.815247 -486.932770 0.000233 0.225394
227.436432 -494.177704 0.000262 0.220396
233.713394 -497.287994 0.000230 0.234525
237.209274 -499.020264 0.000189 0.210880
239.441147 -500.126160 0.000157 0.219243
240.992691 -500.894989 0.000199 0.279412
242.135468 -501.461212 0.000155 0.219050
238.257065 -499.443176 5.094840 0.244730
238.257065 -499.443176 4.668488 0.061887
238.257050 -499.443146 4.248126 0.001103
238.257065 -499.443176 3.832736 0.005025
238.257065 -499.443176 3.421362 0.000000
238.257065 -499.443176 3.013076 0.004657
234.998459 -497.800079 2.786262 0.000000
200.670593 -480.490753 2.891009 0.541176
200.632431 -480.471527 1.108290 0.558578
212.942001 -486.678436 0.000218 0.224529
227.512390 -494.025360 0.000246 0.223856
233.767532 -497.179382 0.000214 0.250192
237.251328 -498.936035 0.000185 0.259804
239.475372 -500.057495 0.000143 0.215110
241.021210 -500.836945 0.000109 0.241446
242.160400 -501.411377 0.000157 0.263745
238.170456 -499.301788 5.130234 0.290196
238.170456 -499.301819 4.699004 0.071936
238.170456 -499.301788 4.273834 0.000613
238.170456 -499.301788 3.853696 0.000735
238.170456 -499.301788 3.437618 0.001961
238.170456 -499.301819 3.024661 0.005270
235.049103 -497.700500 2.786262 0.000000
201.038696 -480.252380 2.887410 0.585784
201.000977 -480.233032 1.111897 0.565564
213.069534 -486.424469 0.000145 0.227316
227.588776 -493.873169 0.000171 0.226644
233.822006 -497.070953 0.000143 0.222607
237.293564 -498.851929 0.000113 0.228758
239.509872 -499.988953 0.000086 0.239523
241.050201 -500.779175 0.000036 0.257017
242.185394 -501.361572 0.000080 0.285179
238.081863 -499.157135 5.166595 0.301593
238.081863 -499.157135 4.730356 0.082843
238.081863 -499.157135 4.300244 0.032353
238.081848 -499.157166 3.875229 0.016789
238.081863 -499.157135 3.454317 0.012868
238.081863 -499.157166 3.036564 0.010784
235.100464 -497.601227 2.786262 0.000000
201.403870 -480.015930 2.883881 0.244975
200.720612 -479.659332 1.103508 1.000000
213.201462 -486.172760 0.000219 0.228854
227.667786 -493.722351 0.000243 0.218474
233.878433 -496.963501 0.000229 0.243849
237.337341 -498.768616 0.000201 0.219819
239.545517 -499.921021 0.000163 0.228758
241.080322 -500.721954 0.000132 0.241253
242.211319 -501.312225 0.000165 0.238274
237.991119 -499.009064 5.203982 0.327696
237.991119 -499.009064 4.762594 0.266299
237.991150 -499.009094 4.327401 0.163480
237.991119 -499.009064 3.897368 0.106618
237.991119 -499.009064 3.471488 0.102696
237.991119 -499.009094 3.048802 0.116422
235.152512 -497.502380 2.786261 0.000000
201.766159 -479.781311 2.880421 0.534436
201.729309 -479.761719 1.118895 0.499877
213.332642 -485.920654 0.000154 0.223568
227.746552 -493.571381 0.000192 0.223760
233.934464 -496.855835 0.000164 0.241446
237.380814 -498.685120 0.000140 0.216936
239.580978 -499.852966 0.000108 0.216744
241.110168 -500.664642 0.000069 0.246059
242.236847 -501.262665 0.000046 0.203672
237.898239 -498.857452 5.242414 0.305760
237.898254 -498.857452 4.795732 0.308456
237.898254 -498.857483 4.355319 0.220466
237.898239 -498.857452 3.920128 0.203676
237.898254 -498.857452 3.489138 0.163603
237.898254 -498.857483 3.061383 0.211642
235.205231 -497.403870 2.786262 0.000000
202.125641 -479.548492 2.877034 0.615564
202.089203 -479.528839 1.122288 0.592770
213.467026 -485.670227 0.000168 0.224817
227.827042 -493.421356 0.000205 0.222414
233.991837 -496.748901 0.000179 0.238081
237.425323 -498.602203 0.000153 0.229623
239.617310 -499.785370 0.000129 0.220780
241.140823 -500.607697 0.000103 0.216455
242.263229 -501.213562 0.000064 0.218378
237.803116 -498.702148 5.281943 0.289216
237.803116 -498.702179 4.829814 0.126471
237.803116 -498.702179 4.384033 0.105025
237.803116 -498.702148 3.943535 0.093382
237.803116 -498.702179 3.507292 0.076961
237.803116 -498.702179 3.074322 0.079167
235.258652 -497.305725 2.786261 0.000000
202.482391 -479.317505 2.873714 0.543137
202.446365 -479.297729 1.125614 0.567524
213.601929 -485.420105 0.000115 0.228085
227.908585 -493.271851 0.000218 0.221838
234.049957 -496.642395 0.000192 0.247597
237.470459 -498.519623 0.000180 0.206555
239.654099 -499.718018 0.000151 0.222703
241.171783 -500.550964 0.000117 0.266244
242.289963 -501.164673 0.000094 0.284602
237.705627 -498.543030 5.322611 0.303799
237.705627 -498.543030 4.864880 0.189093
237.705627 -498.543030 4.413575 0.042647
237.705627 -498.543060 3.967616 0.057721
237.705627 -498.543030 3.525970 0.040074
237.705627 -498.543060 3.087635 0.010172
235.312744 -497.207977 2.786261 0.000000
202.836472 -479.088196 2.870462 0.590809
202.800858 -479.068329 1.128872 0.585049
213.739319 -485.171295 0.000102 0.227509
227.990860 -493.122803 0.000204 0.231353
234.108780 -496.536194 0.000198 0.224914
237.515945 -498.437225 0.000165 0.230584
239.691208 -499.650879 0.000142 0.268743
241.203079 -500.494385 0.000117 0.220012
242.316895 -501.115845 0.000080 0.241349
237.605682 -498.379913 5.364460 0.284559
237.605682 -498.379883 4.900968 0.201103
237.605682 -498.379883 4.443979 0.050123
