# This PCD file was generated using the MATLABÂ® pcwrite function
# from Computer Vision ToolboxÂ®.
# .PCD v.7 - Point Cloud Data file format
VERSION .7
FIELDS x y z intensity
SIZE 4 4 4 4
TYPE F F F F
COUNT 1 1 1 1
WIDTH 1243
HEIGHT 1
VIEWPOINT 0 0 0 1 0 0 0
POINTS 1243
DATA ascii
213.857437 -417.336365 1.543038 0.677574
213.858032 -417.336548 0.628106 0.630882
210.530106 -416.154266 -0.000182 0.239139
203.926544 -413.808228 -0.000092 0.215879
200.250259 -412.502197 -0.000245 0.207036
197.901581 -411.667786 -0.000074 0.186082
196.270493 -411.088287 -0.000205 0.253749
195.029892 -410.647552 0.009999 1.000000
214.029099 -417.606110 9.058142 0.690809
214.023941 -417.604218 8.084611 0.578554
214.018860 -417.602386 7.125120 0.601348
214.013824 -417.600555 6.177353 0.611274
214.008820 -417.598724 5.239100 0.549265
214.003876 -417.596954 4.308237 0.566054
213.998932 -417.595154 3.382704 0.624265
213.994034 -417.593353 2.460487 0.660417
213.989136 -417.591583 1.539599 0.580637
213.984222 -417.589783 0.618065 0.572426
210.472717 -416.314606 -0.000198 0.234429
203.885300 -413.922363 -0.000066 0.221742
200.218582 -412.590851 -0.000267 0.203095
197.876465 -411.740265 -0.000230 0.209054
196.248688 -411.149170 -0.000215 0.250384
195.011139 -410.699768 0.009999 1.000000
214.206558 -417.881775 9.123663 0.723897
214.201279 -417.879822 8.141075 0.656740
214.196075 -417.877899 7.172666 0.524755
214.190994 -417.876007 6.216102 0.564338
214.185913 -417.874115 5.269141 0.576348
214.180878 -417.872253 4.329641 0.515074
214.175873 -417.870392 3.395524 0.571569
214.170883 -417.868530 2.464756 0.602451
214.165909 -417.866699 1.535332 0.609559
214.160919 -417.864807 0.605260 0.639583
210.411850 -416.473663 -0.000008 0.225490
203.842728 -414.036072 0.000026 0.224721
200.186020 -412.679138 -0.000247 0.220396
197.849899 -411.812286 -0.000208 0.199923
196.225616 -411.209564 -0.000031 0.211745
194.992035 -410.751801 0.009999 1.000000
214.387283 -418.162598 9.190755 0.561152
214.381958 -418.160583 8.198908 0.572794
214.376678 -418.158569 7.221370 0.616054
214.371460 -418.156586 6.255787 0.566667
214.366318 -418.154633 5.299905 0.570711
214.361221 -418.152740 4.351563 0.566544
214.356125 -418.150787 3.408652 0.592525
214.351059 -418.148865 2.469126 0.573529
214.345993 -418.146942 1.530962 0.499020
214.340912 -418.145020 0.592146 0.582843
210.352982 -416.633453 -0.000090 0.225971
203.800797 -414.149963 -0.000060 0.245290
200.151642 -412.766785 -0.000037 0.240677
197.823395 -411.884308 -0.000294 0.213572
196.203568 -411.270355 -0.000185 0.251634
194.972549 -410.803741 0.009999 1.000000
214.571472 -418.448792 9.259483 0.540441
214.566040 -418.446686 8.258141 0.678799
214.560699 -418.444611 7.271255 0.545956
214.555420 -418.442566 6.296442 0.503554
214.550186 -418.440552 5.331424 0.594240
214.544968 -418.438538 4.374015 0.637868
214.539810 -418.436523 3.422100 0.597549
214.534668 -418.434540 2.473605 0.608946
214.529526 -418.432556 1.526485 0.489828
214.524353 -418.430542 0.578714 0.440564
210.292236 -416.792542 -0.000104 0.216936
203.758102 -414.263580 -0.000148 0.207132
200.118103 -412.854767 -0.000059 0.232795
197.795547 -411.955841 -0.000221 0.271146
196.180130 -411.330627 -0.000114 0.248654
194.989944 -410.869965 -0.000001 0.342279
214.759247 -418.740540 9.329899 0.564951
214.753723 -418.738342 8.318830 0.510172
214.748260 -418.736206 7.322361 0.557966
214.742905 -418.734039 6.338089 0.575980
214.737579 -418.731964 5.363711 0.572181
214.732315 -418.729889 4.397022 0.511397
214.727051 -418.727783 3.435879 0.555882
214.721802 -418.725739 2.478192 0.611029
214.716583 -418.723663 1.521900 0.507843
214.711319 -418.721588 0.564952 0.573897
210.231277 -416.951569 -0.000198 0.236928
203.714035 -414.376678 -0.000165 0.253556
200.084335 -412.942596 -0.000141 0.217224
197.768021 -412.027466 -0.000302 0.218762
196.156952 -411.390961 -0.000196 0.195502
194.969650 -410.921875 -0.000001 0.331740
214.950699 -419.037964 9.402060 0.632475
214.945068 -419.035706 8.381025 0.562500
214.939514 -419.033478 7.374737 0.628064
214.934067 -419.031281 6.380769 0.755392
214.928680 -419.029083 5.396801 0.680147
214.923325 -419.026917 4.420597 0.592770
214.917969 -419.024780 3.449998 0.661887
214.912643 -419.022644 2.482893 0.756005
214.907318 -419.020508 1.517200 0.687132
214.901962 -419.018341 0.550850 0.684191
210.168274 -417.109802 -0.000210 0.219435
203.669815 -414.489716 -0.000261 0.222126
200.049576 -413.030121 -0.000163 0.221646
197.739685 -412.098816 -0.000324 0.203960
196.133026 -411.451019 -0.000207 0.255863
194.948990 -410.973633 -0.000001 0.341422
215.145966 -419.341370 9.476024 0.542647
215.140244 -419.339020 8.444773 0.648039
215.134598 -419.336700 7.428420 0.549265
215.129044 -419.334412 6.424515 0.517279
215.123566 -419.332153 5.430714 0.509926
215.118118 -419.329926 4.444758 0.661642
215.112686 -419.327667 3.464469 0.595343
215.107254 -419.325470 2.487712 0.531250
215.101837 -419.323212 1.512384 0.467892
215.096390 -419.320984 0.536395 0.585294
210.102234 -417.266785 -0.000048 0.219819
203.622681 -414.601593 -0.000093 0.232795
200.012390 -413.116608 0.000105 0.249904
197.709427 -412.169342 -0.000066 0.195310
196.107574 -411.510468 0.000042 0.208285
194.927963 -411.025269 -0.000001 0.336520
215.345200 -419.650909 9.551851 0.235539
215.339355 -419.648468 8.510126 0.627083
215.333633 -419.646057 7.483456 0.629167
215.327957 -419.643677 6.469363 0.349265
215.322357 -419.641327 5.465479 0.234681
215.316833 -419.639008 4.469529 0.599632
215.311310 -419.636688 3.479305 0.545466
215.305817 -419.634369 2.492651 0.362010
215.300293 -419.632050 1.507446 0.217279
215.294754 -419.629730 0.521577 0.560294
210.037903 -417.424469 -0.000138 0.227989
203.576202 -414.713745 -0.000105 0.244521
199.976379 -413.203552 0.000088 0.214725
197.680420 -412.240387 -0.000151 0.205978
196.083450 -411.570465 -0.000117 0.237697
194.906570 -411.076752 -0.000001 0.333456
215.548523 -419.966797 9.629611 0.226716
215.542572 -419.964233 8.577147 0.509069
215.536728 -419.961731 7.539893 0.578309
215.530960 -419.959290 6.515352 0.351225
215.525269 -419.956848 5.501132 0.271814
215.519653 -419.954437 4.494930 0.591054
215.514038 -419.952057 3.494518 0.523897
215.508423 -419.949646 2.497717 0.374020
215.502823 -419.947266 1.502383 0.320221
215.497177 -419.944855 0.506382 0.564338
209.971649 -417.581329 -0.000153 0.222703
203.528229 -414.825226 -0.000026 0.228085
199.940643 -413.290649 -0.000068 0.193868
197.650604 -412.311096 -0.000175 0.215782
196.058624 -411.630157 -0.000210 0.202903
194.884842 -411.128052 -0.000001 0.322181
215.756073 -420.289276 9.709372 0.692279
215.750046 -420.286652 8.645887 0.559191
215.744095 -420.284027 7.597782 0.575858
215.738220 -420.281464 6.562525 0.516667
215.732407 -420.278961 5.537700 0.600000
215.726669 -420.276428 4.520982 0.625735
215.720947 -420.273956 3.510119 0.461029
215.715240 -420.271484 2.502912 0.529289
215.709564 -420.268982 1.497189 0.488113
215.703812 -420.266479 0.490797 1.000000
209.904266 -417.737732 -0.000166 0.227605
203.480179 -414.936646 -0.000035 0.221069
199.903442 -413.377106 -0.000086 0.220588
197.619705 -412.381348 -0.000081 0.205978
196.033005 -411.689484 -0.000215 0.255671
194.862732 -411.179230 -0.000001 0.338358
215.968048 -420.618591 9.791199 0.520711
215.961914 -420.615875 8.716417 0.579779
215.955841 -420.613190 7.657174 0.598039
215.949860 -420.610504 6.610923 0.644118
215.943924 -420.607880 5.575216 0.580760
215.938080 -420.605286 4.547709 0.498407
215.932251 -420.602692 3.526128 0.608088
215.926453 -420.600098 2.508241 0.561887
215.920670 -420.597534 1.491862 0.546446
215.914825 -420.594940 0.474809 1.000000
209.835800 -417.893646 -0.000177 0.223568
203.432037 -415.048065 -0.000129 0.215975
199.864960 -413.463043 0.000003 0.244617
197.588211 -412.451324 0.000036 0.222030
196.006592 -411.748535 -0.000130 0.296521
194.840286 -411.230255 -0.000001 0.345711
216.184555 -420.954987 9.875168 0.555882
216.178299 -420.952148 8.788783 0.555025
216.172134 -420.949341 7.718118 0.581250
216.166046 -420.946594 6.660586 0.596814
216.160019 -420.943878 5.613718 0.589461
216.154037 -420.941162 4.575140 0.610662
216.148087 -420.938477 3.542554 0.596201
216.142197 -420.935791 2.513711 0.521078
216.136292 -420.933136 1.486395 0.556005
216.130371 -420.930450 0.458402 1.000000
209.765991 -418.049011 -0.000168 0.224145
203.383057 -415.159149 -0.000217 0.223087
199.826996 -413.549164 -0.000087 0.219435
197.557266 -412.521545 -0.000058 0.194156
195.979599 -411.807251 -0.000002 0.339583
194.817459 -411.281128 -0.000001 0.329657
216.405807 -421.298706 9.961359 0.556740
216.399414 -421.295776 8.863067 0.653922
216.393143 -421.292877 7.780672 0.607598
216.386948 -421.290039 6.711561 0.565686
216.380798 -421.287201 5.653234 0.598652
216.374741 -421.284393 4.603294 0.657230
216.368668 -421.281586 3.559416 0.591422
216.362625 -421.278809 2.519325 0.614093
216.356613 -421.276031 1.480783 0.639706
216.350616 -421.273285 0.441561 1.000000
209.694473 -418.203552 -0.000103 0.229912
203.332123 -415.269348 -0.000156 0.259612
199.788025 -413.634827 -0.000110 0.241734
197.525467 -412.591400 -0.000075 0.246540
195.952744 -411.866058 -0.000002 0.335907
194.794296 -411.331818 -0.000002 0.328186
216.631958 -421.650085 10.049855 0.553431
216.625443 -421.647034 8.939338 0.607598
216.619049 -421.644012 7.844901 0.618873
216.612732 -421.641052 6.763898 0.586765
216.606476 -421.638092 5.693807 0.599020
216.600281 -421.635193 4.632199 0.574755
216.594116 -421.632294 3.576727 0.549632
216.587967 -421.629425 2.525090 0.541789
216.581833 -421.626556 1.475021 0.595711
216.575729 -421.623657 0.424271 1.000000
209.622772 -418.358002 -0.000116 0.235679
203.280197 -415.379059 -0.000066 0.221261
199.748337 -413.720215 -0.000118 0.204344
197.493118 -412.660980 -0.000083 0.252211
195.925461 -411.924683 -0.000002 0.331863
194.770782 -411.382355 -0.000001 0.333824
216.863220 -422.009338 10.140746 0.555392
216.856583 -422.006195 9.017673 0.523897
216.850052 -422.003082 7.910865 0.562500
216.843628 -422.000000 6.817652 0.546936
216.837280 -421.996948 5.735481 0.549387
216.830994 -421.993958 4.661891 0.554657
216.824677 -421.990936 3.594508 0.492647
216.818375 -421.987915 2.531009 0.514338
216.812134 -421.984955 1.469105 0.524142
216.805908 -421.981964 0.406514 1.000000
209.549149 -418.511566 -0.000053 0.222991
203.227737 -415.488495 -0.000006 0.219435
199.707672 -413.805115 -0.000059 0.231642
197.459457 -412.729950 0.000076 0.214629
195.856003 -411.963135 0.009999 1.000000
194.746902 -411.432709 -0.000002 0.325000
217.099777 -422.376892 10.234121 0.333824
217.093033 -422.373596 9.098151 0.229167
217.086380 -422.370361 7.978632 0.565564
217.079803 -422.367157 6.872872 0.583824
217.073318 -422.364014 5.778287 0.217279
217.066910 -422.360870 4.692391 0.608946
217.060471 -422.357727 3.612772 0.546324
217.054062 -422.354614 2.537091 0.360417
217.047699 -422.351532 1.463026 0.223162
217.041336 -422.348419 0.388273 1.000000
209.476089 -418.665405 -0.000139 0.228854
203.175079 -415.597839 -0.000015 0.219243
199.667252 -413.890106 -0.000140 0.236063
197.426147 -412.799072 0.000069 0.203191
195.828049 -412.021057 0.010000 1.000000
194.722672 -411.482910 -0.000001 0.335662
217.341827 -422.752960 10.330071 0.406863
217.334976 -422.749542 9.180851 0.354167
217.328171 -422.746155 8.048273 0.559436
217.321457 -422.742859 6.929618 0.554657
217.314865 -422.739594 5.822277 0.512868
217.308319 -422.736328 4.723729 0.616054
217.301758 -422.733063 3.631540 0.567647
217.295212 -422.729858 2.543339 0.498529
217.288712 -422.726624 1.456780 0.472181
217.282227 -422.723389 0.369529 1.000000
209.401291 -418.818390 -0.000165 0.236159
203.122330 -415.707184 -0.000114 0.228181
199.625900 -413.974701 -0.000166 0.224337
197.393204 -412.868408 -0.000112 0.247501
195.799683 -412.078796 0.010000 1.000000
194.698090 -411.532959 -0.000001 0.343873
217.589615 -423.137878 10.428698 0.664093
217.582611 -423.134338 9.265848 0.638603
217.575699 -423.130859 8.119856 0.644485
217.568832 -423.127411 6.987947 0.630147
217.562088 -423.123993 5.867489 0.601225
217.555405 -423.120667 4.755940 0.595833
217.548737 -423.117279 3.650833 0.564338
217.542053 -423.113892 2.549762 0.541422
217.535431 -423.110565 1.450359 0.537745
217.528793 -423.107239 0.350263 1.000000
209.325272 -418.970795 -0.000176 0.217224
203.068161 -415.815765 -0.000128 0.232891
199.583267 -414.058624 -0.000076 0.192330
197.358994 -412.937073 -0.000129 0.238658
195.812271 -412.157166 -0.000002 0.332598
194.673187 -411.582825 -0.000002 0.342647
217.843353 -423.532104 10.530117 0.591176
217.836182 -423.528381 9.353249 0.551103
217.829132 -423.524780 8.193453 0.543382
217.822174 -423.521240 7.047922 0.537377
217.815277 -423.517670 5.913983 0.534804
217.808411 -423.514160 4.789060 0.542892
217.801636 -423.510681 3.670668 0.568137
217.794830 -423.507202 2.556367 0.563603
217.788055 -423.503723 1.443758 0.566544
217.781296 -423.500244 0.330453 1.000000
209.247375 -419.122192 -0.000111 0.239523
203.012634 -415.923737 -0.000063 0.242887
199.540253 -414.142334 -0.000019 0.239812
197.323364 -413.005035 0.000040 0.248654
195.782959 -412.214783 -0.000002 0.342279
194.647903 -411.632507 -0.000002 0.340074
218.103287 -423.935913 10.634430 0.545711
218.095963 -423.932068 9.443148 0.554289
218.088760 -423.928314 8.269152 0.560907
218.081650 -423.924622 7.109607 0.552451
218.074631 -423.920959 5.961802 0.549877
218.067642 -423.917297 4.823130 0.558211
218.060669 -423.913666 3.691070 0.556250
218.053757 -423.910065 2.563160 0.540564
218.046829 -423.906433 1.436968 0.534436
218.039932 -423.902863 0.310079 1.000000
209.169220 -419.273529 -0.000121 0.224625
202.957520 -416.031860 -0.000149 0.211553
199.497467 -414.226196 -0.000095 0.240965
197.288177 -413.073242 0.000025 0.228662
195.753250 -412.272217 -0.000002 0.332843
194.622299 -411.682007 -0.000002 0.336520
218.369659 -424.349731 10.741755 0.528431
218.362198 -424.345764 9.535645 0.514338
218.354843 -424.341858 8.347040 0.557721
218.347565 -424.337982 7.173071 0.533088
218.340378 -424.334198 6.010998 0.522672
218.333267 -424.330414 4.858178 0.528064
218.326187 -424.326630 3.712062 0.524020
218.319122 -424.322906 2.570148 0.528186
218.312042 -424.319153 1.429982 0.532230
218.304977 -424.315399 0.289117 1.000000
209.089081 -419.423767 -0.000045 0.235294
202.900497 -416.139008 -0.000083 0.216167
199.453262 -414.309265 -0.000034 0.209343
197.252472 -413.141174 0.000019 0.217032
195.723145 -412.329407 -0.000002 0.325980
194.596329 -411.731354 -0.000001 0.325123
218.642761 -424.773987 10.852218 0.579902
218.635101 -424.769867 9.630841 0.505760
218.627594 -424.765808 8.427202 0.644730
218.620178 -424.761841 7.238393 0.647304
218.612839 -424.757843 6.061632 0.469240
218.605560 -424.753906 4.894251 0.610049
218.598343 -424.750000 3.733664 0.596324
218.591141 -424.746124 2.577342 0.417402
218.583923 -424.742249 1.422792 0.431985
218.576691 -424.738342 0.267543 1.000000
209.011017 -419.575165 -0.000259 0.220108
202.844803 -416.246887 -0.000292 0.224337
199.410080 -414.392975 -0.000246 0.215302
197.217285 -413.209381 -0.000193 0.198193
195.692627 -412.386414 -0.000002 0.340564
194.570023 -411.780457 -0.000001 0.309559
218.922882 -425.209137 10.965957 0.559314
218.915054 -425.204865 9.728858 0.195343
218.907364 -425.200653 8.509739 0.546691
218.899811 -425.196503 7.305651 0.602451
218.892288 -425.192383 6.113769 0.200980
218.884857 -425.188324 4.931393 0.585662
218.877457 -425.184235 3.755906 0.635417
218.870117 -425.180206 2.584747 0.359926
218.862747 -425.176178 1.415390 0.281373
218.855347 -425.172119 0.245332 1.000000
208.928894 -419.724365 -0.000193 0.230392
202.786285 -416.353241 -0.000226 0.226451
199.364075 -414.475098 -0.000075 0.243560
197.180588 -413.276764 -0.000195 0.245963
195.661728 -412.443207 -0.000002 0.336887
194.543381 -411.829437 -0.000002 0.337377
219.210281 -425.655670 11.083098 0.557476
219.202301 -425.651215 9.829815 0.722426
219.194412 -425.646820 8.594746 0.581495
219.186707 -425.642517 7.374920 0.528431
219.179047 -425.638245 6.167466 0.777083
219.171432 -425.634003 4.969648 0.653309
219.163864 -425.629761 3.778815 0.556373
219.156326 -425.625580 2.592375 0.563603
219.148834 -425.621368 1.407767 0.657721
219.141281 -425.617188 0.222455 1.000000
208.846558 -419.873444 -0.000205 0.225779
202.726791 -416.459015 -0.000131 0.222318
199.318542 -414.557495 -0.000084 0.210592
197.143478 -413.343933 -0.000203 0.226067
195.630432 -412.499756 -0.000002 0.337377
194.516388 -411.878235 -0.000001 0.341789
219.505325 -426.114014 11.203801 0.580760
219.497177 -426.109406 9.933843 0.592892
219.489151 -426.104858 8.682348 0.577574
219.481216 -426.100342 7.446292 0.562010
219.473358 -426.095917 6.222788 0.583578
219.465576 -426.091461 5.009060 0.513848
219.457825 -426.087097 3.802417 0.517279
219.450134 -426.082733 2.600232 0.537132
219.442444 -426.078369 1.399913 0.535294
219.434769 -426.074005 0.198886 1.000000
208.763168 -420.021912 -0.000215 0.223280
202.666763 -416.564545 -0.000063 0.227316
199.272003 -414.639313 -0.000017 0.236736
197.105072 -413.410400 -0.000040 0.237505
195.598740 -412.556122 -0.000002 0.337623
194.489059 -411.926788 -0.000001 0.336397
219.808365 -426.584778 11.328228 0.613725
219.800034 -426.579956 10.041071 0.597181
219.791794 -426.575195 8.772636 0.609436
219.783676 -426.570557 7.519860 0.617279
219.775635 -426.565887 6.279814 0.553309
219.667770 -426.503723 5.040228 1.000000
219.813492 -426.587708 3.829793 1.000000
219.528610 -426.423523 2.604114 1.000000
219.744019 -426.547699 1.391817 0.339216
219.736145 -426.543152 0.174593 0.337500
208.678970 -420.169952 -0.000246 0.232699
202.606766 -416.670044 -0.000095 0.237313
199.225906 -414.721375 -0.000122 0.196847
197.067139 -413.477112 -0.000072 0.235582
195.566650 -412.612244 -0.000002 0.338235
194.461395 -411.975189 -0.000002 0.336275
220.119720 -427.068451 11.456525 0.598284
220.111160 -427.063416 10.151632 0.617034
220.102768 -427.058502 8.865738 0.600123
220.094467 -427.053650 7.595725 0.564093
220.086243 -427.048828 6.338621 0.705147
220.078079 -427.044037 5.091577 0.573284
220.069962 -427.039276 3.851832 0.555760
220.061905 -427.034576 2.616684 0.730515
220.053848 -427.029846 1.383469 0.636520
220.045761 -427.025116 0.149546 1.000000
208.592712 -420.316833 -0.000179 0.233564
202.546646 -416.775513 -0.000211 0.232795
199.178268 -414.802582 -0.000064 0.210880
197.028259 -413.543243 -0.000002 0.335417
195.534164 -412.668152 -0.000001 0.337500
194.433395 -412.023376 -0.000001 0.331495
220.405487 -427.545227 11.578889 0.636887
220.430984 -427.560394 10.265686 0.355882
220.422394 -427.555267 8.961775 0.381618
220.413895 -427.550201 7.673972 0.614461
220.405487 -427.545197 6.399278 0.361397
220.397141 -427.540253 5.134790 0.318627
220.388809 -427.535278 3.877708 0.524755
220.380539 -427.530365 2.625299 0.356863
220.372299 -427.525452 1.374859 0.312500
220.364029 -427.520538 0.123707 1.000000
208.505386 -420.463043 -0.000109 0.225106
202.484406 -416.879730 -0.000141 0.236640
199.129990 -414.883362 0.000010 0.212130
196.942017 -413.581238 0.009996 1.000000
195.501297 -412.723785 -0.000001 0.332721
194.405060 -412.071381 -0.000001 0.326593
220.621338 -427.987671 11.682269 1.000000
220.759933 -428.071472 10.383397 0.363603
220.751099 -428.066132 9.060883 0.338235
220.742371 -428.060883 7.754726 0.564093
220.733765 -428.055664 6.461873 0.395098
220.725281 -428.050537 5.179388 0.373529
220.716721 -428.045349 3.904414 0.591912
220.708237 -428.040253 2.634189 0.401103
220.699783 -428.035126 1.365973 0.416667
220.691330 -428.029999 0.097044 1.000000
208.418961 -420.609772 -0.000221 0.227701
202.422791 -416.984283 -0.000251 0.202134
199.081543 -414.964081 0.000011 0.229431
196.902740 -413.646698 0.009998 1.000000
195.468048 -412.779236 -0.000002 0.344363
194.376373 -412.119171 -0.000002 0.315809
nan nan nan 0.000000
221.098404 -428.597382 10.504929 0.570343
221.089325 -428.591827 9.163214 0.599265
221.080399 -428.586334 7.838107 0.632598
221.071579 -428.580933 6.526505 0.602328
221.062836 -428.575562 5.225428 0.587745
221.054153 -428.570221 3.931987 0.546078
221.045441 -428.564850 2.643368 0.583333
221.036758 -428.559540 1.356798 0.569118
221.028076 -428.554199 0.069515 1.000000
208.330750 -420.755463 -0.000262 0.227028
202.359909 -417.088135 -0.000290 0.221646
199.032837 -415.044617 -0.000034 0.213572
196.862991 -413.711884 0.010001 1.000000
195.434402 -412.834442 -0.000002 0.333456
194.347366 -412.166779 -0.000002 0.337132
nan nan nan 0.000000
221.446838 -429.138794 10.630462 0.557476
221.437546 -429.132996 9.268917 0.532353
221.428345 -429.127258 7.924227 0.580637
221.419327 -429.121643 6.593260 0.516054
221.410339 -429.116028 5.272979 0.547059
221.401413 -429.110443 3.960462 0.553676
221.392532 -429.104919 2.652849 0.543382
221.383621 -429.099335 1.347322 0.530515
221.374741 -429.093811 0.041082 1.000000
208.239319 -420.899109 -0.000087 0.239139
202.294739 -417.190521 -0.000117 0.255479
198.982849 -415.124390 0.000043 0.231546
196.869446 -413.805908 -0.000002 0.333088
195.400375 -412.889404 -0.000001 0.332475
194.318024 -412.214172 -0.000001 0.325368
nan nan nan 0.000000
221.805695 -429.696411 10.760180 0.526471
221.796204 -429.690399 9.378147 0.557966
221.786774 -429.684448 8.013227 0.577941
221.777466 -429.678528 6.662238 0.602328
221.768265 -429.672699 5.322120 0.581127
221.759140 -429.666931 3.989891 0.536765
221.750031 -429.661133 2.662647 0.536887
221.740875 -429.655334 1.337531 0.579289
221.731781 -429.649597 0.011699 1.000000
208.147934 -421.042847 -0.000017 0.226451
202.229614 -417.292969 -0.000047 0.230008
198.932770 -415.204071 0.000040 0.210688
196.828613 -413.870850 -0.000002 0.338113
195.365967 -412.944153 -0.000002 0.338971
194.288361 -412.261353 -0.000001 0.340686
nan nan nan 0.000000
222.175552 -430.271088 10.894306 0.583333
222.165802 -430.264832 9.491080 0.333946
222.156158 -430.258606 8.105246 0.628554
222.146591 -430.252441 6.733563 0.637377
222.137177 -430.246399 5.372931 0.313971
222.127777 -430.240356 4.020317 0.564216
222.118423 -430.234344 2.672776 0.353431
222.109039 -430.228333 1.327406 0.314828
221.784546 -430.019531 -0.000265 0.227124
208.057434 -421.187103 -0.000128 0.231353
202.165100 -417.395782 -0.000155 0.226932
198.882706 -415.283783 -0.000065 0.250577
196.787308 -413.935547 -0.000002 0.329657
195.331177 -412.998657 -0.000002 0.335539
194.258362 -412.308350 -0.000002 0.334926
nan nan nan 0.000000
222.556946 -430.863708 11.033052 0.580024
222.546921 -430.857147 9.607903 0.473284
222.537018 -430.850677 8.200431 0.540074
222.527206 -430.844269 6.807344 0.538358
222.517502 -430.837952 5.425484 0.478799
222.507889 -430.831635 4.051787 0.582843
222.498291 -430.825378 2.683252 0.457475
222.488647 -430.819092 1.316935 0.496569
221.630676 -430.258514 -0.000310 0.225202
207.965225 -421.330261 -0.000170 0.232411
202.099396 -417.497864 -0.000202 0.226547
198.831711 -415.362915 -0.000105 0.215494
196.745560 -413.999939 -0.000001 0.331740
195.296005 -413.052887 -0.000002 0.331985
194.228043 -412.355103 -0.000002 0.331127
nan nan nan 0.000000
222.950439 -431.475098 11.176651 0.582230
222.940125 -431.468292 9.728806 0.611520
222.929993 -431.461548 8.298943 0.551961
222.919922 -431.454865 6.883701 0.585294
222.909927 -431.448242 5.479876 0.600490
222.899994 -431.441650 4.084356 0.593382
222.890152 -431.435120 2.694095 0.538725
222.880280 -431.428558 1.306099 0.588603
221.471756 -430.494232 -0.000157 0.223087
207.870026 -421.471466 -0.000017 0.230584
202.032074 -417.598846 -0.000122 0.243656
198.780182 -415.441681 -0.000144 0.245963
196.703369 -414.064026 -0.000001 0.330025
195.260452 -413.106873 -0.000002 0.339706
194.197388 -412.401672 -0.000001 0.330270
nan nan nan 0.000000
223.356689 -432.106323 11.325357 0.604902
223.346069 -432.099182 9.854007 0.589461
223.335663 -432.092163 8.400953 0.558456
223.325317 -432.085205 6.962772 0.605637
223.315048 -432.078278 5.536203 0.631127
223.304840 -432.071411 4.118083 0.601471
223.294678 -432.064545 2.705322 0.559191
223.284531 -432.057739 1.294878 0.584681
221.315598 -430.731750 -0.000262 0.227797
207.776489 -421.613800 -0.000126 0.227893
201.965378 -417.700256 -0.000225 0.222991
198.728470 -415.520355 -0.000250 0.224625
196.660721 -414.127838 -0.000001 0.338848
195.224518 -413.160614 -0.000002 0.330270
194.166412 -412.448029 -0.000002 0.334559
nan nan nan 0.000000
223.776337 -432.758362 11.479429 0.539951
223.765427 -432.750885 9.983732 0.485417
223.754700 -432.743561 8.506643 0.541544
223.744080 -432.736298 7.044694 0.562255
223.733536 -432.729126 5.594560 0.499020
223.723038 -432.721924 4.153027 0.578431
223.712585 -432.714783 2.716957 0.423652
223.702133 -432.707611 1.283251 0.500735
221.156815 -430.967529 -0.000312 0.225586
207.682144 -421.755554 -0.000251 0.224817
201.897552 -417.800934 -0.000274 0.241638
198.675888 -415.598450 -0.000300 0.215879
196.617645 -414.191345 -0.000002 0.333701
195.188232 -413.214111 -0.000002 0.334804
194.135117 -412.494141 -0.000002 0.343505
nan nan nan 0.000000
224.091187 -433.349792 11.607890 0.604289
224.198883 -433.424530 10.118217 0.271201
224.187820 -433.416870 8.616208 0.599387
224.176895 -433.409271 7.129614 0.572426
224.166092 -433.401794 5.655058 0.250735
224.155273 -433.394287 4.189252 0.609436
224.144501 -433.386810 2.729014 0.442525
224.133774 -433.379364 1.271199 0.297304
220.994339 -431.200775 -0.000237 0.225202
207.584778 -421.895294 -0.000175 0.229719
201.828262 -417.900604 -0.000210 0.221453
198.622101 -415.675690 -0.000230 0.247405
196.574112 -414.254517 -0.000002 0.330025
195.151566 -413.267365 -0.000002 0.336275
194.103500 -412.540070 -0.000002 0.339093
nan nan nan 0.000000
nan nan nan 0.000000
224.647232 -434.121307 10.257720 0.580760
224.635864 -434.113281 8.729872 0.550980
224.624557 -434.105347 7.217706 0.566912
224.613388 -434.097473 5.717801 0.579412
224.602356 -434.089722 4.226827 0.580760
224.591278 -434.081909 2.741524 0.493873
224.580200 -434.074097 1.258698 0.561152
220.831833 -431.433990 -0.000260 0.223856
207.487427 -422.035034 -0.000198 0.220204
201.758850 -418.000183 -0.000231 0.211169
198.567688 -415.752533 -0.000145 0.207997
196.530151 -414.317413 -0.000001 0.338848
195.114532 -413.320343 -0.000002 0.333333
194.071564 -412.585724 -0.000002 0.334191
nan nan nan 0.000000
nan nan nan 0.000000
225.111267 -434.842499 10.402518 0.584436
225.099518 -434.834076 8.847837 0.594730
225.087906 -434.825775 7.309140 0.546324
225.076431 -434.817566 5.782934 0.577819
225.064987 -434.809387 4.265824 0.600368
225.053589 -434.801270 2.754505 0.586275
225.042221 -434.793121 1.245723 0.549265
220.668198 -431.666443 -0.000312 0.223952
207.389404 -422.174316 -0.000251 0.225394
201.688232 -418.098907 -0.000179 0.232891
198.512451 -415.828766 -0.000007 0.332843
196.485733 -414.380005 -0.000002 0.329902
195.077103 -413.373047 -0.000002 0.335417
194.039291 -412.631226 -0.000002 0.334681
nan nan nan 0.000000
nan nan nan 0.000000
225.591858 -435.589386 10.552900 0.670833
225.579727 -435.580597 8.970352 0.500368
225.567810 -435.571960 7.404102 0.549877
225.555984 -435.563354 5.850578 0.436029
225.544159 -435.554810 4.306326 0.620711
225.532425 -435.546265 2.767989 0.715564
225.520691 -435.537750 1.232248 0.411642
220.500854 -431.896179 -0.000237 0.226547
207.289124 -422.311951 -0.000176 0.224048
201.616791 -418.197021 -0.000104 0.225202
198.402832 -415.865540 0.010000 1.000000
196.440903 -414.442261 -0.000002 0.328799
195.039322 -413.425507 -0.000002 0.338480
194.006714 -412.676422 -0.000002 0.337010
nan nan nan 0.000000
nan nan nan 0.000000
226.090027 -436.363586 10.709203 0.548284
226.077515 -436.354370 9.097691 0.501838
226.065231 -436.345337 7.502800 0.556495
226.053009 -436.336365 5.920878 0.569240
226.040802 -436.327362 4.348417 0.602574
226.028687 -436.318481 2.782000 0.690196
226.016586 -436.309540 1.218245 0.491299
220.327362 -432.121460 0.000114 0.227413
207.188858 -422.449615 -0.000197 0.227413
201.545349 -418.295166 -0.000129 0.238370
198.347595 -415.941132 0.010000 1.000000
196.395615 -414.504242 -0.000002 0.335417
195.001190 -413.477722 -0.000002 0.328799
193.973831 -412.721466 -0.000002 0.336029
nan nan nan 0.000000
nan nan nan 0.000000
226.606796 -437.166687 10.871772 0.564461
226.593857 -437.157043 9.230134 0.600000
226.581131 -437.147522 7.605442 0.596936
226.568481 -437.138092 5.993985 0.597794
226.555923 -437.128693 4.392195 0.585049
226.543427 -437.119354 2.796574 0.563113
226.530945 -437.110046 1.203682 0.590809
220.156830 -432.348785 0.000192 0.227509
207.086670 -422.585846 -0.000120 0.215206
201.472504 -418.392273 -0.000053 0.242695
198.291809 -416.016357 0.009999 1.000000
196.349915 -414.565857 -0.000002 0.330515
194.962677 -413.529633 -0.000002 0.332598
193.940628 -412.766205 -0.000002 0.338113
nan nan nan 0.000000
nan nan nan 0.000000
227.143219 -438.000336 11.040969 0.598897
227.129898 -437.990265 9.367982 0.646569
227.116745 -437.980286 7.712280 0.565809
227.103699 -437.970398 6.070086 0.663848
227.090729 -437.960571 4.437760 0.551716
227.077805 -437.950775 2.811741 0.570588
227.064880 -437.940979 1.188524 0.584559
219.985519 -432.575562 0.000219 0.225971
206.984756 -422.722290 -0.000168 0.228278
201.399353 -418.489105 -0.000026 0.240677
198.289246 -416.131958 -0.000007 0.338113
196.303772 -414.627197 -0.000002 0.330147
194.923813 -413.581299 -0.000002 0.339093
193.907120 -412.810760 -0.000002 0.331985
nan nan nan 0.000000
nan nan nan 0.000000
227.700516 -438.866455 11.217200 0.576716
227.686722 -438.855865 9.511549 0.228554
227.673141 -438.845428 7.823548 0.577206
227.659653 -438.835052 6.149343 0.241054
227.646286 -438.824768 4.485216 0.596078
227.632874 -438.814453 2.827538 0.575613
227.619537 -438.804199 1.172739 0.443873
219.814697 -432.802673 0.000120 0.225971
206.882385 -422.858398 -0.000269 0.220973
201.326843 -418.586456 -0.000191 0.218474
198.232117 -416.206787 -0.000007 0.331985
196.257217 -414.688171 -0.000002 0.332966
194.884583 -413.632690 -0.000002 0.325490
193.873306 -412.855072 -0.000002 0.334559
nan nan nan 0.000000
nan nan nan 0.000000
228.280060 -439.767090 11.400916 0.539706
228.265778 -439.755981 9.661219 0.546936
228.251678 -439.744995 7.939535 0.538725
228.237747 -439.734100 6.231957 0.545466
228.223923 -439.723328 4.534682 0.535294
228.210144 -439.712555 2.844005 0.556495
228.196289 -439.701752 1.156283 0.526348
219.640274 -433.027039 0.000144 0.227605
206.777893 -422.992859 -0.000247 0.235679
201.252365 -418.682312 -0.000170 0.219050
198.174484 -416.281219 -0.000007 0.335907
196.210236 -414.748840 -0.000002 0.326471
194.844986 -413.683807 -0.000002 0.326103
193.839172 -412.899139 -0.000002 0.334926
nan nan nan 0.000000
nan nan nan 0.000000
228.753723 -440.601959 11.562538 0.637745
228.868469 -440.692749 9.817369 0.670343
228.853882 -440.681213 8.060553 0.600490
228.839340 -440.669708 6.318143 0.676716
228.824997 -440.658356 4.586281 0.600980
228.810638 -440.647003 2.861179 0.586520
228.796494 -440.635803 1.139117 0.579044
219.463409 -433.249481 0.000224 0.226163
206.671890 -423.126160 -0.000167 0.222607
201.176865 -418.777344 -0.000093 0.227893
198.116348 -416.355194 -0.000007 0.331740
196.162811 -414.809174 -0.000002 0.337500
194.805054 -413.734650 -0.000002 0.331985
193.804718 -412.942963 -0.000002 0.336765
nan nan nan 0.000000
nan nan nan 0.000000
nan nan nan 0.000000
229.496170 -441.668518 9.980396 0.401103
229.481094 -441.656403 8.186907 0.566299
229.466095 -441.644348 6.408144 0.454534
229.451126 -441.632324 4.640159 0.558088
229.436310 -441.620483 2.879115 0.557353
229.421555 -441.608612 1.121196 0.598529
219.286545 -433.471954 0.000207 0.226355
206.565918 -423.259491 -0.000185 0.224048
201.101318 -418.872345 -0.000111 0.220396
198.057663 -416.428833 -0.000007 0.334069
196.114990 -414.869171 -0.000002 0.329289
194.764755 -413.785187 -0.000002 0.347426
193.769974 -412.986572 -0.000002 0.335294
nan nan nan 0.000000
nan nan nan 0.000000
nan nan nan 0.000000
230.150696 -442.685913 10.150786 0.240686
230.135025 -442.673157 8.318949 0.247794
230.119476 -442.660492 6.502188 0.251961
230.104034 -442.647919 4.696470 0.260294
230.088654 -442.635376 2.897858 0.267892
230.073288 -442.622894 1.102467 0.273897
219.108826 -433.693726 0.000145 0.223856
206.459457 -423.392395 -0.000250 0.225971
201.025421 -418.967072 -0.000174 0.232795
197.998474 -416.502014 -0.000007 0.334069
196.066727 -414.928864 -0.000002 0.328186
194.724106 -413.835449 -0.000003 0.334559
193.734924 -413.029877 -0.000002 0.329779
nan nan nan 0.000000
nan nan nan 0.000000
nan nan nan 0.000000
230.833755 -443.747711 10.329012 0.603922
230.817520 -443.734314 8.457073 0.572059
230.801376 -443.720947 6.600563 0.595221
230.785324 -443.707703 4.755368 0.578064
230.769318 -443.694489 2.917460 0.595098
230.753372 -443.681305 1.082878 0.603431
218.928818 -433.913635 0.000132 0.224721
206.351593 -423.524200 -0.000264 0.238178
200.948532 -419.061005 -0.000187 0.211649
197.938782 -416.574799 -0.000007 0.331985
196.018066 -414.988190 -0.000002 0.336642
194.683105 -413.885468 -0.000002 0.333211
193.699585 -413.072998 -0.000002 0.324020
nan nan nan 0.000000
nan nan nan 0.000000
nan nan nan 0.000000
231.547440 -444.857086 10.515643 0.544730
231.530411 -444.842834 8.601681 0.556740
231.513733 -444.828857 6.703566 0.562745
231.497131 -444.814941 4.817039 0.539583
231.480499 -444.800995 2.937988 0.561887
231.463898 -444.787109 1.062367 0.576103
218.745819 -434.131042 0.000211 0.227028
206.241913 -423.654480 -0.000183 0.223183
200.870880 -419.154297 -0.000184 0.204729
197.878586 -416.647156 -0.000007 0.330025
195.968994 -415.047180 -0.000002 0.337255
194.641769 -413.935150 -0.000002 0.331618
193.663940 -413.115845 -0.000002 0.332353
nan nan nan 0.000000
nan nan nan 0.000000
nan nan nan 0.000000
232.293854 -446.017365 10.711259 0.563480
232.276245 -446.002411 8.753286 0.599755
232.258820 -445.987579 6.811531 0.611152
232.241516 -445.972900 4.881674 0.588603
232.224274 -445.958221 2.959502 0.592402
232.207001 -445.943542 1.040869 0.609804
218.564972 -434.350342 0.000055 0.228278
206.130051 -423.782928 0.000035 0.229815
200.793610 -419.247925 -0.000337 0.228854
197.817871 -416.719086 -0.000007 0.337745
195.919495 -415.105835 -0.000003 0.331740
194.600082 -413.984558 -0.000002 0.333456
193.627991 -413.158447 -0.000002 0.335294
nan nan nan 0.000000
nan nan nan 0.000000
nan nan nan 0.000000
nan nan nan 0.000000
240.810791 -453.899445 10.089941 0.398897
240.594833 -453.713348 7.742732 0.403676
240.528076 -453.655762 5.436382 0.411275
nan nan nan 0.000000
232.984970 -447.154297 1.018314 0.598897
218.378937 -434.565216 0.000135 0.227893
206.018600 -423.911652 0.000115 0.234141
200.712509 -419.338287 -0.000006 0.336520
197.756683 -416.790588 -0.000007 0.332108
195.869614 -415.164124 -0.000002 0.332353
194.558044 -414.033661 -0.000002 0.332843
193.591751 -413.200806 -0.000002 0.332353
nan nan nan 0.000000
nan nan nan 0.000000
nan nan nan 0.000000
nan nan nan 0.000000
240.741287 -454.490784 10.128495 0.416299
223.469849 -439.392883 5.912604 0.406250
240.046844 -453.883728 5.425869 0.420711
nan nan nan 0.000000
nan nan nan 0.000000
218.190155 -434.777618 0.000298 0.225971
205.905472 -424.038910 0.000280 0.218089
200.567505 -419.372742 0.009993 1.000000
197.694977 -416.861694 -0.000007 0.334436
195.819305 -415.222076 -0.000003 0.334926
194.515656 -414.082489 -0.000002 0.332353
193.555191 -413.242889 -0.000002 0.335294
nan nan nan 0.000000
nan nan nan 0.000000
nan nan nan 0.000000
nan nan nan 0.000000
239.866180 -454.374176 10.044065 0.414828
222.567474 -439.038086 5.837845 0.410172
238.245361 -452.937256 5.328715 0.406005
240.220230 -454.688049 3.151968 0.414338
nan nan nan 0.000000
218.004791 -434.993073 0.000139 0.224625
205.794403 -424.167999 0.000121 0.240004
200.487732 -419.463379 0.009990 1.000000
197.632767 -416.932343 -0.000007 0.335417
195.768616 -415.279694 -0.000003 0.333088
194.472946 -414.131012 -0.000002 0.336397
193.518356 -413.284729 -0.000002 0.335294
nan nan nan 0.000000
nan nan nan 0.000000
nan nan nan 0.000000
nan nan nan 0.000000
222.300369 -439.237335 7.376904 0.404167
221.391830 -438.420502 5.732209 0.405515
238.196487 -453.529419 5.346299 0.397304
nan nan nan 0.000000
nan nan nan 0.000000
217.815338 -435.204926 0.000151 0.227413
205.680283 -424.294373 0.000201 0.224241
200.471909 -419.611572 -0.000005 0.333946
197.570084 -417.002563 -0.000007 0.333578
195.717499 -415.336914 -0.000003 0.333211
194.429886 -414.179230 -0.000002 0.325000
193.481247 -413.326324 -0.000002 0.332721
nan nan nan 0.000000
nan nan nan 0.000000
nan nan nan 0.000000
nan nan nan 0.000000
222.196686 -439.584381 7.394856 0.416054
221.144516 -438.625031 5.728435 0.409436
237.836273 -453.844482 5.343571 0.396078
239.242432 -455.126617 3.144866 0.458701
239.391800 -455.262817 0.851825 0.467770
217.624680 -435.415649 0.000146 0.226163
205.566071 -424.420654 0.000193 0.226740
200.390442 -419.701538 -0.000005 0.333946
197.506912 -417.072327 -0.000007 0.334681
195.666000 -415.393799 -0.000003 0.336275
194.386505 -414.227173 -0.000002 0.331985
193.443832 -413.367615 -0.000002 0.331863
nan nan nan 0.000000
nan nan nan 0.000000
nan nan nan 0.000000
nan nan nan 0.000000
222.032639 -439.878601 7.403848 0.399877
220.294464 -438.271362 5.657478 0.407721
221.680283 -439.552765 4.284075 0.399020
nan nan nan 0.000000
nan nan nan 0.000000
217.432343 -435.624847 0.000154 0.227220
205.450836 -424.546021 0.000201 0.223376
200.308350 -419.790924 -0.000004 0.335172
197.443253 -417.141663 -0.000007 0.329779
195.614105 -415.450317 -0.000003 0.335907
194.342773 -414.274780 -0.000003 0.329534
193.406128 -413.408691 -0.000002 0.334559
nan nan nan 0.000000
nan nan nan 0.000000
nan nan nan 0.000000
221.203659 -439.550842 8.844708 0.401225
222.051102 -440.345428 7.442000 0.395466
220.405197 -438.802124 5.693782 0.409314
221.486572 -439.816101 4.285926 0.415074
nan nan nan 0.000000
nan nan nan 0.000000
217.238724 -435.832886 0.000150 0.223472
205.334854 -424.670685 0.000195 0.236448
200.225647 -419.879761 -0.000004 0.333701
197.379105 -417.210571 -0.000007 0.334681
195.561798 -415.506470 -0.000003 0.335294
194.298721 -414.322083 -0.000003 0.337377
193.368134 -413.449493 -0.000002 0.341544
nan nan nan 0.000000
nan nan nan 0.000000
nan nan nan 0.000000
221.206818 -439.998352 8.890625 0.409926
221.853302 -440.613068 7.446596 0.412377
237.960571 -455.929596 7.704572 0.403922
236.548203 -454.586548 5.322100 0.413235
nan nan nan 0.000000
nan nan nan 0.000000
217.042389 -436.038361 0.000233 0.223664
205.217224 -424.793762 0.000279 0.222607
200.142303 -419.967987 -0.000004 0.335784
197.314484 -417.279022 -0.000007 0.336887
195.509125 -415.562286 -0.000003 0.338480
194.254349 -414.369110 -0.000003 0.341054
193.329880 -413.490021 -0.000003 0.338725
nan nan nan 0.000000
nan nan nan 0.000000
221.871765 -441.090057 10.677152 0.410539
221.923187 -441.139648 9.084466 0.401471
221.614273 -440.841766 7.444929 0.380882
219.527588 -438.829590 5.643186 0.399020
219.747986 -439.042145 4.197827 0.411642
nan nan nan 0.000000
nan nan nan 0.000000
216.848221 -436.245911 0.000071 0.227605
205.100891 -424.918091 0.000117 0.227893
200.058365 -420.055664 -0.000003 0.331127
197.249374 -417.346985 -0.000007 0.332598
195.456039 -415.617706 -0.000003 0.330882
194.209625 -414.415802 -0.000002 0.338235
193.291336 -413.530304 -0.000002 0.336029
nan nan nan 0.000000
nan nan nan 0.000000
nan nan nan 0.000000
221.052505 -440.754608 8.952019 0.404657
220.453491 -440.168854 7.295197 0.405760
222.792999 -442.456543 6.042451 0.397672
221.332062 -441.027985 4.321623 0.383456
nan nan nan 0.000000
nan nan nan 0.000000
216.647812 -436.447449 0.000237 0.227797
204.980835 -425.038879 0.000281 0.216647
199.973816 -420.142761 -0.000004 0.332598
197.183807 -417.414520 -0.000007 0.331740
195.402588 -415.672760 -0.000003 0.334436
194.164581 -414.462158 -0.000002 0.336275
193.252487 -413.570282 -0.000002 0.337132
nan nan nan 0.000000
nan nan nan 0.000000
nan nan nan 0.000000
220.571945 -440.738831 8.899586 0.407108
220.145355 -440.315826 7.281804 0.401103
222.216797 -442.369873 6.003803 0.409069
224.213745 -444.350037 4.537005 0.408088
nan nan nan 0.000000
220.962143 -441.125763 1.229870 0.376348
216.450790 -436.652283 0.000073 0.229143
204.863327 -425.162109 0.000057 0.221165
199.888657 -420.229218 -0.000004 0.332598
197.117752 -417.481567 -0.000007 0.337990
195.348740 -415.727417 -0.000003 0.337623
194.119232 -414.508209 -0.000002 0.338971
193.213379 -413.609985 -0.000002 0.334191
nan nan nan 0.000000
nan nan nan 0.000000
nan nan nan 0.000000
219.336365 -439.956909 8.687935 0.403064
221.882111 -442.516785 7.602094 0.406250
225.123962 -445.776581 6.369857 0.404289
219.906876 -440.530579 4.254699 0.391912
nan nan nan 0.000000
nan nan nan 0.000000
216.248764 -436.852203 0.000157 0.225394
204.742294 -425.281891 0.000138 0.222030
199.802902 -420.315094 -0.000004 0.335172
197.051239 -417.548187 -0.000007 0.328676
195.294525 -415.781738 -0.000003 0.338603
194.073547 -414.553955 -0.000002 0.331495
193.173996 -413.649445 -0.000002 0.320588
nan nan nan 0.000000
nan nan nan 0.000000
221.106659 -442.211609 10.721994 0.410662
219.949936 -441.032074 8.865366 0.403431
220.309982 -441.399231 7.383534 0.413113
219.716797 -440.794373 5.767650 0.413603
nan nan nan 0.000000
nan nan nan 0.000000
nan nan nan 0.000000
216.046509 -437.051849 0.000160 0.223376
204.622437 -425.402863 -0.000014 0.333701
199.716537 -420.400391 -0.000004 0.334804
196.984268 -417.614319 -0.000007 0.337132
195.239929 -415.835663 -0.000003 0.336765
194.027557 -414.599396 -0.000002 0.327941
193.134323 -413.688599 -0.000003 0.343627
nan nan nan 0.000000
nan nan nan 0.000000
nan nan nan 0.000000
219.739395 -441.279144 8.869834 0.404044
220.196365 -441.751709 7.403463 0.402696
225.863663 -447.611816 6.519766 0.417157
224.321442 -446.017181 4.598999 0.371078
nan nan nan 0.000000
nan nan nan 0.000000
215.842941 -437.250122 0.000159 0.227605
204.415680 -425.434021 0.009985 1.000000
199.629593 -420.485077 -0.000004 0.334804
196.916840 -417.680023 -0.000007 0.336397
195.184952 -415.889160 -0.000003 0.319730
193.981232 -414.644501 -0.000002 0.337745
193.094406 -413.727478 -0.000003 0.323529
nan nan nan 0.000000
nan nan nan 0.000000
nan nan nan 0.000000
219.287125 -441.273407 8.822748 0.408456
219.807007 -441.818542 7.377985 0.403922
223.290222 -445.470978 6.246998 0.397917
218.539429 -440.489380 4.206377 0.411275
223.755203 -445.958557 2.858604 0.376226
223.738800 -445.941345 1.141785 0.374020
215.637909 -437.446930 0.000163 0.227605
204.377625 -425.639618 -0.000014 0.331495
199.542038 -420.569153 -0.000004 0.333578
196.848953 -417.745209 -0.000007 0.333946
195.129608 -415.942352 -0.000003 0.338725
193.934616 -414.689270 -0.000002 0.335417
193.054184 -413.766113 -0.000002 0.333946
nan nan nan 0.000000
nan nan nan 0.000000
nan nan nan 0.000000
219.779022 -442.265167 8.979736 0.388971
219.031097 -441.469910 7.287485 0.412868
219.941971 -442.438477 5.877676 0.406005
219.610886 -442.086426 4.299535 0.394730
nan nan nan 0.000000
nan nan nan 0.000000
215.433838 -437.644775 -0.000001 0.229239
204.253998 -425.756714 -0.000014 0.334069
199.453934 -420.652588 -0.000004 0.333701
196.780609 -417.809937 -0.000007 0.327451
195.073883 -415.995117 -0.000003 0.328309
193.887665 -414.733734 -0.000002 0.331740
193.013718 -413.804443 -0.000002 0.336029
nan nan nan 0.000000
nan nan nan 0.000000
nan nan nan 0.000000
222.380768 -445.553802 9.599682 0.417525
218.830139 -441.725098 7.293162 0.407598
219.216568 -442.141754 5.819298 0.405515
219.547577 -442.498718 4.312218 0.424387
nan nan nan 0.000000
nan nan nan 0.000000
215.223816 -437.836273 0.000165 0.226259
204.129532 -425.872955 -0.000014 0.334069
199.365234 -420.735443 -0.000004 0.335172
196.711807 -417.874176 -0.000007 0.336887
195.017807 -416.047485 -0.000003 0.334559
193.840408 -414.777863 -0.000002 0.333578
192.972992 -413.842468 -0.000003 0.341054
nan nan nan 0.000000
nan nan nan 0.000000
nan nan nan 0.000000
222.807327 -446.550323 9.751282 0.418382
222.864838 -446.613159 8.021241 0.404044
223.228287 -447.010620 6.335804 0.408456
221.571945 -445.199341 4.477184 0.404902
nan nan nan 0.000000
nan nan nan 0.000000
215.014664 -438.028656 0.000173 0.224241
204.004272 -425.988312 -0.000014 0.332108
199.275940 -420.817657 -0.000004 0.336275
196.642563 -417.937958 -0.000007 0.333456
194.961349 -416.099457 -0.000003 0.337500
193.792862 -414.821655 -0.000002 0.329412
192.931976 -413.880219 -0.000002 0.341789
nan nan nan 0.000000
nan nan nan 0.000000
nan nan nan 0.000000
nan nan nan 0.000000
222.257019 -446.484772 7.963297 0.405637
221.560532 -445.712372 6.165064 0.410539
221.927322 -446.119141 4.522372 0.419975
nan nan nan 0.000000
nan nan nan 0.000000
214.805481 -438.221069 0.000083 0.227028
203.878204 -426.102753 -0.000014 0.331618
199.186081 -420.899231 -0.000004 0.331373
196.572891 -418.001221 -0.000007 0.336397
194.904556 -416.151031 -0.000003 0.330760
193.745010 -414.865112 -0.000001 0.326961
192.890701 -413.917725 -0.000003 0.330025
nan nan nan 0.000000
nan nan nan 0.000000
nan nan nan 0.000000
nan nan nan 0.000000
222.570374 -447.381805 8.064227 0.405515
222.221817 -446.989807 6.279269 0.415564
222.334305 -447.116302 4.572205 0.404044
nan nan nan 0.000000
nan nan nan 0.000000
214.591537 -438.408142 0.000248 0.228085
203.751343 -426.216370 -0.000014 0.332721
199.095657 -420.980225 -0.000004 0.330760
196.502762 -418.064026 -0.000007 0.333456
194.847382 -416.202240 -0.000003 0.335907
193.696838 -414.908234 -0.000002 0.333946
192.849182 -413.954895 -0.000002 0.336152
nan nan nan 0.000000
nan nan nan 0.000000
nan nan nan 0.000000
nan nan nan 0.000000
222.812607 -448.216339 8.154637 0.400490
221.957153 -447.240601 6.280319 0.408578
nan nan nan 0.000000
nan nan nan 0.000000
nan nan nan 0.000000
214.380737 -438.598785 0.000081 0.228278
203.623688 -426.329071 -0.000013 0.332353
199.004684 -421.060547 -0.000003 0.333333
196.432205 -418.126312 -0.000007 0.331863
194.789856 -416.253021 -0.000003 0.338603
193.617859 -414.916199 0.010000 1.000000
192.807404 -413.991791 -0.000003 0.328922
nan nan nan 0.000000
nan nan nan 0.000000
nan nan nan 0.000000
nan nan nan 0.000000
nan nan nan 0.000000
nan nan nan 0.000000
nan nan nan 0.000000
nan nan nan 0.000000
nan nan nan 0.000000
214.166245 -438.785217 0.000093 0.227220
203.495255 -426.440857 -0.000013 0.332475
198.913147 -421.140198 -0.000003 0.331373
196.361206 -418.188110 -0.000007 0.336765
194.731995 -416.303406 -0.000003 0.333333
193.569336 -414.958435 0.009999 1.000000
192.765350 -414.028381 -0.000003 0.314093
nan nan nan 0.000000
nan nan nan 0.000000
nan nan nan 0.000000
nan nan nan 0.000000
nan nan nan 0.000000
221.591263 -447.934906 6.303770 0.400735
nan nan nan 0.000000
nan nan nan 0.000000
nan nan nan 0.000000
213.948425 -438.967773 0.000257 0.224914
203.366028 -426.551788 -0.000014 0.333333
198.821030 -421.219269 -0.000003 0.333211
196.289764 -418.249390 -0.000006 0.336275
194.673767 -416.353394 -0.000003 0.335172
193.520523 -415.000336 0.009998 1.000000
192.723053 -414.064697 -0.000003 0.333946
nan nan nan 0.000000
nan nan nan 0.000000
nan nan nan 0.000000
nan nan nan 0.000000
nan nan nan 0.000000
nan nan nan 0.000000
nan nan nan 0.000000
nan nan nan 0.000000
nan nan nan 0.000000
213.733673 -439.153961 0.000090 0.226644
203.236053 -426.661804 -0.000013 0.332598
198.728394 -421.297699 -0.000003 0.333211
196.217926 -418.310242 -0.000007 0.333088
194.615189 -416.402954 -0.000003 0.332475
193.501221 -415.077362 -0.000002 0.337010
192.680496 -414.100708 -0.000003 0.332475
nan nan nan 0.000000
nan nan nan 0.000000
nan nan nan 0.000000
nan nan nan 0.000000
nan nan nan 0.000000
nan nan nan 0.000000
nan nan nan 0.000000
nan nan nan 0.000000
nan nan nan 0.000000
213.516907 -439.337769 -0.000021 0.332230
203.105301 -426.770874 -0.000013 0.332353
198.635208 -421.375458 -0.000004 0.333578
196.145645 -418.370544 -0.000007 0.334191
194.556259 -416.452118 -0.000003 0.332843
193.451584 -415.118774 -0.000002 0.331740
192.637711 -414.136414 -0.000002 0.317279
nan nan nan 0.000000
nan nan nan 0.000000
nan nan nan 0.000000
