# This PCD file was generated using the MATLABÂ® pcwrite function
# from Computer Vision ToolboxÂ®.
# .PCD v.7 - Point Cloud Data file format
VERSION .7
FIELDS x y z intensity
SIZE 4 4 4 4
TYPE F F F F
COUNT 1 1 1 1
WIDTH 1163
HEIGHT 1
VIEWPOINT 0 0 0 1 0 0 0
POINTS 1163
DATA ascii
427.374817 -573.834534 0.000232 0.222991
425.609711 -575.592957 0.000334 0.189158
424.383728 -576.814270 0.000185 0.213379
423.479706 -577.714844 0.000294 0.185409
431.652252 -569.764282 6.855628 0.661765
431.645844 -569.770630 6.184770 0.548529
431.639557 -569.776794 5.523936 0.623529
431.633331 -569.782959 4.871522 0.538603
431.627197 -569.788940 4.225993 0.587868
431.621094 -569.794922 3.585877 0.618137
431.615021 -569.800903 2.949749 0.575123
431.608978 -569.806824 2.316219 0.607108
431.602966 -569.812744 1.683920 0.622794
431.596893 -569.818665 1.051500 0.555760
431.590851 -569.824646 0.417596 1.000000
430.223816 -571.167603 0.000323 0.216167
427.440369 -573.902100 0.000369 0.208670
425.663147 -575.648010 0.000470 0.284410
424.428772 -576.860657 0.000309 0.230681
423.518677 -577.754761 0.000389 0.258843
431.634155 -569.970276 6.816354 0.538235
431.627808 -569.976379 6.150940 0.638971
431.621582 -569.982483 5.495465 0.514093
431.615448 -569.988403 4.848336 0.473039
431.609344 -569.994263 4.208028 0.485907
431.603302 -570.000122 3.573083 0.516176
431.597290 -570.005981 2.942090 0.555392
431.591309 -570.011719 2.313670 0.543995
431.585388 -570.017517 1.686466 0.637990
431.579346 -570.023376 1.059139 0.594975
431.573364 -570.029175 0.430334 1.000000
430.307587 -571.255371 0.000476 0.224529
427.506500 -573.969055 0.000279 0.229527
425.717072 -575.702576 0.000377 0.216359
424.474182 -576.906677 0.000221 0.237120
423.557800 -577.794434 0.000308 0.234525
431.616394 -570.172852 6.777967 0.560172
431.610107 -570.178833 6.117868 0.555637
431.603912 -570.184814 5.467628 0.518505
431.597870 -570.190613 4.825662 0.650490
431.591827 -570.196350 4.190459 0.589706
431.585846 -570.202087 3.560572 0.333701
431.579895 -570.207764 2.934600 0.296936
431.573975 -570.213440 2.311177 0.303064
431.568024 -570.219055 1.688957 0.652451
431.562073 -570.224792 1.066609 0.663113
431.556152 -570.230469 0.442793 1.000000
430.392242 -571.342407 0.000396 0.238178
427.572021 -574.036560 0.000223 0.208766
425.770538 -575.757629 0.000314 0.191273
424.519379 -576.952881 0.000115 0.217897
423.596771 -577.834290 0.000197 0.273645
431.598938 -570.372253 6.740417 0.621814
431.592712 -570.378174 6.085521 0.570221
431.586578 -570.383911 5.440397 0.559069
431.580536 -570.389587 4.803482 0.556127
431.574554 -570.395203 4.173272 0.449265
431.568634 -570.400879 3.548333 0.354534
431.562714 -570.406372 2.927273 0.179412
431.556854 -570.411926 2.308738 0.242770
431.550964 -570.417419 1.691394 0.698039
431.545074 -570.422974 1.073917 0.534069
431.539215 -570.428589 0.454981 1.000000
430.476349 -571.429810 0.000302 0.210496
427.637054 -574.104675 0.000170 0.245290
425.823700 -575.812927 0.000215 0.193676
424.564117 -576.999512 0.000031 0.219050
423.635468 -577.874390 0.000079 0.227605
431.581726 -570.568604 6.703681 0.572549
431.575592 -570.574280 6.053875 0.555147
431.569519 -570.579956 5.413760 0.583211
431.563507 -570.585510 4.781782 0.676716
431.557587 -570.591003 4.156458 0.631005
431.551697 -570.596497 3.536357 0.622672
431.545837 -570.601929 2.920104 0.479657
431.540009 -570.607361 2.306352 0.513480
431.534180 -570.612732 1.693778 0.698407
431.528351 -570.618164 1.081068 0.564093
431.522522 -570.623535 0.466905 1.000000
430.558380 -571.519287 0.000438 0.221069
427.700775 -574.173950 0.000294 0.214437
425.875610 -575.869446 0.000342 0.277201
424.607056 -577.047913 0.000398 0.229335
423.673187 -577.915466 0.000203 0.189831
431.564819 -570.761902 6.667736 0.603676
431.558716 -570.767456 6.022907 0.544730
431.552673 -570.773010 5.387693 0.601716
431.546722 -570.778442 4.760550 0.648652
431.540863 -570.783813 4.140004 0.555515
431.535004 -570.789185 3.524639 0.570098
431.529205 -570.794434 2.913089 0.615809
431.523438 -570.799805 2.304017 0.530392
431.517670 -570.805054 1.696110 0.650000
431.511902 -570.810364 1.088064 0.574510
431.506134 -570.815674 0.478574 1.000000
430.641541 -571.607666 0.000300 0.231738
427.765411 -574.242310 0.000124 0.222895
425.928375 -575.925171 0.000166 0.200308
424.651489 -577.094849 0.000219 0.232699
423.711304 -577.956116 0.000082 0.261822
431.548096 -570.952271 6.632548 0.633333
431.542053 -570.957764 5.992597 0.569853
431.536102 -570.963135 5.362181 0.509681
431.530212 -570.968506 4.739770 0.565074
431.524384 -570.973755 4.123901 0.578554
431.518555 -570.978943 3.513172 0.621446
431.512817 -570.984131 2.906225 0.568137
431.507111 -570.989319 2.301733 0.519118
431.501373 -570.994446 1.698393 0.642034
431.495667 -570.999695 1.094912 0.552941
431.489929 -571.004822 0.489993 1.000000
430.721863 -571.698608 0.000506 0.204152
427.827911 -574.312744 0.000292 0.195021
425.979431 -575.982422 0.000299 0.218954
424.694580 -577.143005 0.000344 0.234141
423.747711 -577.998352 0.000457 0.185313
431.531647 -571.139832 6.598109 0.518750
431.525635 -571.145203 5.962929 0.608578
431.519745 -571.150452 5.337209 0.528554
431.513916 -571.155640 4.719431 0.597181
431.508118 -571.160767 4.108142 0.618382
431.502380 -571.165894 3.501949 0.577328
431.496704 -571.171021 2.899506 0.572917
431.490997 -571.176025 2.299496 0.619976
431.485352 -571.181091 1.700627 0.618750
431.479675 -571.186157 1.101614 0.629779
431.473969 -571.191162 0.501169 1.000000
430.803833 -571.788086 0.000359 0.229335
427.891663 -574.381958 0.000111 0.197616
426.031403 -576.038940 0.000124 0.218378
424.738068 -577.190918 0.000247 0.218185
423.785431 -578.039307 0.000287 0.198289
431.515442 -571.324646 6.564404 0.543995
431.509491 -571.329834 5.933889 0.590809
431.503632 -571.334961 5.312764 0.660907
431.497864 -571.340088 4.699520 0.595098
431.492126 -571.345154 4.092713 0.535417
431.486450 -571.350098 3.490963 0.654902
431.480774 -571.355042 2.892929 0.606618
431.475159 -571.359985 2.297308 0.711887
431.469543 -571.364929 1.702815 0.604289
431.463928 -571.369873 1.108174 0.703799
431.458282 -571.374817 0.512110 1.000000
430.883331 -571.879822 0.000498 0.220396
427.953308 -574.453125 0.000253 0.212130
426.081665 -576.096802 0.000255 0.196847
424.779602 -577.240417 0.000614 0.217609
423.821991 -578.081421 0.000416 0.255094
431.499512 -571.506714 6.531412 0.563848
431.493591 -571.511841 5.905468 0.526103
431.487793 -571.516907 5.288842 0.534436
431.482025 -571.521851 4.680032 0.541544
431.476349 -571.526733 4.077612 0.467157
431.470734 -571.531616 3.480207 0.624142
431.465118 -571.536499 2.886490 0.539093
431.459564 -571.541321 2.295165 0.540564
431.453979 -571.546143 1.704956 0.518137
431.448395 -571.551025 1.114596 0.597304
431.442810 -571.555847 0.522820 1.000000
430.963013 -571.971313 0.000511 0.231353
428.015076 -574.524109 0.000265 0.203191
426.131989 -576.154785 0.000285 0.259419
424.822083 -577.289063 0.000608 0.226932
423.858643 -578.123413 0.000401 0.192330
431.483795 -571.686218 6.499117 0.679779
431.477905 -571.691223 5.877646 0.483333
431.472168 -571.696106 5.265420 0.480392
431.466461 -571.700989 4.660954 0.507230
431.460815 -571.705811 4.062828 0.713726
431.455231 -571.710571 3.469678 0.517524
431.449677 -571.715271 2.880187 0.507475
431.444122 -571.720093 2.293067 0.491054
431.438629 -571.724792 1.707052 0.547426
431.433075 -571.729492 1.120884 0.570343
431.427521 -571.734253 0.533307 1.000000
431.042816 -572.062744 0.000406 0.218762
428.077026 -574.594971 0.000156 0.193579
426.181458 -576.213440 0.000418 0.250577
424.864624 -577.337769 0.000498 0.186659
423.895355 -578.165344 0.000278 0.205882
431.468292 -571.863159 6.467491 0.549020
431.462494 -571.868042 5.850398 0.525123
431.456726 -571.872864 5.242483 0.501348
431.451111 -571.877625 4.642272 0.603309
431.445496 -571.882324 4.048351 0.745956
431.439941 -571.886963 3.459368 0.545098
431.434448 -571.891663 2.874015 0.496446
431.428955 -571.896301 2.291013 0.474632
431.423462 -571.900879 1.709104 0.619730
431.417999 -571.905518 1.127041 0.649265
431.412506 -571.910156 0.543575 1.000000
431.122284 -572.154419 0.000256 0.252595
428.137512 -574.667053 0.000225 0.242407
426.231567 -576.271545 0.000305 0.221934
424.907104 -577.386536 0.000310 0.209823
423.931213 -578.208008 0.000347 0.211649
431.453003 -572.037659 6.436519 0.512745
431.447235 -572.042419 5.823716 0.625000
431.441559 -572.047119 5.220024 0.572917
431.435944 -572.051819 4.623977 0.610907
431.430389 -572.056396 4.034174 0.584436
431.424896 -572.060974 3.449272 0.293995
431.419434 -572.065552 2.867970 0.220343
431.413971 -572.070068 2.289001 0.236029
431.408539 -572.074585 1.711114 0.669608
431.403107 -572.079102 1.133071 0.638358
431.397644 -572.083618 0.553631 1.000000
431.200195 -572.247498 0.000242 0.208574
428.197754 -574.739380 0.000246 0.202230
426.280914 -576.330322 0.000270 0.245483
424.948608 -577.436035 0.000291 0.237120
423.967102 -578.250671 0.000293 0.252787
431.437927 -572.209778 6.406188 0.656495
431.432190 -572.214417 5.797585 0.596201
431.426544 -572.219055 5.198029 0.671691
431.421021 -572.223572 4.606060 0.646446
431.415497 -572.228088 4.020290 0.368505
431.410034 -572.232544 3.439384 0.276103
431.404602 -572.237000 2.862051 0.184926
431.399200 -572.241394 2.287031 0.250735
431.393829 -572.245789 1.713083 0.701226
431.388428 -572.250305 1.138976 0.655760
431.383026 -572.254700 0.563478 1.000000
431.276215 -572.342102 0.000414 0.223376
428.256897 -574.812561 0.000382 0.232699
426.328918 -576.390137 0.000453 0.206267
424.989258 -577.486267 0.000425 0.226740
424.002106 -578.294006 0.000440 0.177624
431.423065 -572.379517 6.376482 0.637377
431.417358 -572.384094 5.771993 0.576838
431.411774 -572.388611 5.176485 0.593750
431.406250 -572.393066 4.588511 0.571446
431.400818 -572.397461 4.006692 0.378064
431.395386 -572.401855 3.429699 0.700858
431.390015 -572.406189 2.856253 0.553922
431.384644 -572.410522 2.285102 0.505147
431.379303 -572.414795 1.715011 0.682108
431.373932 -572.419128 1.144760 0.629289
431.368561 -572.423462 0.573124 1.000000
431.352814 -572.436157 0.000399 0.230008
428.316162 -574.885742 0.000400 0.200404
426.377380 -576.449646 0.000438 0.246059
425.029877 -577.536621 0.000462 0.204248
424.037170 -578.337341 0.000458 0.222222
431.408356 -572.547058 6.347384 0.675613
431.402740 -572.551514 5.746924 0.507353
431.397217 -572.555969 5.155383 0.568260
431.391724 -572.560303 4.571323 0.553799
431.386322 -572.564575 3.993371 0.572917
431.380951 -572.568848 3.420213 0.616789
431.375580 -572.573120 2.850574 0.534069
431.370270 -572.577332 2.283211 0.503431
431.364960 -572.581543 1.716900 0.654779
431.359650 -572.585815 1.150426 0.647304
431.354340 -572.590027 0.582573 1.000000
431.429260 -572.530457 0.000313 0.234141
428.374176 -574.959839 0.000553 0.237120
426.425751 -576.509155 0.000336 0.214629
425.070709 -577.586670 0.000335 0.258554
424.072174 -578.380676 0.000411 0.223376
431.393890 -572.712341 6.318880 0.670466
431.388306 -572.716675 5.722368 0.425490
431.382813 -572.721069 5.134712 0.523775
431.377380 -572.725342 4.554485 0.529657
431.371979 -572.729553 3.980323 0.573039
431.366669 -572.733704 3.410921 0.646814
431.361359 -572.737854 2.845011 0.545833
431.356079 -572.742004 2.281359 0.535784
431.350800 -572.746155 1.718750 0.625123
431.345551 -572.750305 1.155976 0.598162
431.340271 -572.754395 0.591830 1.000000
431.504303 -572.625793 0.000338 0.235390
428.432251 -575.033875 0.000602 0.211265
426.473297 -576.569397 0.000342 0.224337
425.110809 -577.637390 0.000321 0.287582
424.106750 -578.424438 0.000395 0.237601
431.379578 -572.875488 6.290948 0.525490
431.374054 -572.879822 5.698305 0.587500
431.368591 -572.884033 5.114457 0.510662
431.363190 -572.888184 4.537985 0.462255
431.357849 -572.892273 3.967538 0.492279
431.352570 -572.896362 3.401815 0.580024
431.347321 -572.900452 2.839560 0.524632
431.342072 -572.904480 2.279545 0.483946
431.336853 -572.908508 1.720563 0.540809
431.331635 -572.912598 1.161414 0.605025
431.322510 -572.919556 0.601298 1.000000
431.578430 -572.721863 0.000394 0.223856
428.489563 -575.108459 0.000692 0.226163
426.520142 -576.630127 0.000398 0.263745
425.150391 -577.688477 0.000364 0.261534
424.140839 -578.468506 0.000437 0.224433
431.365570 -573.036560 6.263616 0.199877
431.360077 -573.040710 5.674758 0.193627
431.354675 -573.044861 5.094636 0.206863
431.349304 -573.048950 4.521841 0.200368
431.344025 -573.052979 3.955028 0.211397
431.338745 -573.056946 3.392906 0.224632
431.333557 -573.060913 2.834226 0.232966
431.328369 -573.064819 2.277770 0.234191
431.323181 -573.068787 1.722337 0.267647
431.317993 -573.072754 1.166735 0.295466
431.312805 -573.076660 0.609771 0.369485
431.654022 -572.816833 0.000143 0.210496
428.548340 -575.182007 0.000412 0.242407
426.568085 -576.690063 0.000110 0.217897
425.190491 -577.739197 0.000158 0.202999
424.175629 -578.512085 0.000170 0.259612
431.351563 -573.195618 6.236788 0.568627
431.346100 -573.199707 5.651644 0.471814
431.340729 -573.203735 5.075177 0.603064
431.335419 -573.207703 4.505989 0.596078
431.330170 -573.211670 3.942743 0.472059
431.324951 -573.215576 3.384157 0.623039
431.319763 -573.219482 2.828989 0.615196
431.314636 -573.223328 2.276027 0.472426
431.309479 -573.227234 1.724079 0.647794
431.304291 -573.231079 1.171961 0.558211
431.299133 -573.234985 0.618488 1.000000
431.291077 -573.241028 0.062880 1.000000
428.604950 -575.257141 0.000434 0.195502
426.614319 -576.751282 0.000121 0.199539
425.229431 -577.790771 0.000171 0.227028
424.209290 -578.556458 0.000147 0.204825
431.337860 -573.352600 6.210533 0.518260
431.332458 -573.356567 5.629027 0.772549
431.327118 -573.360535 5.056140 0.621569
431.321838 -573.364441 4.490483 0.640564
431.316650 -573.368286 3.930728 0.621201
431.311462 -573.372131 3.375598 0.618260
431.306305 -573.375916 2.823864 0.662868
431.301178 -573.379761 2.274321 0.562377
431.296082 -573.383545 1.725783 0.653064
431.290955 -573.387329 1.177075 0.572672
431.285767 -573.391174 0.627020 1.000000
431.280762 -573.394897 0.074408 1.000000
428.660919 -575.332825 0.000486 0.235967
426.658722 -576.813904 0.000449 0.215975
425.267822 -577.842773 0.000233 0.220877
424.241638 -578.601929 0.000445 0.211265
431.324310 -573.507751 6.184800 0.615564
431.318939 -573.511658 5.606856 0.620711
431.313660 -573.515503 5.037478 0.581373
431.308411 -573.519348 4.475281 0.659926
431.303223 -573.523132 3.918946 0.452328
431.298096 -573.526794 3.367208 0.474265
431.292969 -573.530518 2.818841 0.489951
431.287903 -573.534241 2.272649 0.477819
431.282837 -573.537964 1.727454 0.510539
431.277679 -573.541687 1.182088 0.525245
431.272583 -573.545410 0.635380 1.000000
431.267609 -573.549072 0.086129 1.000000
428.716522 -575.408752 0.000500 0.229335
426.704254 -576.875671 0.000427 0.238274
425.306183 -577.894836 0.000205 0.200019
424.274689 -578.646790 0.000430 0.191273
431.310913 -573.660950 6.159576 0.628922
431.305573 -573.664795 5.585125 0.622059
431.300293 -573.668579 5.019184 0.572794
431.295105 -573.672302 4.460379 0.585294
431.289978 -573.676025 3.907398 0.402941
431.284851 -573.679688 3.358983 0.516544
431.279785 -573.683350 2.813917 0.487745
431.274719 -573.686890 2.271010 0.487745
431.269684 -573.690552 1.729092 0.583088
431.264618 -573.694214 1.187001 0.576348
431.259521 -573.697815 0.643574 1.000000
431.254578 -573.701416 0.097616 1.000000
428.771332 -575.485291 0.000567 0.245867
426.748779 -576.938110 0.000524 0.251922
425.343872 -577.947327 0.000258 0.280469
424.307190 -578.692017 0.000489 0.284121
431.297638 -573.812378 6.134857 0.512010
431.292358 -573.816101 5.563827 0.667892
431.287140 -573.819824 5.001255 0.433211
431.281982 -573.823486 4.445774 0.503186
431.276855 -573.827087 3.896079 0.327328
431.271820 -573.830688 3.350922 0.226716
431.266754 -573.834229 2.809091 0.214828
431.261749 -573.837830 2.269404 0.216422
431.256714 -573.841309 1.730697 0.628554
431.251709 -573.844849 1.191816 0.568015
431.246643 -573.848450 0.651604 1.000000
431.241730 -573.851990 0.108875 1.000000
428.827362 -575.560852 0.000311 0.216263
426.794617 -576.999695 0.000237 0.193964
425.382294 -577.999329 0.000018 0.190311
424.340454 -578.736755 0.000198 0.214629
431.284576 -573.961975 6.110626 0.539338
431.279297 -573.965637 5.542952 0.493015
431.274109 -573.969299 4.983682 0.626103
431.268982 -573.972839 4.431459 0.576226
431.263916 -573.976379 3.884986 0.367157
431.258911 -573.979919 3.343020 0.239216
431.253876 -573.983398 2.804360 0.181740
431.248871 -573.986816 2.267829 0.247059
431.243927 -573.990295 1.732270 0.669853
431.238922 -573.993835 1.196535 0.474877
431.233917 -573.997314 0.659475 1.000000
431.229004 -574.000732 0.119911 1.000000
428.881653 -575.637756 0.000283 0.225779
426.838531 -577.062561 0.000281 0.205594
425.418549 -578.052917 0.000259 0.197712
424.372406 -578.782410 0.000227 0.299692
431.271637 -574.109863 6.086878 0.561520
431.266388 -574.113464 5.522491 0.559436
431.261261 -574.117004 4.966457 0.634069
431.256165 -574.120483 4.417427 0.544363
431.251129 -574.123962 3.874113 0.445956
431.246124 -574.127441 3.335277 0.564216
431.241150 -574.130859 2.799724 0.502083
431.236206 -574.134216 2.266286 0.468382
431.231232 -574.137634 1.733812 0.649387
431.226318 -574.140991 1.201161 0.572181
431.221313 -574.144470 0.667190 1.000000
431.216461 -574.147827 0.130727 1.000000
428.934631 -575.715515 0.000387 0.230584
426.881714 -577.126038 0.000383 0.234717
425.455200 -578.106079 0.000297 0.228758
424.403717 -578.828552 0.000350 0.216936
431.258820 -574.256104 6.063601 0.562990
431.253662 -574.259583 5.502436 0.547672
431.248535 -574.263062 4.949574 0.652696
431.243500 -574.266479 4.403674 0.573529
431.238464 -574.269897 3.863455 0.811275
431.233521 -574.273254 3.327685 0.772917
431.228577 -574.276550 2.795179 0.675613
431.223633 -574.279907 2.264773 0.651226
431.218750 -574.283203 1.735324 0.606740
431.213837 -574.286560 1.205695 0.581250
431.208893 -574.289917 0.674753 1.000000
431.204041 -574.293213 0.141330 1.000000
428.988342 -575.792847 0.000262 0.206844
426.925446 -577.189026 0.000274 0.235294
425.491791 -578.159363 0.000247 0.276817
424.435516 -578.874268 0.000232 0.216167
431.246185 -574.400635 6.040780 0.583824
431.241028 -574.404053 5.482775 0.486887
431.235962 -574.407471 4.933023 0.574142
431.230927 -574.410828 4.390192 0.598652
431.225983 -574.414124 3.853007 0.548039
431.221039 -574.417358 3.320244 0.632966
431.216125 -574.420654 2.790724 0.562010
431.211243 -574.423950 2.263290 0.516422
431.206360 -574.427185 1.736806 0.602941
431.201477 -574.430481 1.210140 0.561029
431.196594 -574.433716 0.682166 1.000000
431.191772 -574.436890 0.151724 1.000000
429.040253 -575.871277 0.000364 0.245194
426.967834 -577.252991 0.000361 0.241830
425.526642 -578.213867 0.000560 0.247885
424.466461 -578.920654 0.000277 0.237697
431.233673 -574.543579 6.018412 0.570711
431.228577 -574.546936 5.463501 0.530882
431.223511 -574.550293 4.916798 0.541789
431.218536 -574.553528 4.376975 0.608088
431.213623 -574.556763 3.842764 0.443873
431.208710 -574.559998 3.312950 0.586765
431.203827 -574.563171 2.786357 0.619730
431.198944 -574.566406 2.261837 0.593505
431.194122 -574.569580 1.738258 0.665074
431.189301 -574.572693 1.214497 0.549632
431.184387 -574.575928 0.689434 1.000000
431.179626 -574.579102 0.161914 1.000000
429.092621 -575.949524 0.000286 0.205786
427.010651 -577.316711 0.000254 0.252115
425.562744 -578.267456 0.000446 0.227605
424.497375 -578.967041 0.000223 0.262976
431.221344 -574.684875 5.996487 0.573284
431.216248 -574.688232 5.444610 0.627819
431.211212 -574.691467 4.900892 0.518260
431.206238 -574.694702 4.364017 0.570711
431.201385 -574.697876 3.832722 0.564951
431.196503 -574.700989 3.305799 0.625368
431.191650 -574.704163 2.782076 0.583211
431.186829 -574.707214 2.260412 0.621324
431.182037 -574.710327 1.739682 0.580760
431.177216 -574.713501 1.218769 0.529534
431.172363 -574.716614 0.696559 1.000000
431.167603 -574.719727 0.171903 1.000000
429.144135 -576.028259 0.000266 0.225106
427.052490 -577.380981 0.000265 0.239043
425.597931 -578.321716 0.000474 0.246251
424.527893 -579.013672 0.000202 0.264418
431.209137 -574.824768 5.974998 0.557476
431.204071 -574.828003 5.426093 0.572549
431.199066 -574.831177 4.885303 0.605760
431.194122 -574.834351 4.351315 0.547181
431.189240 -574.837463 3.822878 0.521936
431.184418 -574.840454 3.298787 0.728554
431.179626 -574.843567 2.777878 0.617647
431.174835 -574.846619 2.259015 0.664216
431.170044 -574.849670 1.741078 0.650735
431.165253 -574.852722 1.222957 0.559559
431.160431 -574.855774 0.703544 1.000000
431.155731 -574.858765 0.181696 1.000000
429.194977 -576.107483 0.000263 0.235775
427.094116 -577.445435 0.000228 0.202614
425.632996 -578.375977 0.000427 0.244425
424.558167 -579.060425 0.000150 0.225779
431.197021 -574.963135 5.953917 0.610049
431.192017 -574.966309 5.407936 0.552696
431.187073 -574.969360 4.870023 0.576226
431.182159 -574.972412 4.338868 0.542892
431.177277 -574.975464 3.813229 0.519240
431.172455 -574.978516 3.291914 0.602819
431.167694 -574.981506 2.773763 0.484926
431.162964 -574.984497 2.257645 0.536887
431.158203 -574.987488 1.742447 0.533946
431.153473 -574.990417 1.227063 0.556127
431.148651 -574.993469 0.710392 1.000000
431.143951 -574.996399 0.191297 1.000000
429.245392 -576.186951 0.000237 0.219146
427.134979 -577.510376 0.000253 0.234717
425.667328 -578.430725 0.000479 0.203960
424.588013 -579.107544 0.000131 0.193964
431.185028 -575.100037 5.933249 0.510417
431.180023 -575.103088 5.390125 0.604412
431.175110 -575.106140 4.855027 0.641544
431.170258 -575.109192 4.326654 0.538603
431.165436 -575.112183 3.803767 0.543260
431.160675 -575.115051 3.285175 0.631127
431.155914 -575.117981 2.769729 0.548162
431.151184 -575.120911 2.256302 0.572426
431.146454 -575.123840 1.743789 0.609191
431.141754 -575.126770 1.231088 0.481740
431.136993 -575.129700 0.717105 1.000000
431.132294 -575.132568 0.200711 1.000000
429.295563 -576.266663 0.000162 0.223856
427.174805 -577.575928 0.000406 0.225490
425.701721 -578.485474 0.000421 0.247789
424.617706 -579.154724 0.000054 0.253076
431.173218 -575.235535 5.912997 0.543750
431.168213 -575.238525 5.372675 0.498529
431.163330 -575.241516 4.840334 0.731005
431.158478 -575.244446 4.314683 0.600490
431.153687 -575.247375 3.794488 0.734069
431.148956 -575.250244 3.278567 0.737377
431.144257 -575.253113 2.765773 0.727451
431.139557 -575.255920 2.254986 0.680392
431.134857 -575.258789 1.745105 0.646569
431.130219 -575.261658 1.235035 0.526348
431.125458 -575.264526 0.723688 1.000000
431.120819 -575.267334 0.209940 1.000000
429.344360 -576.347107 0.000225 0.206747
427.214417 -577.641663 0.000508 0.243752
425.735321 -578.540710 0.000463 0.235775
424.645691 -579.202942 0.000384 0.250000
431.161499 -575.369568 5.893141 0.498284
431.156555 -575.372559 5.355567 0.527574
431.151672 -575.375488 4.825933 0.537868
431.146851 -575.378357 4.302950 0.536765
431.142120 -575.381226 3.785396 0.501225
431.137390 -575.384033 3.272091 0.548897
431.132721 -575.386841 2.761895 0.544730
431.128052 -575.389648 2.253694 0.539706
431.123383 -575.392456 1.746394 0.534681
431.118744 -575.395142 1.238904 0.592770
431.114014 -575.398010 0.730142 1.000000
431.109406 -575.400757 0.218988 1.000000
429.393402 -576.427429 0.000145 0.258939
427.254608 -577.707031 0.000388 0.221934
425.769012 -578.595825 0.000379 0.240677
424.674896 -579.250427 0.000263 0.207805
431.149933 -575.502380 5.873674 0.690686
431.145020 -575.505188 5.338795 0.680882
431.140167 -575.508057 4.811811 0.519730
431.135376 -575.510925 4.291447 0.573775
431.130646 -575.513672 3.776482 0.343995
431.125977 -575.516479 3.265742 0.297672
431.121307 -575.519165 2.758094 0.318260
431.116669 -575.521912 2.252429 0.306250
431.112030 -575.524658 1.747659 0.457966
431.107391 -575.527405 1.242698 0.613603
431.102692 -575.530090 0.736469 1.000000
431.098114 -575.532837 0.227860 1.000000
429.441437 -576.508362 0.000151 0.213956
427.293732 -577.773010 0.000390 0.227220
425.802094 -578.651367 0.000353 0.259035
424.703308 -579.298401 0.000278 0.204537
431.138428 -575.633789 5.854589 0.545466
431.133575 -575.636597 5.322351 0.660539
431.128723 -575.639404 4.797969 0.562868
431.123962 -575.642151 4.280169 0.639583
431.119263 -575.644836 3.767742 0.348407
431.114624 -575.647583 3.259517 0.239216
431.109985 -575.650269 2.754366 0.231740
431.105347 -575.652893 2.251188 0.216422
431.100739 -575.655579 1.748899 0.492157
431.096191 -575.658264 1.246418 0.509559
431.091522 -575.661011 0.742673 1.000000
431.086945 -575.663574 0.236559 1.000000
429.488037 -576.590149 0.000300 0.227509
427.331696 -577.839722 0.000550 0.263168
425.833923 -578.707642 0.000553 0.198481
424.730896 -579.346802 0.000429 0.251442
431.127075 -575.763916 5.835876 0.615319
431.122223 -575.766663 5.306229 0.599020
431.117432 -575.769409 4.784396 0.643137
431.112701 -575.772156 4.269113 0.569118
431.108032 -575.774719 3.759172 0.360294
431.103394 -575.777405 3.253414 0.186397
431.098785 -575.780029 2.750711 0.192402
431.094208 -575.782715 2.249972 0.239583
431.089600 -575.785278 1.750115 0.561642
431.085022 -575.787903 1.250065 0.519240
431.080414 -575.790527 0.748756 1.000000
431.075867 -575.793091 0.245087 1.000000
429.536469 -576.670898 0.000039 0.251057
427.371216 -577.905457 0.000277 0.225010
425.867340 -578.763000 0.000254 0.273837
424.759552 -579.394592 0.000170 0.238178
431.115845 -575.892761 5.817531 0.617279
431.111023 -575.895508 5.290421 0.567892
431.106232 -575.898193 4.771089 0.542892
431.101532 -575.900818 4.258272 0.617034
431.096893 -575.903442 3.750771 0.464951
431.092285 -575.906006 3.247428 0.591544
431.087708 -575.908569 2.747128 0.532108
431.083099 -575.911194 2.248779 0.501593
431.078552 -575.913696 1.751306 0.629167
431.074036 -575.916260 1.253641 0.612990
431.069427 -575.918823 0.754720 1.000000
431.064911 -575.921326 0.253448 1.000000
429.581085 -576.753723 0.000331 0.220588
427.407776 -577.972961 0.000528 0.200404
425.898224 -578.819763 0.000481 0.200308
424.785889 -579.443787 0.000494 0.263649
431.104706 -576.020508 5.799546 0.532108
431.099884 -576.023071 5.274924 0.583211
431.095154 -576.025696 4.758042 0.655515
431.090485 -576.028320 4.247643 0.544976
431.085876 -576.030884 3.742533 0.930760
431.081268 -576.033386 3.241561 0.768382
431.076691 -576.035889 2.743615 0.728676
431.072144 -576.038452 2.247609 0.705515
431.067627 -576.040894 1.752475 0.704412
431.063141 -576.043396 1.257147 0.556740
431.058533 -576.045959 0.760567 1.000000
431.054047 -576.048462 0.261647 1.000000
429.627075 -576.835876 0.000291 0.212418
427.445496 -578.039734 0.000437 0.197905
425.929993 -578.876099 0.000403 0.219339
424.812439 -579.492737 0.000646 0.216455
431.093689 -576.146973 5.781912 0.498407
431.088898 -576.149536 5.259732 0.564951
431.084167 -576.152100 4.745252 0.633578
431.079529 -576.154602 4.237223 0.505270
431.074921 -576.157104 3.734457 0.543505
431.070374 -576.159546 3.235809 0.588113
431.065796 -576.162048 2.740171 0.634559
431.061310 -576.164551 2.246463 0.622304
431.056793 -576.166992 1.753621 0.643750
431.052307 -576.169373 1.260584 0.530515
431.047760 -576.171875 0.766299 1.000000
431.043274 -576.174316 0.269685 1.000000
429.672729 -576.918152 0.000209 0.228950
427.482697 -578.106812 0.000364 0.182430
425.961456 -578.932495 0.000295 0.202518
424.839478 -579.541504 0.000565 0.235582
431.082764 -576.272278 5.764624 0.512990
431.078003 -576.274841 5.244836 0.555637
431.073334 -576.277283 4.732711 0.606740
431.068665 -576.279785 4.227007 0.518873
431.064087 -576.282227 3.726540 0.656618
431.059570 -576.284607 3.230169 0.592770
431.055023 -576.287048 2.736795 0.567770
431.050537 -576.289429 2.245340 0.603554
431.046051 -576.291870 1.754744 0.617157
431.041565 -576.294189 1.263954 0.497672
431.037079 -576.296631 0.771920 1.000000
431.032623 -576.299011 0.277565 1.000000
429.717285 -577.001099 0.000219 0.211073
427.519226 -578.174316 0.000329 0.238658
425.992065 -578.989441 0.000300 0.244329
424.865967 -579.590454 0.000534 0.223664
431.071899 -576.396423 5.747675 0.495833
431.067200 -576.398926 5.230232 0.638235
431.062531 -576.401306 4.720417 0.469240
431.057922 -576.403748 4.216991 0.542647
431.053345 -576.406189 3.718777 0.494118
431.048859 -576.408508 3.224640 0.581127
431.044373 -576.410889 2.733485 0.567157
431.039856 -576.413269 2.244237 0.571078
431.035400 -576.415588 1.755845 0.510539
431.030975 -576.417908 1.267258 0.532230
431.026489 -576.420288 0.777430 1.000000
431.022064 -576.422546 0.285291 1.000000
429.762024 -577.083862 0.000099 0.224145
427.555481 -578.241882 0.000254 0.221549
426.022888 -579.046265 0.000157 0.200019
424.892334 -579.639587 0.000454 0.222895
431.061188 -576.519531 5.731058 0.490564
431.056488 -576.521973 5.215916 0.620098
431.051849 -576.524292 4.708364 0.618873
431.047272 -576.526672 4.207173 0.497917
431.042725 -576.529053 3.711168 0.524265
431.038208 -576.531311 3.219221 0.606005
431.033752 -576.533630 2.730239 0.599265
431.029327 -576.535950 2.243157 0.579657
431.024872 -576.538208 1.756924 0.563971
431.020447 -576.540527 1.270496 0.619608
431.015991 -576.542847 0.782832 1.000000
431.011566 -576.545044 0.292866 1.000000
429.804260 -577.167969 0.000302 0.266052
427.590179 -578.310364 0.000398 0.256344
426.051880 -579.104004 0.000362 0.259804
424.917542 -579.689270 0.000602 0.215494
431.050537 -576.641479 5.714771 0.590196
431.045868 -576.643921 5.201881 0.571814
431.041260 -576.646179 4.696549 0.706127
431.036713 -576.648499 4.197548 0.655515
431.032196 -576.650818 3.703708 0.676348
431.027710 -576.653076 3.213907 0.593137
431.023285 -576.655334 2.727058 0.539951
431.018829 -576.657593 2.242098 0.662377
431.014435 -576.659790 1.757983 0.685049
431.010040 -576.662048 1.273672 0.592157
431.005585 -576.664307 0.788127 1.000000
431.001190 -576.666504 0.300290 1.000000
429.847076 -577.251831 0.000312 0.230777
427.625092 -578.378723 0.000411 0.235486
426.081268 -579.161621 0.000375 0.217609
424.943024 -579.738831 0.000570 0.212226
431.040009 -576.762451 5.698804 0.526103
431.035370 -576.764709 5.188125 0.578799
431.030762 -576.767029 4.684967 0.596446
431.026215 -576.769287 4.188112 0.550490
431.021759 -576.771545 3.696396 0.548284
431.017303 -576.773743 3.208699 0.609191
431.012878 -576.775940 2.723939 0.596201
431.008453 -576.778137 2.241060 0.604412
431.004059 -576.780334 1.759020 0.572426
430.999664 -576.782532 1.276784 0.557721
430.995270 -576.784668 0.793319 1.000000
430.990875 -576.786926 0.307569 1.000000
429.888397 -577.336426 0.000470 0.212034
427.659943 -578.447021 0.000328 0.229815
426.110840 -579.219116 0.000247 0.227124
424.968323 -579.788513 0.000495 0.227220
431.029541 -576.882324 5.683155 0.568750
431.024933 -576.884583 5.174640 0.557108
431.020355 -576.886841 4.673615 0.516789
431.015839 -576.889038 4.178863 0.575735
431.011383 -576.891235 3.689228 0.573652
431.006958 -576.893372 3.203593 0.584681
431.002563 -576.895569 2.720883 0.588971
430.998169 -576.897705 2.240043 0.680882
430.993805 -576.899841 1.760037 0.669853
430.989410 -576.902039 1.279835 0.580515
430.985046 -576.904114 0.798407 1.000000
430.980682 -576.906250 0.314704 1.000000
429.930603 -577.420471 0.000379 0.215975
427.694092 -578.515686 0.000297 0.217897
426.139832 -579.276855 0.000160 0.211745
424.993439 -579.838257 0.000374 0.239715
431.019196 -577.001221 5.667815 0.696201
431.014587 -577.003418 5.161423 0.754412
431.010040 -577.005615 4.662487 0.597059
431.005554 -577.007751 4.169798 0.560417
431.001099 -577.009949 3.682202 0.633456
430.996704 -577.012085 3.198589 0.661152
430.992310 -577.014160 2.717886 0.596569
430.987976 -577.016235 2.239045 0.694975
430.983612 -577.018372 1.761034 0.588358
430.979279 -577.020447 1.282826 0.610294
430.974884 -577.022522 0.803395 0.614583
430.970581 -577.024658 0.321697 1.000000
429.971649 -577.505188 0.000391 0.215975
427.727509 -578.584839 0.000311 0.191657
426.168152 -579.334961 0.000136 0.263072
425.017731 -579.888428 0.000391 0.265571
431.008881 -577.119141 5.652770 0.546324
431.004303 -577.121338 5.148462 0.544976
430.999786 -577.123474 4.651578 0.515931
430.995331 -577.125549 4.160913 0.764216
430.990936 -577.127686 3.675315 0.501103
430.986511 -577.129700 3.193683 0.526103
430.982178 -577.131775 2.714949 0.518505
430.977814 -577.133850 2.238067 0.495588
430.973511 -577.135864 1.762011 0.563113
430.969177 -577.137939 1.285757 0.572794
430.964844 -577.140015 0.808284 0.562010
430.960510 -577.142029 0.328552 1.000000
430.011780 -577.590271 0.000452 0.227989
427.760254 -578.654175 0.000367 0.216647
426.195496 -579.393555 0.000247 0.254037
425.041565 -579.938782 0.000428 0.229815
430.998688 -577.236145 5.638033 0.524387
430.994141 -577.238281 5.135765 0.582475
430.989655 -577.240295 4.640887 0.581740
430.985229 -577.242371 4.152204 0.766054
430.980804 -577.244446 3.668565 0.543382
430.976440 -577.246460 3.188876 0.557721
430.972107 -577.248474 2.712071 0.547059
430.967773 -577.250427 2.237109 0.535662
430.963501 -577.252441 1.762968 0.563235
430.959167 -577.254456 1.288630 0.655392
430.954834 -577.256470 0.813075 0.574510
430.950562 -577.258484 0.335271 1.000000
430.052185 -577.675293 0.000371 0.238081
427.793213 -578.723511 0.000284 0.209727
426.222321 -579.452332 0.000387 0.239235
425.065460 -579.989136 0.000359 0.270185
430.988586 -577.352173 5.623592 0.535907
430.984039 -577.354187 5.123322 0.648897
430.979584 -577.356262 4.630412 0.558824
430.975159 -577.358276 4.143668 0.705024
430.970764 -577.360229 3.661951 0.343382
430.966461 -577.362244 3.184164 0.295588
430.962128 -577.364197 2.709250 0.331127
430.957825 -577.366150 2.236171 0.300123
430.953552 -577.368103 1.763907 0.589828
430.949249 -577.370056 1.291445 0.600000
430.944977 -577.372009 0.817771 0.495343
430.940674 -577.373962 0.341855 1.000000
430.091461 -577.760803 0.000377 0.209535
427.825226 -578.793152 0.000288 0.213187
426.249298 -579.511108 0.000395 0.218089
425.088867 -580.039734 0.000325 0.233564
430.978546 -577.467224 5.609440 0.564583
430.974030 -577.469299 5.111127 0.617525
430.969574 -577.471313 4.620146 0.486275
430.965210 -577.473206 4.135304 0.678799
430.960846 -577.475220 3.655468 0.346936
430.956512 -577.477112 3.179547 0.237500
430.952240 -577.479004 2.706486 0.231985
430.947937 -577.480957 2.235250 0.223284
430.943665 -577.482849 1.764826 0.642892
430.939423 -577.484741 1.294204 0.559559
430.935120 -577.486633 0.822372 0.541299
430.930847 -577.488586 0.348307 1.000000
430.130646 -577.846375 0.000299 0.202518
427.857391 -578.862854 0.000171 0.256344
426.276245 -579.569885 0.000306 0.209246
425.112122 -580.090393 0.000230 0.184352
430.968628 -577.581482 5.595574 0.578064
430.964111 -577.583496 5.099179 0.562010
430.959656 -577.585388 4.610086 0.527083
430.955322 -577.587341 4.127110 0.704534
430.950958 -577.589172 3.649117 0.351348
430.946655 -577.591125 3.175024 0.180637
430.942413 -577.593018 2.703777 0.343382
430.938141 -577.594849 2.234349 0.237990
430.933899 -577.596741 1.765727 0.672059
430.929657 -577.598572 1.296907 0.529657
430.925385 -577.600464 0.826881 0.566789
430.921143 -577.602356 0.354629 1.000000
430.168457 -577.932556 0.000354 0.218570
427.887909 -578.933228 0.000280 0.262111
426.301758 -579.629272 0.000467 0.237793
425.134338 -580.141479 0.000337 0.266436
430.958740 -577.694824 5.581989 0.586275
430.954254 -577.696777 5.087473 0.495098
430.949860 -577.698669 4.600230 0.580147
430.945496 -577.700500 4.119080 0.774142
430.941162 -577.702393 3.642894 0.366422
430.936920 -577.704285 3.170592 0.217770
430.932648 -577.706055 2.701123 0.371691
430.928406 -577.707886 2.233465 0.277819
430.924194 -577.709656 1.766610 0.702451
430.919952 -577.711548 1.299556 0.626961
430.915710 -577.713318 0.831299 0.515074
430.911469 -577.715149 0.360824 1.000000
430.205872 -578.018921 0.000367 0.222511
427.918518 -579.003662 0.000280 0.191561
426.327484 -579.688538 0.000478 0.277297
425.156647 -580.192566 0.000309 0.250865
430.948944 -577.807312 5.568682 0.535539
430.944489 -577.809265 5.076005 0.581495
430.940094 -577.811035 4.590574 0.586765
430.935760 -577.812927 4.111214 0.765809
430.931458 -577.814758 3.636798 0.691912
430.927185 -577.816528 3.166250 0.587868
430.922974 -577.818298 2.698523 0.562500
430.918762 -577.820068 2.232600 0.506005
430.914551 -577.821838 1.767475 0.673162
430.910309 -577.823608 1.302151 0.609436
430.906128 -577.825439 0.835627 0.645833
430.901886 -577.827209 0.366893 1.000000
430.243286 -578.105286 0.000284 0.247020
427.949219 -579.073914 0.000154 0.201461
426.353363 -579.747803 0.000348 0.235486
425.178802 -580.243713 0.000226 0.201749
430.939209 -577.919006 5.555644 0.677083
430.934814 -577.920837 5.064774 0.604289
430.930420 -577.922668 4.581121 0.575123
430.926117 -577.924438 4.103513 0.524632
430.921814 -577.926208 3.630829 0.604779
430.917603 -577.927979 3.161998 0.564828
430.913391 -577.929688 2.695977 0.636029
430.909180 -577.931458 2.231752 0.512255
430.904999 -577.933167 1.768322 0.550613
430.900757 -577.934937 1.304692 0.587500
430.896576 -577.936646 0.839867 0.575980
430.892395 -577.938416 0.372838 1.000000
430.279266 -578.192261 0.000339 0.278547
427.978302 -579.144958 0.000255 0.234910
426.377899 -579.807556 0.000446 0.221934
425.200104 -580.295227 0.000280 0.211361
430.929596 -578.029846 5.542880 0.488971
430.925171 -578.031677 5.053774 0.586765
430.920807 -578.033386 4.571858 0.555392
430.916534 -578.035156 4.095965 0.587623
430.912262 -578.036865 3.624980 0.610539
430.908051 -578.038635 3.157831 0.576348
430.903839 -578.040344 2.693483 0.543750
430.899658 -578.041992 2.230922 0.560049
430.895508 -578.043701 1.769152 0.629657
430.891296 -578.045410 1.307182 0.551471
430.887115 -578.047119 0.844020 0.566299
430.882935 -578.048767 0.378662 1.000000
430.314880 -578.279358 0.000350 0.228566
428.007355 -579.215942 0.000265 0.219050
426.402344 -579.867371 0.000463 0.225875
425.221161 -580.346802 0.000307 0.238658
430.919983 -578.139954 5.530364 0.537990
430.915558 -578.141724 5.042989 0.539828
430.911255 -578.143433 4.562778 0.548774
430.906982 -578.145142 4.088569 0.572794
430.902740 -578.146851 3.619249 0.524755
430.898560 -578.148438 3.153750 0.521569
430.894379 -578.150146 2.691040 0.583333
430.890198 -578.151855 2.230109 0.613603
430.886078 -578.153442 1.769965 0.611397
430.881897 -578.155151 1.309621 0.582475
430.877716 -578.156738 0.848088 0.668137
430.873566 -578.158447 0.384365 1.000000
430.349335 -578.366943 0.000453 0.227220
428.035431 -579.287354 0.000371 0.193195
426.426117 -579.927490 0.000537 0.193195
425.241425 -580.398682 0.000442 0.276624
430.910492 -578.249268 5.518116 0.525000
430.906097 -578.250977 5.032435 0.743382
430.901764 -578.252625 4.553893 0.594730
430.897491 -578.254333 4.081329 0.652941
430.893280 -578.255920 3.613635 0.729289
430.889099 -578.257629 3.149752 0.352941
430.884979 -578.259155 2.688647 0.233946
430.880829 -578.260803 2.229312 0.636765
430.876678 -578.262390 1.770761 0.568260
430.872528 -578.264038 1.312009 0.507843
430.868378 -578.265686 0.852071 0.561029
430.864227 -578.267273 0.389951 1.000000
430.384308 -578.454346 0.000370 0.239139
428.064178 -579.358521 0.000243 0.228085
426.450195 -579.987488 0.000443 0.186755
425.262146 -580.450439 0.000361 0.263649
430.901062 -578.357788 5.506124 0.550980
430.896667 -578.359497 5.022104 0.606250
430.892365 -578.361084 4.545194 0.657721
430.888123 -578.362732 4.074243 0.532843
430.883911 -578.364380 3.608143 0.532230
430.879730 -578.365906 3.145839 0.496569
430.875610 -578.367554 2.686304 0.211029
430.871490 -578.369080 2.228532 0.572304
430.867401 -578.370667 1.771540 0.612500
430.863251 -578.372192 1.314347 0.639338
430.859131 -578.373840 0.855972 0.579167
430.854980 -578.375366 0.395420 1.000000
430.419342 -578.541687 0.000183 0.232507
428.092773 -579.429688 0.000054 0.255671
426.474243 -580.047424 0.000259 0.221646
425.282837 -580.502197 0.000190 0.235390
430.891663 -578.465637 5.494385 0.541544
430.887329 -578.467224 5.011989 0.557598
430.883026 -578.468872 4.536679 0.638603
430.878784 -578.470398 4.067305 0.605637
430.874634 -578.471985 3.602767 0.549510
430.870483 -578.473572 3.142009 0.495343
430.866364 -578.475098 2.684010 0.241544
430.862244 -578.476685 2.227769 0.620466
430.858154 -578.478149 1.772303 0.526716
430.854034 -578.479736 1.316636 0.643627
430.849915 -578.481262 0.859790 0.518750
430.845795 -578.482788 0.400775 1.000000
430.450867 -578.630371 0.000462 0.200788
428.119812 -579.501465 0.000071 0.213956
426.497162 -580.107910 0.000239 0.214725
425.302673 -580.554321 0.000153 0.212514
430.882355 -578.572754 5.482896 0.626471
430.878021 -578.574341 5.002089 0.591667
430.873749 -578.575867 4.528344 0.631127
430.869537 -578.577454 4.060513 0.576103
430.865356 -578.578918 3.597503 0.562377
430.861237 -578.580505 3.138260 0.628309
430.857117 -578.581970 2.681764 0.229044
430.853027 -578.583496 2.227021 0.511397
430.848938 -578.584961 1.773050 0.619730
430.844879 -578.586487 1.318877 0.584436
430.840759 -578.587952 0.863528 0.467770
430.836670 -578.589478 0.406016 1.000000
430.482849 -578.718872 0.000562 0.200692
428.146088 -579.573608 0.000134 0.243464
426.519196 -580.168701 0.000333 0.202422
425.321564 -580.606750 0.000265 0.232891
430.873108 -578.679138 5.471650 0.576838
430.868805 -578.680725 4.992398 0.651471
430.864563 -578.682190 4.520185 0.582353
430.860382 -578.683716 4.053867 0.594853
430.856201 -578.685242 3.592352 0.462132
430.852081 -578.686707 3.134590 0.421936
430.847992 -578.688171 2.679566 0.287623
430.843903 -578.689575 2.226290 0.545466
430.839844 -578.691101 1.773781 0.551593
430.835754 -578.692505 1.321071 0.480515
430.831665 -578.694031 0.867188 0.542279
430.827576 -578.695435 0.411147 1.000000
430.515411 -578.807129 0.000477 0.253556
428.172668 -579.645569 0.000041 0.270473
426.541565 -580.229309 0.000250 0.216359
425.340881 -580.659058 0.000170 0.274414
430.863922 -578.784912 5.460645 0.577574
430.859619 -578.786377 4.982915 0.571446
430.855377 -578.787903 4.512200 0.579657
430.851196 -578.789307 4.047361 0.598284
430.847076 -578.790771 3.587310 0.462010
430.842957 -578.792175 3.130999 0.496936
430.838867 -578.793640 2.677417 0.519485
430.834808 -578.795044 2.225574 0.568750
430.830750 -578.796509 1.774497 0.589338
430.826691 -578.797913 1.323218 0.546936
430.822632 -578.799316 0.870768 0.577451
430.818542 -578.800720 0.416167 1.000000
430.545502 -578.896362 0.000683 0.239715
428.197205 -579.718323 0.000247 0.202614
426.562439 -580.290527 0.000404 0.205017
425.358917 -580.711792 0.000324 0.248078
430.854797 -578.889954 5.449867 0.569363
430.850494 -578.891418 4.973629 0.636887
430.846283 -578.892883 4.504384 0.641054
430.842133 -578.894287 4.040994 0.566422
430.838013 -578.895691 3.582375 0.659436
430.833923 -578.897156 3.127484 0.610662
430.829865 -578.898499 2.675312 0.525613
430.825806 -578.899902 2.224874 0.551716
430.821777 -578.901245 1.775197 0.580515
430.817688 -578.902649 1.325318 0.632598
430.813629 -578.904053 0.874271 0.485417
430.809570 -578.905457 0.421079 1.000000
430.577148 -578.984924 0.000545 0.231161
428.222778 -579.790649 0.000159 0.211649
426.583954 -580.351440 0.000321 0.223087
425.377411 -580.764343 0.000250 0.202326
430.845734 -578.994385 5.439338 0.615686
430.856323 -578.990845 4.967940 0.918015
430.858673 -578.990051 4.500853 0.729412
430.860992 -578.989258 4.039131 0.717647
430.863281 -578.988464 3.581709 0.713113
430.865570 -578.987732 3.127561 0.694118
430.867859 -578.987000 2.675687 0.686152
430.870087 -578.986206 2.225107 0.683333
430.872375 -578.985474 1.774854 0.666667
430.874634 -578.984680 1.323961 0.663603
430.876892 -578.983948 0.871459 0.641667
430.879181 -578.983215 0.416363 0.715441
430.608490 -579.073669 0.000362 0.199827
428.246918 -579.863525 0.000240 0.220588
426.605499 -580.412415 0.000132 0.263649
425.395966 -580.816956 0.000077 0.227797
430.889893 -579.080750 5.443054 0.595833
430.932861 -579.066711 4.978485 0.964951
430.928619 -579.068115 4.508476 0.751348
430.924438 -579.069519 4.044333 0.713113
430.920288 -579.070862 3.584965 0.708946
430.916199 -579.072205 3.129331 0.684069
430.912140 -579.073486 2.676419 0.691299
430.908081 -579.074829 2.225243 0.686152
430.904053 -579.076172 1.774827 0.674755
430.899994 -579.077515 1.324209 0.664706
430.895935 -579.078796 0.872418 0.643627
430.891876 -579.080139 0.418479 0.720956
430.636078 -579.163696 0.000664 0.215398
428.269470 -579.936829 0.000539 0.282391
426.624481 -580.474243 0.000427 0.191753
425.412567 -580.870117 0.000307 0.194925
430.928070 -579.169312 5.445340 0.548284
430.923828 -579.170715 4.969735 0.880024
430.919617 -579.171997 4.501109 0.729412
430.915436 -579.173340 4.038330 0.717647
430.911346 -579.174622 3.580313 0.713726
430.907257 -579.175964 3.126017 0.694118
430.903198 -579.177246 2.674435 0.689951
430.899170 -579.178589 2.224582 0.686029
430.895111 -579.179810 1.775487 0.666789
430.891083 -579.181152 1.326189 0.666544
430.887054 -579.182373 0.875722 0.642770
430.882965 -579.183716 0.423111 0.705392
430.666199 -579.252808 0.000479 0.203768
428.293976 -580.009521 0.000357 0.209727
426.645325 -580.535400 0.000201 0.240677
425.430328 -580.922974 0.000134 0.208285
430.919098 -579.272705 5.435412 0.666054
430.914856 -579.274048 4.961181 0.774510
430.910645 -579.275269 4.493907 0.732843
430.906525 -579.276611 4.032462 0.714583
430.902405 -579.277832 3.575765 0.701961
430.898346 -579.279175 3.122778 0.694608
430.894318 -579.280396 2.672496 0.688480
430.890289 -579.281677 2.223936 0.684069
430.886261 -579.282898 1.776133 0.666544
430.882233 -579.284180 1.328125 0.664461
430.878204 -579.285400 0.878951 0.640686
430.874176 -579.286682 0.427639 0.636887
430.693817 -579.342834 0.000578 0.229239
428.316498 -580.082886 0.000457 0.226836
426.664337 -580.597229 0.000294 0.227509
425.446747 -580.976196 0.000228 0.193676
430.910187 -579.375427 5.425709 0.528554
430.905945 -579.376770 4.952818 0.739828
430.901764 -579.377991 4.486867 0.720833
430.897644 -579.379272 4.026727 0.716667
430.893555 -579.380554 3.571320 0.713480
430.889465 -579.381714 3.119611 0.696201
430.885468 -579.382996 2.670599 0.693750
430.881439 -579.384155 2.223305 0.686275
430.877441 -579.385437 1.776764 0.667647
430.873444 -579.386597 1.330018 0.661152
430.869446 -579.387878 0.882108 0.643382
430.865387 -579.389038 0.432065 0.629289
430.722076 -579.432556 0.000486 0.219819
428.339539 -580.156067 0.000368 0.278739
426.683685 -580.658875 0.000212 0.275855
425.462555 -581.029663 0.000374 0.207420
430.901276 -579.477661 5.416225 0.441054
430.897064 -579.478943 4.944646 0.727941
430.892914 -579.480164 4.479987 0.727083
430.888794 -579.481384 4.021121 0.686029
430.884735 -579.482605 3.566976 0.708456
430.880707 -579.483765 3.116517 0.683701
430.876648 -579.484985 2.668746 0.679167
430.872681 -579.486145 2.222688 0.666789
430.868683 -579.487366 1.777380 0.660172
430.864685 -579.488525 1.331867 0.653799
430.860687 -579.489685 0.885193 0.636275
430.856659 -579.490845 0.436390 0.602451
430.749878 -579.522522 0.000370 0.206555
428.362244 -580.229370 0.000240 0.225971
426.702606 -580.720703 0.000137 0.216263
425.478851 -581.082947 0.000296 0.224914
430.892456 -579.579346 5.406960 0.348652
430.888245 -579.580505 4.936664 0.735907
430.884094 -579.581726 4.473266 0.721569
430.880005 -579.582886 4.015646 0.717647
430.875977 -579.584106 3.562731 0.713726
430.871918 -579.585205 3.113493 0.698407
430.867920 -579.586426 2.666936 0.686275
430.863953 -579.587524 2.222085 0.671324
430.859985 -579.588684 1.777982 0.684314
430.855957 -579.589844 1.333674 0.666667
430.851990 -579.591003 0.888206 0.643260
430.847992 -579.592102 0.440616 0.630760
430.775604 -579.613037 0.000473 0.266724
428.383240 -580.303162 0.000339 0.220492
426.719177 -580.783203 0.000491 0.214629
425.494080 -581.136597 0.000404 0.234429
430.883698 -579.680420 5.397911 0.336029
430.879517 -579.681580 4.928865 0.752206
430.875336 -579.682739 4.466701 0.775123
430.871277 -579.683899 4.010297 0.720956
430.867218 -579.685059 3.558586 0.709681
430.863220 -579.686157 3.110541 0.701961
430.859222 -579.687317 2.665168 0.688358
