# This PCD file was generated using the MATLAB® pcwrite function
# from Computer Vision Toolbox®.
# .PCD v.7 - Point Cloud Data file format
VERSION .7
FIELDS x y z intensity
SIZE 4 4 4 4
TYPE F F F F
COUNT 1 1 1 1
WIDTH 1163
HEIGHT 1
VIEWPOINT 0 0 0 1 0 0 0
POINTS 1163
DATA ascii
347.159027 -512.085754 1.097027 0.537255
347.159302 -512.085571 0.952840 0.523039
347.149017 -512.056580 3.044690 0.527819
347.149261 -512.056396 2.900699 0.505637
347.149536 -512.056152 2.758752 0.541299
347.149780 -512.055969 2.618509 0.563235
347.150024 -512.055786 2.479642 0.654167
347.150269 -512.055603 2.341839 0.514093
347.150543 -512.055359 2.204792 0.503676
347.150818 -512.055176 2.068210 0.359314
347.151093 -512.054932 1.931795 0.436397
347.151337 -512.054749 1.795255 0.527941
347.151581 -512.054565 1.658295 0.510417
347.151825 -512.054382 1.520620 0.473652
347.152069 -512.054199 1.381925 0.503064
347.152313 -512.053955 1.241899 0.500245
347.152618 -512.053772 1.100216 0.508456
347.152863 -512.053528 0.956539 0.525490
347.142639 -512.024719 3.041059 0.688358
347.142883 -512.024536 2.897569 0.564093
347.143158 -512.024353 2.756115 0.551103
347.143402 -512.024109 2.616360 0.605760
347.143646 -512.023926 2.477976 0.693505
347.143890 -512.023743 2.340652 0.693995
347.144165 -512.023560 2.204081 0.518627
347.144440 -512.023315 2.067973 0.351961
347.144684 -512.023132 1.932032 0.472059
347.144928 -512.022949 1.795966 0.539338
347.145172 -512.022766 1.659482 0.552941
347.145416 -512.022583 1.522285 0.540319
347.145721 -512.022339 1.384071 0.501838
347.145966 -512.022156 1.244530 0.477206
347.146210 -512.021973 1.103340 0.474755
347.146484 -512.021790 0.960160 0.462377
347.136292 -511.993103 3.037503 0.572794
347.136536 -511.992920 2.894504 0.615074
347.136810 -511.992706 2.753534 0.589093
347.137054 -511.992523 2.614255 0.616299
347.137299 -511.992310 2.476344 0.593137
347.137573 -511.992157 2.339489 0.514461
347.137848 -511.991913 2.203385 0.514093
347.138092 -511.991730 2.067741 0.347059
347.138336 -511.991547 1.932264 0.356863
347.138580 -511.991333 1.796662 0.326838
347.138855 -511.991150 1.660644 0.301838
347.139099 -511.990967 1.523914 0.327328
347.139343 -511.990784 1.386172 0.327819
347.139618 -511.990570 1.247107 0.334559
347.139862 -511.990356 1.106398 0.348529
347.140106 -511.990173 0.963707 0.339583
347.129974 -511.961700 3.034023 0.509069
347.130249 -511.961487 2.891503 0.700000
347.130524 -511.961304 2.751006 0.538603
347.130768 -511.961121 2.612195 0.665196
347.131012 -511.960907 2.474746 0.594240
347.131256 -511.960754 2.338350 0.526226
347.131531 -511.960510 2.202703 0.528186
347.131805 -511.960358 2.067514 0.351838
347.132050 -511.960144 1.932491 0.360784
347.132294 -511.959961 1.797344 0.344853
347.132538 -511.959778 1.661781 0.279412
347.132782 -511.959564 1.525510 0.290074
347.133057 -511.959412 1.388230 0.291667
347.133331 -511.959198 1.249631 0.297549
347.133575 -511.959015 1.109392 0.337623
347.133820 -511.958801 0.967180 0.301961
347.123749 -511.930481 3.030615 0.551716
347.123993 -511.930298 2.888565 0.747794
347.124268 -511.930115 2.748531 0.565931
347.124512 -511.929901 2.610178 0.593382
347.124786 -511.929718 2.473182 0.641912
347.125031 -511.929535 2.337235 0.493995
347.125305 -511.929321 2.202035 0.483333
347.125549 -511.929169 2.067292 0.344976
347.125793 -511.928955 1.932713 0.360784
347.126068 -511.928802 1.798011 0.345833
347.126312 -511.928589 1.662895 0.263848
347.126556 -511.928436 1.527072 0.289583
347.126801 -511.928223 1.390243 0.295466
347.127075 -511.928040 1.252101 0.294118
347.127319 -511.927856 1.112324 0.332353
347.127594 -511.927643 0.970579 0.313726
347.117554 -511.899475 3.027280 0.489338
347.117798 -511.899292 2.885690 0.623162
347.118042 -511.899109 2.746109 0.593627
347.118286 -511.898926 2.608204 0.656618
347.118530 -511.898743 2.471652 0.600490
347.118805 -511.898560 2.336144 0.478309
347.119080 -511.898346 2.201382 0.507108
347.119324 -511.898163 2.067074 0.337990
347.119568 -511.897980 1.932931 0.360784
347.119843 -511.897827 1.798664 0.341912
347.120087 -511.897614 1.663985 0.257966
347.120331 -511.897461 1.528601 0.288113
347.120575 -511.897247 1.392215 0.283701
347.120850 -511.897095 1.254518 0.294730
347.121094 -511.896881 1.115193 0.329412
347.121368 -511.896698 0.973907 0.302451
347.111359 -511.868683 3.024016 0.502451
347.111633 -511.868469 2.882876 0.616299
347.111877 -511.868317 2.743740 0.482353
347.112122 -511.868103 2.606272 0.526593
347.112366 -511.867950 2.470153 0.549510
347.112640 -511.867767 2.335077 0.532108
347.112915 -511.867584 2.200742 0.501593
347.113159 -511.867401 2.066861 0.337623
347.113403 -511.867218 1.933144 0.366299
347.113678 -511.867035 1.799303 0.337500
347.113922 -511.866882 1.665051 0.272917
347.114166 -511.866669 1.530098 0.262010
347.114410 -511.866486 1.394144 0.261275
347.114685 -511.866302 1.256884 0.295588
347.114929 -511.866119 1.118001 0.359804
347.115173 -511.865936 0.977163 0.294118
347.105225 -511.838074 3.020823 0.440196
347.105499 -511.837860 2.880123 0.554902
347.105743 -511.837708 2.741420 0.505515
347.105988 -511.837524 2.604381 0.496814
347.106232 -511.837341 2.468688 0.513848
347.106506 -511.837158 2.334032 0.569118
347.106781 -511.836975 2.200116 0.563971
347.107025 -511.836792 2.066653 0.322549
347.107269 -511.836639 1.933352 0.343873
347.107544 -511.836456 1.799929 0.330270
347.107788 -511.836273 1.666095 0.283824
347.108002 -511.836090 1.531561 0.237868
347.108246 -511.835938 1.396031 0.225735
347.108551 -511.835724 1.259199 0.213358
347.108795 -511.835541 1.120749 0.239093
347.109039 -511.835388 0.980349 0.220221
347.099121 -511.807648 3.017698 0.497181
347.099426 -511.807465 2.877429 0.763971
347.099670 -511.807281 2.739151 0.540196
347.099915 -511.807098 2.602532 0.524142
347.100159 -511.806946 2.467254 0.605637
347.100403 -511.806763 2.333010 0.507598
347.100677 -511.806580 2.199504 0.544853
347.100922 -511.806396 2.066449 0.320221
347.101166 -511.806244 1.933556 0.343260
347.101440 -511.806061 1.800540 0.350490
347.101685 -511.805878 1.667116 0.281740
347.101898 -511.805695 1.532994 0.235662
347.102173 -511.805542 1.397878 0.226838
347.102417 -511.805359 1.261464 0.211887
347.102692 -511.805176 1.123437 0.219363
347.102936 -511.804993 0.983466 0.215686
347.093079 -511.777405 3.014642 0.406373
347.093353 -511.777222 2.874795 0.644730
347.093597 -511.777069 2.736932 0.452819
347.093842 -511.776886 2.600723 0.568137
347.094086 -511.776703 2.465851 0.636029
347.094360 -511.776520 2.332011 0.581127
347.094604 -511.776367 2.198906 0.548407
347.094849 -511.776184 2.066250 0.321569
347.095123 -511.776031 1.933755 0.342770
347.095367 -511.775848 1.801139 0.353799
347.095612 -511.775696 1.668115 0.258333
347.095856 -511.775482 1.534395 0.229289
347.096130 -511.775330 1.399684 0.206127
347.096375 -511.775146 1.263679 0.226471
347.096619 -511.774994 1.126066 0.232721
347.096893 -511.774811 0.986514 0.217034
347.087036 -511.747345 3.011654 0.485784
347.087341 -511.747162 2.872219 0.668382
347.087585 -511.747009 2.734762 0.433456
347.087830 -511.746826 2.598954 0.546814
347.088074 -511.746674 2.464479 0.638113
347.088318 -511.746490 2.331033 0.736520
347.088593 -511.746338 2.198320 0.685662
347.088837 -511.746155 2.066055 0.320833
347.089111 -511.746002 1.933950 0.350123
347.089325 -511.745819 1.801724 0.359191
347.089569 -511.745667 1.669091 0.273162
347.089844 -511.745483 1.535765 0.211642
347.090088 -511.745331 1.401450 0.209926
347.090332 -511.745117 1.265846 0.271569
347.090607 -511.744965 1.128637 0.225980
347.090881 -511.744781 0.989496 0.227451
347.081055 -511.717468 3.008732 0.449632
347.081360 -511.717285 2.869700 0.694975
347.081604 -511.717133 2.732640 0.457353
347.081848 -511.716949 2.597225 0.545956
347.082092 -511.716797 2.463138 0.624632
347.082336 -511.716614 2.330077 0.677083
347.082611 -511.716461 2.197748 0.642279
347.082825 -511.716278 2.065864 0.323407
347.083099 -511.716125 1.934141 0.360049
347.083344 -511.715942 1.802296 0.358824
347.083588 -511.715790 1.670046 0.296078
347.083862 -511.715607 1.537104 0.184314
347.084076 -511.715454 1.403177 0.184314
347.084351 -511.715271 1.267964 0.213971
347.084625 -511.715118 1.131150 0.321446
347.084869 -511.714935 0.992411 0.227451
347.075104 -511.687775 3.005876 0.537500
347.075378 -511.687592 2.867238 0.572672
347.075653 -511.687439 2.730566 0.706005
347.075867 -511.687256 2.595534 0.541176
347.076141 -511.687103 2.461828 0.538480
347.076385 -511.686920 2.329143 0.617402
347.076630 -511.686768 2.197188 0.606618
347.076904 -511.686584 2.065677 0.310049
347.077148 -511.686432 1.934327 0.354044
347.077393 -511.686279 1.802856 0.354534
347.077667 -511.686127 1.670980 0.284559
347.077881 -511.685944 1.538414 0.192279
347.078125 -511.685791 1.404865 0.180392
347.078400 -511.685608 1.270034 0.176471
347.078644 -511.685455 1.133608 0.361152
347.078918 -511.685272 0.995260 0.235294
347.069214 -511.658234 3.003085 0.491422
347.069458 -511.658051 2.864831 0.619730
347.069733 -511.657898 2.728539 0.833946
347.069977 -511.657715 2.593882 0.758946
347.070190 -511.657562 2.460546 0.710049
347.070465 -511.657410 2.328230 0.704412
347.070709 -511.657257 2.196641 0.603676
347.070984 -511.657074 2.065495 0.305760
347.071228 -511.656921 1.934509 0.359314
347.071472 -511.656738 1.803402 0.349020
347.071716 -511.656616 1.671892 0.285784
347.071960 -511.656433 1.539693 0.192892
347.072205 -511.656281 1.406515 0.180392
347.072479 -511.656097 1.272058 0.176471
347.072723 -511.655945 1.136009 0.380515
347.072968 -511.655762 0.998045 0.235294
347.063324 -511.628845 3.000358 0.414338
347.063568 -511.628662 2.862480 0.589216
347.063843 -511.628510 2.726559 0.848774
347.064087 -511.628357 2.592268 0.541789
347.064331 -511.628204 2.459295 0.531373
347.064575 -511.628021 2.327338 0.763480
347.064850 -511.627869 2.196107 0.570343
347.065063 -511.627716 2.065317 0.315074
347.065338 -511.627563 1.934687 0.352819
347.065582 -511.627380 1.803936 0.356863
347.065826 -511.627258 1.672783 0.277819
347.066071 -511.627075 1.540943 0.189338
347.066315 -511.626923 1.408127 0.188235
347.066589 -511.626770 1.274035 0.176471
347.066833 -511.626617 1.138355 0.385662
347.067078 -511.626434 1.000766 0.233456
347.057465 -511.599609 2.997694 0.492402
347.057709 -511.599457 2.860184 0.677574
347.057953 -511.599274 2.724625 0.770221
347.058228 -511.599121 2.590691 0.497794
347.058472 -511.598969 2.458072 0.546936
347.058716 -511.598816 2.326467 0.741789
347.058990 -511.598633 2.195585 0.617647
347.059235 -511.598511 2.065144 0.315074
347.059479 -511.598328 1.934861 0.360784
347.059723 -511.598206 1.804458 0.356863
347.059967 -511.598022 1.673654 0.281495
347.060211 -511.597870 1.542165 0.193505
347.060455 -511.597717 1.409701 0.187255
347.060699 -511.597565 1.275966 0.176471
347.060974 -511.597382 1.140648 0.377941
347.061249 -511.597260 1.003423 0.224142
347.051636 -511.570526 2.995093 0.723529
347.051880 -511.570374 2.857941 0.566544
347.052155 -511.570221 2.722736 0.772549
347.052399 -511.570068 2.589152 0.429044
347.052673 -511.569916 2.456878 0.528676
347.052887 -511.569763 2.325616 0.860907
347.053131 -511.569611 2.195076 0.556618
347.053406 -511.569458 2.064974 0.307966
347.053650 -511.569305 1.935031 0.357108
347.053894 -511.569153 1.804967 0.358211
347.054138 -511.569000 1.674504 0.283946
347.054382 -511.568848 1.543357 0.195466
347.054657 -511.568665 1.411239 0.189216
347.054901 -511.568542 1.277851 0.189338
347.055176 -511.568359 1.142885 0.351348
347.055420 -511.568207 1.006019 0.239706
347.045837 -511.541626 2.992553 0.430515
347.046112 -511.541473 2.855752 0.500123
347.046356 -511.541321 2.720892 0.788971
347.046631 -511.541168 2.587648 0.416422
347.046844 -511.541016 2.455712 0.528799
347.047089 -511.540863 2.324786 0.880392
347.047363 -511.540710 2.194578 0.568995
347.047607 -511.540558 2.064808 0.318750
347.047852 -511.540405 1.935197 0.362255
347.048096 -511.540253 1.805465 0.366422
347.048340 -511.540100 1.675333 0.293382
347.048584 -511.539948 1.544522 0.202328
347.048828 -511.539795 1.412740 0.189216
347.049103 -511.539642 1.279692 0.190809
347.049347 -511.539490 1.145070 0.339093
347.049591 -511.539337 1.008552 0.254167
347.040100 -511.512848 2.990075 0.542647
347.040344 -511.512665 2.853615 0.477574
347.040588 -511.512543 2.719092 0.676716
347.040833 -511.512390 2.586181 0.436397
347.041077 -511.512238 2.454575 0.514828
347.041351 -511.512085 2.323975 0.841299
347.041595 -511.511932 2.194092 0.532475
347.041809 -511.511780 2.064646 0.311274
347.042084 -511.511658 1.935358 0.345098
347.042328 -511.511475 1.805950 0.367525
347.042572 -511.511353 1.676144 0.294975
347.042816 -511.511200 1.545658 0.217892
347.043091 -511.511047 1.414205 0.201348
347.043335 -511.510895 1.281489 0.200000
347.043579 -511.510742 1.147203 0.360417
347.043854 -511.510590 1.011025 0.256127
347.034363 -511.484222 2.987657 0.431985
347.034607 -511.484070 2.851531 0.501348
347.034851 -511.483917 2.717336 0.623652
347.035095 -511.483765 2.584750 0.382843
347.035339 -511.483643 2.453465 0.560907
347.035614 -511.483459 2.323184 0.915441
347.035858 -511.483337 2.193619 0.629534
347.036102 -511.483185 2.064489 0.311765
347.036346 -511.483032 1.935516 0.351716
347.036560 -511.482880 1.806423 0.376471
347.036835 -511.482758 1.676934 0.398407
347.037079 -511.482574 1.546767 0.416054
347.037354 -511.482452 1.415634 0.409069
347.037598 -511.482300 1.283242 0.402206
347.037872 -511.482147 1.149283 0.488971
347.038116 -511.481995 1.013437 0.430760
347.028625 -511.455719 2.985299 0.450613
347.028900 -511.455566 2.849498 0.587990
347.029144 -511.455414 2.715624 0.664093
347.029419 -511.455292 2.583354 0.466912
347.029633 -511.455109 2.452383 0.615931
347.029877 -511.454987 2.322413 0.863725
347.030151 -511.454834 2.193157 0.615931
347.030365 -511.454712 2.064335 0.355882
347.030640 -511.454559 1.935670 0.468015
347.030853 -511.454407 1.806885 0.563603
347.031128 -511.454285 1.677705 0.598529
347.031372 -511.454132 1.547848 0.557598
347.031647 -511.454010 1.417028 0.495956
347.031860 -511.453827 1.284952 0.508333
347.032135 -511.453705 1.151312 0.502574
347.032410 -511.453552 1.015790 0.469608
347.022949 -511.427368 2.983000 0.441789
347.023193 -511.427185 2.847516 0.578799
347.023468 -511.427063 2.713954 0.568873
347.023712 -511.426941 2.581993 0.632966
347.023956 -511.426788 2.451327 0.763358
347.024200 -511.426666 2.321661 0.781863
347.024475 -511.426483 2.192706 0.597304
347.024689 -511.426361 2.064185 0.356985
347.024933 -511.426208 1.935820 0.462990
347.025208 -511.426086 1.807336 0.561275
347.025421 -511.425934 1.678456 0.624387
347.025696 -511.425812 1.548902 0.568015
347.025940 -511.425629 1.418387 0.515074
347.026215 -511.425507 1.286618 0.471936
347.026459 -511.425354 1.153290 0.519730
347.026733 -511.425232 1.018084 0.483333
347.017303 -511.399139 2.980759 0.385172
347.017548 -511.398987 2.845584 0.562255
347.017792 -511.398834 2.712327 0.543627
347.018036 -511.398682 2.580667 0.577574
347.018311 -511.398560 2.450299 0.531740
347.018524 -511.398407 2.320928 0.723897
347.018799 -511.398285 2.192267 0.592034
347.019043 -511.398132 2.064039 0.356127
347.019287 -511.398010 1.935966 0.465931
347.019531 -511.397858 1.807774 0.578186
347.019775 -511.397736 1.679188 0.616789
347.020020 -511.397583 1.549929 0.516299
347.020294 -511.397461 1.419712 0.470466
347.020538 -511.397339 1.288243 0.461887
347.020813 -511.397156 1.155218 0.503064
347.021057 -511.397003 1.020319 0.492892
347.011658 -511.371002 2.978576 0.351225
347.011902 -511.370880 2.843702 0.621691
347.012177 -511.370728 2.710742 0.642524
347.012421 -511.370605 2.579375 0.624387
347.012665 -511.370453 2.449297 0.560294
347.012909 -511.370331 2.320214 0.802574
347.013153 -511.370178 2.191839 0.596569
347.013397 -511.370056 2.063896 0.359681
347.013672 -511.369934 1.936108 0.509559
347.013885 -511.369781 1.808202 0.635662
347.014160 -511.369659 1.679902 0.681005
347.014374 -511.369507 1.550930 0.570833
347.014648 -511.369385 1.421002 0.491667
347.014893 -511.369232 1.289825 0.471201
347.015167 -511.369110 1.157096 0.504412
347.015411 -511.368958 1.022497 0.487132
347.006073 -511.343048 2.976450 0.682476
347.006317 -511.342896 2.841870 0.644975
347.006592 -511.342773 2.709198 0.595711
347.006805 -511.342651 2.578117 0.658701
347.007080 -511.342499 2.448321 0.535294
347.007294 -511.342377 2.319518 0.784926
347.007568 -511.342224 2.191423 0.657966
347.007813 -511.342102 2.063758 0.714951
347.008057 -511.341949 1.936247 0.822794
347.008301 -511.341827 1.808618 0.885784
347.008545 -511.341675 1.680597 0.806985
347.008789 -511.341553 1.551905 0.697794
347.009064 -511.341400 1.422259 0.625490
347.009277 -511.341309 1.291366 0.600490
347.009552 -511.341125 1.158925 0.559926
347.009796 -511.341003 1.024618 0.522917
347.000488 -511.315186 2.974381 0.657475
347.000732 -511.315033 2.840086 0.501961
347.000977 -511.314911 2.707695 0.501961
347.001221 -511.314789 2.576892 0.589706
347.001495 -511.314667 2.447371 0.534681
347.001709 -511.314514 2.318841 0.686152
347.001984 -511.314392 2.191017 0.521691
347.002197 -511.314240 2.063622 0.755515
347.002472 -511.314117 1.936382 0.875245
347.002686 -511.313965 1.809023 0.953431
347.002960 -511.313873 1.681273 0.881618
347.003204 -511.313751 1.552853 0.787623
347.003448 -511.313599 1.423482 0.751471
347.003693 -511.313477 1.292866 0.728922
347.003967 -511.313324 1.160706 0.731495
347.004211 -511.313202 1.026683 0.717402
346.994934 -511.287445 2.972368 0.676838
346.995148 -511.287323 2.838350 0.522672
346.995422 -511.287170 2.706234 0.585784
346.995667 -511.287048 2.575700 0.557108
346.995911 -511.286896 2.446448 0.574020
346.996155 -511.286804 2.318183 0.663358
346.996399 -511.286652 2.190623 0.567157
346.996643 -511.286530 2.063491 0.777819
346.996918 -511.286407 1.936513 0.889583
346.997131 -511.286255 1.809418 0.980760
346.997406 -511.286163 1.681931 0.921201
346.997650 -511.286011 1.553777 0.807721
346.997894 -511.285889 1.424672 0.756863
346.998169 -511.285736 1.294326 0.712132
346.998413 -511.285614 1.162438 0.706250
346.998688 -511.285461 1.028691 0.684559
346.989380 -511.259827 2.970411 0.798774
346.989624 -511.259674 2.836663 0.561887
346.989868 -511.259552 2.704812 0.573652
346.990143 -511.259399 2.574542 0.566422
346.990356 -511.259308 2.445549 0.539461
346.990631 -511.259155 2.317543 0.678186
346.990875 -511.259033 2.190240 0.603186
346.991119 -511.258942 2.063364 0.599632
346.991364 -511.258789 1.936641 0.794608
346.991608 -511.258667 1.809801 0.939706
346.991852 -511.258514 1.682571 0.875858
346.992096 -511.258423 1.554674 0.798284
346.992371 -511.258270 1.425829 0.751961
346.992584 -511.258148 1.295745 0.744363
346.992859 -511.257996 1.164122 0.737990
346.993103 -511.257904 1.030644 0.743627
346.983887 -511.232269 2.968508 0.653064
346.984131 -511.232178 2.835022 0.557108
346.984375 -511.232025 2.703430 0.548039
346.984619 -511.231903 2.573416 0.594363
346.984863 -511.231781 2.444676 0.593505
346.985107 -511.231659 2.316920 0.736152
346.985352 -511.231537 2.189867 0.576838
346.985596 -511.231415 2.063239 0.557598
346.985840 -511.231293 1.936765 0.752941
346.986084 -511.231140 1.810174 0.758578
346.986328 -511.231049 1.683192 0.565931
346.986603 -511.230896 1.555546 0.549142
346.986847 -511.230774 1.426953 0.607966
346.987091 -511.230652 1.297124 0.622794
346.987335 -511.230530 1.165759 0.822549
346.987610 -511.230377 1.032542 0.531863
346.978363 -511.204895 2.966661 0.637745
346.978638 -511.204742 2.833430 0.511275
346.978851 -511.204620 2.702089 0.572304
346.979126 -511.204498 2.572322 0.718750
346.979401 -511.204376 2.443828 0.506863
346.979614 -511.204285 2.316316 0.669730
346.979889 -511.204132 2.189505 0.578064
346.980103 -511.204010 2.063119 0.543873
346.980377 -511.203888 1.936886 0.569485
346.980591 -511.203766 1.810536 0.516054
346.980865 -511.203644 1.683797 0.499510
346.981079 -511.203522 1.556394 0.557721
346.981354 -511.203369 1.428046 0.800000
346.981598 -511.203278 1.298465 0.533578
346.981842 -511.203125 1.167349 0.663480
346.982117 -511.203003 1.034387 0.592157
346.972900 -511.177551 2.964867 0.634191
346.973145 -511.177460 2.831883 0.448652
346.973419 -511.177307 2.700786 0.520711
346.973633 -511.177185 2.571260 0.725490
346.973907 -511.177094 2.443005 0.522672
346.974152 -511.176941 2.315729 0.737132
346.974396 -511.176849 2.189153 0.524265
346.974640 -511.176697 2.063002 0.496936
346.974884 -511.176605 1.937003 0.576961
346.975128 -511.176453 1.810887 0.538971
346.975372 -511.176361 1.684383 0.462132
346.975616 -511.176208 1.557217 0.535172
346.975891 -511.176117 1.429107 0.498652
346.976135 -511.175995 1.299766 0.541422
346.976379 -511.175873 1.168894 0.716299
346.976624 -511.175751 1.036177 0.502696
346.967438 -511.150360 2.963127 0.643137
346.967682 -511.150208 2.830384 0.592770
346.967957 -511.150116 2.699522 0.670711
346.968201 -511.150024 2.570230 0.626961
346.968445 -511.149872 2.442205 0.562868
346.968689 -511.149780 2.315160 0.620221
346.968933 -511.149628 2.188812 0.485784
346.969208 -511.149536 2.062888 0.459559
346.969421 -511.149384 1.937117 0.518873
346.969696 -511.149292 1.811228 0.482475
346.969910 -511.149139 1.684952 0.608578
346.970184 -511.149048 1.558015 0.585172
346.970428 -511.148956 1.430136 0.497304
346.970673 -511.148804 1.301028 0.569485
346.970947 -511.148712 1.170392 0.636887
346.971191 -511.148560 1.037914 0.525490
346.962006 -511.123230 2.961440 0.515441
346.962280 -511.123138 2.828929 0.663725
346.962494 -511.123016 2.698298 0.526716
346.962769 -511.122894 2.569232 0.586275
346.963013 -511.122772 2.441431 0.507843
346.963257 -511.122650 2.314607 0.567157
346.963531 -511.122559 2.188481 0.556495
346.963745 -511.122406 2.062778 0.558946
346.963989 -511.122314 1.937227 0.522304
346.964233 -511.122192 1.811559 0.541667
346.964478 -511.122070 1.685504 0.723407
346.964752 -511.121979 1.558789 0.598039
346.964996 -511.121826 1.431134 0.531373
346.965240 -511.121735 1.302252 0.508333
346.965485 -511.121582 1.171844 0.713848
346.965759 -511.121490 1.039599 0.497304
346.956573 -511.096222 2.959806 0.500613
346.956848 -511.096100 2.827520 0.457843
346.957092 -511.095978 2.697110 0.475368
346.957367 -511.095886 2.568264 0.794485
346.957581 -511.095764 2.440680 0.543137
346.957855 -511.095642 2.314073 0.522304
346.958099 -511.095520 2.188161 0.503186
346.958344 -511.095428 2.062671 0.502451
346.958588 -511.095306 1.937333 0.706495
346.958801 -511.095184 1.811879 0.508701
346.959076 -511.095062 1.686038 0.488725
346.959320 -511.094971 1.559539 0.438235
346.959564 -511.094849 1.432100 0.480882
346.959839 -511.094727 1.303437 0.477941
346.960083 -511.094635 1.173251 0.646569
346.960327 -511.094482 1.041230 0.497059
346.951202 -511.069275 2.958224 0.520221
346.951447 -511.069183 2.826156 0.553309
346.951721 -511.069061 2.695961 0.471814
346.951935 -511.068939 2.567327 0.814828
346.952209 -511.068848 2.439954 0.555760
346.952454 -511.068726 2.313555 0.484559
346.952698 -511.068634 2.187850 0.504534
346.952942 -511.068481 2.062568 0.509191
346.953186 -511.068390 1.937437 0.478799
346.953430 -511.068268 1.812189 0.522917
346.953705 -511.068176 1.686556 0.502083
346.953918 -511.068024 1.560264 0.440809
346.954193 -511.067932 1.433036 0.468995
346.954437 -511.067841 1.304585 0.477941
346.954681 -511.067719 1.174613 0.673897
346.954956 -511.067596 1.042809 0.535662
346.945831 -511.042450 2.956693 0.577941
346.946075 -511.042328 2.824836 0.455882
346.946320 -511.042236 2.694849 0.423407
346.946564 -511.042114 2.566420 0.796691
346.946838 -511.041992 2.439251 0.554289
346.947083 -511.041901 2.313054 0.496569
346.947327 -511.041779 2.187551 0.485417
346.947571 -511.041687 2.062468 0.472672
346.947815 -511.041565 1.937537 0.456863
346.948059 -511.041443 1.812489 0.600123
346.948303 -511.041321 1.687056 0.453309
346.948547 -511.041229 1.560967 0.429167
346.948792 -511.041138 1.433941 0.433824
346.949066 -511.041016 1.305695 0.535662
346.949310 -511.040894 1.175930 0.651226
346.949554 -511.040771 1.044337 0.533578
346.940460 -511.015686 2.955214 0.641789
346.940704 -511.015594 2.823560 0.458701
346.940948 -511.015472 2.693774 0.472794
346.941223 -511.015350 2.565544 0.801593
346.941437 -511.015228 2.438572 0.664461
346.941711 -511.015137 2.312570 0.619363
346.941956 -511.015045 2.187260 0.466054
346.942200 -511.014923 2.062371 0.368750
346.942444 -511.014832 1.937633 0.417279
346.942719 -511.014709 1.812779 0.622304
346.942932 -511.014618 1.687540 0.437990
346.943176 -511.014496 1.561645 0.472059
346.943451 -511.014374 1.434816 0.479779
346.943695 -511.014282 1.306768 0.569853
346.943939 -511.014160 1.177204 0.839951
346.944214 -511.014069 1.045813 0.515441
346.935120 -510.989014 2.953785 0.639216
346.935333 -510.988892 2.822328 0.486152
346.935608 -510.988800 2.692737 0.502206
346.935883 -510.988678 2.564698 0.806863
346.936096 -510.988586 2.437916 0.547059
346.936371 -510.988464 2.312103 0.559314
346.936615 -510.988373 2.186980 0.423162
346.936859 -510.988281 2.062278 0.402574
346.937103 -510.988159 1.937726 0.461520
346.937347 -510.988068 1.813059 0.642770
346.937592 -510.987946 1.688007 0.492892
346.937836 -510.987854 1.562300 0.477574
346.938110 -510.987732 1.435661 0.449755
346.938324 -510.987640 1.307804 0.594363
346.938599 -510.987518 1.178433 0.740564
346.938873 -510.987396 1.047239 0.469976
346.929779 -510.962402 2.952407 0.623897
346.930023 -510.962311 2.821140 0.588358
346.930267 -510.962189 2.691736 0.598774
346.930542 -510.962097 2.563883 0.763235
346.930786 -510.961975 2.437283 0.552451
346.931030 -510.961884 2.311652 0.530392
346.931274 -510.961761 2.186711 0.442034
346.931549 -510.961670 2.062188 0.424387
346.931763 -510.961578 1.937816 0.521078
346.932007 -510.961456 1.813329 0.642402
346.932281 -510.961365 1.688458 0.696691
346.932495 -510.961243 1.562932 0.533088
346.932770 -510.961151 1.436475 0.481373
346.933014 -510.961029 1.308803 0.610172
346.933258 -510.960938 1.179618 0.732966
346.933533 -510.960815 1.048614 0.482721
346.924469 -510.935913 2.951079 0.649142
346.924713 -510.935791 2.819996 0.694608
346.924957 -510.935699 2.690772 0.568015
346.925232 -510.935577 2.563097 0.735539
346.925476 -510.935486 2.436674 0.589583
346.925720 -510.935364 2.311218 0.544608
346.925964 -510.935272 2.186450 0.434191
346.926239 -510.935150 2.062101 0.444363
346.926453 -510.935059 1.937903 0.532230
346.926697 -510.934998 1.813589 0.669240
346.926971 -510.934875 1.688892 0.537377
346.927185 -510.934784 1.563541 0.564461
346.927460 -510.934662 1.437260 0.590931
346.927704 -510.934570 1.309765 0.652574
346.927948 -510.934448 1.180761 0.782843
346.928223 -510.934357 1.049939 0.491299
346.919159 -510.909454 2.949801 0.654534
346.919434 -510.909332 2.818894 0.666299
346.919647 -510.909241 2.689844 0.641912
346.919922 -510.909149 2.562340 0.636520
346.920166 -510.909027 2.436087 0.633456
346.920441 -510.908936 2.310799 0.532721
346.920654 -510.908813 2.186200 0.469730
346.920929 -510.908752 2.062018 0.526838
346.921173 -510.908630 1.937986 0.447672
346.921387 -510.908539 1.813839 0.622917
346.921661 -510.908447 1.689309 0.459681
346.921906 -510.908325 1.564127 0.604902
346.922150 -510.908234 1.438015 0.661029
346.922394 -510.908142 1.310692 0.560049
346.922668 -510.908051 1.181860 0.786152
346.922913 -510.907928 1.051213 0.426716
346.913879 -510.883057 2.948573 0.620833
346.914124 -510.882965 2.817835 0.523039
346.914398 -510.882843 2.688951 0.614093
346.914642 -510.882751 2.561613 0.642279
346.914886 -510.882660 2.435524 0.568260
346.915131 -510.882568 2.310398 0.568627
346.915375 -510.882477 2.185959 0.491054
346.915649 -510.882355 2.061938 0.524142
346.915863 -510.882294 1.938066 0.508578
346.916107 -510.882172 1.814080 0.619976
346.916382 -510.882080 1.689711 0.471814
346.916595 -510.881989 1.564690 0.572059
346.916870 -510.881866 1.438741 0.622426
346.917114 -510.881805 1.311582 0.541422
346.917358 -510.881683 1.182917 0.696814
346.917633 -510.881592 1.052439 0.509191
346.908600 -510.856750 2.947394 0.575490
346.908844 -510.856659 2.816819 0.303064
346.909119 -510.856567 2.688096 0.592402
346.909363 -510.856445 2.560915 0.693260
346.909607 -510.856354 2.434982 0.530025
346.909851 -510.856262 2.310012 0.588848
346.910126 -510.856171 2.185728 0.430392
346.910370 -510.856079 2.061861 0.454779
346.910583 -510.855957 1.938143 0.489706
346.910858 -510.855896 1.814311 0.550000
346.911102 -510.855774 1.690096 0.507966
346.911316 -510.855682 1.565230 0.577941
346.911591 -510.855591 1.439438 0.577083
346.911835 -510.855499 1.312437 0.555515
346.912079 -510.855408 1.183931 0.614828
346.912354 -510.855286 1.053615 0.470343
346.903351 -510.830505 2.946264 0.521324
346.903595 -510.830414 2.815845 0.371324
346.903839 -510.830292 2.687275 0.492157
346.904114 -510.830231 2.560246 0.668260
346.904358 -510.830109 2.434464 0.487990
346.904602 -510.830017 2.309642 0.560539
346.904846 -510.829926 2.185507 0.456127
346.905090 -510.829834 2.061787 0.536029
346.905365 -510.829742 1.938217 0.437745
346.905579 -510.829651 1.814532 0.618015
346.905823 -510.829559 1.690465 0.533456
346.906097 -510.829437 1.565748 0.511029
346.906311 -510.829376 1.440106 0.570221
346.906586 -510.829254 1.313256 0.569730
346.906830 -510.829163 1.184903 0.558211
346.907104 -510.829071 1.054742 0.533456
346.898102 -510.804291 2.945183 0.457966
346.898346 -510.804230 2.814913 0.426961
346.898621 -510.804108 2.686490 0.515319
346.898865 -510.804016 2.559607 0.664706
346.899109 -510.803955 2.433967 0.498039
346.899353 -510.803833 2.309289 0.514093
346.899597 -510.803772 2.185295 0.498897
346.899872 -510.803650 2.061717 0.532843
346.900085 -510.803558 1.938288 0.343505
346.900330 -510.803467 1.814744 0.553922
346.900604 -510.803375 1.690819 0.476348
346.900848 -510.803314 1.566244 0.479412
346.901062 -510.803192 1.440745 0.617157
346.901337 -510.803101 1.314039 0.674142
346.901581 -510.803009 1.185833 0.515319
346.901825 -510.802917 1.055821 0.551471
346.892853 -510.778198 2.944150 0.448652
346.893097 -510.778076 2.814022 0.462868
346.893372 -510.778015 2.685740 0.578431
346.893646 -510.777893 2.558995 0.649142
346.893860 -510.777802 2.433494 0.428676
346.894104 -510.777710 2.308951 0.526348
346.894379 -510.777618 2.185093 0.505515
346.894623 -510.777557 2.061649 0.456618
346.894836 -510.777435 1.938355 0.402206
346.895111 -510.777374 1.814946 0.507843
346.895355 -510.777252 1.691156 0.498407
346.895599 -510.777191 1.566717 0.518627
346.895844 -510.777100 1.441356 0.561152
346.896088 -510.777008 1.314788 0.479779
346.896362 -510.776917 1.186722 0.424877
346.896637 -510.776825 1.056851 0.548039
346.887634 -510.752106 2.943165 0.476593
346.887878 -510.752045 2.813173 0.661274
346.888123 -510.751923 2.685025 0.679044
346.888397 -510.751831 2.558413 0.668505
346.888641 -510.751740 2.433042 0.437500
346.888885 -510.751678 2.308629 0.514216
346.889130 -510.751556 2.184900 0.494118
346.889374 -510.751495 2.061585 0.569118
346.889648 -510.751404 1.938419 0.409559
346.889862 -510.751312 1.815139 0.518627
346.890106 -510.751221 1.691478 0.586887
346.890381 -510.751129 1.567169 0.660049
346.890625 -510.751038 1.441937 0.610049
346.890869 -510.750946 1.315502 0.435662
346.891113 -510.750854 1.187569 0.406127
346.891388 -510.750793 1.057833 0.573284
346.882416 -510.726074 2.942229 0.491667
346.882660 -510.726013 2.812366 0.572426
346.882935 -510.725891 2.684345 0.454167
346.883209 -510.725830 2.557858 0.776593
346.883423 -510.725739 2.432612 0.423162
346.883667 -510.725647 2.308323 0.559681
346.883942 -510.725555 2.184716 0.478309
346.884186 -510.725464 2.061524 0.539093
346.884399 -510.725403 1.938480 0.446446
346.884644 -510.725281 1.815322 0.509436
346.884918 -510.725220 1.691784 0.521569
346.885162 -510.725128 1.567598 0.517770
346.885406 -510.725037 1.442491 0.561397
346.885651 -510.724976 1.316181 0.455515
346.885925 -510.724854 1.188375 0.597549
346.886169 -510.724792 1.058768 0.592770
346.877197 -510.700134 2.941340 0.450858
346.877472 -510.700012 2.811599 0.534926
346.877747 -510.699951 2.683699 0.437623
346.877960 -510.699860 2.557332 0.557843
346.878204 -510.699768 2.432204 0.426103
346.878479 -510.699677 2.308032 0.552328
346.878723 -510.699615 2.184542 0.663971
346.878967 -510.699524 2.061466 0.561397
346.879211 -510.699432 1.938538 0.405515
346.879456 -510.699371 1.815496 0.482721
346.879700 -510.699249 1.692074 0.487010
346.879974 -510.699188 1.568006 0.466544
346.880188 -510.699097 1.443016 0.491422
346.880463 -510.699005 1.316825 0.455147
346.880707 -510.698944 1.189139 0.669853
346.880981 -510.698822 1.059654 0.558088
346.872009 -510.674194 2.940498 0.487377
346.872284 -510.674133 2.810874 0.433333
346.872528 -510.674011 2.683089 0.461152
346.872803 -510.673950 2.556834 0.514583
346.873016 -510.673859 2.431818 0.444363
346.873260 -510.673767 2.307757 0.553922
346.873535 -510.673676 2.184377 0.462500
346.873779 -510.673615 2.061411 0.528676
346.873993 -510.673553 1.938593 0.415196
346.874268 -510.673431 1.815661 0.508456
346.874512 -510.673370 1.692349 0.426348
346.874756 -510.673279 1.568391 0.664338
346.875031 -510.673187 1.443514 0.520466
346.875244 -510.673096 1.317435 0.446078
346.875519 -510.673035 1.189863 0.596078
346.875763 -510.672943 1.060494 0.504657
346.866821 -510.648315 2.939705 0.521446
346.867065 -510.648224 2.810190 0.488971
346.867340 -510.648132 2.682512 0.435784
346.867584 -510.648071 2.556364 0.574632
346.867859 -510.647980 2.431453 0.481495
346.868103 -510.647888 2.307497 0.566912
346.868317 -510.647827 2.184222 0.441544
346.868591 -510.647736 2.061359 0.522549
346.868835 -510.647675 1.938645 0.531373
346.869080 -510.647583 1.815816 0.444485
346.869324 -510.647491 1.692609 0.455270
346.869568 -510.647430 1.568755 0.618505
346.869812 -510.647339 1.443983 0.491054
346.870087 -510.647278 1.318011 0.470343
346.870331 -510.647156 1.190547 0.577574
346.870575 -510.647095 1.061286 0.537132
346.861633 -510.622498 2.938958 0.490686
346.861908 -510.622406 2.809546 0.658701
346.862152 -510.622314 2.681970 0.445956
346.862427 -510.622223 2.555923 0.620711
346.862640 -510.622162 2.431111 0.463603
346.862915 -510.622070 2.307253 0.531373
346.863159 -510.622009 2.184075 0.493750
346.863403 -510.621948 2.061310 0.478309
346.863678 -510.621826 1.938694 0.502696
346.863892 -510.621765 1.815963 0.522794
346.864136 -510.621674 1.692853 0.464461
346.864380 -510.621613 1.569098 0.558824
346.864655 -510.621552 1.444424 0.518750
346.864899 -510.621460 1.318552 0.473162
346.865143 -510.621368 1.191189 0.518015
346.865417 -510.621277 1.062031 0.547426
346.856476 -510.596680 2.938258 0.482966
346.856750 -510.596588 2.808943 0.679779
346.856995 -510.596527 2.681461 0.409804
346.857239 -510.596436 2.555508 0.628064
346.857483 -510.596375 2.430789 0.746324
346.857727 -510.596313 2.307024 0.701103
346.858002 -510.596222 2.183938 0.539216
346.858246 -510.596130 2.061265 0.572917
346.858490 -510.596039 1.938739 0.440319
346.858704 -510.595978 1.816100 0.523407
346.858978 -510.595917 1.693082 0.515686
346.859222 -510.595825 1.569419 0.613480
346.859467 -510.595764 1.444838 0.733824
346.859741 -510.595673 1.319059 0.657721
346.859955 -510.595612 1.191791 0.581985
346.860229 -510.595490 1.062730 0.480515
346.851318 -510.570923 2.937605 0.517279
346.851563 -510.570862 2.808380 0.664093
346.851837 -510.570770 2.680987 0.419730
346.852081 -510.570709 2.555121 0.568137
346.852325 -510.570618 2.430490 0.612745
346.852570 -510.570557 2.306810 0.619363
346.852814 -510.570496 2.183810 0.505024
346.853088 -510.570404 2.061222 0.613971
346.853333 -510.570343 1.938782 0.448407
346.853546 -510.570221 1.816228 0.582230
346.853790 -510.570160 1.693295 0.472059
346.854065 -510.570099 1.569718 0.526838
346.854309 -510.570007 1.445224 0.596691
346.854584 -510.569946 1.319533 0.595466
346.854828 -510.569855 1.192353 0.562500
346.855072 -510.569794 1.063381 0.511029
346.846130 -510.545197 2.936998 0.517524
346.846405 -510.545135 2.807857 0.795098
346.846680 -510.545044 2.680547 0.380760
346.846924 -510.544983 2.554763 0.547794
346.847198 -510.544922 2.430211 0.618995
346.847412 -510.544830 2.306612 0.497059
346.847656 -510.544769 2.183692 0.571078
346.847900 -510.544678 2.061182 0.583333
346.848175 -510.544617 1.938822 0.507353
346.848419 -510.544556 1.816346 0.575000
346.848663 -510.544464 1.693493 0.613113
346.848907 -510.544403 1.569996 0.512377
346.849152 -510.544312 1.445583 0.579044
346.849396 -510.544250 1.319973 0.573284
346.849670 -510.544159 1.192875 0.510049
346.849945 -510.544098 1.063986 0.486029
346.841003 -510.519531 2.936438 0.550613
346.841278 -510.519440 2.807374 0.799755
346.841522 -510.519379 2.680140 0.570221
346.841766 -510.519287 2.554431 0.563848
346.842010 -510.519226 2.429954 0.638971
346.842285 -510.519165 2.306429 0.611642
346.842529 -510.519073 2.183582 0.473162
346.842773 -510.519012 2.061146 0.513971
346.842987 -510.518921 1.938858 0.473897
346.843262 -510.518860 1.816456 0.577451
346.843506 -510.518768 1.693677 0.781863
346.843750 -510.518707 1.570253 0.704534
346.844025 -510.518646 1.445914 0.651716
346.844269 -510.518555 1.320379 0.638358
346.844513 -510.518524 1.193358 0.498162
346.844757 -510.518433 1.064545 0.472059
346.835846 -510.493866 2.935924 0.527574
346.836121 -510.493774 2.806931 0.810294
346.836365 -510.493713 2.679767 0.573407
346.836639 -510.493652 2.554127 0.588480
346.836884 -510.493561 2.429718 0.637255
346.837158 -510.493500 2.306261 0.557721
346.837372 -510.493408 2.183481 0.507230
346.837616 -510.493347 2.061112 0.513971
346.837860 -510.493286 1.938892 0.463113
346.838135 -510.493225 1.816557 0.658701
346.838379 -510.493164 1.693845 0.499142
346.838623 -510.493073 1.570489 0.618137
346.838867 -510.493011 1.446218 0.669363
346.839111 -510.492920 1.320752 0.658211
346.839386 -510.492859 1.193799 0.516054
346.839630 -510.492798 1.065058 0.492034
346.830719 -510.468201 2.935457 0.516054
346.830994 -510.468140 2.806528 0.662010
346.831238 -510.468079 2.679427 0.555637
346.831512 -510.468018 2.553850 0.584314
346.831726 -510.467926 2.429504 0.689093
346.831970 -510.467865 2.306108 0.569608
346.832245 -510.467804 2.183389 0.635539
346.832489 -510.467712 2.061082 0.603554
346.832733 -510.467682 1.938922 0.481863
346.832977 -510.467590 1.816648 0.584191
346.833252 -510.467529 1.693997 0.449387
346.833466 -510.467468 1.570704 0.585784
346.833710 -510.467377 1.446494 0.660172
346.833984 -510.467346 1.321091 0.689461
346.834229 -510.467255 1.194202 0.490564
346.834503 -510.467194 1.065525 0.664216
346.825592 -510.442596 2.935035 0.673284
346.825867 -510.442535 2.806164 0.622794
346.826111 -510.442474 2.679121 0.604412
346.826355 -510.442383 2.553600 0.555392
346.826599 -510.442352 2.429310 0.692402
346.826843 -510.442261 2.305970 0.596936
346.827118 -510.442200 2.183307 0.531740
346.827362 -510.442108 2.061054 0.535784
346.827606 -510.442078 1.938950 0.436397
346.827850 -510.442017 1.816731 0.655025
346.828125 -510.441925 1.694135 0.415931
346.828339 -510.441864 1.570897 0.814338
346.828583 -510.441803 1.446744 0.656127
346.828857 -510.441742 1.321396 0.622181
346.829102 -510.441681 1.194565 0.535417
346.829376 -510.441589 1.065946 0.530147
346.820465 -510.417023 2.934659 0.649877
346.820740 -510.416931 2.805840 0.740686
346.820984 -510.416901 2.678848 0.542157
346.821228 -510.416809 2.553378 0.561152
346.821472 -510.416748 2.429138 0.645466
346.821716 -510.416687 2.305847 0.531127
346.821960 -510.416626 2.183233 0.496446
346.822235 -510.416565 2.061030 0.567770
346.822479 -510.416473 1.938974 0.531863
346.822723 -510.416443 1.816805 0.644853
346.822968 -510.416382 1.694258 0.446446
346.823242 -510.416290 1.571069 0.727574
346.823456 -510.416260 1.446966 0.655882
346.823730 -510.416168 1.321669 0.634926
346.823975 -510.416107 1.194888 0.496936
346.824249 -510.416016 1.066321 0.534436
346.815338 -510.391449 2.934330 0.732721
346.815582 -510.391388 2.805556 0.640809
346.815857 -510.391327 2.678609 0.581373
346.816101 -510.391266 2.553183 0.597549
346.816345 -510.391174 2.428986 0.618137
346.816589 -510.391144 2.305739 0.567402
346.816833 -510.391052 2.183168 0.469118
346.817108 -510.390991 2.061008 0.562500
346.817352 -510.390961 1.938996 0.650735
346.817596 -510.390869 1.816869 0.793627
346.817841 -510.390808 1.694366 0.430270
346.818115 -510.390747 1.571220 0.783578
346.818359 -510.390686 1.447161 0.683088
346.818604 -510.390656 1.321908 0.642157
346.818848 -510.390564 1.195172 0.598284
346.819122 -510.390503 1.066650 0.521691
346.810211 -510.365875 2.934045 0.456740
346.810455 -510.365845 2.805311 0.667892
346.810730 -510.365753 2.678402 0.548652
346.810974 -510.365723 2.553015 0.561520
346.811249 -510.365631 2.428856 0.819608
346.811493 -510.365570 2.305646 0.607598
346.811737 -510.365540 2.183113 0.576226
346.811981 -510.365448 2.060990 0.532721
346.812225 -510.365417 1.939014 0.501716
346.812469 -510.365326 1.816925 0.617647
346.812714 -510.365265 1.694459 0.457598
346.812988 -510.365234 1.571351 0.638848
346.813232 -510.365143 1.447329 0.689828
346.813477 -510.365112 1.322114 0.637990
346.813751 -510.365021 1.195417 0.580637
346.814026 -510.364990 1.066933 0.539828
346.805084 -510.340363 2.933807 0.468995
346.805328 -510.340302 2.805105 0.737623
346.805603 -510.340240 2.678229 0.537745
346.805847 -510.340179 2.552873 0.572672
346.806122 -510.340118 2.428746 0.571814
346.806366 -510.340057 2.305568 0.561029
346.806610 -510.339996 2.183066 0.534314
346.806885 -510.339966 2.060974 0.560294
346.807129 -510.339874 1.939030 0.478799
346.807373 -510.339813 1.816972 0.670098
346.807587 -510.339752 1.694537 0.459436
346.807861 -510.339691 1.571460 0.690196
346.808105 -510.339630 1.447470 0.511029
346.808350 -510.339569 1.322287 0.585172
346.808624 -510.339539 1.195622 0.570833
346.808899 -510.339447 1.067171 0.573162
346.799988 -510.314850 2.933614 0.467892
346.800232 -510.314758 2.804940 0.750123
346.800507 -510.314728 2.678089 0.593995
346.800720 -510.314636 2.552759 0.552206
346.800995 -510.314606 2.428658 0.603431
346.801239 -510.314545 2.305505 0.614951
346.801483 -510.314484 2.183028 0.529289
346.801727 -510.314423 2.060962 0.484314
346.802002 -510.314362 1.939042 0.509559
346.802246 -510.314301 1.817009 0.720343
346.802490 -510.314270 1.694600 0.457353
346.802734 -510.314178 1.571548 0.671201
346.803009 -510.314148 1.447584 0.481373
346.803253 -510.314056 1.322427 0.541544
346.803528 -510.314026 1.195788 0.540809
346.803772 -510.313934 1.067364 0.597426
346.794861 -510.289307 2.933467 0.462623
346.795105 -510.289276 2.804812 0.657843
346.795380 -510.289185 2.677982 0.521936
346.795624 -510.289154 2.552672 0.490319
346.795898 -510.289063 2.428590 0.495343
346.796143 -510.289032 2.305457 0.547794
346.796387 -510.288971 2.182999 0.502451
346.796631 -510.288910 2.060952 0.569118
346.796906 -510.288879 1.939052 0.487745
346.797119 -510.288788 1.817038 0.670588
346.797363 -510.288757 1.694648 0.681250
346.797607 -510.288696 1.571616 0.788848
346.797882 -510.288635 1.447670 0.552083
346.798126 -510.288605 1.322533 0.606495
346.798401 -510.288513 1.195914 0.498774
346.798645 -510.288483 1.067510 0.565686
346.789734 -510.263794 2.933365 0.487990
346.789978 -510.263763 2.804725 0.627941
346.790253 -510.263672 2.677908 0.563971
346.790497 -510.263641 2.552612 0.686520
346.790771 -510.263580 2.428544 0.513603
346.791016 -510.263519 2.305423 0.536642
346.791260 -510.263489 2.182980 0.500000
346.791504 -510.263397 2.060946 0.470466
346.791779 -510.263367 1.939059 0.505637
346.792023 -510.263306 1.817058 0.739583
346.792267 -510.263245 1.694681 0.583333
346.792511 -510.263214 1.571662 0.610049
346.792786 -510.263153 1.447731 0.565931
346.793030 -510.263092 1.322607 0.652328
346.793304 -510.263031 1.196002 0.551838
346.793549 -510.263000 1.067612 0.513603
346.784637 -510.238312 2.933309 0.523039
346.784882 -510.238251 2.804677 0.697917
346.785156 -510.238190 2.677868 0.625613
346.785400 -510.238129 2.552579 0.628431
346.785675 -510.238098 2.428518 0.603922
346.785919 -510.238007 2.305405 0.534804
346.786163 -510.237976 2.182969 0.623407
346.786407 -510.237946 2.060942 0.617892
346.786682 -510.237885 1.939062 0.507230
346.786896 -510.237823 1.817069 0.643260
346.787140 -510.237762 1.694699 0.545466
346.787384 -510.237732 1.571688 0.617034
346.787659 -510.237640 1.447764 0.545956
346.787903 -510.237610 1.322648 0.637255
346.788177 -510.237579 1.196050 0.540074
346.788422 -510.237518 1.067668 0.572059
346.779480 -510.212799 2.933299 0.501838
346.779755 -510.212738 2.804667 0.783333
346.780029 -510.212677 2.677860 0.589093
346.780273 -510.212616 2.552572 0.576716
346.780548 -510.212585 2.428513 0.568260
346.780792 -510.212555 2.305402 0.533088
346.781036 -510.212494 2.182966 0.538848
346.781281 -510.212433 2.060941 0.493137
346.781555 -510.212372 1.939063 0.503922
346.781799 -510.212341 1.817071 0.672181
346.782043 -510.212311 1.694703 0.573652
346.782288 -510.212219 1.571693 0.653309
346.782562 -510.212189 1.447770 0.570711
346.782806 -510.212128 1.322655 0.590686
346.783081 -510.212097 1.196059 0.492402
346.783325 -510.212006 1.067679 0.614338
346.774384 -510.187286 2.933333 0.500735
346.774658 -510.187256 2.804698 0.766422
346.774933 -510.187195 2.677885 0.581250
346.775177 -510.187134 2.552593 0.566299
346.775452 -510.187073 2.428529 0.499387
346.775696 -510.187042 2.305413 0.500980
346.775940 -510.186981 2.182973 0.539093
346.776184 -510.186951 2.060943 0.515196
346.776459 -510.186920 1.939061 0.508578
346.776703 -510.186829 1.817064 0.711152
346.776947 -510.186798 1.694691 0.586887
346.777161 -510.186737 1.571677 0.665564
346.777435 -510.186707 1.447749 0.568505
346.777679 -510.186676 1.322630 0.594853
346.777954 -510.186584 1.196029 0.483211
346.778198 -510.186554 1.067644 0.601838
346.769257 -510.161774 2.933414 0.645343
346.769531 -510.161743 2.804767 0.882721
346.769806 -510.161682 2.677944 0.570098
346.770050 -510.161621 2.552641 0.527941
346.770294 -510.161560 2.428566 0.480025
346.770569 -510.161530 2.305439 0.531005
346.770813 -510.161499 2.182989 0.497794
346.771057 -510.161438 2.060949 0.554657
346.771332 -510.161407 1.939056 0.702941
346.771576 -510.161346 1.817049 0.814093
346.771820 -510.161316 1.694665 0.583088
346.772064 -510.161285 1.571640 0.704412
346.772339 -510.161194 1.447702 0.557476
346.772583 -510.161163 1.322572 0.546446
346.772858 -510.161102 1.195960 0.502696
346.773102 -510.161072 1.067563 0.577696
346.764160 -510.136261 2.933540 0.499755
346.764435 -510.136200 2.804875 0.827696
346.764709 -510.136169 2.678035 0.595098
346.764954 -510.136108 2.552716 0.570833
346.765198 -510.136078 2.428624 0.700858
346.765472 -510.136017 2.305481 0.615441
346.765717 -510.135986 2.183014 0.523162
346.765961 -510.135925 2.060957 0.605515
346.766235 -510.135895 1.939047 0.569608
346.766479 -510.135864 1.817024 0.732598
346.766724 -510.135803 1.694624 0.634314
346.766968 -510.135773 1.571582 0.703922
346.767242 -510.135712 1.447627 0.676103
346.767487 -510.135681 1.322480 0.700735
346.767761 -510.135651 1.195852 0.500735
346.767975 -510.135590 1.067438 0.550980
346.759033 -510.110748 2.933712 0.514093
346.759308 -510.110687 2.805023 0.804534
346.759583 -510.110657 2.678160 0.539338
346.759827 -510.110596 2.552817 0.609436
346.760071 -510.110565 2.428703 0.504534
346.760345 -510.110535 2.305537 0.628309
346.760590 -510.110474 2.183047 0.478431
346.760834 -510.110443 2.060968 0.569118
346.761108 -510.110382 1.939036 0.617034
346.761353 -510.110352 1.816990 0.742402
346.761597 -510.110321 1.694568 0.610907
346.761841 -510.110260 1.571504 0.713113
346.762115 -510.110229 1.447526 0.562500
346.762360 -510.110168 1.322356 0.511642
346.762634 -510.110138 1.195704 0.571936
346.762878 -510.110077 1.067266 0.510417
346.753906 -510.085205 2.933929 0.561029
346.754181 -510.085175 2.805211 0.771691
346.754425 -510.085114 2.678318 0.913848
346.754700 -510.085083 2.552946 0.576103
346.754944 -510.085022 2.428802 0.519485
346.755219 -510.084991 2.305608 0.634804
346.755463 -510.084930 2.183090 0.527941
346.755707 -510.084900 2.060982 0.618260
346.755951 -510.084900 1.939022 0.598039
