# This PCD file was generated using the MATLABÂ® pcwrite function
# from Computer Vision ToolboxÂ®.
# .PCD v.7 - Point Cloud Data file format
VERSION .7
FIELDS x y z intensity
SIZE 4 4 4 4
TYPE F F F F
COUNT 1 1 1 1
WIDTH 1219
HEIGHT 1
VIEWPOINT 0 0 0 1 0 0 0
POINTS 1219
DATA ascii
246.909348 -489.161682 0.000099 0.203576
nan nan nan 0.000000
nan nan nan 0.000000
nan nan nan 0.000000
nan nan nan 0.000000
nan nan nan 0.000000
nan nan nan 0.000000
nan nan nan 0.000000
nan nan nan 0.000000
nan nan nan 0.000000
259.407623 -458.914703 -0.000015 0.224241
253.201401 -474.007080 -0.000083 0.226355
250.535950 -480.488983 0.000121 0.237409
249.052109 -484.097412 0.000063 0.253172
248.104294 -486.402344 0.000246 0.246540
247.446350 -488.002319 -0.000041 0.202038
246.960892 -489.182892 0.000149 0.259227
nan nan nan 0.000000
nan nan nan 0.000000
nan nan nan 0.000000
nan nan nan 0.000000
nan nan nan 0.000000
nan nan nan 0.000000
nan nan nan 0.000000
nan nan nan 0.000000
nan nan nan 0.000000
259.669861 -459.024292 0.000014 0.230488
253.358429 -474.072968 -0.000033 0.210688
250.647949 -480.535767 0.000147 0.225586
249.138931 -484.133759 0.000097 0.251826
248.175583 -486.430725 0.000040 0.194444
247.505966 -488.027344 0.000011 0.197424
247.012680 -489.203491 -0.000056 0.217705
nan nan nan 0.000000
nan nan nan 0.000000
nan nan nan 0.000000
nan nan nan 0.000000
nan nan nan 0.000000
nan nan nan 0.000000
nan nan nan 0.000000
nan nan nan 0.000000
nan nan nan 0.000000
259.931213 -459.135956 0.000059 0.224914
253.515091 -474.139740 -0.000001 0.232987
250.759537 -480.583466 0.000194 0.224914
249.225449 -484.170837 0.000160 0.217224
248.246155 -486.460846 0.000078 0.232122
247.565414 -488.052765 0.000062 0.210688
247.063934 -489.225464 0.000000 0.207132
nan nan nan 0.000000
nan nan nan 0.000000
nan nan nan 0.000000
nan nan nan 0.000000
nan nan nan 0.000000
nan nan nan 0.000000
nan nan nan 0.000000
nan nan nan 0.000000
nan nan nan 0.000000
260.191864 -459.249207 0.000092 0.225202
253.671265 -474.207581 0.000029 0.229815
250.870834 -480.631836 0.000228 0.207901
249.311783 -484.208282 0.000184 0.252403
248.316467 -486.491547 0.000138 0.216744
247.624680 -488.078522 0.000098 0.199635
247.115051 -489.247681 0.000035 0.169646
nan nan nan 0.000000
nan nan nan 0.000000
nan nan nan 0.000000
nan nan nan 0.000000
nan nan nan 0.000000
nan nan nan 0.000000
nan nan nan 0.000000
nan nan nan 0.000000
nan nan nan 0.000000
260.451721 -459.364288 0.000124 0.223856
253.826981 -474.276489 0.000060 0.222991
250.982605 -480.679138 0.000026 0.248462
249.397827 -484.246460 0.000226 0.195310
248.386642 -486.522614 0.000171 0.213956
247.683777 -488.104767 0.000141 0.197520
247.166000 -489.270264 0.000074 0.208285
nan nan nan 0.000000
nan nan nan 0.000000
nan nan nan 0.000000
nan nan nan 0.000000
nan nan nan 0.000000
284.958130 -405.911865 10.159286 1.000000
284.958130 -405.911896 6.888569 1.000000
284.958130 -405.911896 3.628360 1.000000
284.958130 -405.911896 0.371640 1.000000
260.710754 -459.481262 0.000161 0.228278
253.982056 -474.346832 0.000116 0.229431
251.093231 -480.729095 0.000066 0.214821
249.483582 -484.285217 0.000267 0.231449
248.456573 -486.554169 0.000204 0.223664
247.742691 -488.131348 0.000174 0.239427
247.216797 -489.293213 0.000110 0.238562
nan nan nan 0.000000
nan nan nan 0.000000
nan nan nan 0.000000
285.204376 -407.036896 16.624176 1.000000
285.204407 -407.036865 13.341660 1.000000
285.204376 -407.036896 10.083769 1.000000
285.204376 -407.036896 6.843327 1.000000
285.204376 -407.036896 3.613290 1.000000
285.204376 -407.036896 0.386712 1.000000
260.970825 -459.595886 -0.000027 0.225586
254.137909 -474.415466 -0.000072 0.227316
251.204315 -480.777985 -0.000130 0.224914
249.569656 -484.323303 0.000098 0.238754
248.526733 -486.585266 0.000042 0.220684
247.801834 -488.157471 -0.000002 0.280085
247.267776 -489.315765 -0.000056 0.260092
nan nan nan 0.000000
285.446167 -408.141327 23.098766 1.000000
285.446167 -408.141327 19.775089 1.000000
285.446167 -408.141327 16.490772 1.000000
285.446167 -408.141327 13.238198 1.000000
285.446198 -408.141296 10.010028 1.000000
285.446198 -408.141296 6.799145 1.000000
285.446167 -408.141327 3.598573 1.000000
285.446167 -408.141327 0.401427 1.000000
261.228241 -459.716400 0.000006 0.223856
254.292114 -474.487732 -0.000037 0.230873
251.314178 -480.829590 -0.000079 0.212514
249.654953 -484.363098 0.000116 0.251153
248.596283 -486.617706 0.000055 0.223280
247.859924 -488.185883 0.000270 0.195502
247.318253 -489.339417 -0.000018 0.194348
nan nan nan 0.000000
285.683563 -409.225830 22.909054 1.000000
285.683594 -409.225830 19.615259 1.000000
285.683594 -409.225830 16.360477 1.000000
285.683563 -409.225830 13.137145 1.000000
285.683594 -409.225769 9.938004 1.000000
285.683594 -409.225830 6.755993 1.000000
285.683594 -409.225800 3.584200 1.000000
285.683594 -409.225800 0.415802 1.000000
261.484314 -459.839722 0.000093 0.226067
254.445618 -474.561462 0.000039 0.217513
251.423599 -480.882111 -0.000008 0.236544
249.739746 -484.403961 0.000203 0.228854
248.665359 -486.651093 0.000164 0.287197
247.918640 -488.212921 0.000111 0.208766
247.368469 -489.363617 0.000074 0.282295
nan nan nan 0.000000
285.916779 -410.291077 22.723721 1.000000
285.916748 -410.291046 19.459118 1.000000
285.916809 -410.291077 16.233185 1.000000
285.916779 -410.291077 13.038426 1.000000
285.916809 -410.291077 9.867645 1.000000
285.916779 -410.291046 6.713837 1.000000
285.916779 -410.291046 3.570158 1.000000
285.916779 -410.291046 0.429844 1.000000
261.739990 -459.963806 0.000127 0.228854
254.598740 -474.635956 0.000085 0.222030
251.532822 -480.935089 0.000023 0.230104
249.824402 -484.445129 0.000249 0.232987
248.734436 -486.684509 0.000181 0.203960
247.976822 -488.241119 0.000140 0.238370
247.418610 -489.388000 0.000116 0.216551
nan nan nan 0.000000
286.145874 -411.337646 22.542637 1.000000
286.145874 -411.337616 19.306562 1.000000
286.145874 -411.337646 16.108818 1.000000
286.145905 -411.337646 12.941976 1.000000
286.145874 -411.337646 9.798893 1.000000
286.145905 -411.337585 6.672646 1.000000
286.145874 -411.337616 3.556436 1.000000
286.145874 -411.337616 0.443564 1.000000
261.994354 -460.090546 0.000206 0.224337
254.751144 -474.711884 0.000166 0.219915
251.641373 -480.989380 0.000121 0.212995
249.908646 -484.487091 0.000327 0.210977
248.803070 -486.718842 0.000279 0.209919
248.034668 -488.269928 0.000222 0.209343
247.468475 -489.412872 0.000205 0.236351
nan nan nan 0.000000
286.371033 -412.366089 22.365677 1.000000
286.371033 -412.366089 19.157478 1.000000
286.371033 -412.366089 15.987279 1.000000
286.371033 -412.366089 12.847715 1.000000
286.371033 -412.366089 9.731710 1.000000
286.371033 -412.366089 6.632393 1.000000
286.371063 -412.366089 3.543028 1.000000
286.371063 -412.366089 0.456971 1.000000
262.250763 -460.213226 -0.000033 0.225298
254.904770 -474.785400 -0.000074 0.231065
251.750854 -481.041809 -0.000113 0.222030
249.993500 -484.527832 0.000106 0.203191
248.872269 -486.752014 0.000049 0.257593
248.092941 -488.297943 0.000009 0.204344
247.518738 -489.437012 -0.000019 0.220300
nan nan nan 0.000000
286.592346 -413.377045 22.192707 1.000000
286.592346 -413.377045 19.011757 1.000000
286.592346 -413.377045 15.868483 1.000000
286.592346 -413.377106 12.755584 1.000000
286.592346 -413.377075 9.666045 1.000000
286.592346 -413.377045 6.593049 1.000000
286.592377 -413.377045 3.529925 1.000000
286.592377 -413.377045 0.470076 1.000000
262.503479 -460.343262 0.000035 0.228566
255.056198 -474.863281 -0.000008 0.234525
251.858810 -481.097290 -0.000053 0.228662
250.077179 -484.570953 0.000180 0.224433
248.940445 -486.787170 0.000133 0.221934
248.150406 -488.327545 0.000079 0.192714
247.568283 -489.462494 0.000050 0.206459
nan nan nan 0.000000
286.809937 -414.371063 22.023626 1.000000
286.809937 -414.371063 18.869314 1.000000
286.809967 -414.371033 15.752358 1.000000
286.809937 -414.371063 12.665522 1.000000
286.809937 -414.371063 9.601856 1.000000
286.809937 -414.371063 6.554592 1.000000
286.809937 -414.371063 3.517114 1.000000
286.809967 -414.371033 0.482887 1.000000
262.755615 -460.474457 0.000069 0.232699
255.207245 -474.941864 0.000023 0.236159
251.966431 -481.153381 -0.000008 0.223952
250.161453 -484.612854 -0.000042 0.233276
249.008514 -486.822632 0.000170 0.241349
248.207748 -488.357391 0.000117 0.265667
247.617310 -489.489105 0.000324 0.199539
nan nan nan 0.000000
287.023926 -415.348572 21.858309 1.000000
287.023926 -415.348572 18.730040 1.000000
287.023926 -415.348572 15.638815 1.000000
287.023926 -415.348572 12.577471 1.000000
287.023926 -415.348572 9.539093 1.000000
287.023926 -415.348572 6.516990 1.000000
287.023926 -415.348572 3.504586 1.000000
287.023956 -415.348511 0.495412 1.000000
263.006348 -460.608246 0.000148 0.225971
255.357422 -475.022186 0.000116 0.230969
252.073517 -481.210541 0.000074 0.219531
250.244507 -484.657166 0.000037 0.212707
249.076202 -486.858795 0.000255 0.244906
248.264786 -488.387817 0.000193 0.267397
247.666931 -489.514435 0.000152 0.220684
nan nan nan 0.000000
287.445374 -415.919250 21.792582 1.000000
287.445374 -415.919220 18.674664 1.000000
287.445374 -415.919250 15.593673 1.000000
287.445374 -415.919250 12.542459 1.000000
287.445374 -415.919250 9.514139 1.000000
287.445374 -415.919281 6.502037 1.000000
287.445374 -415.919250 3.499608 1.000000
287.445343 -415.919281 0.500392 1.000000
263.258850 -460.738770 -0.000051 0.226067
255.508698 -475.100433 -0.000080 0.234045
252.181351 -481.266235 -0.000129 0.223760
250.328156 -484.700378 -0.000168 0.232699
249.144348 -486.894043 0.000067 0.235294
248.322144 -488.417664 0.000029 0.222222
247.716415 -489.540100 -0.000024 0.255863
nan nan nan 0.000000
288.274750 -415.737671 21.912651 1.000000
288.274750 -415.737671 18.775818 1.000000
288.274750 -415.737671 15.676135 1.000000
288.274750 -415.737671 12.606414 1.000000
288.274750 -415.737671 9.559723 1.000000
288.274750 -415.737671 6.529346 1.000000
288.274719 -415.737671 3.508704 1.000000
288.274719 -415.737671 0.491296 1.000000
263.504944 -460.881134 0.000314 0.229239
255.657883 -475.182495 -0.000014 0.236928
252.287659 -481.324799 -0.000057 0.224721
250.410583 -484.745850 -0.000087 0.222607
249.211517 -486.931152 0.000155 0.240100
248.378799 -488.448792 0.000087 0.283833
247.765228 -489.567078 0.000061 0.194060
nan nan nan 0.000000
289.114288 -415.553864 22.035164 1.000000
289.114288 -415.553894 18.879028 1.000000
289.114288 -415.553894 15.760280 1.000000
289.114288 -415.553894 12.671667 1.000000
289.114288 -415.553894 9.606236 1.000000
289.114288 -415.553894 6.557213 1.000000
289.114288 -415.553894 3.517988 1.000000
289.114258 -415.553894 0.482014 1.000000
263.753113 -461.019531 0.000360 0.231449
255.806625 -475.265442 0.000031 0.228278
252.393600 -481.384064 0.000008 0.217801
250.492798 -484.791656 -0.000041 0.227989
249.278564 -486.968445 0.000183 0.281142
248.435211 -488.480347 0.000155 0.185890
247.813934 -489.594116 0.000090 0.214821
nan nan nan 0.000000
289.964264 -415.367798 22.160179 1.000000
289.964264 -415.367798 18.984356 1.000000
289.964233 -415.367828 15.846136 1.000000
289.964233 -415.367828 12.738258 1.000000
289.964233 -415.367828 9.653697 1.000000
289.964233 -415.367828 6.585650 1.000000
289.964233 -415.367828 3.527459 1.000000
289.964233 -415.367828 0.472541 1.000000
264.000092 -461.160034 0.000431 0.228566
255.954514 -475.349823 0.000117 0.232507
252.499100 -481.444061 0.000074 0.253652
250.574631 -484.838196 0.000023 0.246059
249.345169 -487.006561 0.000285 0.243752
248.491379 -488.512360 0.000230 0.244906
247.862350 -489.621735 0.000174 0.199539
nan nan nan 0.000000
290.824921 -415.179382 22.287756 1.000000
290.824921 -415.179413 19.091831 1.000000
290.824921 -415.179413 15.933761 1.000000
290.824921 -415.179413 12.806212 1.000000
290.824921 -415.179413 9.702128 1.000000
290.824921 -415.179382 6.614672 1.000000
290.824890 -415.179413 3.537123 1.000000
290.824890 -415.179413 0.462875 1.000000
264.245911 -461.302582 0.000516 0.226355
256.101837 -475.435211 0.000203 0.229527
252.604095 -481.504913 0.000158 0.211457
250.656006 -484.885498 0.000124 0.242215
249.411591 -487.044952 0.000357 0.229719
248.547348 -488.544708 0.000297 0.203383
247.910568 -489.649719 0.000267 0.225682
nan nan nan 0.000000
291.696625 -414.988556 22.417973 1.000000
291.696625 -414.988556 19.201534 1.000000
291.696625 -414.988586 16.023190 1.000000
291.696625 -414.988556 12.875568 1.000000
291.696625 -414.988586 9.751564 1.000000
291.696625 -414.988586 6.644289 1.000000
291.696594 -414.988586 3.546991 1.000000
291.696594 -414.988586 0.453009 1.000000
264.493713 -461.441742 0.000312 0.230008
256.250336 -475.518585 -0.000002 0.231449
252.709885 -481.564423 -0.000037 0.216167
250.738068 -484.931580 -0.000076 0.242503
249.478485 -487.082550 0.000155 0.218378
248.603607 -488.576538 0.000142 0.181757
247.959091 -489.677155 0.000099 0.276048
nan nan nan 0.000000
292.579651 -414.795227 22.550871 1.000000
292.579620 -414.795258 19.313494 1.000000
292.579651 -414.795227 16.114466 1.000000
292.579620 -414.795288 12.946357 1.000000
292.579620 -414.795288 9.802017 1.000000
292.579620 -414.795288 6.674517 1.000000
292.579590 -414.795288 3.557061 1.000000
292.579590 -414.795288 0.442941 1.000000
264.737671 -461.587463 0.000386 0.228278
256.396515 -475.605927 0.000070 0.217128
252.814087 -481.626648 0.000035 0.245483
250.818909 -484.979828 -0.000010 0.214917
249.545105 -487.120636 -0.000037 0.233276
248.659119 -488.609650 0.000203 0.231930
248.006943 -489.705719 0.000169 0.195886
nan nan nan 0.000000
293.474243 -414.599426 22.686522 1.000000
293.474243 -414.599396 19.427780 1.000000
293.474243 -414.599426 16.207638 1.000000
293.474243 -414.599426 13.018613 1.000000
293.474243 -414.599426 9.853518 1.000000
293.474243 -414.599426 6.705373 1.000000
293.474243 -414.599426 3.567337 1.000000
293.474243 -414.599426 0.432664 1.000000
264.980499 -461.735077 0.000468 0.227989
256.542023 -475.694397 0.000154 0.234333
252.917801 -481.689697 0.000120 0.208670
250.899261 -485.028839 0.000096 0.220396
249.610657 -487.160553 0.000054 0.246348
248.714310 -488.643311 0.000308 0.273837
248.054550 -489.734680 0.000258 0.214341
nan nan nan 0.000000
294.380798 -414.400940 22.825003 1.000000
294.380798 -414.400940 19.544445 1.000000
294.380768 -414.400940 16.302742 1.000000
294.380768 -414.400940 13.092371 1.000000
294.380768 -414.400940 9.906094 1.000000
294.380798 -414.400940 6.736872 1.000000
294.380768 -414.400940 3.577828 1.000000
294.380768 -414.401001 0.422170 1.000000
265.225342 -461.879333 0.000261 0.227989
256.688782 -475.780762 -0.000057 0.233468
253.022400 -481.751282 -0.000091 0.222607
250.980392 -485.076599 -0.000119 0.212034
249.676743 -487.199554 -0.000139 0.285083
248.770020 -488.676117 0.000097 0.240965
248.102554 -489.763031 0.000067 0.212322
nan nan nan 0.000000
295.299591 -414.199799 22.966379 1.000000
295.299591 -414.199799 19.663551 1.000000
295.299591 -414.199799 16.399841 1.000000
295.299591 -414.199799 13.167679 1.000000
295.299591 -414.199799 9.959764 1.000000
295.299591 -414.199799 6.769028 1.000000
295.299591 -414.199799 3.588540 1.000000
295.299561 -414.199829 0.411459 1.000000
265.469208 -462.025299 0.000055 0.229047
256.833008 -475.871277 0.000030 0.231546
253.125183 -481.815826 -0.000001 0.222126
251.060211 -485.126495 -0.000054 0.240292
249.741837 -487.240204 -0.000085 0.203479
248.824799 -488.710449 0.000173 0.200308
248.149780 -489.792633 0.000144 0.211649
nan nan nan 0.000000
296.230988 -413.995880 23.110723 1.000000
296.230988 -413.995880 19.785156 1.000000
296.231018 -413.995880 16.498981 1.000000
296.231018 -413.995911 13.244558 1.000000
296.231018 -413.995911 10.014562 1.000000
296.231018 -413.995911 6.801861 1.000000
296.231018 -413.995911 3.599477 1.000000
296.231018 -413.995911 0.400523 1.000000
265.708923 -462.177979 0.000137 0.227701
256.976593 -475.962799 0.000116 0.226836
253.227585 -481.881012 0.000079 0.230296
251.139526 -485.177216 0.000052 0.238178
249.806549 -487.281464 0.000005 0.234237
248.879990 -488.744080 -0.000014 0.262591
248.196823 -489.822540 0.000216 0.186467
nan nan nan 0.000000
nan nan nan 0.000000
nan nan nan 0.000000
297.175385 -413.789185 16.600203 1.000000
297.175385 -413.789185 13.323067 1.000000
297.175385 -413.789185 10.070517 1.000000
297.175415 -413.789124 6.835388 1.000000
297.175385 -413.789185 3.610645 1.000000
297.175385 -413.789185 0.389355 1.000000
265.947540 -462.332336 0.000222 0.227605
257.119598 -476.055267 0.000199 0.227509
253.329483 -481.946899 0.000160 0.231161
251.218567 -485.228302 0.000134 0.197328
249.870926 -487.323212 0.000104 0.190696
248.934296 -488.779144 0.000058 0.184544
248.243561 -489.852905 0.000326 0.252403
nan nan nan 0.000000
nan nan nan 0.000000
nan nan nan 0.000000
nan nan nan 0.000000
298.133087 -413.579529 13.403235 1.000000
298.133087 -413.579529 10.127658 1.000000
298.133087 -413.579529 6.869622 1.000000
298.133087 -413.579529 3.622047 1.000000
298.133087 -413.579529 0.377951 1.000000
266.188385 -462.483246 0.000007 0.229431
257.263855 -476.145721 -0.000012 0.224721
253.432327 -482.011414 -0.000048 0.216744
251.298340 -485.278290 -0.000080 0.226355
249.935913 -487.364014 -0.000095 0.213476
248.989029 -488.813599 -0.000131 0.213764
248.290787 -489.882538 0.000119 0.235582
nan nan nan 0.000000
nan nan nan 0.000000
nan nan nan 0.000000
nan nan nan 0.000000
nan nan nan 0.000000
nan nan nan 0.000000
299.104492 -413.366852 6.904588 1.000000
299.104492 -413.366821 3.633694 1.000000
299.104492 -413.366852 0.366306 1.000000
266.424408 -462.641632 0.000132 0.227028
257.405304 -476.240570 0.000108 0.232795
253.533051 -482.079132 0.000089 0.220108
251.376434 -485.330841 0.000062 0.229912
249.999603 -487.406830 0.000041 0.286332
249.042694 -488.849640 0.000005 0.237120
248.337036 -489.913635 0.000257 0.240773
nan nan nan 0.000000
nan nan nan 0.000000
nan nan nan 0.000000
nan nan nan 0.000000
nan nan nan 0.000000
nan nan nan 0.000000
nan nan nan 0.000000
nan nan nan 0.000000
nan nan nan 0.000000
266.659698 -462.801056 0.000220 0.224145
257.546295 -476.336029 0.000193 0.231834
253.633514 -482.147217 0.000178 0.241926
251.454361 -485.383636 0.000149 0.200115
250.063156 -487.449829 0.000121 0.198001
249.096207 -488.885956 0.000096 0.197520
248.383194 -489.944885 0.000346 0.228758
nan nan nan 0.000000
nan nan nan 0.000000
nan nan nan 0.000000
nan nan nan 0.000000
nan nan nan 0.000000
nan nan nan 0.000000
nan nan nan 0.000000
nan nan nan 0.000000
nan nan nan 0.000000
266.897522 -462.956696 -0.000010 0.227028
257.686768 -476.432281 0.000256 0.227989
253.735062 -482.213715 -0.000049 0.230777
251.533157 -485.435150 -0.000089 0.244041
250.127365 -487.491882 -0.000109 0.214629
249.150284 -488.921356 -0.000131 0.257882
248.430450 -489.974487 -0.000164 0.222126
nan nan nan 0.000000
nan nan nan 0.000000
nan nan nan 0.000000
nan nan nan 0.000000
nan nan nan 0.000000
nan nan nan 0.000000
nan nan nan 0.000000
nan nan nan 0.000000
nan nan nan 0.000000
267.130585 -463.119385 0.000078 0.230873
257.826355 -476.529785 0.000348 0.240869
253.834641 -482.283112 0.000032 0.232795
251.610352 -485.489044 -0.000002 0.210400
250.190216 -487.535889 0.000000 0.212418
249.203308 -488.958374 -0.000043 0.259900
248.476151 -490.006409 -0.000072 0.203191
nan nan nan 0.000000
nan nan nan 0.000000
nan nan nan 0.000000
nan nan nan 0.000000
nan nan nan 0.000000
nan nan nan 0.000000
nan nan nan 0.000000
nan nan nan 0.000000
nan nan nan 0.000000
267.362030 -463.284271 0.000202 0.227989
257.965057 -476.628479 0.000468 0.219627
253.933487 -482.353546 0.000155 0.217897
251.686920 -485.543762 0.000145 0.244329
250.252731 -487.580414 0.000127 0.212418
249.255920 -488.995911 0.000095 0.209919
248.521576 -490.038727 0.000044 0.208285
nan nan nan 0.000000
nan nan nan 0.000000
nan nan nan 0.000000
nan nan nan 0.000000
nan nan nan 0.000000
nan nan nan 0.000000
nan nan nan 0.000000
nan nan nan 0.000000
nan nan nan 0.000000
267.596466 -463.445038 -0.000019 0.225202
258.105438 -476.724854 0.000252 0.230296
254.032104 -482.424286 0.000228 0.235294
251.764572 -485.596985 -0.000082 0.239139
250.316055 -487.623779 -0.000105 0.233276
249.309265 -489.032471 -0.000131 0.250384
248.567474 -490.070374 -0.000144 0.259227
288.856049 -434.617462 21.169310 1.000000
288.856049 -434.617493 18.528500 1.000000
288.856018 -434.617523 15.924767 1.000000
288.856018 -434.617523 13.351878 1.000000
288.856049 -434.617462 10.803855 1.000000
288.856018 -434.617493 8.274950 1.000000
288.856018 -434.617523 5.759585 1.000000
288.856018 -434.617523 3.252300 1.000000
288.856018 -434.617523 0.747700 1.000000
267.826080 -463.612518 0.000067 0.224914
258.242981 -476.825226 0.000342 0.229431
254.130157 -482.495789 0.000316 0.219050
251.840607 -485.652466 0.000010 0.264706
250.377960 -487.669128 0.000005 0.228758
249.361465 -489.070618 -0.000033 0.208862
248.612518 -490.103210 -0.000065 0.193195
289.008118 -435.312195 21.051268 1.000000
289.008118 -435.312195 18.426729 1.000000
289.008087 -435.312195 15.839027 1.000000
289.008118 -435.312195 13.281981 1.000000
289.008118 -435.312195 10.749644 1.000000
289.008118 -435.312195 8.236315 1.000000
289.008118 -435.312195 5.736435 1.000000
289.008118 -435.312195 3.244588 1.000000
289.008118 -435.312195 0.755410 1.000000
268.053833 -463.782562 0.000211 0.229719
258.379547 -476.926880 0.000468 0.234814
254.227448 -482.568298 0.000443 0.233372
251.916016 -485.708832 0.000161 0.226547
250.439484 -487.714996 0.000138 0.253749
249.413315 -489.109222 0.000097 0.238081
248.657211 -490.136505 0.000070 0.275279
289.158356 -435.998413 20.935606 1.000000
289.158356 -435.998413 18.326994 1.000000
289.158325 -435.998413 15.755007 1.000000
289.158356 -435.998413 13.213484 1.000000
289.158356 -435.998413 10.696524 1.000000
289.158356 -435.998413 8.198448 1.000000
289.158325 -435.998413 5.713752 1.000000
289.158325 -435.998413 3.237034 1.000000
289.158325 -435.998413 0.762968 1.000000
268.284851 -463.948120 -0.000014 0.229239
258.517883 -477.026154 0.000249 0.216936
254.326080 -482.639008 0.000223 0.236351
251.992523 -485.763702 -0.000063 0.246155
250.501892 -487.759644 -0.000096 0.257305
249.465866 -489.146881 -0.000136 0.215975
248.702499 -490.169037 -0.000136 0.225586
289.306763 -436.676361 20.822243 1.000000
289.306763 -436.676361 18.229250 1.000000
289.306763 -436.676361 15.672662 1.000000
289.306763 -436.676361 13.146353 1.000000
289.306763 -436.676361 10.644462 1.000000
289.306763 -436.676361 8.161343 1.000000
289.306732 -436.676392 5.691519 1.000000
289.306732 -436.676392 3.229627 1.000000
289.306732 -436.676392 0.770373 1.000000
268.510406 -464.121063 0.000112 0.225971
258.655212 -477.126892 0.000080 0.231738
254.422409 -482.712830 0.000346 0.224337
252.067215 -485.820984 0.000068 0.224914
250.562805 -487.806335 0.000031 0.216263
249.517075 -489.186340 0.000027 0.241446
248.746719 -490.202972 -0.000003 0.227893
289.453400 -437.346283 20.711143 1.000000
289.453400 -437.346313 18.133451 1.000000
289.453400 -437.346313 15.591952 1.000000
289.453400 -437.346313 13.080558 1.000000
289.453400 -437.346313 10.593431 1.000000
289.453400 -437.346313 8.124973 1.000000
289.453400 -437.346283 5.669728 1.000000
289.453400 -437.346283 3.222371 1.000000
289.453400 -437.346283 0.777631 1.000000
268.735229 -464.294891 0.000201 0.225682
258.789917 -477.230988 0.000166 0.227989
254.518295 -482.787201 0.000456 0.225490
252.141708 -485.878510 0.000146 0.235967
250.623459 -487.853333 0.000134 0.198481
249.568253 -489.225861 0.000105 0.203095
248.790833 -490.237061 0.000076 0.245098
289.598328 -438.008392 20.602236 1.000000
289.598358 -438.008392 18.039555 1.000000
289.598358 -438.008392 15.512845 1.000000
289.598358 -438.008392 13.016069 1.000000
289.598328 -438.008392 10.543418 1.000000
289.598358 -438.008392 8.089326 1.000000
289.598358 -438.008392 5.648370 1.000000
289.598358 -438.008392 3.215255 1.000000
289.598358 -438.008392 0.784745 1.000000
268.962280 -464.465912 0.000015 0.224625
258.925934 -477.333496 -0.000019 0.223376
254.615219 -482.860260 0.000276 0.203576
252.216843 -485.935211 -0.000026 0.234910
250.684723 -487.899536 -0.000042 0.266436
249.619888 -489.264801 -0.000074 0.192618
248.835358 -490.270630 -0.000107 0.246059
289.741638 -438.662872 20.495493 1.000000
289.741638 -438.662872 17.947514 1.000000
289.741638 -438.662872 15.435308 1.000000
289.741638 -438.662872 12.952856 1.000000
289.741638 -438.662872 10.494396 1.000000
289.741638 -438.662872 8.054384 1.000000
289.741638 -438.662872 5.627434 1.000000
289.741638 -438.662872 3.208282 1.000000
289.741638 -438.662872 0.791719 1.000000
269.184662 -464.642883 0.000101 0.228278
259.059204 -477.439514 0.000068 0.225586
254.710159 -482.935852 0.000365 0.220108
252.289291 -485.995361 0.000350 0.248558
250.744797 -487.947296 0.000036 0.245867
249.670410 -489.305115 0.000034 0.244810
248.878922 -490.305389 -0.000003 0.261342
289.883270 -439.309875 20.390862 1.000000
289.883270 -439.309875 17.857296 1.000000
289.883270 -439.309875 15.359302 1.000000
289.883270 -439.309875 12.890893 1.000000
289.883270 -439.309875 10.446342 1.000000
289.883270 -439.309875 8.020134 1.000000
289.883270 -439.309875 5.606912 1.000000
289.883270 -439.309875 3.201447 1.000000
289.883270 -439.309875 0.798555 1.000000
269.405121 -464.822266 0.000244 0.231161
259.191284 -477.546967 0.000208 0.230777
254.804291 -483.012421 0.000503 0.236832
252.362289 -486.054749 0.000494 0.207420
250.804245 -487.995819 0.000196 0.237889
249.720566 -489.345886 0.000170 0.252980
248.922134 -490.340607 0.000151 0.220300
290.023346 -439.949677 20.288294 1.000000
290.023315 -439.949677 17.768852 1.000000
290.023315 -439.949677 15.284791 1.000000
290.023346 -439.949677 12.830153 1.000000
290.023346 -439.949677 10.399235 1.000000
290.023346 -439.949677 7.986557 1.000000
290.023346 -439.949677 5.586796 1.000000
290.023315 -439.949677 3.194746 1.000000
290.023315 -439.949677 0.805256 1.000000
269.629120 -464.997223 0.000008 0.225682
259.325531 -477.651764 -0.000030 0.236928
254.899933 -483.087128 0.000271 0.209246
252.436462 -486.112701 0.000260 0.239715
250.864746 -488.043030 -0.000039 0.210688
249.771545 -489.385681 -0.000072 0.272203
248.966080 -490.374908 -0.000087 0.210977
290.161835 -440.582397 20.187738 1.000000
290.161835 -440.582397 17.682154 1.000000
290.161835 -440.582397 15.211751 1.000000
290.161835 -440.582397 12.770607 1.000000
290.161865 -440.582397 10.353053 1.000000
290.161835 -440.582397 7.953641 1.000000
290.161835 -440.582397 5.567078 1.000000
290.161865 -440.582397 3.188175 1.000000
290.161835 -440.582397 0.811823 1.000000
269.847076 -465.179657 0.000151 0.226259
259.456116 -477.761047 0.000111 0.221165
254.993011 -483.165009 0.000408 0.243752
252.508621 -486.173096 0.000401 0.213860
250.923584 -488.092285 0.000101 0.223664
249.821060 -489.427216 0.000088 0.228950
249.008804 -490.410706 0.000061 0.292772
290.298859 -441.208252 20.089161 1.000000
290.298859 -441.208221 17.597164 1.000000
290.298859 -441.208221 15.140146 1.000000
290.298859 -441.208252 12.712232 1.000000
290.298859 -441.208252 10.307781 1.000000
290.298859 -441.208221 7.921373 1.000000
290.298859 -441.208221 5.547745 1.000000
290.298859 -441.208221 3.181738 1.000000
290.298859 -441.208221 0.818264 1.000000
270.064514 -465.362610 0.000228 0.227605
259.586426 -477.870667 0.000187 0.224817
255.087555 -483.241119 0.000184 0.223760
252.581970 -486.232117 0.000171 0.229912
250.982300 -488.141693 0.000179 0.239235
249.870529 -489.468842 0.000164 0.272876
249.051453 -490.446594 0.000142 0.237889
290.434387 -441.827332 19.992527 1.000000
290.434387 -441.827332 17.513834 1.000000
290.434387 -441.827332 15.069947 1.000000
290.434357 -441.827332 12.655001 1.000000
290.434357 -441.827332 10.263397 1.000000
290.434357 -441.827332 7.889738 1.000000
290.434387 -441.827332 5.528790 1.000000
290.434387 -441.827332 3.175423 1.000000
290.434387 -441.827332 0.824577 1.000000
270.284119 -465.543060 0.000049 0.227989
259.717804 -477.979034 0.000031 0.229527
255.181274 -483.318237 0.000012 0.232026
252.654648 -486.291931 0.000003 0.231257
251.040512 -488.191681 0.000300 0.247213
249.920441 -489.509949 -0.000003 0.199250
249.094498 -490.482056 -0.000028 0.227220
290.568481 -442.439880 19.897781 1.000000
290.568481 -442.439911 17.432140 1.000000
290.568481 -442.439911 15.001122 1.000000
290.568481 -442.439880 12.598895 1.000000
290.568481 -442.439880 10.219885 1.000000
290.568481 -442.439911 7.858724 1.000000
290.568481 -442.439880 5.510209 1.000000
290.568481 -442.439880 3.169235 1.000000
290.568481 -442.439911 0.830766 1.000000
270.499023 -465.729034 0.000127 0.229623
259.846558 -478.090454 0.000110 0.220396
255.273071 -483.397644 0.000086 0.236832
252.725861 -486.353485 0.000075 0.239427
251.098511 -488.241882 0.000384 0.195406
249.969360 -489.552216 0.000065 0.232699
249.136612 -490.518524 0.000061 0.252018
290.701172 -443.046051 19.804890 1.000000
290.701172 -443.046082 17.352049 1.000000
290.701172 -443.046051 14.933647 1.000000
290.701172 -443.046082 12.543883 1.000000
290.701172 -443.046082 10.177222 1.000000
290.701172 -443.046112 7.828317 1.000000
290.701172 -443.046112 5.491990 1.000000
290.701202 -443.046051 3.163166 1.000000
290.701172 -443.046051 0.836834 1.000000
270.711700 -465.917542 0.000270 0.225586
259.974030 -478.203339 0.000250 0.235871
255.363922 -483.478119 0.000232 0.240581
252.796326 -486.415894 0.000211 0.201653
251.155991 -488.292725 0.000512 0.228278
250.017715 -489.595123 0.000217 0.236544
249.178360 -490.555481 0.000199 0.248174
290.832550 -443.646027 19.713820 1.000000
290.832550 -443.646027 17.273529 1.000000
290.832520 -443.646027 14.867493 1.000000
290.832520 -443.646027 12.489953 1.000000
290.832520 -443.646027 10.135397 1.000000
290.832520 -443.646027 7.798506 1.000000
290.832520 -443.646027 5.474129 1.000000
290.832520 -443.646027 3.157217 1.000000
290.832520 -443.646027 0.842785 1.000000
270.927643 -466.102356 0.000078 0.225490
260.103333 -478.314148 0.000062 0.236640
255.456100 -483.557068 0.000042 0.218281
252.867783 -486.477173 0.000033 0.243945
251.214233 -488.342682 0.000334 0.218474
250.066757 -489.637207 0.000046 0.227893
249.220627 -490.591827 0.000031 0.199058
290.962494 -444.239899 19.624529 1.000000
290.962494 -444.239868 17.196537 1.000000
290.962494 -444.239868 14.802629 1.000000
290.962494 -444.239868 12.437079 1.000000
290.962494 -444.239868 10.094390 1.000000
290.962524 -444.239868 7.769278 1.000000
290.962524 -444.239868 5.456617 1.000000
290.962494 -444.239868 3.151383 1.000000
290.962524 -444.239868 0.848617 1.000000
271.138245 -466.293213 0.000183 0.225394
260.229645 -478.428345 0.000152 0.227413
255.546127 -483.638489 0.000132 0.225586
252.937637 -486.540253 0.000114 0.203864
251.271179 -488.394073 0.000415 0.244233
250.114822 -489.680450 0.000103 0.216551
249.261963 -490.629211 0.000123 0.244425
291.091217 -444.827850 19.536983 1.000000
291.091217 -444.827850 17.121048 1.000000
291.091217 -444.827820 14.739038 1.000000
291.091217 -444.827820 12.385235 1.000000
291.091217 -444.827820 10.054184 1.000000
291.091217 -444.827820 7.740621 1.000000
291.091217 -444.827850 5.439447 1.000000
291.091217 -444.827850 3.145662 1.000000
291.091217 -444.827820 0.854336 1.000000
271.351563 -466.481049 -0.000009 0.229335
260.357452 -478.540863 -0.000041 0.219627
255.637207 -483.718689 -0.000058 0.208574
253.008148 -486.602631 -0.000048 0.225875
251.329834 -488.443604 -0.000068 0.224337
250.163284 -489.723267 -0.000071 0.209535
249.303787 -490.666046 -0.000059 0.286044
291.218658 -445.409973 19.451153 1.000000
291.218689 -445.409943 17.047050 1.000000
291.218658 -445.409973 14.676690 1.000000
291.218689 -445.409973 12.334411 1.000000
291.218658 -445.409973 10.014765 1.000000
291.218658 -445.409973 7.712522 1.000000
291.218658 -445.409973 5.422614 1.000000
291.218658 -445.409973 3.140057 1.000000
291.218658 -445.409973 0.859943 1.000000
271.558899 -466.675415 0.000137 0.230008
260.481689 -478.657349 0.000106 0.234333
255.725662 -483.801819 0.000103 0.212707
253.076859 -486.666962 0.000090 0.234910
251.385803 -488.496124 0.000079 0.194733
250.209518 -489.768494 0.000370 0.242503
249.344437 -490.704224 0.000093 0.210496
291.786255 -445.515717 19.528648 1.000000
291.786255 -445.515686 17.113861 1.000000
291.786255 -445.515686 14.732981 1.000000
291.786255 -445.515686 12.380300 1.000000
291.786255 -445.515686 10.050353 1.000000
291.786255 -445.515686 7.737894 1.000000
291.786255 -445.515686 5.437812 1.000000
291.786255 -445.515686 3.145119 1.000000
291.786255 -445.515686 0.854881 1.000000
271.765076 -466.871033 0.000268 0.226547
260.605286 -478.774506 0.000233 0.225586
255.813751 -483.885315 0.000230 0.216455
253.145157 -486.731720 0.000221 0.207516
251.441544 -488.548859 0.000193 0.197905
250.256439 -489.812927 0.000494 0.253845
249.384888 -490.742584 0.000222 0.251922
292.637360 -445.329498 19.708918 1.000000
292.637360 -445.329498 17.269295 1.000000
292.637390 -445.329498 14.863933 1.000000
292.637390 -445.329498 12.487053 1.000000
292.637390 -445.329498 10.133149 1.000000
292.637360 -445.329498 7.796902 1.000000
292.637390 -445.329498 5.473167 1.000000
292.637390 -445.329498 3.156896 1.000000
292.637390 -445.329498 0.843104 1.000000
271.975037 -467.062622 0.000032 0.225394
260.730988 -478.889343 0.000001 0.224048
255.903366 -483.967163 -0.000002 0.205017
253.214645 -486.795227 -0.000006 0.210784
251.498215 -488.600616 -0.000041 0.226259
250.304138 -489.856567 0.000275 0.220204
249.426056 -490.780151 -0.000014 0.194637
293.506226 -445.139435 19.893816 1.000000
293.506226 -445.139435 17.428724 1.000000
293.506226 -445.139435 14.998242 1.000000
293.506226 -445.139435 12.596545 1.000000
293.506226 -445.139435 10.218061 1.000000
293.506226 -445.139435 7.857428 1.000000
293.506226 -445.139435 5.509431 1.000000
293.506226 -445.139435 3.168974 1.000000
293.506226 -445.139435 0.831025 1.000000
272.178436 -467.261139 0.000166 0.226547
260.852875 -479.008270 0.000133 0.238466
255.990219 -484.051941 0.000131 0.226451
253.282013 -486.860992 0.000126 0.217705
251.553146 -488.654175 0.000093 0.240965
250.350433 -489.901703 0.000399 0.244137
249.465958 -490.819092 0.000119 0.240004
294.393463 -444.945313 20.083511 1.000000
294.393433 -444.945343 17.592281 1.000000
294.393463 -444.945313 15.136040 1.000000
294.393463 -444.945313 12.708882 1.000000
294.393433 -444.945313 10.305181 1.000000
294.393433 -444.945343 7.919520 1.000000
294.393463 -444.945313 5.546637 1.000000
294.393463 -444.945313 3.181367 1.000000
294.393463 -444.945313 0.818633 1.000000
272.385040 -467.456299 -0.000026 0.332230
260.973938 -479.128052 0.000267 0.221646
256.076538 -484.137268 0.000258 0.229719
253.348938 -486.927155 0.000256 0.236640
251.607574 -488.708282 0.000253 0.244329
250.397308 -489.946198 0.000240 0.208285
249.505585 -490.858246 0.000245 0.211361
295.299316 -444.747498 20.278013 1.000000
295.299316 -444.747498 17.759995 1.000000
295.299286 -444.747498 15.277326 1.000000
295.299286 -444.747498 12.824063 1.000000
295.299286 -444.747498 10.394513 1.000000
295.299286 -444.747498 7.983191 1.000000
295.299286 -444.747498 5.584783 1.000000
295.299286 -444.747498 3.194075 1.000000
295.299286 -444.747498 0.805927 1.000000
272.587585 -467.655731 -0.000025 0.331373
261.096710 -479.246033 0.000100 0.232987
256.164154 -484.221252 0.000073 0.227605
253.416763 -486.992401 0.000095 0.212899
251.662933 -488.761444 0.000081 0.200404
250.443954 -489.990967 0.000063 0.202230
249.545761 -490.896912 0.000081 0.240869
296.224762 -444.545471 20.477608 1.000000
296.224762 -444.545471 17.932095 1.000000
296.224762 -444.545471 15.422318 1.000000
296.224762 -444.545471 12.942266 1.000000
296.224762 -444.545471 10.486182 1.000000
296.224762 -444.545471 8.048527 1.000000
296.224762 -444.545471 5.623929 1.000000
296.224762 -444.545471 3.207111 1.000000
296.224762 -444.545471 0.792887 1.000000
272.788696 -467.856537 -0.000024 0.333333
261.216492 -479.367035 0.000181 0.232795
256.249512 -484.307495 0.000157 0.228374
253.483017 -487.059265 0.000168 0.203768
251.716949 -488.815948 0.000153 0.209439
250.489471 -490.036865 0.000138 0.208478
249.584213 -490.937286 0.000438 0.203479
297.170715 -444.338989 20.682533 1.000000
297.170715 -444.338989 18.108789 1.000000
297.170715 -444.338989 15.571177 1.000000
297.170715 -444.338989 13.063619 1.000000
297.170715 -444.338989 10.580298 1.000000
297.170715 -444.338989 8.115609 1.000000
297.170685 -444.338989 5.664117 1.000000
297.170685 -444.338989 3.220500 1.000000
297.170685 -444.338989 0.779500 1.000000
272.843079 -468.201324 0.009978 1.000000
261.337738 -479.486603 -0.000003 0.231449
256.335907 -484.392792 -0.000022 0.243945
253.550034 -487.125366 -0.000012 0.226355
251.771561 -488.869843 -0.000026 0.210688
250.535507 -490.082245 -0.000051 0.211457
249.623825 -490.976471 0.000278 0.206267
298.137939 -444.127869 20.892984 1.000000
298.137939 -444.127869 18.290245 1.000000
298.137939 -444.127869 15.724048 1.000000
298.137939 -444.127869 13.188248 1.000000
298.137939 -444.127869 10.676950 1.000000
298.137909 -444.127869 8.184496 1.000000
298.137909 -444.127899 5.705393 1.000000
298.137939 -444.127869 3.234248 1.000000
298.137939 -444.127869 0.765750 1.000000
273.040375 -468.403931 0.009980 1.000000
261.455383 -479.609741 0.000132 0.218570
256.419800 -484.480499 0.000108 0.210688
253.615097 -487.193420 0.000115 0.227124
251.824615 -488.925293 0.000102 0.227124
250.580170 -490.128998 0.000084 0.178489
249.662369 -491.016754 0.000398 0.223664
299.127228 -443.911896 21.109175 1.000000
299.127197 -443.911896 18.476652 1.000000
299.127197 -443.911926 15.881087 1.000000
299.127197 -443.911896 13.316269 1.000000
299.127197 -443.911896 10.776238 1.000000
299.127197 -443.911896 8.255266 1.000000
299.127197 -443.911926 5.747792 1.000000
299.127197 -443.911896 3.248372 1.000000
299.127197 -443.911896 0.751628 1.000000
273.383514 -468.467407 -0.000016 0.332353
261.572083 -479.733704 0.000274 0.221069
256.502777 -484.569061 0.000280 0.216647
253.679550 -487.261993 0.000268 0.216359
251.877213 -488.981140 0.000240 0.231738
250.624390 -490.176147 0.000254 0.211745
249.700592 -491.057312 0.000535 0.233083
300.139465 -443.690948 21.331324 1.000000
300.139496 -443.690948 18.668200 1.000000
300.139465 -443.690948 16.042461 1.000000
300.139465 -443.690948 13.447822 1.000000
300.139465 -443.690948 10.878263 1.000000
300.139465 -443.690948 8.327984 1.000000
300.139465 -443.690948 5.791360 1.000000
300.139465 -443.690948 3.262883 1.000000
300.139465 -443.690948 0.737115 1.000000
273.578857 -468.673889 -0.000008 0.332598
261.690918 -479.855713 0.000078 0.237409
256.587433 -484.656036 0.000090 0.246251
253.745239 -487.329437 0.000073 0.243752
251.930618 -489.036255 0.000079 0.198674
250.669464 -490.222473 0.000068 0.260861
249.740311 -491.096466 0.000052 0.208093
301.175568 -443.464783 21.559662 1.000000
301.175568 -443.464783 18.865076 1.000000
301.175568 -443.464783 16.208328 1.000000
301.175568 -443.464783 13.583043 1.000000
301.175568 -443.464783 10.983135 1.000000
301.175537 -443.464783 8.402729 1.000000
301.175537 -443.464783 5.836144 1.000000
301.175537 -443.464783 3.277802 1.000000
301.175537 -443.464783 0.722198 1.000000
273.772980 -468.881500 -0.000018 0.332353
261.805908 -479.981262 0.000215 0.230104
256.669403 -484.745514 0.000225 0.214437
253.808823 -487.398834 0.000204 0.207132
251.982513 -489.092773 0.000200 0.219243
250.713165 -490.270111 0.000192 0.247789
249.778748 -491.136810 -0.000082 0.267878
302.236511 -443.233185 21.794437 1.000000
302.236481 -443.233215 19.067507 1.000000
302.236481 -443.233215 16.378868 1.000000
302.236481 -443.233215 13.722075 1.000000
302.236481 -443.233215 11.090956 1.000000
302.236481 -443.233215 8.479580 1.000000
302.236481 -443.233215 5.882190 1.000000
302.236481 -443.233215 3.293138 1.000000
302.236481 -443.233215 0.706861 1.000000
273.965485 -469.090607 -0.000012 0.331740
261.922943 -480.105011 0.000030 0.222703
256.752838 -484.833679 0.000038 0.243656
253.873474 -487.467224 0.000027 0.242887
252.035172 -489.148590 0.000033 0.212803
250.757553 -490.317139 0.000017 0.214725
249.816177 -491.178162 0.000036 0.265763
303.323303 -442.995941 22.035894 1.000000
303.323303 -442.995941 19.275707 1.000000
303.323273 -442.995972 16.554272 1.000000
303.323273 -442.995941 13.865067 1.000000
303.323273 -442.995941 11.201853 1.000000
303.323273 -442.995972 8.558623 1.000000
303.323273 -442.995941 5.929546 1.000000
303.323273 -442.995972 3.308913 1.000000
303.323273 -442.996002 0.691087 1.000000
274.156586 -469.300964 -0.000015 0.332475
262.036682 -480.231720 0.000111 0.236736
256.833923 -484.924042 0.000122 0.234910
253.936417 -487.537201 0.000095 0.224914
252.086487 -489.205658 0.000100 0.225490
250.800797 -490.365204 0.000084 0.224048
249.854279 -491.218842 -0.000177 0.263552
304.436920 -442.752869 22.284325 1.000000
304.436920 -442.752869 19.489914 1.000000
304.436920 -442.752869 16.734732 1.000000
304.436920 -442.752869 14.012184 1.000000
304.436920 -442.752869 11.315949 1.000000
304.436920 -442.752899 8.639946 1.000000
304.436920 -442.752869 5.978270 1.000000
304.436920 -442.752899 3.325144 1.000000
304.436920 -442.752899 0.674856 1.000000
274.346191 -469.512726 -0.000014 0.332108
262.149017 -480.359711 0.000252 0.223376
256.913910 -485.015259 0.000268 0.212899
253.998398 -487.608063 0.000256 0.222414
252.137115 -489.263306 0.000239 0.227989
250.843414 -490.413788 0.000230 0.224433
249.891098 -491.260712 -0.000055 0.191465
305.578613 -442.503693 22.540005 1.000000
305.578644 -442.503662 19.710375 1.000000
305.578613 -442.503693 16.920464 1.000000
305.578644 -442.503662 14.163596 1.000000
305.578613 -442.503693 11.433375 1.000000
305.578613 -442.503693 8.723638 1.000000
305.578613 -442.503693 6.028413 1.000000
305.578613 -442.503693 3.341845 1.000000
305.578613 -442.503693 0.658155 1.000000
274.534332 -469.725708 -0.000015 0.331985
262.263458 -480.485779 0.000060 0.233083
256.995605 -485.105042 0.000062 0.222799
254.061661 -487.677765 0.000066 0.239235
252.188690 -489.320099 0.000044 0.205210
250.886856 -490.461670 0.000042 0.264418
249.928528 -491.302002 -0.000233 0.205210
306.749512 -442.248077 22.803246 1.000000
306.749512 -442.248047 19.937347 1.000000
306.749512 -442.248047 17.111677 1.000000
306.749512 -442.248077 14.319481 1.000000
306.749512 -442.248077 11.554269 1.000000
306.749512 -442.248077 8.809808 1.000000
306.749512 -442.248108 6.080041 1.000000
306.749512 -442.248108 3.359042 1.000000
306.749481 -442.248108 0.640957 1.000000
274.721069 -469.939972 -0.000021 0.333088
262.374054 -480.615265 0.000192 0.227605
257.074402 -485.197357 0.000197 0.244714
254.122787 -487.749329 0.000202 0.201077
252.238525 -489.378479 0.000180 0.217897
250.928787 -490.510864 0.000188 0.211553
249.963913 -491.345123 0.000175 0.187140
307.950867 -441.985840 23.074358 1.000000
307.950867 -441.985840 20.171106 1.000000
307.950867 -441.985840 17.308615 1.000000
307.950867 -441.985840 14.480031 1.000000
307.950836 -441.985840 11.678782 1.000000
307.950867 -441.985840 8.898556 1.000000
307.950836 -441.985840 6.133215 1.000000
307.950867 -441.985840 3.376754 1.000000
307.950867 -441.985840 0.623246 1.000000
274.906219 -470.155640 -0.000021 0.331250
262.486664 -480.742981 0.000009 0.229912
257.154694 -485.288391 0.000009 0.211649
254.185059 -487.819916 0.000012 0.232891
252.289276 -489.436035 -0.000005 0.267782
250.970413 -490.560333 0.000327 0.230008
249.999786 -491.387787 0.000316 0.279220
309.184021 -441.716644 23.353685 1.000000
309.184021 -441.716644 20.411953 1.000000
309.183990 -441.716675 17.511520 1.000000
309.183990 -441.716675 14.645447 1.000000
309.183990 -441.716675 11.807070 1.000000
309.183990 -441.716675 8.989991 1.000000
309.183990 -441.716675 6.187997 1.000000
309.183990 -441.716675 3.395004 1.000000
309.183990 -441.716675 0.604998 1.000000
275.089813 -470.372559 -0.000021 0.332353
262.595428 -480.874054 0.000144 0.229239
257.232178 -485.381775 0.000148 0.225106
254.245117 -487.892426 0.000159 0.220396
252.338196 -489.495178 0.000154 0.246540
251.012787 -490.609161 0.000154 0.237505
250.036346 -491.429871 0.000138 0.247693
310.450317 -441.440247 23.641584 1.000000
310.450317 -441.440247 20.660192 1.000000
310.450317 -441.440247 17.720654 1.000000
310.450317 -441.440247 14.815936 1.000000
310.450317 -441.440247 11.939293 1.000000
310.450348 -441.440247 9.084234 1.000000
310.450317 -441.440247 6.244464 1.000000
310.450317 -441.440247 3.413809 1.000000
310.450317 -441.440247 0.586189 1.000000
275.271942 -470.590790 -0.000021 0.332230
262.703186 -481.005859 0.000287 0.219627
257.309052 -485.475708 0.000285 0.234045
254.304733 -487.965240 0.000291 0.239427
252.386765 -489.554565 0.000291 0.239331
251.053772 -490.659180 0.000280 0.257017
250.071640 -491.472992 0.000270 0.247789
311.751343 -441.156281 23.938433 1.000000
311.751312 -441.156281 20.916143 1.000000
311.751343 -441.156281 17.936295 1.000000
311.751312 -441.156281 14.991731 1.000000
311.751312 -441.156281 12.075627 1.000000
311.751312 -441.156281 9.181406 1.000000
311.751312 -441.156281 6.302680 1.000000
311.751312 -441.156281 3.433201 1.000000
311.751312 -441.156281 0.566797 1.000000
275.452515 -470.810272 -0.000021 0.331373
262.813202 -481.135864 0.000094 0.221069
257.387421 -485.568390 0.000094 0.230584
254.365540 -488.037109 0.000099 0.204825
252.436295 -489.613159 0.000110 0.249327
251.095459 -490.708557 0.000103 0.242983
250.107590 -491.515594 0.000101 0.205113
nan nan nan 0.000000
313.088593 -440.864380 21.180166 1.000000
313.088593 -440.864380 18.158724 1.000000
313.088593 -440.864380 15.173062 1.000000
313.088593 -440.864380 12.216260 1.000000
313.088593 -440.864380 9.281643 1.000000
313.088593 -440.864349 6.362738 1.000000
313.088593 -440.864349 3.453208 1.000000
313.088593 -440.864349 0.546792 1.000000
275.631561 -471.031006 -0.000020 0.332230
262.919189 -481.269135 0.000226 0.231738
257.462952 -485.663391 0.000229 0.228854
254.424149 -488.110748 0.000230 0.250577
252.484085 -489.673218 0.000239 0.272684
251.135727 -490.759155 0.000230 0.252115
250.142319 -491.559174 0.000218 0.238850
nan nan nan 0.000000
314.463776 -440.564178 21.452627 1.000000
314.463745 -440.564178 18.388260 1.000000
314.463745 -440.564178 15.360191 1.000000
314.463745 -440.564178 12.361382 1.000000
314.463745 -440.564178 9.385078 1.000000
314.463745 -440.564178 6.424709 1.000000
314.463745 -440.564178 3.473848 1.000000
314.463745 -440.564178 0.526150 1.000000
275.809052 -471.252991 -0.000021 0.331618
263.027313 -481.400665 0.000038 0.221838
257.540039 -485.757172 0.000040 0.218474
254.483887 -488.183502 0.000047 0.237697
252.531403 -489.733612 0.000378 0.258843
251.175583 -490.810028 0.000369 0.216263
250.176682 -491.603058 0.000364 0.243656
nan nan nan 0.000000
315.878662 -440.255310 21.733913 1.000000
315.878662 -440.255341 18.625238 1.000000
315.878662 -440.255310 15.553382 1.000000
315.878662 -440.255341 12.511210 1.000000
315.878662 -440.255341 9.491867 1.000000
315.878662 -440.255341 6.488691 1.000000
315.878662 -440.255341 3.495162 1.000000
315.878662 -440.255341 0.504837 1.000000
275.985016 -471.476196 -0.000020 0.332108
263.131256 -481.535583 0.000195 0.234045
257.614227 -485.853210 0.000175 0.223183
254.541458 -488.257965 0.000178 0.222126
252.579727 -489.793243 0.000187 0.224241
251.216278 -490.860260 0.000184 0.268358
250.211761 -491.646393 0.000181 0.235198
nan nan nan 0.000000
317.335144 -439.937378 22.024448 1.000000
317.335144 -439.937378 18.870007 1.000000
317.335144 -439.937378 15.752921 1.000000
317.335144 -439.937378 12.665965 1.000000
317.335144 -439.937378 9.602169 1.000000
317.335144 -439.937378 6.554776 1.000000
317.335144 -439.937378 3.517174 1.000000
317.335144 -439.937378 0.482826 1.000000
276.159363 -471.700653 -0.000018 0.332966
263.237549 -481.668610 0.000003 0.221453
257.689911 -485.948090 0.000002 0.228470
254.598450 -488.332855 0.000319 0.251153
252.626175 -489.854279 0.000329 0.206651
251.255478 -490.911682 0.000311 0.210208
250.245544 -491.690735 0.000314 0.224337
nan nan nan 0.000000
318.835236 -439.609924 22.324677 1.000000
