# This PCD file was generated using the MATLAB® pcwrite function
# from Computer Vision Toolbox®.
# .PCD v.7 - Point Cloud Data file format
VERSION .7
FIELDS x y z intensity
SIZE 4 4 4 4
TYPE F F F F
COUNT 1 1 1 1
WIDTH 1276
HEIGHT 1
VIEWPOINT 0 0 0 1 0 0 0
POINTS 1276
DATA ascii
214.678955 -207.702332 -0.000004 0.332598
215.436295 -214.667740 -0.000010 0.328431
215.858093 -218.547424 0.000034 0.238178
216.127396 -221.024231 0.000070 0.210880
216.314514 -222.745178 -0.000006 0.223376
216.452408 -224.013535 0.000022 0.191369
nan nan nan 0.000000
nan nan nan 0.000000
nan nan nan 0.000000
nan nan nan 0.000000
213.980377 -199.147430 5.793213 1.000000
213.980377 -199.147430 4.703613 1.000000
213.980377 -199.147415 3.619848 1.000000
213.980377 -199.147430 2.539564 1.000000
213.980377 -199.147446 1.460437 1.000000
213.980377 -199.147415 0.380151 1.000000
214.848312 -207.684509 -0.000005 0.334069
215.556992 -214.655029 -0.000010 0.333088
215.951675 -218.537186 -0.000024 0.196175
216.203674 -221.015839 0.000004 0.222414
216.378784 -222.738190 -0.000056 0.236159
216.507813 -224.007446 -0.000040 0.198770
nan nan nan 0.000000
nan nan nan 0.000000
nan nan nan 0.000000
nan nan nan 0.000000
214.239761 -199.445084 5.756219 1.000000
214.239761 -199.445084 4.677245 1.000000
214.239761 -199.445084 3.604051 1.000000
214.239761 -199.445084 2.534301 1.000000
214.239761 -199.445084 1.465699 1.000000
214.239761 -199.445099 0.395949 1.000000
215.017776 -207.667862 -0.000005 0.331618
215.677795 -214.643188 -0.000009 0.332598
216.045364 -218.528244 0.000013 0.252018
216.280045 -221.008438 0.000019 0.196559
216.443130 -222.731979 -0.000037 0.232411
216.563309 -224.002121 -0.000008 0.211073
nan nan nan 0.000000
nan nan nan 0.000000
nan nan nan 0.000000
nan nan nan 0.000000
214.494156 -199.737015 5.720119 1.000000
214.494141 -199.737015 4.651517 1.000000
214.494141 -199.737015 3.588634 1.000000
214.494156 -199.737015 2.529167 1.000000
214.494156 -199.737015 1.470833 1.000000
214.494141 -199.737015 0.411365 1.000000
215.187378 -207.652420 -0.000005 0.333456
215.798645 -214.632172 -0.000009 0.332353
216.139130 -218.519806 0.000026 0.250384
216.356476 -221.001541 0.000032 0.233083
216.507523 -222.726181 -0.000021 0.208093
216.618820 -223.997070 -0.000010 0.202038
nan nan nan 0.000000
nan nan nan 0.000000
nan nan nan 0.000000
nan nan nan 0.000000
214.743713 -200.023376 5.684884 1.000000
214.743698 -200.023376 4.626403 1.000000
214.743698 -200.023376 3.573588 1.000000
214.743698 -200.023376 2.524155 1.000000
214.743698 -200.023376 1.475845 1.000000
214.743698 -200.023376 0.426411 1.000000
215.357056 -207.638168 -0.000006 0.332108
215.919601 -214.622009 -0.000009 0.333211
216.232941 -218.512039 0.000044 0.222126
216.432953 -220.995285 0.000062 0.202710
216.571976 -222.721222 0.000078 0.188005
216.674377 -223.992508 0.000015 0.211938
nan nan nan 0.000000
nan nan nan 0.000000
nan nan nan 0.000000
nan nan nan 0.000000
214.988571 -200.304398 5.650487 1.000000
214.988571 -200.304398 4.601887 1.000000
214.988571 -200.304398 3.558899 1.000000
214.988571 -200.304398 2.519262 1.000000
214.988571 -200.304398 1.480738 1.000000
214.988571 -200.304398 0.441100 1.000000
215.526840 -207.625076 -0.000005 0.335049
216.040619 -214.612701 -0.000008 0.333578
216.326752 -218.504395 -0.000016 0.208958
216.509430 -220.989029 -0.000004 0.206747
216.636414 -222.716003 0.000024 0.239812
216.729935 -223.987976 -0.000046 0.237120
nan nan nan 0.000000
nan nan nan 0.000000
nan nan nan 0.000000
nan nan nan 0.000000
215.228958 -200.580246 5.616902 1.000000
215.228958 -200.580246 4.577948 1.000000
215.228958 -200.580246 3.544557 1.000000
215.228958 -200.580246 2.514485 1.000000
215.228958 -200.580246 1.485516 1.000000
215.228958 -200.580246 0.455443 1.000000
215.696701 -207.613174 -0.000006 0.331618
216.161682 -214.604218 -0.000008 0.334436
216.420654 -218.497849 -0.000012 0.205882
216.585983 -220.983734 0.000009 0.257209
216.700912 -222.711517 0.000027 0.186371
216.785538 -223.984070 -0.000048 0.227989
nan nan nan 0.000000
nan nan nan 0.000000
nan nan nan 0.000000
nan nan nan 0.000000
215.464951 -200.851044 5.584103 1.000000
215.464935 -200.851044 4.554570 1.000000
215.464951 -200.851044 3.530550 1.000000
215.464951 -200.851044 2.509820 1.000000
215.464951 -200.851044 1.490181 1.000000
215.464951 -200.851044 0.469450 1.000000
215.866669 -207.602463 -0.000007 0.332230
216.282822 -214.596588 -0.000008 0.335049
216.514648 -218.492859 0.000126 0.213187
216.662582 -220.979141 0.000053 0.211842
216.765427 -222.707657 0.000074 0.203576
216.841171 -223.980743 -0.000001 0.198770
nan nan nan 0.000000
nan nan nan 0.000000
nan nan nan 0.000000
nan nan nan 0.000000
215.696701 -201.117004 5.552063 1.000000
215.696701 -201.117004 4.531734 1.000000
215.696701 -201.117004 3.516869 1.000000
215.696701 -201.117004 2.505261 1.000000
215.696701 -201.117004 1.494738 1.000000
215.696701 -201.117004 0.483132 1.000000
216.036667 -207.592957 -0.000007 0.332475
216.403992 -214.589798 -0.000008 0.334069
216.608582 -218.486740 -0.000000 0.333701
216.739182 -220.974472 -0.000018 0.228950
216.829956 -222.703751 0.000010 0.244329
216.896820 -223.977402 -0.000061 0.201749
nan nan nan 0.000000
nan nan nan 0.000000
nan nan nan 0.000000
nan nan nan 0.000000
215.924362 -201.378281 5.520760 1.000000
215.924362 -201.378281 4.509422 1.000000
215.924362 -201.378281 3.503500 1.000000
215.924362 -201.378281 2.500809 1.000000
215.924362 -201.378281 1.499191 1.000000
215.924362 -201.378281 0.496499 1.000000
216.206757 -207.584610 -0.000007 0.332843
216.525223 -214.583862 -0.000007 0.337255
216.702606 -218.482147 -0.000000 0.331495
216.815826 -220.970917 0.000020 0.213668
216.894531 -222.700684 0.000031 0.212899
216.952499 -223.974731 -0.000044 0.203576
nan nan nan 0.000000
nan nan nan 0.000000
nan nan nan 0.000000
nan nan nan 0.000000
216.148071 -201.634979 5.490173 1.000000
216.148071 -201.634979 4.487622 1.000000
216.148071 -201.634979 3.490439 1.000000
216.148071 -201.634979 2.496458 1.000000
216.148071 -201.634979 1.503542 1.000000
216.148071 -201.634979 0.509561 1.000000
216.376907 -207.577454 -0.000007 0.334069
216.646484 -214.578766 -0.000007 0.325735
216.799225 -218.545517 0.009995 1.000000
216.892517 -220.967819 0.000041 0.193868
216.959137 -222.698059 0.000051 0.225010
217.008209 -223.972839 0.000066 0.213476
nan nan nan 0.000000
nan nan nan 0.000000
nan nan nan 0.000000
nan nan nan 0.000000
216.367935 -201.887283 5.460282 1.000000
216.367935 -201.887283 4.466317 1.000000
216.367935 -201.887283 3.477674 1.000000
216.367935 -201.887283 2.492206 1.000000
216.367935 -201.887283 1.507793 1.000000
216.367935 -201.887283 0.522325 1.000000
216.547089 -207.571503 -0.000007 0.332598
216.767776 -214.574524 -0.000007 0.332843
216.892822 -218.542236 0.009995 1.000000
216.969193 -220.964859 -0.000007 0.207901
217.023727 -222.695557 -0.000003 0.258651
217.063904 -223.970642 0.000004 0.212899
nan nan nan 0.000000
nan nan nan 0.000000
nan nan nan 0.000000
nan nan nan 0.000000
216.584061 -202.135300 5.431063 1.000000
216.584076 -202.135315 4.445491 1.000000
216.584061 -202.135315 3.465196 1.000000
216.584076 -202.135315 2.488050 1.000000
216.584076 -202.135315 1.511950 1.000000
216.584061 -202.135315 0.534803 1.000000
216.717300 -207.566727 -0.000007 0.334191
216.889114 -214.571136 -0.000007 0.336275
216.984802 -218.472244 -0.000001 0.330760
217.045898 -220.962845 0.000016 0.246155
217.088348 -222.693893 0.000030 0.216744
217.119644 -223.969543 0.000122 0.216647
nan nan nan 0.000000
nan nan nan 0.000000
nan nan nan 0.000000
nan nan nan 0.000000
216.796585 -202.379181 5.402499 1.000000
216.796585 -202.379181 4.425132 1.000000
216.796585 -202.379181 3.452999 1.000000
216.796585 -202.379181 2.483987 1.000000
216.796585 -202.379196 1.516013 1.000000
216.796585 -202.379181 0.547001 1.000000
216.887543 -207.563141 -0.000008 0.332598
217.010452 -214.568588 -0.000006 0.334069
217.078903 -218.470276 -0.000000 0.334681
217.122604 -220.960953 -0.000035 0.240773
217.152985 -222.692200 -0.000041 0.222703
217.175369 -223.968094 0.000049 0.259612
nan nan nan 0.000000
nan nan nan 0.000000
nan nan nan 0.000000
nan nan nan 0.000000
217.005615 -202.619064 5.374568 1.000000
217.005615 -202.619049 4.405225 1.000000
217.005615 -202.619049 3.441071 1.000000
217.005615 -202.619064 2.480014 1.000000
217.005615 -202.619064 1.519986 1.000000
217.005615 -202.619049 0.558928 1.000000
217.057816 -207.560745 -0.000008 0.331495
217.131821 -214.566879 -0.000005 0.328676
217.173019 -218.468948 -0.000000 0.339461
217.199341 -220.960495 0.000080 0.225875
217.217621 -222.691452 -0.000007 0.211073
217.231110 -223.967453 0.000087 0.215302
nan nan nan 0.000000
nan nan nan 0.000000
nan nan nan 0.000000
nan nan nan 0.000000
217.211258 -202.855042 5.347254 1.000000
217.211258 -202.855042 4.385756 1.000000
217.211258 -202.855042 3.429407 1.000000
217.211258 -202.855042 2.476128 1.000000
217.211258 -202.855042 1.523871 1.000000
217.211258 -202.855042 0.570593 1.000000
217.228088 -207.559525 -0.000008 0.332721
217.253174 -214.566025 -0.000005 0.333824
217.267151 -218.468292 -0.000000 0.334191
217.276077 -220.959702 0.000031 0.255959
217.282272 -222.690735 -0.000060 0.268743
217.286835 -223.966843 0.000031 0.315359
nan nan nan 0.000000
nan nan nan 0.000000
nan nan nan 0.000000
nan nan nan 0.000000
217.413589 -203.087234 5.320542 1.000000
217.413589 -203.087219 4.366717 1.000000
217.413589 -203.087234 3.417999 1.000000
217.413589 -203.087219 2.472329 1.000000
217.413589 -203.087219 1.527671 1.000000
217.413589 -203.087234 0.582000 1.000000
217.398376 -207.559525 -0.000009 0.334069
217.374542 -214.566025 -0.000005 0.332966
217.361282 -218.468277 -0.000000 0.332108
217.352814 -220.959885 0.000065 0.276432
217.346909 -222.691330 0.000068 0.234910
217.342590 -223.966995 0.000070 0.226163
nan nan nan 0.000000
nan nan nan 0.000000
nan nan nan 0.000000
nan nan nan 0.000000
217.612732 -203.315765 5.294409 1.000000
217.612732 -203.315765 4.348091 1.000000
217.612732 -203.315750 3.406840 1.000000
217.612732 -203.315750 2.468612 1.000000
217.612732 -203.315750 1.531388 1.000000
217.612732 -203.315750 0.593160 1.000000
217.568665 -207.560699 -0.000008 0.332598
217.495926 -214.566864 -0.000005 0.335784
217.455414 -218.468918 0.000000 0.333088
217.429535 -220.960129 0.000016 0.201845
217.411575 -222.691528 0.000013 0.209150
217.398315 -223.967163 0.000017 0.197809
nan nan nan 0.000000
nan nan nan 0.000000
nan nan nan 0.000000
nan nan nan 0.000000
217.808777 -203.540726 5.268843 1.000000
217.808777 -203.540726 4.329869 1.000000
217.808777 -203.540726 3.395922 1.000000
217.808792 -203.540726 2.464975 1.000000
217.808792 -203.540726 1.535025 1.000000
217.808777 -203.540726 0.604077 1.000000
217.736816 -207.684998 0.009992 1.000000
217.617279 -214.568558 -0.000004 0.329289
217.549530 -218.470230 -0.000000 0.335662
217.506271 -220.961349 0.000044 0.224817
217.476196 -222.692581 0.000048 0.247020
217.454071 -223.968018 0.000040 0.204344
nan nan nan 0.000000
nan nan nan 0.000000
nan nan nan 0.000000
nan nan nan 0.000000
218.001816 -203.762253 5.243827 1.000000
218.001816 -203.762253 4.312040 1.000000
218.001816 -203.762253 3.385240 1.000000
218.001816 -203.762253 2.461417 1.000000
218.001816 -203.762253 1.538583 1.000000
218.001816 -203.762253 0.614760 1.000000
217.909195 -207.566650 -0.000005 0.215302
217.738617 -214.571075 -0.000004 0.333701
217.643631 -218.472198 -0.000000 0.334681
217.582993 -220.962692 -0.000004 0.265475
217.540833 -222.693726 0.000005 0.262880
217.509796 -223.969025 -0.000001 0.196559
nan nan nan 0.000000
nan nan nan 0.000000
nan nan nan 0.000000
nan nan nan 0.000000
218.191925 -203.980423 5.219347 1.000000
218.191925 -203.980423 4.294591 1.000000
218.191925 -203.980423 3.374786 1.000000
218.191925 -203.980423 2.457935 1.000000
218.191925 -203.980423 1.542065 1.000000
218.191925 -203.980423 0.625214 1.000000
218.079391 -207.571915 0.000039 0.220780
217.859955 -214.574463 -0.000004 0.334191
217.737732 -218.474808 -0.000001 0.333824
217.659698 -220.965103 0.000046 0.206555
217.605469 -222.695709 0.000044 0.222607
217.565506 -223.970688 0.000025 0.196847
nan nan nan 0.000000
nan nan nan 0.000000
nan nan nan 0.000000
nan nan nan 0.000000
218.379211 -204.195328 5.195390 1.000000
218.379211 -204.195328 4.277515 1.000000
218.379211 -204.195328 3.364555 1.000000
218.379211 -204.195328 2.454527 1.000000
218.379211 -204.195328 1.545473 1.000000
218.379211 -204.195328 0.635445 1.000000
218.249588 -207.577423 0.000003 0.227797
217.981247 -214.578690 -0.000004 0.334436
217.831802 -218.478088 -0.000001 0.334681
217.736389 -220.967545 0.000008 0.242118
217.670059 -222.698227 0.000100 0.282295
217.621216 -223.972488 -0.000010 0.236928
nan nan nan 0.000000
nan nan nan 0.000000
nan nan nan 0.000000
nan nan nan 0.000000
218.563721 -204.407074 5.171940 1.000000
218.563705 -204.407074 4.260800 1.000000
218.563705 -204.407074 3.354541 1.000000
218.563721 -204.407074 2.451191 1.000000
218.563721 -204.407074 1.548809 1.000000
218.563705 -204.407074 0.645459 1.000000
218.419693 -207.585037 0.000045 0.219723
218.102509 -214.583755 -0.000003 0.335539
217.925842 -218.482025 -0.000001 0.327941
217.813049 -220.970932 0.000040 0.220973
217.734650 -222.701019 0.000122 0.203864
217.676910 -223.974930 0.000021 0.267686
nan nan nan 0.000000
nan nan nan 0.000000
nan nan nan 0.000000
nan nan nan 0.000000
218.753693 -204.460052 5.166918 1.000000
218.753693 -204.460037 4.257222 1.000000
218.753693 -204.460037 3.352396 1.000000
218.753693 -204.460037 2.450476 1.000000
218.753693 -204.460037 1.549523 1.000000
218.753693 -204.460037 0.647603 1.000000
218.589798 -207.592880 0.000007 0.222222
218.223740 -214.589676 -0.000003 0.333088
218.019852 -218.486618 -0.000001 0.327941
217.889709 -220.974457 0.000000 0.209246
217.799225 -222.703979 0.000080 0.257593
217.732590 -223.977493 -0.000020 0.216071
nan nan nan 0.000000
nan nan nan 0.000000
nan nan nan 0.000000
nan nan nan 0.000000
218.956680 -204.283783 5.188466 1.000000
218.956680 -204.283783 4.272580 1.000000
218.956680 -204.283783 3.361598 1.000000
218.956680 -204.283783 2.453542 1.000000
218.956680 -204.283783 1.546458 1.000000
218.956680 -204.283783 0.638402 1.000000
218.759842 -207.601959 -0.000027 0.218762
218.344925 -214.596451 -0.000003 0.332598
218.113846 -218.491852 -0.000002 0.337745
217.966293 -220.979034 0.000053 0.206844
217.863785 -222.707352 0.000031 0.269031
217.788269 -223.980408 -0.000066 0.297578
nan nan nan 0.000000
nan nan nan 0.000000
nan nan nan 0.000000
nan nan nan 0.000000
219.162445 -204.105087 5.210468 1.000000
219.162445 -204.105087 4.288260 1.000000
219.162445 -204.105072 3.370993 1.000000
219.162445 -204.105087 2.456672 1.000000
219.162445 -204.105087 1.543329 1.000000
219.162445 -204.105072 0.629006 1.000000
218.929749 -207.613464 0.000042 0.209054
218.466064 -214.604065 -0.000002 0.336887
218.207779 -218.497757 -0.000002 0.334191
218.042908 -220.983551 -0.000001 0.332721
217.928284 -222.711700 0.000095 0.213476
217.843842 -223.984512 0.000087 0.194733
nan nan nan 0.000000
nan nan nan 0.000000
nan nan nan 0.000000
215.459564 -257.254181 5.763435 0.630392
215.459579 -257.254181 4.918701 0.622672
215.459579 -257.254181 4.080305 0.660417
215.459564 -257.254181 3.246398 0.626716
215.459579 -257.254181 2.415170 0.613848
215.459579 -257.254181 1.584831 0.594975
215.459564 -257.254181 0.753602 0.590931
215.531464 -256.274109 0.000271 0.234525
216.043839 -249.288284 0.000161 0.230392
216.329269 -245.396713 0.000176 0.216263
216.511520 -242.911819 0.000274 0.274414
216.638123 -241.185638 0.000175 0.265859
216.734299 -239.874359 0.009999 1.000000
nan nan nan 0.000000
nan nan nan 0.000000
nan nan nan 0.000000
215.297287 -257.062439 5.736924 0.668505
215.297287 -257.062439 4.898140 0.687010
215.297287 -257.062439 4.065650 0.672181
215.297287 -257.062439 3.237618 0.522672
215.297287 -257.062439 2.412245 0.605147
215.297287 -257.062439 1.587755 0.650858
215.297287 -257.062439 0.762382 0.636765
215.361649 -256.261810 0.000210 0.232699
215.922775 -249.279587 0.000092 0.232507
216.235382 -245.390015 0.000098 0.211842
216.434982 -242.906342 0.000201 0.213860
216.573639 -241.180984 0.000112 0.194156
216.679001 -239.870102 0.009999 1.000000
nan nan nan 0.000000
nan nan nan 0.000000
nan nan nan 0.000000
215.137283 -256.873383 5.710962 0.668382
215.137283 -256.873383 4.878006 0.681373
215.137268 -256.873383 4.051299 0.588480
215.137268 -256.873383 3.229020 0.515564
215.137283 -256.873383 2.409380 0.624265
215.137283 -256.873383 1.590619 0.598407
215.137268 -256.873383 0.770980 0.620221
215.191986 -256.247437 0.000221 0.226644
215.801834 -249.269409 0.000094 0.234429
216.141586 -245.382187 0.000094 0.225394
216.358521 -242.899963 0.000195 0.235294
216.509216 -241.175644 0.000099 0.220300
216.623734 -239.865479 0.009999 1.000000
nan nan nan 0.000000
nan nan nan 0.000000
nan nan nan 0.000000
214.979462 -256.686920 5.685537 0.572426
214.979462 -256.686920 4.858288 0.635539
214.979462 -256.686920 4.037245 0.559804
214.979462 -256.686920 3.220599 0.601103
214.979462 -256.686920 2.406576 0.563603
214.979462 -256.686920 1.593424 0.555147
214.979462 -256.686920 0.779401 0.649020
215.022430 -256.231903 0.000229 0.240004
215.681000 -249.258255 0.000115 0.241446
216.047852 -245.373535 0.000113 0.237889
216.282120 -242.892899 0.000217 0.254421
216.444855 -241.169678 0.000122 0.239235
216.564743 -239.900223 -0.000008 0.336642
nan nan nan 0.000000
nan nan nan 0.000000
nan nan nan 0.000000
214.823761 -256.503021 5.660637 0.632475
214.823776 -256.503021 4.838976 0.616054
214.823761 -256.503021 4.023481 0.554167
214.823761 -256.503021 3.212353 0.595833
214.823761 -256.503021 2.403829 0.530882
214.823761 -256.503021 1.596171 0.554289
214.823761 -256.503021 0.787647 0.575245
214.853012 -256.214844 0.000268 0.228950
215.560242 -249.246094 0.000153 0.213379
215.954269 -245.363480 0.000243 0.213764
216.205780 -242.885254 0.000246 0.247309
216.380524 -241.163330 0.000131 0.217609
216.509277 -239.894745 0.000003 0.343627
nan nan nan 0.000000
nan nan nan 0.000000
nan nan nan 0.000000
214.670166 -256.321564 5.636248 0.676471
214.670166 -256.321564 4.820061 0.666544
214.670166 -256.321564 4.009999 0.568750
214.670166 -256.321564 3.204275 0.618260
214.670166 -256.321564 2.401139 0.642157
214.670166 -256.321564 1.598861 0.590931
214.670166 -256.321564 0.795725 0.677328
214.670166 -256.321564 -0.010000 0.573284
215.439560 -249.233261 0.000172 0.230104
215.860596 -245.354263 0.000153 0.227989
216.129410 -242.877777 0.000149 0.226644
216.316193 -241.156998 0.000042 0.217705
216.453827 -239.888947 -0.000002 0.333211
nan nan nan 0.000000
nan nan nan 0.000000
nan nan nan 0.000000
214.518585 -256.142517 5.612356 0.669485
214.518585 -256.142517 4.801532 0.618015
214.518585 -256.142517 3.996792 0.624632
214.518585 -256.142517 3.196362 0.632721
214.518585 -256.142517 2.398502 0.608456
214.518585 -256.142517 1.601497 0.670343
214.518585 -256.142517 0.803637 0.616667
214.518585 -256.142517 0.003207 0.590196
215.319000 -249.219376 0.000214 0.255479
215.767075 -245.343674 0.000169 0.234141
216.053177 -242.869034 0.000185 0.243945
216.251968 -241.149628 0.000079 0.189158
216.398499 -239.882065 0.000167 0.181853
nan nan nan 0.000000
nan nan nan 0.000000
nan nan nan 0.000000
214.369003 -255.965759 5.588949 0.617770
214.369003 -255.965759 4.783380 0.600123
214.368988 -255.965759 3.983855 0.668382
214.368988 -255.965759 3.188610 0.677328
214.368988 -255.965759 2.395921 0.631863
214.368988 -255.965759 1.604079 0.628309
214.368988 -255.965759 0.811389 0.609804
214.368988 -255.965759 0.016145 0.689461
215.198517 -249.204803 0.000239 0.224625
215.673645 -245.332306 0.000202 0.250481
215.977005 -242.859802 0.000211 0.209439
216.187775 -241.141922 0.000090 0.269127
216.343185 -239.875366 0.000194 0.213476
nan nan nan 0.000000
nan nan nan 0.000000
nan nan nan 0.000000
214.221313 -255.791290 5.566016 0.607230
214.221298 -255.791290 4.765594 0.503186
214.221298 -255.791290 3.971178 0.592770
214.221313 -255.791290 3.181016 0.562990
214.221298 -255.791290 2.393391 0.538725
214.221298 -255.791290 1.606610 0.605882
214.221298 -255.791290 0.818984 0.574510
214.221298 -255.791290 0.028821 0.518750
215.078033 -249.190231 0.000165 0.216551
215.580185 -245.321091 0.000116 0.246924
215.900803 -242.850769 0.000108 0.201173
216.123718 -241.133209 0.000224 0.267205
216.287827 -239.868759 0.000099 0.213283
nan nan nan 0.000000
nan nan nan 0.000000
nan nan nan 0.000000
214.075500 -255.619049 5.543548 0.534436
214.075500 -255.619049 4.748168 0.622794
214.075500 -255.619019 3.958757 0.654534
214.075500 -255.619019 3.173574 0.652941
214.075500 -255.619049 2.390912 0.485294
214.075500 -255.619049 1.609088 0.595956
214.075500 -255.619019 0.826426 0.643873
214.075500 -255.619019 0.041242 0.583701
214.957764 -249.174011 0.000186 0.234333
215.486908 -245.308517 0.000137 0.199443
215.824768 -242.840515 0.000126 0.248847
216.059662 -241.124542 0.000251 0.224433
216.232574 -239.861374 0.000106 0.269127
nan nan nan 0.000000
nan nan nan 0.000000
nan nan nan 0.000000
213.931503 -255.448929 5.521528 0.614093
213.931503 -255.448929 4.731091 0.629534
213.931503 -255.448929 3.946586 0.596446
213.931503 -255.448929 3.166282 0.716544
213.931503 -255.448929 2.388483 0.576593
213.931503 -255.448929 1.611517 0.628554
213.931503 -255.448929 0.833718 0.670098
213.931503 -255.448929 0.053413 0.610417
214.837601 -249.156952 0.000208 0.250961
215.393753 -245.295120 0.000184 0.245579
215.748825 -242.829605 0.000171 0.263264
215.995667 -241.115479 0.000267 0.214052
216.177414 -239.853424 0.000155 0.275855
nan nan nan 0.000000
nan nan nan 0.000000
nan nan nan 0.000000
213.789276 -255.280884 5.499950 0.582230
213.789276 -255.280884 4.714358 0.579412
213.789276 -255.280884 3.934659 0.585172
213.789276 -255.280884 3.159135 0.548774
213.789276 -255.280884 2.386102 0.650613
213.789276 -255.280884 1.613897 0.574265
213.789276 -255.280884 0.840864 0.608456
213.789276 -255.280884 0.065340 0.514828
214.717438 -249.139938 0.000126 0.211361
215.300537 -245.282074 0.000078 0.249808
215.672821 -242.818954 0.000069 0.239331
215.931656 -241.106415 0.000185 0.253172
216.122208 -239.845703 0.000049 0.213668
nan nan nan 0.000000
nan nan nan 0.000000
nan nan nan 0.000000
213.648788 -255.114899 5.478805 0.576471
213.648788 -255.114899 4.697957 0.672181
213.648773 -255.114899 3.922970 0.613358
213.648773 -255.114899 3.152132 0.568505
213.648788 -255.114899 2.383770 0.583701
213.648788 -255.114899 1.616230 0.637745
213.648788 -255.114899 0.847867 0.689706
213.648788 -255.114899 0.077029 0.561029
214.597580 -249.120987 0.000173 0.240581
215.207581 -245.267365 0.000127 0.242599
215.597015 -242.806976 0.000112 0.245867
215.867798 -241.096451 0.000204 0.211745
216.067169 -239.836975 0.000100 0.227701
nan nan nan 0.000000
nan nan nan 0.000000
nan nan nan 0.000000
213.509964 -254.950912 5.458079 0.479412
213.509964 -254.950897 4.681885 0.621078
213.509964 -254.950912 3.911515 0.666789
213.509964 -254.950912 3.145268 0.592647
213.509949 -254.950912 2.381484 0.629902
213.509949 -254.950912 1.618516 0.640931
213.509949 -254.950912 0.854731 0.595588
213.509949 -254.950912 0.088484 0.555882
214.477829 -249.101257 0.000212 0.215879
215.114700 -245.252106 0.000161 0.200308
215.521317 -242.794525 0.000149 0.223472
215.804016 -241.085907 0.000251 0.213283
216.012146 -239.827957 0.000128 0.257689
nan nan nan 0.000000
nan nan nan 0.000000
nan nan nan 0.000000
213.372787 -254.788818 5.437768 0.560907
213.372787 -254.788818 4.666131 0.490441
213.372787 -254.788818 3.900286 0.659436
213.372787 -254.788818 3.138541 0.550735
213.372787 -254.788849 2.379243 0.547794
213.372787 -254.788849 1.620757 0.610049
213.372787 -254.788849 0.861458 0.591789
213.372787 -254.788834 0.099713 0.636887
214.358047 -249.081665 0.000136 0.227605
215.021805 -245.236938 0.000081 0.224337
215.445587 -242.782181 0.000066 0.218185
215.740219 -241.075516 0.000165 0.217897
215.957123 -239.819107 0.000014 0.217320
nan nan nan 0.000000
nan nan nan 0.000000
nan nan nan 0.000000
213.237213 -254.628647 5.417858 0.548774
213.237213 -254.628647 4.650690 0.631985
213.237213 -254.628647 3.889281 0.604289
213.237213 -254.628647 3.131948 0.546201
213.237198 -254.628662 2.377047 0.534436
213.237198 -254.628662 1.622954 0.607966
213.237198 -254.628662 0.868052 0.561520
213.237198 -254.628662 0.110718 0.564706
214.238602 -249.060181 0.000186 0.230488
214.929306 -245.219482 0.000250 0.236640
215.370041 -242.768738 0.000092 0.259804
215.676575 -241.064194 0.000190 0.262591
215.902359 -239.808685 0.000208 0.233276
nan nan nan 0.000000
nan nan nan 0.000000
nan nan nan 0.000000
213.103180 -254.470306 5.398341 0.578676
213.103180 -254.470306 4.635555 0.681863
213.103180 -254.470306 3.878493 0.604534
213.103180 -254.470306 3.125484 0.626716
213.103165 -254.470306 2.374894 0.570711
213.103165 -254.470306 1.625106 0.627451
213.103165 -254.470306 0.874515 0.604412
213.103165 -254.470306 0.121506 0.615564
214.119263 -249.038177 0.000200 0.203960
214.836777 -245.202271 0.000285 0.226547
215.294693 -242.754181 0.000224 0.247982
215.613022 -241.052383 0.000222 0.209535
215.847610 -239.798218 0.000310 0.211169
nan nan nan 0.000000
nan nan nan 0.000000
nan nan nan 0.000000
212.970657 -254.313751 5.379210 0.685784
212.970657 -254.313751 4.620719 0.692034
212.970657 -254.313751 3.867918 0.524265
212.970657 -254.313751 3.119149 0.681618
212.970657 -254.313751 2.372783 0.684681
212.970657 -254.313751 1.627217 0.625613
212.970657 -254.313751 0.880851 0.544363
212.970657 -254.313751 0.132080 0.606863
213.999893 -249.016235 0.000107 0.203576
214.744217 -245.185181 0.000204 0.201749
215.219254 -242.740204 0.000150 0.180123
215.549454 -241.040649 0.000141 0.234429
215.792816 -239.788086 0.000234 0.241253
nan nan nan 0.000000
nan nan nan 0.000000
nan nan nan 0.000000
212.839615 -254.158936 5.360457 0.620221
212.839615 -254.158936 4.606175 0.603186
212.839630 -254.158936 3.857552 0.577696
212.839630 -254.158936 3.112937 0.602451
212.839630 -254.158966 2.370715 0.627083
212.839630 -254.158966 1.629286 0.599755
212.839630 -254.158936 0.887062 0.554044
212.839615 -254.158966 0.142446 0.601838
213.881104 -248.991348 0.000262 0.211169
214.651947 -245.166641 0.000244 0.251538
215.144012 -242.725128 0.000183 0.228566
215.486069 -241.027908 0.000181 0.234333
215.738159 -239.777084 0.000279 0.180700
nan nan nan 0.000000
nan nan nan 0.000000
nan nan nan 0.000000
212.710037 -254.005829 5.342073 0.579657
212.710037 -254.005829 4.591917 0.703186
212.710037 -254.005829 3.847389 0.640441
212.710022 -254.005829 3.106849 0.533211
212.710022 -254.005844 2.368687 0.583946
212.710022 -254.005844 1.631314 0.624142
212.710022 -254.005844 0.893150 0.573897
212.710022 -254.005844 0.152609 0.576961
213.762344 -248.966415 0.000326 0.249616
214.559784 -245.147522 0.000276 0.230681
215.068878 -242.709534 0.000214 0.220684
215.422775 -241.014801 0.000208 0.210111
215.683594 -239.765823 0.000295 0.222318
nan nan nan 0.000000
nan nan nan 0.000000
nan nan nan 0.000000
212.581848 -253.854385 5.324051 0.486520
212.581848 -253.854385 4.577939 0.634559
212.581848 -253.854385 3.837427 0.660539
212.581833 -253.854385 3.100880 0.505147
212.581833 -253.854385 2.366698 0.528431
212.581833 -253.854385 1.633302 0.617034
212.581833 -253.854385 0.899119 0.530515
212.581833 -253.854385 0.162571 0.608946
213.643509 -248.941803 0.000254 0.238370
214.467636 -245.128433 0.000205 0.226451
214.993759 -242.693939 0.000148 0.237024
215.359482 -241.001663 0.000142 0.235006
215.629013 -239.754456 0.000241 0.227989
nan nan nan 0.000000
nan nan nan 0.000000
nan nan nan 0.000000
212.455017 -253.704544 5.306380 0.574510
212.455002 -253.704544 4.564236 0.609559
212.455017 -253.704544 3.827660 0.579167
212.455017 -253.704559 3.095028 0.545343
212.455002 -253.704575 2.364749 0.531618
212.455002 -253.704575 1.635251 0.628309
212.455017 -253.704559 0.904971 0.593260
212.455017 -253.704559 0.172339 0.583946
213.524994 -248.915695 0.000260 0.239139
214.375778 -245.107956 0.000245 0.198577
214.918854 -242.677246 0.000189 0.203576
215.296371 -240.987640 0.000173 0.294983
215.574631 -239.742340 0.000279 0.192426
nan nan nan 0.000000
nan nan nan 0.000000
nan nan nan 0.000000
212.329529 -253.556290 5.289057 0.622549
212.329529 -253.556290 4.550801 0.602941
212.329529 -253.556290 3.818085 0.629044
212.329529 -253.556305 3.089291 0.571201
212.329529 -253.556320 2.362838 0.583333
212.329529 -253.556320 1.637162 0.656373
212.329529 -253.556320 0.910708 0.587868
212.329529 -253.556320 0.181914 0.639828
213.406525 -248.889404 0.000193 0.219819
214.283890 -245.087540 0.000180 0.286140
214.843903 -242.660858 0.000077 0.269320
215.233231 -240.973816 0.000065 0.218089
215.520172 -239.730392 0.000175 0.232603
nan nan nan 0.000000
nan nan nan 0.000000
nan nan nan 0.000000
212.205338 -253.409561 5.272073 0.606863
212.205338 -253.409561 4.537629 0.610417
212.205353 -253.409592 3.808697 0.597794
212.205338 -253.409592 3.083667 0.565441
212.205338 -253.409592 2.360964 0.616299
212.205338 -253.409592 1.639036 0.630760
212.205338 -253.409592 0.916333 0.598529
212.205338 -253.409592 0.191301 0.665074
213.288467 -248.861298 0.000239 0.235102
214.192322 -245.065735 0.000229 0.214245
214.769241 -242.643112 0.000121 0.269800
215.170349 -240.958817 0.000116 0.188389
215.465942 -239.717514 0.000217 0.193099
nan nan nan 0.000000
nan nan nan 0.000000
nan nan nan 0.000000
212.082428 -253.264359 5.255422 0.521569
212.082428 -253.264359 4.524715 0.678676
212.082428 -253.264359 3.799491 0.610172
212.082428 -253.264359 3.078151 0.639338
212.082413 -253.264389 2.359127 0.567279
212.082413 -253.264389 1.640873 0.632843
212.082428 -253.264389 0.921848 0.598162
212.082428 -253.264389 0.200506 0.605760
213.170364 -248.833344 0.000172 0.246924
214.100662 -245.044357 0.000117 0.230873
214.694794 -242.624573 0.000215 0.245771
215.107437 -240.943924 0.000050 0.219146
215.411728 -239.704651 0.000155 0.209727
nan nan nan 0.000000
nan nan nan 0.000000
211.960754 -253.120590 5.973232 0.620221
211.960754 -253.120590 5.239095 0.533578
212.897263 -249.418121 4.072703 0.792525
211.960754 -253.120621 3.790467 0.636642
211.960739 -253.120621 3.072745 0.543505
211.960739 -253.120636 2.357326 0.617770
211.960739 -253.120636 1.642674 0.641544
211.960739 -253.120636 0.927254 0.612500
211.960739 -253.120636 0.209530 0.643750
213.052704 -248.803619 0.000215 0.221261
214.009415 -245.021317 0.000159 0.205113
214.620407 -242.605804 0.000257 0.236736
215.044724 -240.928284 0.000055 0.272491
215.357651 -239.691147 0.000161 0.203287
nan nan nan 0.000000
nan nan nan 0.000000
211.840271 -252.978271 5.953598 0.536520
211.840286 -252.978271 5.223088 0.571814
212.797867 -249.300705 4.062461 0.785662
211.840271 -252.978271 3.781619 0.680515
211.840271 -252.978302 3.067444 0.619118
211.840271 -252.978302 2.355561 0.532721
211.840271 -252.978302 1.644439 0.672304
211.840271 -252.978302 0.932556 0.602451
211.840271 -252.978302 0.218379 0.562623
212.935257 -248.773010 0.000268 0.215206
213.918335 -244.997543 0.000216 0.203864
214.546143 -242.586456 0.000308 0.231065
214.982285 -240.911514 0.000210 0.207132
215.303696 -239.677139 0.000201 0.254998
nan nan nan 0.000000
nan nan nan 0.000000
211.720978 -252.837341 5.934346 0.622794
211.720993 -252.837341 5.207395 0.630270
212.699448 -249.184418 4.052418 0.784436
211.720993 -252.837372 3.772944 0.645343
211.720978 -252.837372 3.062246 0.644853
211.720978 -252.837372 2.353829 0.457108
211.720978 -252.837372 1.646171 0.664706
211.720978 -252.837372 0.937753 0.664828
211.720978 -252.837372 0.227053 0.588480
212.817764 -248.742661 0.000193 0.227509
213.827209 -244.974014 0.000140 0.215206
214.471817 -242.567459 0.000195 0.229815
214.919708 -240.895309 0.000141 0.216263
215.249680 -239.663376 0.000080 0.192234
nan nan nan 0.000000
nan nan nan 0.000000
211.602844 -252.697769 5.915472 0.692524
211.602844 -252.697769 5.192008 0.602696
212.601959 -249.069260 4.042572 0.786887
211.602859 -252.697784 3.764439 0.643995
211.602844 -252.697800 3.057150 0.652206
211.602844 -252.697800 2.352131 0.554534
211.602844 -252.697800 1.647868 0.660049
211.602844 -252.697800 0.942849 0.608456
211.602844 -252.697800 0.235559 0.675490
212.700668 -248.710800 0.000198 0.224337
213.736465 -244.949036 0.000186 0.230681
214.397842 -242.547073 0.000247 0.257593
214.857391 -240.878128 0.000197 0.259227
215.195938 -239.648544 0.000136 0.248462
nan nan nan 0.000000
nan nan nan 0.000000
211.485840 -252.559509 5.896967 0.635172
212.162155 -250.168640 4.808351 0.734926
212.505417 -248.955170 4.032919 0.826348
211.485825 -252.559540 3.756101 0.599755
211.485825 -252.559540 3.052154 0.631863
211.485840 -252.559555 2.350468 0.594608
211.485840 -252.559555 1.649532 0.577083
211.485840 -252.559570 0.947845 0.543015
211.485840 -252.559555 0.243898 0.647549
212.583588 -248.678833 0.000121 0.224721
213.645676 -244.924194 0.000113 0.257401
214.323822 -242.526840 0.000173 0.243272
214.794968 -240.861298 0.000071 0.184737
215.142181 -239.633820 0.000068 0.263937
nan nan nan 0.000000
nan nan nan 0.000000
211.369919 -252.422562 5.878825 0.546078
212.070831 -250.009201 4.789350 0.809681
212.409775 -248.842178 4.023454 0.806250
211.369904 -252.422592 3.747924 0.557353
211.369919 -252.422592 3.047256 0.639461
211.369904 -252.422592 2.348836 0.651961
211.369904 -252.422592 1.651164 0.625613
211.369904 -252.422592 0.952743 0.557843
211.369904 -252.422592 0.252073 0.692034
212.467102 -248.644775 0.000194 0.218378
213.555252 -244.898087 0.000141 0.247213
214.250183 -242.505280 0.000252 0.229047
214.732925 -240.843155 0.000144 0.227797
215.088669 -239.618210 0.000136 0.224433
nan nan nan 0.000000
nan nan nan 0.000000
211.255066 -252.286880 5.861037 0.575000
211.980606 -249.852295 4.770798 0.820466
211.255066 -252.286896 4.441120 0.583946
211.255066 -252.286896 3.739909 0.627941
211.255051 -252.286911 3.042453 0.650000
211.255051 -252.286911 2.347237 0.611274
211.255051 -252.286911 1.652763 0.549877
211.255051 -252.286911 0.957546 0.557966
211.255051 -252.286911 0.260089 0.652941
212.350510 -248.611084 0.000125 0.248366
213.464813 -244.872040 0.000061 0.216359
214.176468 -242.484009 0.000180 0.248462
214.671036 -240.824463 0.000247 0.260188
215.035080 -239.602905 0.000023 0.268070
nan nan nan 0.000000
nan nan nan 0.000000
211.141251 -252.152420 5.843598 0.651103
211.891464 -249.697830 4.752684 0.881863
211.141251 -252.152435 4.430095 0.527451
211.141251 -252.152435 3.732050 0.663358
211.141235 -252.152466 3.037745 0.601716
211.141235 -252.152466 2.345668 0.633456
211.141235 -252.152466 1.654332 0.558211
211.141235 -252.152466 0.962254 0.569485
211.141235 -252.152466 0.267947 0.645466
212.234528 -248.575333 0.000208 0.220492
213.374847 -244.844315 0.000141 0.233948
214.103058 -242.461655 0.000215 0.222511
214.609268 -240.805435 0.000326 0.253364
214.981796 -239.586517 0.000094 0.207132
nan nan nan 0.000000
nan nan nan 0.000000
211.028458 -252.019165 5.826503 0.646446
211.803345 -249.545746 4.734997 0.778676
211.028458 -252.019165 4.419285 0.600858
211.028458 -252.019196 3.724348 0.502819
211.028458 -252.019196 3.033129 0.529902
211.028458 -252.019196 2.344131 0.592892
211.028458 -252.019196 1.655869 0.610539
211.028458 -252.019196 0.966870 0.572059
211.028458 -252.019196 0.275651 0.516912
212.118378 -248.540131 0.000127 0.216071
213.285049 -244.816132 0.000199 0.231449
214.029633 -242.439377 0.000136 0.222607
214.547424 -240.786636 0.000257 0.248847
214.928482 -239.570282 0.000036 0.206747
nan nan nan 0.000000
nan nan nan 0.000000
210.916672 -251.887085 5.809743 0.614093
211.716232 -249.395981 4.717726 0.825490
210.916656 -251.887100 4.408690 0.507475
210.916656 -251.887100 3.716795 0.645098
210.916656 -251.887115 3.028604 0.551716
210.916656 -251.887131 2.342623 0.525735
210.916656 -251.887131 1.657377 0.627574
210.916656 -251.887131 0.971395 0.652328
210.916656 -251.887131 0.283203 0.566667
212.002930 -248.502701 0.000217 0.204056
213.195496 -244.787170 0.000277 0.234525
213.956635 -242.415756 0.000218 0.225298
214.485840 -240.766983 0.000281 0.272299
214.875427 -239.553177 0.000103 0.210880
nan nan nan 0.000000
nan nan nan 0.000000
211.001877 -251.159714 5.679077 0.785539
211.630066 -249.248444 4.700861 0.739951
210.805847 -251.756165 4.398303 0.562377
210.805832 -251.756165 3.709391 0.613480
210.805832 -251.756180 3.024169 0.592402
210.805832 -251.756195 2.341146 0.573652
210.805832 -251.756195 1.658854 0.646324
210.805817 -251.756195 0.975831 0.576838
210.805832 -251.756195 0.290607 0.579167
211.887314 -248.465820 0.000142 0.228950
213.105850 -244.758499 0.000214 0.197136
213.883530 -242.392410 0.000147 0.215013
214.424255 -240.747314 0.000213 0.230392
214.822250 -239.536438 -0.000025 0.243945
nan nan nan 0.000000
nan nan nan 0.000000
210.911560 -250.985489 5.654179 0.845221
211.544861 -249.103104 4.684391 0.802451
210.695953 -251.626343 4.388121 0.585294
210.695953 -251.626343 3.702134 0.597917
210.695938 -251.626373 3.019820 0.614093
210.695938 -251.626373 2.339698 0.605882
210.695938 -251.626373 1.660303 0.582108
210.695938 -251.626373 0.980179 0.543750
210.695938 -251.626373 0.297864 0.559069
211.772385 -248.426865 0.000222 0.242983
213.016708 -244.728317 0.000290 0.244137
213.810883 -242.367752 0.000234 0.219723
214.363052 -240.726563 0.000295 0.250288
214.769455 -239.518555 0.000053 0.197712
nan nan nan 0.000000
nan nan nan 0.000000
210.822266 -250.814133 5.629898 0.835049
211.460556 -248.959885 4.668306 0.846201
210.586975 -251.497650 4.378142 0.663848
210.586990 -251.497650 3.695022 0.582843
210.586990 -251.497650 3.015559 0.606740
210.586975 -251.497650 2.338278 0.701103
210.586975 -251.497650 1.661722 0.583456
210.586990 -251.497650 0.984441 0.658211
210.586990 -251.497650 0.304978 0.626103
211.657471 -248.387817 0.000216 0.243656
212.927612 -244.697983 0.000294 0.228758
213.738342 -242.342773 0.000284 0.261534
214.301941 -240.705475 0.000352 0.250865
214.717163 -239.499237 0.000410 0.178681
nan nan nan 0.000000
nan nan nan 0.000000
210.733963 -250.645554 5.606213 0.840196
211.377121 -248.818695 4.652596 0.835539
210.478928 -251.369965 4.368360 0.636152
210.478928 -251.369965 3.688048 0.628309
210.478928 -251.369965 3.011381 0.606127
210.478928 -251.369965 2.336886 0.579167
210.478928 -251.369965 1.663114 0.591789
210.478928 -251.369965 0.988619 0.664951
210.478928 -251.369965 0.311951 0.529044
211.542542 -248.348846 0.000105 0.236544
212.838486 -244.667740 0.000183 0.240581
213.665573 -242.318420 0.000116 0.238466
214.240738 -240.684692 0.000245 0.209343
214.664398 -239.481262 0.000319 0.210784
nan nan nan 0.000000
nan nan nan 0.000000
210.646622 -250.479691 5.583110 0.782598
211.294540 -248.679504 4.637255 0.811642
210.371750 -251.243362 4.358771 0.607721
210.371750 -251.243362 3.681215 0.675368
210.371750 -251.243362 3.007286 0.574755
210.371750 -251.243362 2.335522 0.544976
210.371750 -251.243362 1.664478 0.666422
210.371750 -251.243362 0.992713 0.625368
210.371750 -251.243362 0.318785 0.512132
211.428436 -248.307465 0.000185 0.205594
212.749985 -244.635727 0.000253 0.241253
213.593430 -242.292252 0.000199 0.214917
214.179855 -240.662933 0.000263 0.282968
214.612000 -239.462280 0.000396 0.212322
nan nan nan 0.000000
nan nan nan 0.000000
210.560181 -250.316437 5.560575 0.828922
211.212784 -248.542267 4.622271 0.894730
210.265442 -251.117752 4.349375 0.574755
210.265442 -251.117752 3.674517 0.567647
210.265442 -251.117752 3.003273 0.510907
210.265442 -251.117752 2.334186 0.542279
210.265442 -251.117752 1.665814 0.563971
210.265442 -251.117752 0.996726 0.513726
210.265442 -251.117752 0.325482 0.551103
211.314270 -248.266312 0.000144 0.215879
212.661453 -244.603745 0.000219 0.246828
213.521271 -242.266190 0.000165 0.224721
214.119049 -240.641022 0.000222 0.257113
214.559494 -239.443619 0.000291 0.211169
nan nan nan 0.000000
nan nan nan 0.000000
210.474625 -250.155731 5.538591 0.825735
211.131805 -248.406891 4.607636 0.805147
210.159958 -250.993134 4.340166 0.593382
210.159958 -250.993134 3.667954 0.568015
210.159958 -250.993134 2.999341 0.635539
210.159958 -250.993134 2.332876 0.558333
210.159958 -250.993134 1.667124 0.569240
210.159958 -250.993134 1.000659 0.628186
210.159958 -250.993134 0.332046 0.562868
211.200714 -248.223511 0.000208 0.205113
212.573380 -244.570602 0.000275 0.247597
213.449448 -242.239197 0.000215 0.228854
214.058578 -240.618195 0.000290 0.236736
214.507309 -239.424011 0.000342 0.284410
nan nan nan 0.000000
nan nan nan 0.000000
210.389923 -249.997498 5.517146 0.839583
211.051575 -248.273361 4.593342 0.793260
210.055313 -250.869476 4.331141 0.638113
210.055313 -250.869476 3.661522 0.684436
210.055313 -250.869476 2.995487 0.576471
210.055298 -250.869492 2.331592 0.642892
210.055298 -250.869476 1.668408 0.665196
210.055313 -250.869476 1.004513 0.575735
210.055313 -250.869476 0.338478 0.675490
211.087112 -248.180786 0.000161 0.220396
212.485275 -244.537460 0.000233 0.207709
213.377533 -242.212479 0.000115 0.235102
213.997955 -240.595734 0.000177 0.206075
214.455185 -239.404282 0.000323 0.223568
nan nan nan 0.000000
nan nan nan 0.000000
210.306061 -249.841660 5.496226 0.801471
210.972122 -248.141602 4.579382 0.818750
209.951447 -250.746780 4.322300 0.617647
209.951447 -250.746780 3.655220 0.583946
209.951447 -250.746780 2.991712 0.572426
209.951447 -250.746780 2.330334 0.623529
209.951447 -250.746780 1.669665 0.577451
209.951447 -250.746780 1.008288 0.572917
209.951447 -250.746780 0.344780 0.663603
210.973984 -248.136841 0.000171 0.222414
212.397598 -244.503250 0.000260 0.209535
213.305984 -242.184738 0.000115 0.236351
213.937714 -240.572311 0.000190 0.249712
214.403152 -239.384338 0.000267 0.201269
nan nan nan 0.000000
nan nan nan 0.000000
210.222977 -249.688141 5.475817 0.803676
210.893372 -248.011581 4.565749 0.889338
209.848358 -250.625000 4.313637 0.616789
209.848358 -250.625000 3.649046 0.576226
209.848358 -250.624985 2.988013 0.623284
209.848358 -250.625000 2.329103 0.627941
209.848358 -250.625000 1.670897 0.554289
209.848358 -250.624985 1.011987 0.577941
209.848358 -250.625000 0.350954 0.628309
210.861038 -248.092438 0.000139 0.241446
212.309952 -244.468948 0.000209 0.255767
213.234543 -242.156708 0.000074 0.236928
213.877563 -240.548630 0.000164 0.207132
214.351257 -239.363998 0.000223 0.218570
nan nan nan 0.000000
nan nan nan 0.000000
210.140656 -249.536896 5.455907 0.828309
210.815308 -247.883255 4.552433 0.898897
209.746048 -250.504105 4.305151 0.553922
209.746033 -250.504120 3.642997 0.614706
209.746033 -250.504120 2.984389 0.631985
209.746048 -250.504105 2.327896 0.561765
209.746048 -250.504105 1.672105 0.565319
209.746033 -250.504120 1.015611 0.590441
209.746048 -250.504105 0.357002 0.580270
210.748352 -248.047379 0.000089 0.226547
212.222595 -244.433960 0.000167 0.220492
213.163620 -242.127441 0.000177 0.248654
213.817535 -240.524643 0.000111 0.238081
214.299545 -239.343216 0.000195 0.200788
nan nan nan 0.000000
nan nan nan 0.000000
210.059067 -249.387817 5.436483 0.815319
210.737930 -247.756561 4.539432 0.836765
209.644455 -250.384109 4.296839 0.687010
209.644470 -250.384094 3.637072 0.669730
209.644470 -250.384094 2.980839 0.699755
209.644470 -250.384094 2.326713 0.671569
209.644470 -250.384094 1.673287 0.608211
209.644470 -250.384094 1.019161 0.731740
209.644470 -250.384094 0.362927 0.647917
210.636459 -248.000351 0.000187 0.215590
212.135651 -244.397888 0.000200 0.225779
213.092865 -242.097733 0.000270 0.206940
213.757935 -240.499619 0.000207 0.224145
214.248138 -239.321671 0.000284 0.263937
nan nan nan 0.000000
nan nan nan 0.000000
209.978195 -249.240875 5.417535 0.748284
210.661194 -247.631454 4.526732 0.813971
209.543610 -250.264954 4.288696 0.526593
209.543610 -250.264954 3.631269 0.673162
209.543610 -250.264954 2.977362 0.574632
209.543610 -250.264954 2.325554 0.516789
209.543610 -250.264954 1.674445 0.616054
209.543610 -250.264954 1.022638 0.577206
209.543610 -250.264954 0.368731 0.535662
210.524139 -247.954376 0.000057 0.230873
212.048538 -244.362244 0.000068 0.237793
213.021896 -242.068573 0.000156 0.243080
213.698151 -240.475037 0.000095 0.245867
214.196564 -239.300522 0.000162 0.225010
nan nan nan 0.000000
nan nan nan 0.000000
209.897995 -249.096008 5.399053 0.808824
210.585068 -247.507889 4.514332 0.755882
209.443466 -250.146622 4.280724 0.590809
209.443466 -250.146622 3.625586 0.580637
209.443466 -250.146622 2.973957 0.614216
209.443466 -250.146622 2.324420 0.564338
209.443466 -250.146622 1.675579 0.501716
209.443466 -250.146622 1.026043 0.528676
209.443466 -250.146622 0.374413 0.590196
210.412674 -247.906342 0.000085 0.226163
211.962265 -244.324585 0.000162 0.216936
212.951553 -242.037903 0.000245 0.202614
213.638901 -240.449158 0.000191 0.231834
214.145401 -239.278427 0.000199 0.193291
nan nan nan 0.000000
nan nan nan 0.000000
209.818466 -248.953110 5.381021 0.774510
210.509567 -247.385834 4.502225 0.755392
209.344025 -250.029129 4.272916 0.638848
209.344025 -250.029129 3.620021 0.618995
209.344025 -250.029129 2.970623 0.650490
209.344025 -250.029129 2.323310 0.598407
209.344025 -250.029129 1.676690 0.566422
209.344025 -250.029129 1.029377 0.564338
209.344025 -250.029129 0.379978 0.471691
210.301315 -247.858124 0.000041 0.206267
211.875931 -244.287109 0.000132 0.246348
212.881134 -242.007431 0.000200 0.191465
213.579453 -240.423798 0.000076 0.231065
214.094238 -239.256287 0.000152 0.204825
nan nan nan 0.000000
nan nan nan 0.000000
209.739563 -248.812210 5.363433 0.850368
210.434631 -247.265244 4.490402 0.824142
209.245239 -249.912430 4.265272 0.636397
209.245239 -249.912430 3.614573 0.725613
209.245239 -249.912430 2.967359 0.665319
209.245239 -249.912430 2.322223 0.557108
209.245239 -249.912430 1.677777 0.554534
209.245239 -249.912430 1.032641 0.582475
209.245239 -249.912430 0.385427 0.556005
210.190735 -247.808060 0.000129 0.235198
211.790192 -244.248291 0.000221 0.222607
212.811111 -241.976089 0.000226 0.231738
213.520538 -240.397156 0.000157 0.272299
214.043488 -239.233261 0.000252 0.272972
nan nan nan 0.000000
nan nan nan 0.000000
209.661285 -248.673187 5.346279 0.698407
210.360275 -247.146088 4.478861 0.831373
209.147125 -249.796509 4.257789 0.704289
209.147125 -249.796509 3.609239 0.613113
209.147110 -249.796509 2.964163 0.682598
209.147110 -249.796509 2.321158 0.624387
209.147110 -249.796509 1.678842 0.660784
209.147110 -249.796509 1.035837 0.591054
209.147125 -249.796509 0.390760 0.676103
210.079742 -247.758942 0.000001 0.225779
211.704117 -244.210190 0.000092 0.187332
212.740936 -241.945068 0.000094 0.237793
213.461456 -240.370926 0.000045 0.212899
213.992523 -239.210709 0.000124 0.201653
nan nan nan 0.000000
nan nan nan 0.000000
209.583588 -248.535995 5.329548 0.778799
210.286453 -247.028320 4.467593 0.808333
209.049637 -249.681335 4.250463 0.555637
209.049637 -249.681335 3.604018 0.674020
209.049637 -249.681335 2.961035 0.680025
209.049637 -249.681335 2.320116 0.623162
209.049637 -249.681335 1.679884 0.545956
209.049637 -249.681335 1.038965 0.594853
209.049637 -249.681335 0.395981 0.622672
209.970139 -247.706863 0.000153 0.215302
211.618866 -244.170303 0.000162 0.231161
212.671616 -241.912125 0.000248 0.208574
213.403030 -240.343246 0.000180 0.190600
213.942169 -239.186783 0.000277 0.228278
nan nan nan 0.000000
nan nan nan 0.000000
209.506454 -248.400604 5.313230 0.762500
210.213181 -246.911911 4.456595 0.837255
208.952774 -249.566910 4.243295 0.516299
208.952774 -249.566910 3.598909 0.594975
208.952774 -249.566910 2.957973 0.643505
208.952774 -249.566910 2.319096 0.530760
208.952774 -249.566910 1.680904 0.586152
208.952774 -249.566910 1.042027 0.659559
208.952774 -249.566910 0.401091 0.545956
209.859802 -247.656250 0.000018 0.223472
211.533279 -244.131088 0.000021 0.262880
212.601883 -241.880112 0.000115 0.194348
213.344315 -240.316208 0.000067 0.247405
213.891525 -239.163513 0.000152 0.220204
nan nan nan 0.000000
nan nan nan 0.000000
209.429855 -248.266953 5.297318 0.786520
210.140396 -246.796799 4.445860 0.855392
208.856537 -249.453186 4.236280 0.542770
208.856537 -249.453186 3.593909 0.651103
