# This PCD file was generated using the MATLAB® pcwrite function
# from Computer Vision Toolbox®.
# .PCD v.7 - Point Cloud Data file format
VERSION .7
FIELDS x y z intensity
SIZE 4 4 4 4
TYPE F F F F
COUNT 1 1 1 1
WIDTH 1154
HEIGHT 1
VIEWPOINT 0 0 0 1 0 0 0
POINTS 1154
DATA ascii
252.492416 -523.531799 3.712072 0.212868
252.492416 -523.531799 3.025774 0.086152
252.492416 -523.531799 2.341680 0.109436
252.492416 -523.531799 1.658319 0.078799
252.492416 -523.531799 0.974225 0.084069
252.492416 -523.531799 0.287928 0.044608
255.960266 -523.052185 0.000679 0.208766
259.819824 -522.518433 -0.000007 0.335417
262.287598 -522.177124 -0.000005 0.331495
264.002838 -521.939880 -0.000003 0.328186
265.266449 -521.765137 -0.000006 0.336642
252.408035 -523.395874 7.246595 0.044730
252.408035 -523.395874 6.523812 0.031618
252.408035 -523.395874 5.811178 0.038480
252.408035 -523.395874 5.106983 0.259926
252.408035 -523.395874 4.409595 0.361397
252.408035 -523.395874 3.717440 0.206250
252.408035 -523.395874 3.028990 0.072794
252.408035 -523.395874 2.342752 0.093015
252.408035 -523.395874 1.657248 0.077451
252.408035 -523.395874 0.971010 0.080515
252.408035 -523.395874 0.282560 0.044608
255.943649 -522.932007 0.000630 0.227124
259.807281 -522.425110 -0.000007 0.335907
262.277374 -522.101074 -0.000005 0.333946
263.994171 -521.875793 -0.000003 0.337010
265.259033 -521.709900 -0.000006 0.328922
252.323135 -523.259033 7.263354 0.046446
252.323135 -523.259033 6.538262 0.029044
252.323135 -523.259033 5.823352 0.069975
252.323135 -523.259033 5.116908 0.277574
252.323135 -523.259033 4.417292 0.350613
252.323135 -523.259033 3.722925 0.244118
252.323135 -523.259033 3.032277 0.083701
252.323135 -523.259033 2.343847 0.085294
252.323135 -523.259033 1.656154 0.088848
252.323135 -523.259033 0.967723 0.080147
252.323135 -523.259033 0.277074 0.051471
255.927750 -522.811707 0.000567 0.214821
259.795349 -522.331726 -0.000007 0.334436
262.267670 -522.024963 -0.000005 0.330025
263.985992 -521.811707 -0.000003 0.336152
265.251953 -521.654602 -0.000006 0.331250
252.237656 -523.121338 7.280478 0.036887
252.237686 -523.121338 6.553029 0.023407
252.237686 -523.121338 5.835791 0.086642
252.237686 -523.121338 5.127048 0.265809
252.237686 -523.121338 4.425157 0.324510
252.237686 -523.121338 3.728531 0.246201
252.237686 -523.121338 3.035636 0.093995
252.237686 -523.121338 2.344965 0.078922
252.237686 -523.121338 1.655035 0.095098
252.237686 -523.121338 0.964364 0.085049
252.237686 -523.121338 0.271469 0.056863
255.912827 -522.691345 0.000519 0.221838
259.784088 -522.238281 -0.000007 0.328186
262.258453 -521.948792 -0.000006 0.334191
263.978241 -521.747498 -0.000003 0.334559
265.245300 -521.599243 -0.000005 0.334314
252.151642 -522.982727 7.297973 0.025368
252.151642 -522.982727 6.568112 0.033824
252.151642 -522.982727 5.848499 0.036887
252.151642 -522.982727 5.137410 0.256250
252.151642 -522.982727 4.433192 0.339338
252.151642 -522.982727 3.734258 0.224510
252.151642 -522.982727 3.039067 0.100490
252.151642 -522.982727 2.346108 0.063235
252.151642 -522.982727 1.653892 0.101348
252.151642 -522.982727 0.960933 0.079902
252.151642 -522.982727 0.265741 0.068137
255.898849 -522.570740 0.000488 0.225202
259.773468 -522.144775 -0.000007 0.335539
262.249817 -521.872498 -0.000006 0.327696
263.970947 -521.683228 -0.000003 0.335907
265.239014 -521.543884 -0.000006 0.334804
252.065063 -522.843201 7.315845 0.049020
252.065063 -522.843201 6.583522 0.018137
252.065048 -522.843201 5.861482 0.015441
252.065048 -522.843201 5.147993 0.250980
252.065063 -522.843201 4.441399 0.346936
252.065063 -522.843201 3.740108 0.208333
252.065048 -522.843201 3.042572 0.109069
252.065063 -522.843201 2.347276 0.080270
252.065063 -522.843201 1.652724 0.086765
252.065063 -522.843201 0.957428 0.076103
252.065063 -522.843201 0.259892 0.077451
255.887512 -522.449951 0.000662 0.263745
259.763519 -522.051208 -0.000007 0.336152
262.241699 -521.796204 -0.000005 0.341299
263.964142 -521.618958 -0.000003 0.335294
265.233124 -521.488403 -0.000006 0.329044
251.977875 -522.702698 7.334098 0.059681
251.977875 -522.702698 6.599261 0.007598
251.977875 -522.702698 5.874742 0.025245
251.977875 -522.702698 5.158802 0.253431
251.977875 -522.702698 4.449782 0.325735
251.977875 -522.702698 3.746083 0.195588
251.977875 -522.702698 3.046152 0.115441
251.977875 -522.702698 2.348469 0.063725
251.977875 -522.702698 1.651532 0.084191
251.977875 -522.702698 0.953848 0.064583
251.977875 -522.702698 0.253916 0.076471
255.875107 -522.329285 0.000613 0.221934
259.754211 -521.957458 -0.000007 0.337745
262.234100 -521.719849 -0.000005 0.335662
263.957733 -521.554626 -0.000003 0.335417
265.227600 -521.432983 -0.000005 0.341054
251.890091 -522.561279 7.352739 0.074387
251.890091 -522.561279 6.615334 0.000980
251.890091 -522.561279 5.888282 0.053431
251.890091 -522.561279 5.169841 0.253064
251.890091 -522.561279 4.458344 0.345956
251.890091 -522.561279 3.752185 0.204657
251.890091 -522.561279 3.049808 0.078554
251.890091 -522.561279 2.349686 0.073652
251.890091 -522.561279 1.650314 0.083701
251.890091 -522.561279 0.950192 0.063113
251.890091 -522.561279 0.247814 0.085049
255.863861 -522.208435 0.000603 0.228758
259.745544 -521.863770 -0.000008 0.338480
262.227051 -521.643433 -0.000005 0.324632
263.951782 -521.490295 -0.000003 0.342524
265.222473 -521.377441 -0.000006 0.336275
251.801666 -522.418823 7.371773 0.097917
251.801666 -522.418823 6.631746 0.006250
251.801666 -522.418823 5.902108 0.013848
251.801666 -522.418823 5.181113 0.264216
251.801666 -522.418823 4.467085 0.361275
251.801666 -522.418823 3.758416 0.180270
251.801666 -522.418823 3.053541 0.056863
251.801666 -522.418823 2.350930 0.088725
251.801666 -522.418823 1.649070 0.070588
251.801666 -522.418823 0.946459 0.064951
251.801666 -522.418823 0.241584 0.089951
255.853165 -522.087585 0.000556 0.234429
259.737549 -521.769958 -0.000007 0.334069
262.220520 -521.566956 -0.000005 0.331495
263.946289 -521.425842 -0.000003 0.335294
265.217743 -521.321899 -0.000006 0.339951
251.712616 -522.275330 7.391207 0.113725
251.712616 -522.275330 6.648503 0.027206
251.712616 -522.275330 5.916226 0.009681
251.712616 -522.275330 5.192621 0.237132
251.712616 -522.275330 4.476011 0.348775
251.712616 -522.275330 3.764777 0.221324
251.712616 -522.275330 3.057353 0.089828
251.712616 -522.275330 2.352199 0.082966
251.712616 -522.275330 1.647801 0.085294
251.712616 -522.275330 0.942648 0.065564
251.712616 -522.275330 0.235222 0.074265
255.843246 -521.966614 0.000507 0.241542
259.730194 -521.676147 -0.000007 0.332108
262.214539 -521.490479 -0.000005 0.330147
263.941254 -521.361450 -0.000003 0.338848
265.213379 -521.266296 -0.000006 0.334804
251.622894 -522.130859 7.411047 0.122059
251.622894 -522.130859 6.665609 0.031495
251.622894 -522.130859 5.930638 0.030637
251.622894 -522.130859 5.204370 0.244975
251.622925 -522.130859 4.485122 0.358211
251.622925 -522.130859 3.771272 0.225000
251.622925 -522.130859 3.061244 0.065441
251.622894 -522.130859 2.353496 0.074877
251.622894 -522.130859 1.646505 0.082966
251.622925 -522.130859 0.938756 0.064951
251.622925 -522.130859 0.228728 0.050245
255.834259 -521.845642 0.000462 0.219146
259.723511 -521.582214 -0.000008 0.338358
262.209076 -521.413940 -0.000005 0.339338
263.936676 -521.296936 -0.000003 0.337623
265.209442 -521.210693 -0.000006 0.336152
251.532547 -521.985229 7.431300 0.116299
251.532547 -521.985229 6.683072 0.035784
251.532547 -521.985229 5.945347 0.019118
251.532547 -521.985229 5.216364 0.272304
251.532547 -521.985229 4.494423 0.365196
251.532547 -521.985229 3.777902 0.240319
251.532547 -521.985229 3.065216 0.080515
251.532547 -521.985229 2.354818 0.051838
251.532547 -521.985229 1.645182 0.089216
251.532547 -521.985229 0.934785 0.073162
251.532547 -521.985229 0.222099 0.066912
255.826431 -521.724548 0.000458 0.224433
259.717468 -521.488342 -0.000008 0.338113
262.204193 -521.337341 -0.000005 0.334436
263.932526 -521.232422 -0.000003 0.336275
265.205872 -521.155090 -0.000006 0.328309
251.441498 -521.838501 7.451970 0.071569
251.441498 -521.838501 6.700894 0.015809
251.441498 -521.838501 5.960363 0.002451
251.441498 -521.838501 5.228604 0.224510
251.441498 -521.838501 4.503917 0.380147
251.441498 -521.838501 3.784667 0.252941
251.441498 -521.838501 3.069269 0.066544
251.441498 -521.838501 2.356168 0.081863
251.441498 -521.838501 1.643831 0.087010
251.441498 -521.838501 0.930730 0.065931
251.441498 -521.838501 0.215332 0.092770
255.820969 -521.603333 0.000628 0.225010
259.712128 -521.394348 -0.000007 0.330637
262.199799 -521.260742 -0.000005 0.333578
263.928833 -521.167908 -0.000003 0.335907
265.202667 -521.099426 -0.000006 0.332966
251.349747 -521.690735 7.473065 0.099020
251.349731 -521.690735 6.719084 0.020956
251.349747 -521.690674 5.975688 0.033333
251.349747 -521.690674 5.241097 0.193873
251.349747 -521.690735 4.513606 0.369608
251.349747 -521.690735 3.791574 0.241299
251.349747 -521.690735 3.073406 0.098284
251.349747 -521.690674 2.357547 0.099020
251.349747 -521.690674 1.642453 0.071324
251.349747 -521.690735 0.926593 0.087745
251.349747 -521.690674 0.208426 0.087132
255.814743 -521.482178 0.000612 0.235486
259.707397 -521.300354 -0.000008 0.337132
262.195923 -521.184082 -0.000005 0.336642
263.925598 -521.103333 -0.000003 0.338480
265.199890 -521.043762 -0.000006 0.333333
251.257294 -521.541687 7.494596 0.096324
251.257294 -521.541687 6.737648 0.012745
251.257278 -521.541687 5.991328 0.027328
251.257294 -521.541687 5.253847 0.160662
251.257294 -521.541687 4.523494 0.350245
251.257294 -521.541687 3.798621 0.235907
251.257294 -521.541687 3.077629 0.090809
251.257294 -521.541687 2.358953 0.076838
251.257294 -521.541687 1.641047 0.071324
251.257294 -521.541687 0.922371 0.088603
251.257294 -521.541687 0.201379 0.092279
255.809174 -521.360962 0.000574 0.222318
259.703339 -521.206299 -0.000007 0.340074
262.192627 -521.107422 -0.000005 0.325613
263.922791 -521.038696 -0.000003 0.342524
265.197479 -520.988098 -0.000006 0.331373
251.164093 -521.391541 7.516565 0.068873
251.164093 -521.391541 6.756590 0.035294
251.164093 -521.391541 6.007286 0.003554
251.164093 -521.391541 5.266858 0.197794
251.164093 -521.391541 4.533584 0.355270
251.164093 -521.391541 3.805812 0.250613
251.164093 -521.391541 3.081938 0.087010
251.164093 -521.391541 2.360389 0.066299
251.164093 -521.391541 1.639611 0.088113
251.164093 -521.391541 0.918062 0.098529
251.164093 -521.391541 0.194187 0.067647
255.804626 -521.239685 0.000556 0.215782
259.699890 -521.112244 -0.000008 0.338113
262.189850 -521.030701 -0.000005 0.334069
263.920441 -520.974121 -0.000003 0.336275
265.195465 -520.932434 -0.000006 0.334436
251.070129 -521.240112 7.538980 0.084314
251.070129 -521.240112 6.775917 0.034559
251.070129 -521.240112 6.023570 0.007108
251.070129 -521.240112 5.280131 0.188358
251.070129 -521.240112 4.543879 0.365074
251.070129 -521.240112 3.813150 0.250368
251.070129 -521.240112 3.086334 0.086397
251.070129 -521.240112 2.361853 0.058211
251.070129 -521.240112 1.638147 0.063603
251.070129 -521.240112 0.913665 0.076348
251.070129 -521.240112 0.186850 0.074387
255.800690 -521.118408 0.000509 0.252883
259.697174 -521.018127 -0.000008 0.337745
262.187622 -520.954041 -0.000005 0.339461
263.918549 -520.909485 -0.000003 0.331250
265.193848 -520.876648 -0.000005 0.341544
250.975403 -521.087524 7.561853 0.155760
250.975403 -521.087524 6.795639 0.008701
250.975403 -521.087524 6.040184 0.055392
250.975403 -521.087524 5.293676 0.210539
250.975403 -521.087524 4.554383 0.360907
250.975403 -521.087524 3.820637 0.269975
250.975403 -521.087524 3.090820 0.079044
250.975403 -521.087524 2.363347 0.045833
250.975403 -521.087524 1.636653 0.022672
250.975403 -521.087524 0.909179 0.061029
250.975403 -521.087524 0.179362 0.088235
255.798004 -520.997131 0.000512 0.224721
259.695068 -520.924072 -0.000007 0.338235
262.185913 -520.877319 -0.000005 0.334069
263.917145 -520.844849 -0.000003 0.339828
265.192596 -520.820923 -0.000006 0.332966
250.879883 -520.933655 7.585186 0.165686
250.879883 -520.933655 6.815760 0.018015
250.879883 -520.933655 6.057134 0.043505
250.879883 -520.933655 5.307494 0.205270
250.879883 -520.933655 4.565100 0.361765
250.879883 -520.933655 3.828276 0.240564
250.879883 -520.933655 3.095397 0.066544
250.879883 -520.933655 2.364872 0.063480
250.879883 -520.933655 1.635128 0.057721
250.879883 -520.933655 0.904603 0.065196
250.879883 -520.933655 0.171724 0.078554
255.795715 -520.875793 0.000462 0.229623
259.693665 -520.829895 -0.000007 0.334681
262.184753 -520.800598 -0.000005 0.340074
263.916138 -520.780212 -0.000003 0.331373
265.191742 -520.765198 -0.000006 0.323775
250.783569 -520.778442 7.608992 0.163235
250.783569 -520.778442 6.836285 0.025000
250.783569 -520.778442 6.074427 0.046201
250.783569 -520.778442 5.321592 0.201593
250.783569 -520.778442 4.576033 0.385417
250.783569 -520.778442 3.836067 0.244118
250.783569 -520.778442 3.100066 0.057843
250.783569 -520.778442 2.366426 0.044730
250.783569 -520.778442 1.633573 0.066544
250.783569 -520.778442 0.899934 0.072672
250.783569 -520.778442 0.163932 0.058824
255.794617 -520.754395 0.000450 0.232122
259.692841 -520.735779 -0.000007 0.334559
262.184113 -520.723877 -0.000004 0.331127
263.915619 -520.715576 -0.000003 0.330515
265.191284 -520.709473 -0.000006 0.326225
250.686401 -520.621887 7.633278 0.153799
250.686417 -520.621887 6.857224 0.040319
250.686417 -520.621887 6.092068 0.030637
250.686417 -520.621887 5.335974 0.201103
250.686417 -520.621887 4.587187 0.368137
250.686401 -520.621887 3.844018 0.253431
250.686401 -520.621887 3.104828 0.068873
250.686417 -520.621887 2.368013 0.070221
250.686417 -520.621887 1.631987 0.065441
250.686417 -520.621887 0.895171 0.069118
250.686417 -520.621887 0.155982 0.029779
255.794479 -520.633118 0.000452 0.238178
259.692749 -520.641663 -0.000007 0.335049
262.183990 -520.647095 -0.000006 0.336152
263.915497 -520.650940 -0.000003 0.336275
265.191193 -520.653687 -0.000006 0.337255
250.588409 -520.463989 7.658052 0.180882
250.588379 -520.463928 6.878587 0.059559
250.588409 -520.463989 6.110064 0.023775
250.588409 -520.463989 5.350645 0.193505
250.588409 -520.463989 4.598564 0.367892
250.588409 -520.463989 3.852127 0.249020
250.588409 -520.463989 3.109687 0.107353
250.588409 -520.463989 2.369632 0.045343
250.588409 -520.463989 1.630368 0.076716
250.588409 -520.463989 0.890312 0.075858
250.588409 -520.463989 0.147872 0.045956
255.795044 -520.511780 0.000436 0.221357
259.693268 -520.547546 -0.000007 0.336520
262.184418 -520.570374 -0.000006 0.335907
263.915894 -520.586243 -0.000003 0.332721
265.191528 -520.597961 -0.000006 0.346446
250.489517 -520.304688 7.683323 0.232353
250.489517 -520.304688 6.900375 0.078064
250.489517 -520.304688 6.128421 0.022794
250.489532 -520.304688 5.365609 0.176838
250.489517 -520.304688 4.610170 0.350368
250.489517 -520.304688 3.860399 0.270466
250.489517 -520.304688 3.114644 0.073775
250.489532 -520.304688 2.371282 0.041912
250.489532 -520.304688 1.628717 0.068627
250.489517 -520.304688 0.885356 0.062990
250.489532 -520.304688 0.139600 0.064461
255.796555 -520.390442 0.000435 0.213476
259.694458 -520.453430 -0.000008 0.340196
262.185394 -520.493652 -0.000006 0.331618
263.916718 -520.521606 -0.000003 0.335662
265.192230 -520.542236 -0.000006 0.322917
250.389755 -520.143921 7.709099 0.244730
250.389755 -520.143921 6.922602 0.046078
250.389755 -520.143921 6.147146 0.052696
250.389755 -520.143921 5.380875 0.167157
250.389755 -520.143921 4.622009 0.399387
250.389755 -520.143921 3.868838 0.301838
250.389755 -520.143921 3.119699 0.031495
250.389755 -520.143921 2.372966 0.070221
250.389755 -520.143921 1.627034 0.071814
250.389755 -520.143921 0.880301 0.073284
250.389755 -520.143921 0.131162 0.061397
255.800461 -520.269165 0.000610 0.220012
259.763733 -520.360840 0.009996 1.000000
262.186890 -520.416992 -0.000006 0.331005
263.917999 -520.457031 -0.000003 0.328431
265.193329 -520.486511 -0.000006 0.331373
250.289078 -519.981689 7.735393 0.243750
250.289078 -519.981689 6.945271 0.045221
250.289078 -519.981689 6.166245 0.022794
250.289078 -519.981689 5.396444 0.179167
250.289078 -519.981689 4.634085 0.386152
250.289078 -519.981689 3.877444 0.315931
250.289078 -519.981689 3.124856 0.024142
250.289078 -519.981689 2.374684 0.059804
250.289078 -519.981689 1.625316 0.070098
250.289078 -519.981689 0.875144 0.082475
250.289078 -519.981689 0.122555 0.052328
255.803528 -520.147827 0.000590 0.231449
259.766205 -520.267212 0.009995 1.000000
262.188965 -520.340271 -0.000007 0.335172
263.919678 -520.392395 -0.000003 0.325735
265.194794 -520.430786 -0.000005 0.331373
250.187454 -519.817932 7.762209 0.251471
250.187454 -519.817932 6.968396 0.059069
250.187454 -519.817932 6.185725 0.022181
250.187454 -519.817932 5.412326 0.158088
250.187454 -519.817932 4.646400 0.368505
250.187454 -519.817932 3.886223 0.288603
250.187454 -519.817932 3.130115 0.035294
250.187454 -519.817932 2.376436 0.054534
250.187454 -519.817932 1.623564 0.064951
250.187454 -519.817932 0.869884 0.074020
250.187454 -519.817932 0.113777 0.046814
255.807602 -520.026550 0.000590 0.230681
259.769379 -520.173645 0.009994 1.000000
262.191528 -520.263550 -0.000007 0.331985
263.921875 -520.327759 -0.000003 0.336887
265.196686 -520.375122 -0.000006 0.336887
250.084869 -519.652649 7.789564 0.275613
250.084869 -519.652649 6.991980 0.067034
250.084869 -519.652649 6.205595 0.043137
250.084869 -519.652649 5.428524 0.123775
250.084869 -519.652649 4.658963 0.380637
250.084869 -519.652649 3.895177 0.299142
250.084869 -519.652649 3.135480 0.050858
250.084869 -519.652649 2.378223 0.049755
250.084869 -519.652649 1.621777 0.050735
250.084869 -519.652649 0.864519 0.071201
250.084869 -519.652649 0.104822 0.066912
255.812424 -519.905273 0.000579 0.231738
259.705811 -520.077087 -0.000007 0.329779
262.194641 -520.186890 -0.000006 0.339461
263.924500 -520.263184 -0.000003 0.338113
265.198944 -520.319397 -0.000005 0.336765
249.981308 -519.485779 7.817464 0.344363
249.981308 -519.485779 7.016037 0.057843
249.981308 -519.485779 6.225862 0.030637
249.981308 -519.485779 5.445046 0.156005
249.981308 -519.485779 4.671776 0.368995
249.981308 -519.485779 3.904310 0.304167
249.981308 -519.485779 3.140952 0.046446
249.981308 -519.485779 2.380045 0.026225
249.981308 -519.485779 1.619954 0.062500
249.981308 -519.485779 0.859048 0.066054
249.981308 -519.485779 0.095689 0.078676
255.813095 -519.783875 -0.000008 0.333701
259.710266 -519.983093 -0.000007 0.333578
262.198273 -520.110229 -0.000007 0.331373
263.927582 -520.198608 -0.000003 0.341789
265.201599 -520.263672 -0.000006 0.326348
249.876740 -519.317322 7.845920 0.302941
249.876740 -519.317322 7.040573 0.027574
249.876740 -519.317383 6.246532 0.014216
249.876740 -519.317322 5.461898 0.157721
249.876740 -519.317322 4.684846 0.358824
249.876740 -519.317383 3.913625 0.316789
249.876740 -519.317383 3.146533 0.057230
249.876740 -519.317322 2.381905 0.022304
249.876740 -519.317322 1.618095 0.048652
249.876740 -519.317383 0.853467 0.068505
249.876740 -519.317322 0.086375 0.079657
255.906540 -519.667725 0.009996 1.000000
259.715393 -519.889038 -0.000007 0.330270
262.202484 -520.033569 -0.000007 0.329779
263.931091 -520.134033 -0.000003 0.329779
265.204651 -520.208069 -0.000006 0.340931
249.771149 -519.147156 7.874942 0.347304
249.771149 -519.147156 7.065598 0.014583
249.771149 -519.147156 6.267616 0.033701
249.771149 -519.147156 5.479085 0.131495
249.771149 -519.147156 4.698175 0.350858
249.771149 -519.147156 3.923125 0.313235
249.771149 -519.147156 3.152225 0.051225
249.771149 -519.147156 2.383801 0.004289
249.771149 -519.147156 1.616199 0.030882
249.771149 -519.147156 0.847775 0.045711
248.835571 -519.086243 -0.000003 0.228085
255.913940 -519.547180 0.009992 1.000000
259.721222 -519.795105 -0.000007 0.336029
262.207184 -519.957031 -0.000007 0.333456
263.935059 -520.069519 -0.000003 0.341422
265.208069 -520.152405 -0.000005 0.332966
249.416336 -518.957458 7.966867 0.478431
249.416336 -518.957458 7.144858 0.138848
249.416336 -518.957458 6.334392 0.005270
249.416321 -518.957458 5.533522 0.051961
249.416336 -518.957458 4.740395 0.265441
249.416336 -518.957458 3.953216 0.377819
249.416321 -518.957458 3.170254 0.128064
225.374680 -517.223206 2.784243 0.263971
225.374680 -517.223206 1.215756 0.267402
232.570007 -517.742188 -0.000011 0.225106
248.847122 -518.916321 -0.000010 0.229335
255.922211 -519.426697 0.009992 1.000000
259.727631 -519.701233 -0.000007 0.326716
262.212463 -519.880432 -0.000007 0.323897
263.939484 -520.005005 -0.000003 0.334681
265.211884 -520.096802 -0.000005 0.330637
249.657425 -518.809692 7.909439 0.220711
249.657425 -518.809692 7.095342 0.011520
249.657425 -518.809692 6.292674 0.005637
249.657425 -518.809692 5.499513 0.199265
249.657425 -518.809692 4.714018 0.357353
249.657425 -518.809692 3.934417 0.202083
249.657425 -518.809692 3.158990 0.029412
225.156006 -516.870239 2.788248 0.174265
225.156006 -516.870239 1.211752 0.173284
232.591400 -517.458801 -0.000013 0.227989
248.859909 -518.746582 -0.000014 0.224433
255.931290 -519.306274 0.009992 1.000000
259.734741 -519.607361 -0.000008 0.332475
262.218262 -519.803955 -0.000007 0.338725
263.944366 -519.940552 -0.000003 0.335784
265.216064 -520.041199 -0.000006 0.330147
249.893921 -518.664734 7.853388 0.043873
249.893921 -518.664734 7.047012 0.032721
249.893921 -518.664734 6.251959 0.133701
249.893921 -518.664734 5.466321 0.371446
249.893921 -518.664734 4.688276 0.322794
249.893921 -518.664734 3.916070 0.015564
249.893921 -518.664734 3.147998 0.027574
224.935074 -516.513733 2.792331 0.180392
224.935074 -516.513733 1.207669 0.154779
232.614685 -517.175537 -0.000019 0.230969
248.873779 -518.576843 -0.000029 0.225490
255.854691 -519.178467 -0.000003 0.336520
259.742523 -519.513550 -0.000007 0.340319
262.224548 -519.727478 -0.000007 0.337623
263.949677 -519.876160 -0.000003 0.329289
265.220673 -519.985718 -0.000006 0.331005
249.934387 -518.504639 7.846876 0.022059
249.934387 -518.504639 7.041398 0.019975
249.934387 -518.504639 6.247227 0.244608
249.934387 -518.504639 5.462464 0.377941
249.934387 -518.504639 4.685286 0.166054
249.934387 -518.504639 3.913938 0.013725
249.934387 -518.504639 3.146720 0.021201
224.711838 -516.153381 2.796496 0.185539
224.711838 -516.153381 1.203503 0.152083
232.639847 -516.892456 -0.000031 0.230008
248.888977 -518.407227 -0.000030 0.230296
255.865494 -519.057556 -0.000006 0.334559
259.750916 -519.419800 -0.000007 0.327941
262.231415 -519.651062 -0.000007 0.340196
263.955475 -519.811768 -0.000003 0.328309
265.225677 -519.930115 -0.000006 0.350123
249.827469 -518.330200 7.877738 0.031985
249.827499 -518.330200 7.068007 0.051838
249.827469 -518.330200 6.269646 0.184069
249.827499 -518.330200 5.480740 0.384559
249.827469 -518.330200 4.699459 0.172549
249.827499 -518.330200 3.924040 0.029779
249.827499 -518.330200 3.152773 0.024265
224.486221 -515.789246 2.800745 0.169730
224.486221 -515.789246 1.199255 0.145221
232.667191 -516.609558 -0.000032 0.225875
248.905380 -518.237671 -0.000029 0.227316
255.877182 -518.936829 -0.000006 0.335662
259.759979 -519.326111 -0.000008 0.335539
262.238800 -519.574646 -0.000008 0.333578
263.961700 -519.747375 -0.000003 0.335907
265.231018 -519.874634 -0.000006 0.334436
249.719452 -518.153809 7.909214 0.037623
249.719482 -518.153809 7.095147 0.049755
249.719452 -518.153809 6.292511 0.236397
249.719482 -518.153809 5.499379 0.398284
249.719437 -518.153809 4.713915 0.183211
249.719482 -518.153809 3.934343 0.022426
249.719452 -518.153809 3.158947 0.028554
224.258179 -515.421204 2.805078 0.508211
224.258179 -515.421204 1.194922 0.147426
232.696854 -516.326843 -0.000016 0.228278
248.923004 -518.068359 -0.000024 0.224145
255.889740 -518.816040 -0.000004 0.330637
259.769684 -519.232483 -0.000008 0.334314
262.246704 -519.498291 -0.000008 0.334681
263.968353 -519.683044 -0.000003 0.338725
265.236786 -519.819214 -0.000006 0.332230
249.610260 -517.975586 7.941324 0.028922
249.610260 -517.975586 7.122832 0.045711
249.610260 -517.975586 6.315835 0.208946
249.610260 -517.975586 5.518394 0.397304
249.610260 -517.975586 4.728662 0.214461
249.610260 -517.975586 3.944854 0.031618
249.610260 -517.975586 3.165244 0.035172
224.027649 -515.049133 2.809498 0.417647
224.027649 -515.049133 1.190501 0.140686
232.728149 -516.044373 -0.000017 0.222607
248.941742 -517.899109 -0.000026 0.221261
255.903137 -518.695374 -0.000002 0.334681
259.780060 -519.138916 -0.000007 0.334681
262.255188 -519.422058 -0.000007 0.334804
263.975494 -519.618835 -0.000003 0.323407
265.242920 -519.763855 -0.000006 0.331740
249.499847 -517.795349 7.974073 0.020588
249.499847 -517.795349 7.151072 0.047794
249.499847 -517.795349 6.339624 0.201838
249.499863 -517.795349 5.537788 0.414216
249.499847 -517.795349 4.743702 0.189338
249.499847 -517.795349 3.955575 0.059436
249.499847 -517.795349 3.171667 0.047549
223.794556 -514.672913 2.814007 0.216299
223.794556 -514.672913 1.185992 0.138971
232.761429 -515.762085 -0.000018 0.224337
248.961685 -517.729980 -0.000026 0.222991
255.917313 -518.574829 -0.000007 0.333578
259.791077 -519.045471 -0.000008 0.333824
262.264160 -519.345825 -0.000008 0.338480
263.983063 -519.554626 -0.000003 0.331740
265.249451 -519.708435 -0.000005 0.341544
249.388199 -517.613098 8.007484 0.016912
249.388199 -517.613098 7.179879 0.037623
249.388199 -517.613098 6.363894 0.215441
249.388199 -517.613098 5.557574 0.401471
249.388229 -517.613098 4.759048 0.234191
249.388199 -517.613098 3.966511 0.063603
249.388229 -517.613098 3.178219 0.037745
223.558838 -514.292480 2.818607 0.138971
223.558838 -514.292480 1.181392 0.137623
232.796448 -515.480042 -0.000030 0.225010
248.982880 -517.560974 -0.000021 0.215975
255.932358 -518.454407 -0.000007 0.336275
259.802765 -518.952026 -0.000008 0.334191
262.273682 -519.269653 -0.000008 0.332353
263.991089 -519.490479 -0.000003 0.336275
265.256378 -519.653198 -0.000005 0.327941
249.275330 -517.428833 8.041563 0.008824
249.275330 -517.428833 7.209265 0.024265
249.275330 -517.428833 6.388651 0.200490
249.275330 -517.428833 5.577756 0.382843
249.275330 -517.428833 4.774699 0.235784
249.275330 -517.428833 3.977668 0.071691
249.275330 -517.428833 3.184904 0.049020
223.320435 -513.907654 2.823301 0.269608
223.320435 -513.907654 1.176699 0.146936
232.833664 -515.198303 -0.000031 0.230200
249.005203 -517.392212 -0.000019 0.246059
255.948257 -518.334106 -0.000007 0.333088
259.815094 -518.858704 -0.000007 0.333578
262.283752 -519.193604 -0.000008 0.331373
263.999542 -519.426392 -0.000003 0.328431
265.263672 -519.597900 -0.000004 0.346201
249.161133 -517.242432 8.076333 0.027451
249.161133 -517.242432 7.239243 0.013113
249.161133 -517.242432 6.413906 0.184069
249.161133 -517.242432 5.598346 0.354534
249.161133 -517.242432 4.790667 0.248652
249.161133 -517.242432 3.989048 0.055882
249.161133 -517.242432 3.191722 0.033333
223.079269 -513.518494 2.828087 0.525613
223.079269 -513.518494 1.171913 0.163358
232.872818 -514.916809 -0.000032 0.226932
249.028778 -517.223572 -0.000011 0.212130
255.964996 -518.213928 -0.000007 0.332843
259.828064 -518.765442 -0.000007 0.330760
262.294312 -519.117615 -0.000008 0.335539
264.008484 -519.362366 -0.000003 0.334559
265.271362 -519.542725 -0.000004 0.334314
249.045624 -517.053833 8.111801 0.035662
249.045609 -517.053833 7.269827 0.000123
249.045624 -517.053833 6.439671 0.175858
249.045624 -517.053833 5.619350 0.371078
249.045624 -517.053833 4.806956 0.280760
249.045624 -517.053833 4.000660 0.067770
249.045624 -517.053833 3.198680 0.019118
222.835266 -513.124634 2.832972 0.258333
222.835266 -513.124634 1.167029 0.162377
232.914078 -514.635559 -0.000027 0.225779
249.053528 -517.055115 -0.000004 0.210208
255.982574 -518.093811 -0.000006 0.335907
259.841705 -518.672363 -0.000007 0.330882
262.305450 -519.041687 -0.000008 0.341789
264.017822 -519.298401 -0.000003 0.327819
265.279419 -519.487549 -0.000003 0.319730
248.928741 -516.863159 8.147987 0.029289
248.928741 -516.863159 7.301028 0.038971
248.928741 -516.863098 6.465958 0.154289
248.928741 -516.863159 5.640780 0.385172
248.928741 -516.863159 4.823575 0.231618
248.928741 -516.863159 4.012505 0.038725
248.928741 -516.863159 3.205776 0.023039
222.588364 -512.726135 2.837954 0.232230
222.588364 -512.726135 1.162046 0.124877
232.957672 -514.354736 -0.000002 0.228950
249.079285 -516.886719 -0.000010 0.230681
256.000977 -517.973877 -0.000006 0.336152
259.855988 -518.579285 -0.000007 0.329534
262.317078 -518.965881 -0.000008 0.332966
264.027649 -519.234497 -0.000003 0.348284
265.287903 -519.432434 -0.000003 0.325735
248.810455 -516.670044 8.184912 0.027451
248.810455 -516.670044 7.332866 0.041422
248.810471 -516.670044 6.492778 0.110172
248.810455 -516.670044 5.662646 0.360294
248.810455 -516.670044 4.840534 0.257230
248.810455 -516.670044 4.024591 0.055637
248.810455 -516.670044 3.213018 0.040074
222.338470 -512.322815 2.843039 0.149632
222.338470 -512.322815 1.156962 0.148529
233.002457 -514.074097 -0.000017 0.223183
249.106171 -516.718628 -0.000020 0.223760
256.020233 -517.854004 -0.000007 0.332353
259.870911 -518.486389 -0.000007 0.330270
262.329254 -518.890076 -0.000007 0.331373
264.037903 -519.170654 -0.000003 0.338480
265.296722 -519.377380 -0.000004 0.336275
248.690750 -516.474670 8.222586 0.075000
248.690750 -516.474670 7.365347 0.013358
248.690750 -516.474670 6.520145 0.153064
248.690750 -516.474670 5.684954 0.349510
248.690750 -516.474670 4.857836 0.252819
248.690750 -516.474670 4.036923 0.010662
248.690750 -516.474670 3.220407 0.048652
222.085510 -511.914581 2.848226 0.160662
222.085510 -511.914581 1.151774 0.156127
233.049500 -513.793762 -0.000017 0.225490
249.134399 -516.550659 -0.000016 0.225971
256.040314 -517.734314 -0.000006 0.338603
259.886505 -518.393494 -0.000007 0.328922
262.341949 -518.814392 -0.000008 0.335417
264.048615 -519.106873 -0.000003 0.332843
265.305939 -519.322388 -0.000004 0.321324
248.569550 -516.276855 8.261026 0.107966
248.569550 -516.276855 7.398494 0.028186
248.569550 -516.276855 6.548070 0.103309
248.569580 -516.276855 5.707719 0.355637
248.569550 -516.276855 4.875491 0.315809
248.569550 -516.276855 4.049508 0.031863
248.569550 -516.276855 3.227946 0.045466
221.829407 -511.501251 2.853519 0.213971
221.829407 -511.501251 1.146480 0.149265
233.098587 -513.513794 -0.000013 0.227509
249.163666 -516.382874 -0.000024 0.234910
256.061218 -517.614746 -0.000007 0.335294
259.902710 -518.300781 -0.000007 0.337010
262.355164 -518.738770 -0.000007 0.333701
264.059753 -519.043213 -0.000002 0.329902
265.315582 -519.267517 -0.000005 0.330025
248.446869 -516.076477 8.300255 0.079534
248.446869 -516.076477 7.432317 0.009559
248.446869 -516.076477 6.576566 0.131740
248.446869 -516.076477 5.730950 0.357721
248.446869 -516.076477 4.893508 0.300490
248.446869 -516.076477 4.062348 0.040441
248.446869 -516.076477 3.235640 0.021324
221.570084 -511.082703 2.858923 0.191422
221.570084 -511.082642 1.141077 0.170098
233.149429 -513.234131 -0.000017 0.226740
249.194244 -516.215393 -0.000019 0.213476
256.082977 -517.495300 -0.000007 0.333456
259.919586 -518.208191 -0.000008 0.337623
262.368896 -518.663330 -0.000007 0.324020
264.116852 -518.988098 0.009995 1.000000
265.364807 -519.219971 0.009994 1.000000
248.322632 -515.873718 8.340290 0.083701
248.322617 -515.873718 7.466838 0.018015
248.322632 -515.873718 6.605648 0.083701
248.322617 -515.873718 5.754660 0.353064
248.322632 -515.873718 4.911895 0.318137
248.322617 -515.873718 4.075453 0.027328
248.322632 -515.873718 3.243491 0.054902
221.307449 -510.658752 2.864437 0.213113
221.307449 -510.658752 1.135564 0.203922
233.202408 -512.954956 -0.000014 0.229431
249.225998 -516.048096 -0.000014 0.224433
256.105591 -517.376099 -0.000006 0.329902
259.937134 -518.115784 -0.000007 0.330270
262.383209 -518.587952 -0.000007 0.337868
264.128815 -518.924866 0.009994 1.000000
265.375092 -519.165466 0.009995 1.000000
280.771149 -522.192566 3.940360 0.368627
300.681305 -526.180298 8.058636 0.585417
300.683197 -526.180725 7.104570 0.629289
300.685059 -526.181091 6.161678 0.629044
300.686890 -526.181458 5.227771 0.668627
300.688690 -526.181824 4.300745 0.591544
300.690521 -526.182190 3.378564 0.587990
300.692352 -526.182556 2.459224 0.588971
300.694153 -526.182922 1.540746 0.725245
300.695984 -526.183289 0.621162 0.604167
297.095123 -525.462097 -0.000237 0.223952
290.222290 -524.085510 -0.000006 0.334069
286.397491 -523.319458 -0.000228 0.222895
283.954834 -522.830200 -0.000292 0.236448
282.256500 -522.490051 -0.000226 0.199346
281.005707 -522.239502 -0.000276 0.246155
280.071716 -522.102600 3.764187 0.383946
300.744751 -526.393494 8.081255 0.497059
300.746643 -526.393860 7.123631 0.553922
300.748505 -526.394287 6.177217 0.628554
300.750336 -526.394653 5.239822 0.517279
300.752167 -526.395020 4.309336 0.528064
300.753998 -526.395386 3.383713 0.631985
300.755798 -526.395813 2.460939 0.620588
300.757660 -526.396179 1.539031 0.514461
300.759460 -526.396545 0.616012 0.612500
297.061462 -525.629028 -0.000269 0.233948
290.198059 -524.204468 -0.000006 0.336152
286.378876 -523.411743 -0.000253 0.242118
283.939575 -522.905396 -0.000305 0.215302
282.243652 -522.553406 -0.000242 0.221549
280.994629 -522.294128 -0.000293 0.185794
300.806702 -526.607849 9.079157 0.588726
280.739227 -522.296326 3.670852 0.393015
300.810547 -526.608704 7.143083 0.706618
300.812408 -526.609131 6.193076 0.570956
300.814270 -526.609497 5.252124 0.354902
300.816071 -526.609924 4.318107 0.286520
300.817932 -526.610291 3.388967 0.588971
300.819763 -526.610657 2.462689 0.601593
300.821594 -526.611084 1.537280 0.233456
300.823456 -526.611450 0.610755 0.590809
297.025085 -525.795349 -0.000167 0.217416
290.172974 -524.323181 -0.000006 0.332843
286.358673 -523.503662 -0.000141 0.205017
283.923187 -522.980408 -0.000202 0.198770
282.229767 -522.616577 -0.000126 0.248078
280.982697 -522.348633 -0.000187 0.228470
280.345886 -522.264282 3.839841 0.331985
280.719788 -522.347351 3.669101 0.469363
300.874908 -526.825134 7.162935 0.627941
300.876801 -526.825562 6.209262 0.562255
300.878662 -526.825928 5.264678 0.364583
300.880524 -526.826355 4.327056 0.346201
300.882355 -526.826782 3.394330 0.557721
300.884216 -526.827209 2.464476 0.558088
300.886047 -526.827637 1.535494 0.216544
300.887909 -526.828064 0.605390 0.565319
296.988983 -525.961792 -0.000188 0.223760
290.147064 -524.441711 -0.000005 0.336397
286.338745 -523.595642 -0.000167 0.242022
283.906860 -523.055359 -0.000221 0.235486
282.216034 -522.679749 -0.000141 0.188197
280.970856 -522.403076 -0.000205 0.202038
280.720917 -522.402893 3.939120 0.433456
280.705811 -522.399475 3.668638 0.356127
282.712982 -522.860168 3.780491 0.343382
300.941681 -527.043701 6.225780 0.593137
300.943573 -527.044189 5.277491 0.593995
300.945435 -527.044617 4.336190 0.504779
300.947296 -527.044983 3.399804 0.558701
300.949158 -527.045410 2.466300 0.551348
300.950989 -527.045837 1.533670 0.737255
300.952881 -527.046265 0.599915 0.563848
296.951630 -526.127930 -0.000203 0.227220
290.120331 -524.560181 -0.000005 0.331250
286.318115 -523.687500 -0.000183 0.248558
283.889984 -523.130249 -0.000221 0.208574
282.201813 -522.742798 -0.000142 0.217224
280.958618 -522.457520 -0.000216 0.216551
282.667969 -522.919678 4.443488 0.340931
301.003296 -527.262695 8.176495 0.706495
301.005188 -527.263123 7.203871 0.602206
301.007111 -527.263611 6.242639 0.558456
301.009033 -527.264038 5.290566 0.615441
301.010864 -527.264465 4.345510 0.562255
301.012756 -527.264954 3.405388 0.578554
301.014618 -527.265381 2.468160 0.580024
301.016479 -527.265808 1.531809 0.532353
301.018372 -527.266235 0.594328 0.526838
296.913147 -526.293884 -0.000221 0.223087
290.092743 -524.678345 -0.000006 0.334191
286.296814 -523.779236 -0.000197 0.212322
283.872650 -523.205017 -0.000239 0.214245
282.187256 -522.805786 -0.000168 0.229912
280.946045 -522.511841 -0.000235 0.190984
281.874146 -522.795898 4.242906 0.368260
280.681335 -522.504578 3.668728 0.349632
282.588562 -522.970337 3.763085 0.344363
301.073059 -527.485229 6.259843 0.525245
301.074951 -527.485718 5.303909 0.580392
301.076874 -527.486145 4.355021 0.611274
301.078735 -527.486633 3.411087 0.621446
301.080627 -527.487061 2.470058 0.645466
301.082489 -527.487549 1.529910 0.641176
301.084381 -527.487976 0.588626 0.583456
296.873474 -526.459473 -0.000232 0.225586
290.064362 -524.796326 -0.000005 0.333211
286.274841 -523.870789 -0.000201 0.225586
283.854828 -523.279663 -0.000260 0.264514
282.172119 -522.868652 -0.000172 0.294118
280.933014 -522.565979 -0.000235 0.194733
280.078949 -522.408508 3.783101 0.334069
280.681183 -522.560120 3.671580 0.339951
282.525848 -523.024353 3.754372 0.389216
301.139526 -527.708679 6.277390 0.550123
301.141449 -527.709167 5.317522 0.521936
301.143372 -527.709656 4.364727 0.645833
301.145264 -527.710144 3.416903 0.550858
301.147156 -527.710571 2.471996 0.591422
301.149048 -527.711060 1.527973 0.620956
301.150940 -527.711548 0.582809 0.605637
296.832794 -526.624878 -0.000259 0.232122
290.035156 -524.914124 -0.000006 0.333578
286.252350 -523.962158 -0.000223 0.222703
283.836395 -523.354187 -0.000269 0.238178
282.156708 -522.931458 -0.000202 0.211745
280.919617 -522.620117 -0.000240 0.273837
280.080475 -522.460327 3.786684 0.351471
280.673004 -522.613831 3.672743 0.458701
301.204620 -527.933533 7.268451 0.564706
301.206604 -527.934021 6.295294 0.549632
301.208527 -527.934570 5.331410 0.536642
301.210419 -527.935059 4.374624 0.645466
301.212341 -527.935547 3.422835 0.549142
301.214264 -527.936035 2.473972 0.545711
301.216156 -527.936523 1.525996 0.566422
301.218079 -527.937012 0.576875 0.490931
296.789154 -526.789490 -0.000131 0.218474
290.005127 -525.031738 -0.000006 0.332721
286.228271 -524.053162 -0.000107 0.203864
283.816803 -523.428345 -0.000153 0.232795
282.140747 -522.994080 -0.000210 0.224048
280.905365 -522.674072 -0.000128 0.185506
280.082031 -522.512268 3.790362 0.396201
280.482971 -522.619141 3.633334 0.427328
282.399597 -523.130066 3.736953 0.393137
301.274170 -528.161255 6.313560 0.571324
301.276123 -528.161804 5.345577 0.490319
301.278046 -528.162292 4.384724 0.533578
301.279968 -528.162781 3.428886 0.568260
301.281891 -528.163330 2.475987 0.565564
301.283783 -528.163818 1.523979 0.675123
301.285736 -528.164307 0.570820 0.504044
296.746002 -526.954224 -0.000144 0.248174
289.974274 -525.149170 -0.000005 0.333088
286.204376 -524.144226 -0.000111 0.218185
283.797302 -523.502563 -0.000159 0.232891
282.124298 -523.056641 -0.000210 0.221646
280.891205 -522.727966 -0.000124 0.177624
279.559174 -522.420654 3.657942 0.373162
282.605957 -523.255676 4.111852 0.366544
279.897919 -522.513550 3.268260 0.357475
301.342377 -528.390442 6.332195 0.480270
301.344330 -528.390930 5.360031 0.424142
301.346283 -528.391479 4.395030 0.527328
301.348236 -528.392029 3.435062 0.574020
301.350128 -528.392578 2.478044 0.559804
301.352081 -528.393127 1.521922 0.546936
301.354004 -528.393677 0.564643 0.507721
296.701599 -527.118591 -0.000145 0.239523
289.942627 -525.266296 -0.000005 0.333578
286.179810 -524.235107 -0.000114 0.210784
283.777252 -523.576660 -0.000156 0.235967
282.107422 -523.119080 -0.000207 0.237120
280.876648 -522.781738 -0.000125 0.275759
280.635071 -522.771606 3.941139 0.356005
280.617706 -522.766785 3.669831 0.359436
279.920593 -522.570496 3.275010 0.336642
280.086792 -522.617249 3.065034 0.374877
301.413116 -528.622192 5.374777 0.356618
301.415100 -528.622742 4.405540 0.289828
301.417023 -528.623291 3.441360 0.599877
301.418976 -528.623840 2.480142 0.548652
301.420929 -528.624390 1.519824 0.230270
301.422852 -528.624939 0.558343 0.578309
296.656128 -527.282715 -0.000157 0.226355
289.910126 -525.383240 -0.000005 0.332353
286.154694 -524.325806 -0.000120 0.218281
283.756744 -523.650574 -0.000160 0.210304
282.090149 -523.181335 -0.000216 0.207805
280.861786 -522.835449 -0.000137 0.200019
280.085754 -522.669128 3.801777 0.340319
301.476501 -528.853699 8.362740 0.355270
282.795776 -523.452698 3.822134 0.348897
280.111084 -522.676453 3.070909 0.386887
301.482513 -528.855469 5.389816 0.350000
301.484467 -528.856018 4.416260 0.239951
301.486450 -528.856567 3.447784 0.596446
301.488403 -528.857178 2.482283 0.610049
301.490356 -528.857727 1.517684 0.231740
301.492310 -528.858276 0.551915 0.579657
296.609528 -527.446533 -0.000167 0.232603
289.876831 -525.499939 -0.000005 0.333333
286.128815 -524.416321 -0.000118 0.247982
283.735657 -523.724426 -0.000158 0.199923
282.072418 -523.243530 -0.000217 0.192907
280.846497 -522.889099 -0.000140 0.219819
280.344086 -522.798157 3.872961 0.359436
282.080963 -523.313477 4.006233 0.347794
279.967499 -522.686462 3.289070 0.356250
281.749634 -523.215210 3.326627 0.350980
301.552521 -529.090820 5.405158 0.634559
301.554504 -529.091370 4.427195 0.584804
301.556458 -529.091980 3.454336 0.642402
301.558472 -529.092590 2.484467 0.553676
301.560425 -529.093140 1.515501 0.733088
301.562408 -529.093750 0.545360 0.604044
296.561432 -527.609924 -0.000150 0.236640
289.842712 -525.616455 -0.000005 0.332721
286.102386 -524.506653 -0.000118 0.209439
283.714111 -523.798035 -0.000159 0.238370
282.054169 -523.305542 -0.000199 0.259804
280.830750 -522.942566 -0.000122 0.228566
279.599640 -522.626160 3.681978 0.361887
282.285278 -523.443481 4.056575 0.335539
280.566772 -522.920532 3.405747 0.440441
301.621185 -529.327698 6.410550 0.543260
301.623199 -529.328308 5.420806 0.553922
301.625214 -529.328918 4.438352 0.561765
301.627197 -529.329529 3.461021 0.587377
301.629150 -529.330078 2.486693 0.511642
301.631165 -529.330750 1.513273 0.578922
301.633148 -529.331360 0.538672 0.523284
296.512543 -527.773010 -0.000157 0.226932
289.807770 -525.732666 -0.000005 0.331863
286.075287 -524.596863 -0.000116 0.205594
283.691986 -523.871521 -0.000151 0.266532
282.035583 -523.367493 -0.000203 0.250192
280.814697 -522.995972 -0.000118 0.257978
279.847534 -522.752625 3.750653 0.345833
282.224701 -523.494202 4.047302 0.398162
280.014618 -522.804749 3.303539 0.365196
301.692505 -529.567322 6.431127 0.648652
301.694519 -529.567993 5.436767 0.574265
301.696533 -529.568604 4.449731 0.458701
301.698547 -529.569275 3.467840 0.470098
301.700562 -529.569885 2.488965 0.513726
301.702515 -529.570496 1.511001 0.574632
301.704529 -529.571106 0.531852 0.585784
296.462433 -527.935791 -0.000162 0.227413
289.772034 -525.848694 -0.000005 0.334069
286.048370 -524.687073 -0.000245 0.235102
283.669403 -523.944885 -0.000155 0.196367
282.016541 -523.429260 -0.000203 0.232507
280.798767 -523.049316 -0.000246 0.240292
279.619507 -522.731018 3.694556 0.345833
279.871307 -522.811401 3.518199 0.381495
280.038696 -522.864929 3.311015 0.463725
280.212585 -522.920532 3.095859 0.371569
301.766510 -529.809998 5.453050 0.362868
301.768555 -529.810608 4.461336 0.406005
301.770569 -529.811279 3.474794 0.411642
301.772583 -529.811951 2.491282 0.450980
301.774567 -529.812561 1.508684 0.401103
301.776581 -529.813171 0.524895 0.493995
296.411041 -528.098145 -0.000151 0.229719
289.735474 -525.964417 -0.000005 0.335539
286.019989 -524.776794 -0.000240 0.229527
283.646210 -524.018066 -0.000139 0.220108
281.997009 -523.490906 -0.000184 0.238947
280.781860 -523.102478 -0.000215 0.244329
279.955719 -522.890747 3.786994 0.371446
280.129150 -522.947510 3.580229 0.359191
280.063019 -522.925842 3.318633 0.414951
301.837128 -530.053528 6.473525 0.667647
301.839203 -530.054260 5.469653 0.574265
301.841248 -530.054932 4.473173 0.600000
301.843262 -530.055542 3.481887 0.545343
301.845276 -530.056213 2.493644 0.573407
301.847290 -530.056885 1.506321 0.613971
301.849335 -530.057556 0.517799 0.639338
296.358673 -528.260254 -0.000157 0.219627
289.698120 -526.079895 -0.000005 0.338358
285.990967 -524.866394 -0.000231 0.213379
283.622650 -524.091064 -0.000153 0.207420
281.977081 -523.552429 -0.000186 0.207228
280.764771 -523.155579 -0.000232 0.208093
279.639954 -522.837463 3.707714 0.345221
280.087280 -522.987305 3.574352 0.447917
280.087524 -522.987427 3.326385 0.369730
301.910522 -530.300171 6.495358 0.533578
301.912567 -530.300903 5.486588 0.669853
301.914642 -530.301575 4.485246 0.555270
301.916687 -530.302246 3.489120 0.543137
301.918701 -530.302917 2.496054 0.673529
301.920746 -530.303650 1.503911 0.486152
301.922821 -530.304321 0.510561 0.534314
296.305054 -528.421814 -0.000148 0.236928
289.659943 -526.195129 -0.000004 0.333456
285.961304 -524.955688 -0.000222 0.203960
283.598450 -524.163879 -0.000134 0.256824
281.956726 -523.613770 -0.000175 0.240484
280.747162 -523.208435 -0.000218 0.204633
279.884003 -522.971436 3.776387 0.439828
280.060028 -523.031799 3.571858 0.455270
280.160431 -523.066223 3.343554 0.392525
280.290924 -523.110901 3.115768 0.375613
301.986694 -530.549988 5.503861 0.576471
301.988770 -530.550720 4.497560 0.307966
301.990784 -530.551392 3.496499 0.595833
301.992859 -530.552124 2.498513 0.666789
301.994934 -530.552795 1.501452 0.329779
301.996979 -530.553528 0.503179 0.528922
296.250366 -528.583130 -0.000150 0.222414
289.621002 -526.309998 -0.000004 0.333578
285.931091 -525.044861 -0.000223 0.205594
283.573822 -524.236572 -0.000138 0.194829
281.936005 -523.674988 -0.000180 0.228758
280.729309 -523.261292 -0.000217 0.233564
280.097107 -523.098633 3.837257 0.489828
279.963440 -523.051758 3.553560 0.355515
280.132324 -523.110962 3.341391 0.430882
280.318420 -523.176270 3.122798 0.496078
302.061523 -530.801575 5.521480 0.580270
302.063629 -530.802307 4.510119 0.235294
302.065674 -530.803040 3.504025 0.503554
302.067749 -530.803711 2.501019 0.577819
302.069855 -530.804504 1.498944 0.289338
302.071930 -530.805237 0.495650 0.487377
296.194519 -528.744019 -0.000143 0.222895
289.581238 -526.424683 -0.000005 0.336765
285.900116 -525.133789 -0.000201 0.200980
283.548615 -524.309082 -0.000129 0.237216
281.914734 -523.736023 -0.000162 0.268454
280.710938 -523.313904 -0.000200 0.212995
279.818207 -523.052979 3.767596 0.404779
302.130707 -531.053406 8.643545 0.514093
280.113953 -523.159058 3.341168 0.397304
281.167114 -523.536682 3.259317 0.354902
302.137146 -531.055664 5.539451 0.636152
302.139252 -531.056458 4.522930 0.486520
302.141357 -531.057190 3.511702 0.594608
302.143402 -531.057922 2.503577 0.656250
302.145508 -531.058716 1.496386 0.663848
302.147614 -531.059448 0.487971 0.483946
296.137482 -528.904480 -0.000134 0.233948
289.540649 -526.539063 -0.000005 0.333088
285.868591 -525.222473 -0.000197 0.232795
283.522919 -524.381409 -0.000117 0.227797
281.893036 -523.796997 -0.000142 0.282872
280.692291 -523.366455 -0.000186 0.285852
281.086334 -523.570190 4.110380 0.372426
280.011078 -523.176147 3.572317 0.351961
281.353210 -523.667969 3.584720 0.352941
280.362030 -523.304810 3.135321 0.434436
280.972778 -523.528564 2.955321 0.442892
302.215668 -531.313232 4.535995 0.559314
302.217773 -531.314026 3.519531 0.581005
302.219879 -531.314758 2.506185 0.595343
302.221985 -531.315552 1.493778 0.613235
302.224060 -531.316345 0.480139 0.542034
296.079224 -529.064453 -0.000112 0.218666
289.499298 -526.653259 -0.000004 0.332721
285.836426 -525.310913 -0.000179 0.200404
283.496674 -524.453491 -0.000099 0.227220
281.870911 -523.857727 -0.000126 0.279892
280.673218 -523.418823 -0.000168 0.208670
279.862549 -523.174805 3.788523 0.344976
280.035400 -523.239502 3.581994 0.419608
279.836365 -523.165039 3.294114 0.382843
280.321228 -523.346558 3.131795 0.441054
280.943970 -523.579712 2.954254 0.445343
302.292847 -531.572693 4.549319 0.540686
302.295013 -531.573486 3.527517 0.576838
302.297089 -531.574280 2.508845 0.659926
302.299225 -531.575073 1.491118 0.571691
302.301361 -531.575867 0.472150 0.621324
295.904572 -529.180908 0.010000 1.000000
289.457123 -526.767029 -0.000004 0.333578
285.803680 -525.399170 -0.000170 0.222799
283.469971 -524.525452 -0.000087 0.197424
281.848419 -523.918335 -0.000121 0.226259
280.653809 -523.471069 -0.000157 0.221357
279.885010 -523.236755 3.799272 0.333824
281.311340 -523.782166 3.881213 0.325980
279.709503 -523.169617 3.272822 0.349877
280.341644 -523.411438 3.138037 0.453799
302.368713 -531.834106 5.595541 0.584314
280.867676 -523.612488 2.675246 0.443137
302.373016 -531.835693 3.535660 0.604289
