# This PCD file was generated using the MATLABÂ® pcwrite function
# from Computer Vision ToolboxÂ®.
# .PCD v.7 - Point Cloud Data file format
VERSION .7
FIELDS x y z intensity
SIZE 4 4 4 4
TYPE F F F F
COUNT 1 1 1 1
WIDTH 1158
HEIGHT 1
VIEWPOINT 0 0 0 1 0 0 0
POINTS 1158
DATA ascii
211.849228 -295.555664 8.169384 0.611642
211.849228 -295.555664 5.696337 0.601593
211.849228 -295.555664 3.231232 0.623897
211.849228 -295.555664 0.768768 0.597304
236.737946 -319.489868 -0.000008 0.224529
248.500702 -330.801514 -0.000022 0.227316
253.550659 -335.657776 -0.000077 0.235775
256.363800 -338.363007 -0.000015 0.223472
258.159454 -340.089813 -0.000019 0.232987
259.407349 -341.289856 -0.000069 0.238370
260.327118 -342.174316 0.000001 0.335294
256.928589 -338.782349 5.202612 0.393995
257.203888 -339.050812 4.678360 0.396324
250.978973 -332.980377 5.838510 0.395833
nan nan nan 0.000000
251.772247 -333.753967 4.299411 0.399632
251.147888 -333.145142 3.710412 0.398897
212.252258 -295.215027 5.693757 0.571569
212.252243 -295.215027 3.230372 0.586275
212.252243 -295.215027 0.769627 0.581005
236.935760 -319.285767 -0.000002 0.228181
248.619232 -330.679230 -0.000018 0.230681
253.635132 -335.570618 -0.000071 0.220492
256.429291 -338.295380 -0.000012 0.213476
258.212830 -340.034698 -0.000015 0.235102
259.452393 -341.243439 -0.000056 0.253845
260.365875 -342.134277 -0.000001 0.340319
256.947632 -338.675598 5.217939 0.400245
256.888458 -338.617096 4.792601 0.399142
256.358337 -338.092865 4.488346 0.399387
256.061951 -337.799744 4.090405 0.394608
251.099487 -332.892456 4.424074 0.401593
212.654724 -294.874817 8.161075 0.590441
212.654739 -294.874817 5.691359 0.577574
212.654739 -294.874817 3.229574 0.595343
212.654739 -294.874817 0.770426 0.593260
237.134964 -319.083069 0.000004 0.226163
248.738586 -330.557770 -0.000012 0.231449
253.720230 -335.484070 -0.000063 0.220012
256.495239 -338.228271 -0.000005 0.213572
258.266479 -339.979828 -0.000051 0.186467
259.497681 -341.197357 -0.000050 0.200884
260.404938 -342.094513 -0.000001 0.333333
256.748138 -338.348572 5.311149 0.404167
250.967026 -332.551270 6.623264 0.402819
256.866608 -338.467346 4.374729 0.399142
252.303619 -333.891602 4.894506 0.398897
251.310303 -332.895508 4.406641 0.398897
213.056717 -294.535034 8.157377 0.557966
213.056717 -294.535034 5.689143 0.540319
213.056717 -294.535034 3.228837 0.570098
213.056717 -294.535034 0.771164 0.605147
237.335602 -318.881744 0.000008 0.227893
248.858795 -330.437164 -0.000004 0.224145
253.805939 -335.398132 -0.000052 0.225394
256.561707 -338.161560 -0.000002 0.209439
258.320648 -339.925446 -0.000045 0.216647
259.543335 -341.151550 -0.000047 0.241253
260.472443 -342.083252 0.009996 1.000000
309.388153 -391.746338 17.470909 1.000000
309.388123 -391.746307 15.339600 1.000000
293.233887 -375.319122 9.046060 0.369608
274.927826 -356.703735 3.871353 0.400490
275.001892 -356.779083 3.463468 0.399510
297.983490 -380.148956 5.730613 0.398407
309.388123 -391.746307 5.034237 1.000000
309.388153 -391.746307 3.010691 1.000000
309.388153 -391.746307 0.989310 1.000000
294.628815 -376.737610 -0.000121 0.225394
283.184692 -365.100159 -0.000005 0.331495
278.272552 -360.104980 -0.000089 0.243752
275.536285 -357.322510 -0.000082 0.231449
273.789001 -355.545715 0.000037 0.227989
272.575226 -354.311432 -0.000047 0.268358
271.680450 -353.401550 0.000056 0.254133
308.892578 -391.854645 17.403589 1.000000
308.892578 -391.854645 15.281554 1.000000
273.783661 -355.650391 4.012914 0.398039
274.648804 -356.542542 3.825331 0.411029
274.459717 -356.347595 3.384376 0.402574
292.444183 -374.893127 5.104951 0.405147
303.158112 -385.941284 4.616365 0.372059
308.892578 -391.854645 3.006292 1.000000
308.892578 -391.854645 0.993708 1.000000
294.426666 -376.937439 -0.000206 0.220684
283.062866 -365.219116 -0.000006 0.335539
278.186249 -360.190369 -0.000181 0.251826
275.469360 -357.388672 -0.000166 0.233468
273.734406 -355.599609 -0.000042 0.229431
272.529236 -354.356842 -0.000128 0.227028
271.641083 -353.440979 -0.000119 0.240965
308.401245 -391.962036 17.337597 1.000000
308.401245 -391.962006 15.224654 1.000000
308.401245 -391.962006 13.141378 1.000000
274.635406 -356.652832 3.835735 0.400490
274.337158 -356.340973 3.374050 0.403309
303.900635 -387.255737 6.486722 0.400123
301.678162 -384.931641 4.530206 0.409436
308.401245 -391.962006 3.001980 1.000000
302.962372 -386.274567 1.126794 0.387132
294.219666 -377.132263 -0.000046 0.229143
282.940216 -365.337250 -0.000005 0.333333
278.097870 -360.273560 -0.000020 0.225875
275.400787 -357.453247 -0.000010 0.193387
273.678558 -355.652252 0.000106 0.305844
272.482147 -354.401154 0.000036 0.238081
271.600494 -353.479248 0.000020 0.203960
307.914093 -392.068481 17.272907 1.000000
307.914093 -392.068481 15.168877 1.000000
273.715698 -355.803467 4.024497 0.394363
274.834045 -356.989410 3.892231 0.404412
274.601410 -356.742737 3.428494 0.413480
303.812866 -387.719452 6.509337 0.418260
301.523682 -385.291901 4.537813 0.409559
307.914093 -392.068481 2.997755 1.000000
307.914093 -392.068481 1.002245 1.000000
294.014740 -377.329193 -0.000129 0.228566
282.816711 -365.454498 -0.000005 0.332475
278.010284 -360.357635 -0.000097 0.234717
275.332947 -357.518463 -0.000096 0.240965
273.623260 -355.705444 0.000024 0.223664
272.435913 -354.446381 -0.000172 0.189158
271.560303 -353.517853 -0.000053 0.193099
308.001343 -392.787384 17.419281 1.000000
308.001343 -392.787415 15.295091 1.000000
308.001343 -392.787415 13.200721 1.000000
274.733429 -357.011993 3.884475 0.400368
274.728455 -357.006653 3.460644 0.396201
296.746216 -380.683929 5.692196 0.360049
300.862000 -385.109985 4.509070 0.406618
308.001343 -392.787384 3.007318 1.000000
308.001343 -392.787384 0.992683 1.000000
293.807220 -377.523438 -0.000127 0.227509
282.692444 -365.570892 -0.000006 0.332475
277.921692 -360.440552 -0.000094 0.207612
275.264221 -357.582794 -0.000092 0.243368
273.567169 -355.757843 0.000037 0.223183
272.388702 -354.490540 -0.000162 0.200788
271.519592 -353.555939 -0.000048 0.222511
273.386383 -355.674225 4.707108 0.400613
308.185608 -393.624207 15.454871 1.000000
273.114258 -355.377441 3.893198 0.403554
273.649048 -355.960663 3.660771 0.389461
274.708008 -357.115479 3.468247 0.405024
296.481018 -380.859894 5.688044 0.379044
300.810364 -385.581238 4.524358 0.405637
308.185608 -393.624207 3.019424 1.000000
308.185608 -393.624207 0.980576 1.000000
293.597778 -377.715607 -0.000083 0.224721
282.567352 -365.686401 -0.000006 0.334191
277.831757 -360.522064 0.000034 0.251922
275.194855 -357.646423 -0.000044 0.252883
273.510651 -355.809723 0.000078 0.238754
272.341064 -354.534241 -0.000122 0.249135
271.478516 -353.593597 0.000006 0.194252
273.604553 -356.027985 4.809418 0.401103
308.374359 -394.481415 15.619211 1.000000
273.129120 -355.502167 3.911802 0.400123
273.569000 -355.988678 3.655849 0.401471
274.687317 -357.225433 3.475999 0.403922
296.221893 -381.041473 5.684748 0.395588
289.381805 -373.476715 3.706660 0.409926
308.374359 -394.481445 3.031874 1.000000
308.374359 -394.481445 0.968125 1.000000
293.387665 -377.906982 -0.000084 0.225971
282.441437 -365.801056 -0.000007 0.333456
277.742035 -360.603821 0.000033 0.219819
275.125275 -357.709808 -0.000049 0.198577
273.453918 -355.861420 0.000077 0.193291
272.293274 -354.577820 -0.000126 0.235679
271.437317 -353.631165 -0.000009 0.227701
308.567780 -395.359894 17.991299 1.000000
308.567780 -395.359863 15.788302 1.000000
289.511597 -373.986755 8.405962 0.408701
274.159424 -356.767975 3.800378 0.401593
273.880402 -356.455017 3.348034 0.400490
295.801086 -381.040924 5.661662 0.425368
288.603851 -372.968658 3.662553 0.398775
308.567780 -395.359894 3.044686 1.000000
308.567810 -395.359894 0.955313 1.000000
293.175598 -378.096222 -0.000042 0.225971
282.314728 -365.914856 -0.000007 0.334314
277.651489 -360.684601 0.000077 0.247597
275.055023 -357.772461 -0.000004 0.264225
273.396667 -355.912476 0.000115 0.245867
272.245026 -354.620819 -0.000076 0.231834
271.395691 -353.668213 0.000056 0.191849
308.263184 -395.688446 18.002337 1.000000
273.486816 -356.131256 4.422113 0.401225
274.109650 -356.839691 4.212197 0.397672
273.325714 -355.947968 3.627326 0.400613
274.447601 -357.224091 3.457530 0.414093
301.532257 -388.032166 6.402378 0.405392
288.934235 -373.702271 3.700298 0.412500
308.263153 -395.688416 3.045408 1.000000
308.263153 -395.688416 0.954593 1.000000
292.964417 -378.286530 -0.000164 0.227989
282.187256 -366.027740 -0.000007 0.335662
277.561279 -360.765808 -0.000039 0.218089
274.985107 -357.835480 -0.000126 0.219339
273.340088 -355.964325 -0.000123 0.255767
272.196350 -354.663391 0.000008 0.223087
271.354279 -353.705536 -0.000071 0.204056
275.432556 -358.495392 5.575745 0.401225
288.494507 -373.563873 9.390149 0.405760
289.280518 -374.470612 8.444321 0.401838
273.224152 -355.947754 3.617391 0.397794
274.216339 -357.092377 3.428617 0.400490
288.320496 -373.363129 4.783844 0.401593
289.900269 -375.185577 3.786403 0.405392
307.766998 -395.796875 3.041404 1.000000
307.766998 -395.796875 0.958595 1.000000
292.748596 -378.471436 -0.000034 0.227124
282.058960 -366.139709 -0.000008 0.331985
277.469116 -360.844788 0.000088 0.244521
274.913574 -357.896698 0.000009 0.223376
273.281830 -356.014282 0.000001 0.224337
272.147308 -354.705444 0.000132 0.244810
271.312286 -353.742188 -0.000073 0.204344
273.116760 -355.939270 4.712039 0.393750
307.274536 -395.904541 15.693223 1.000000
273.375427 -356.241882 4.042494 0.396446
273.354156 -356.216980 3.660241 0.394118
274.269012 -357.287415 3.449577 0.406618
288.426910 -373.852448 4.819944 0.400000
288.124725 -373.498871 3.666698 0.408211
307.274536 -395.904541 3.037482 1.000000
307.274536 -395.904541 0.962517 1.000000
292.534790 -378.658722 -0.000155 0.230873
281.929901 -366.250824 -0.000008 0.333088
277.377777 -360.924744 -0.000028 0.211649
274.842804 -357.958771 -0.000120 0.259131
273.224091 -356.064850 -0.000113 0.225010
272.098633 -354.748047 0.000019 0.208766
271.270050 -353.778564 -0.000078 0.207420
274.427734 -357.612305 5.244047 0.401961
273.284760 -356.255951 4.414058 0.398775
273.149811 -356.095795 3.995663 0.391544
288.783997 -374.648773 7.225836 0.401716
274.521332 -357.723358 3.506598 0.404412
293.756287 -380.549377 5.521372 0.354289
288.747711 -374.605743 3.727961 0.405024
306.785736 -396.011353 3.033639 1.000000
306.785706 -396.011353 0.966360 1.000000
292.316376 -378.840637 -0.000027 0.222222
281.800049 -366.360992 -0.000008 0.333456
277.284515 -361.002441 0.000098 0.230104
274.770447 -358.018982 0.000015 0.205594
273.165100 -356.113953 0.000020 0.264994
272.048950 -354.789429 0.000149 0.240004
271.227264 -353.814301 0.000041 0.214629
273.238495 -356.322327 4.805069 0.395711
288.374695 -374.540985 9.534311 0.402696
273.226746 -356.308197 4.034283 0.405270
273.944366 -357.171967 3.824988 0.404044
293.454102 -380.654816 6.927532 0.395098
289.093262 -375.405914 4.952559 0.376348
288.683258 -374.912445 3.737485 0.412010
306.300537 -396.117462 3.029876 1.000000
306.300537 -396.117462 0.970124 1.000000
292.100037 -379.024994 -0.000151 0.228470
281.669434 -366.470276 -0.000008 0.334681
277.192139 -361.081116 -0.000022 0.242887
274.698730 -358.079987 -0.000098 0.215398
273.106689 -356.163696 -0.000106 0.238370
271.999725 -354.831299 0.000033 0.211938
271.184784 -353.850372 -0.000062 0.275375
274.266785 -357.701141 5.235402 0.412255
273.014740 -356.172607 4.362940 0.406495
292.695129 -380.200104 9.642016 0.414951
273.882202 -357.231628 3.825949 0.394608
293.847351 -381.606842 7.040807 0.429657
289.152496 -375.874969 4.985318 0.402451
287.288513 -373.599243 3.644116 0.404412
293.900757 -381.672058 2.718408 0.459069
305.818848 -396.222748 0.973811 1.000000
291.879517 -379.204315 -0.000054 0.228566
281.538086 -366.578613 -0.000007 0.332721
277.097961 -361.157715 0.000073 0.243176
274.625763 -358.139435 -0.000011 0.244137
273.047119 -356.212097 -0.000002 0.232987
271.949982 -354.872589 -0.000007 0.218954
271.141571 -353.885620 0.000018 0.190311
274.305115 -357.892151 5.278579 0.396446
274.228607 -357.797424 4.800620 0.400858
273.031799 -356.315216 4.012795 0.410907
273.825043 -357.297607 3.828190 0.402941
274.488007 -358.118683 3.539241 0.392647
274.725616 -358.412933 3.128108 0.392892
287.225403 -373.893005 3.653357 0.405637
305.340576 -396.327271 3.022578 1.000000
305.340576 -396.327301 0.977421 1.000000
291.659119 -379.383820 -0.000064 0.227701
281.405975 -366.686035 -0.000006 0.333824
277.003815 -361.234314 0.000071 0.239812
274.553345 -358.199554 -0.000153 0.207612
272.987640 -356.260559 -0.000012 0.259516
271.899841 -354.913391 -0.000012 0.255190
271.098602 -353.921143 -0.000102 0.276240
273.684387 -357.259094 5.057598 0.387500
287.358551 -374.437531 9.378502 0.393382
273.222198 -356.678406 4.086026 0.401225
273.293945 -356.768585 3.717687 0.396691
274.401367 -358.159790 3.536699 0.388480
288.871216 -376.337830 5.000359 0.406250
288.214874 -375.513275 3.745867 0.372304
288.203278 -375.498718 2.581235 0.377328
288.168304 -375.454773 1.419684 0.385294
288.235901 -375.539703 0.252475 0.387868
281.273132 -366.792572 -0.000005 0.333211
276.909058 -361.310120 0.000086 0.218281
274.478882 -358.257172 0.000092 0.239235
272.927704 -356.308472 0.000012 0.211649
271.849030 -354.953369 0.000119 0.278739
271.054260 -353.954926 0.000247 0.222414
274.106628 -357.935272 5.256065 0.393382
274.389587 -358.295868 4.906503 0.407108
273.084290 -356.632355 4.063895 0.400123
274.963135 -359.026794 4.134018 0.399387
274.216766 -358.075562 3.515927 0.399020
291.897888 -380.608917 5.429001 0.402696
286.771179 -374.075287 3.646464 0.398162
287.998535 -375.639496 2.580966 0.369240
287.968536 -375.601288 1.419829 0.362010
287.997681 -375.638397 0.255926 0.372304
281.139526 -366.898163 -0.000005 0.332598
276.814026 -361.385651 0.000049 0.227316
274.405212 -358.315765 0.000042 0.210400
272.867615 -356.356201 -0.000030 0.264610
271.798401 -354.993591 0.000081 0.262015
271.010620 -353.989594 0.000208 0.211169
303.925385 -396.636658 17.493879 1.000000
272.903229 -356.527679 4.407947 0.399020
272.946045 -356.583038 4.041357 0.408824
287.123749 -374.913574 7.101651 0.404657
274.036652 -357.993103 3.495707 0.400858
287.212830 -375.028748 4.831967 0.409069
286.686096 -374.347748 3.654455 0.393382
303.925385 -396.636658 3.012190 1.000000
303.925385 -396.636658 0.987809 1.000000
290.992004 -379.914886 -0.000213 0.222703
281.005188 -367.002777 -0.000005 0.330760
276.718994 -361.461151 -0.000084 0.209343
274.331451 -358.374268 -0.000078 0.221646
272.806671 -356.402832 0.000095 0.215590
271.747345 -355.033234 0.000104 0.251730
270.966583 -354.023773 0.000237 0.204633
273.756287 -357.775085 5.170636 0.396691
272.868835 -356.610962 4.417690 0.401593
272.868835 -356.610962 4.036829 0.407598
273.131165 -356.955048 3.724667 0.399265
286.510681 -374.505432 5.876347 0.407108
274.209900 -358.370087 3.099237 0.394240
292.104706 -381.843323 4.108645 0.377819
303.459961 -396.738403 3.008873 1.000000
303.459961 -396.738403 0.991128 1.000000
290.765320 -380.086365 -0.000111 0.227797
280.870117 -367.106506 -0.000005 0.331005
276.622131 -361.534271 0.000028 0.217320
274.256409 -358.431061 0.000018 0.205402
272.745941 -356.449738 0.000059 0.218858
271.696167 -355.072723 0.000070 0.238081
270.922485 -354.057861 0.000188 0.214437
274.121979 -358.408875 5.352506 0.406373
272.827942 -356.686646 4.425392 0.404044
272.833038 -356.693390 4.044860 0.398897
273.072998 -357.012787 3.726288 0.394730
273.970581 -358.207367 3.510706 0.384191
274.245422 -358.573151 3.114272 0.400613
291.856873 -382.012299 4.107917 0.407598
302.997559 -396.839508 3.005626 1.000000
302.997559 -396.839508 0.994375 1.000000
290.538849 -380.258148 -0.000126 0.229623
280.734314 -367.209259 -0.000005 0.333701
276.525421 -361.607635 0.000015 0.225298
274.181366 -358.487885 0.000015 0.229335
272.684235 -356.495392 0.000204 0.227893
271.644257 -355.111267 0.000195 0.226836
270.878052 -354.091492 0.000190 0.213572
273.580322 -357.834381 5.156040 0.421078
287.070190 -376.051514 9.617083 0.402941
272.123077 -355.866486 3.847013 0.401961
286.135986 -374.789978 6.998604 0.410417
286.522675 -375.312164 5.951375 0.404412
286.239014 -374.929077 4.777261 0.405147
297.633057 -390.316010 4.604571 0.399632
302.538086 -396.939911 3.002446 1.000000
302.538086 -396.939911 0.997553 1.000000
290.309692 -380.426300 -0.000018 0.228278
280.597839 -367.311066 -0.000005 0.332230
276.427582 -361.679474 0.000118 0.217705
274.105499 -358.543579 0.000123 0.214821
272.623291 -356.541992 0.000041 0.199058
271.592865 -355.150452 0.000049 0.259516
270.833740 -354.125336 0.000035 0.215879
273.622650 -358.041595 5.204137 0.398652
274.080750 -358.669403 4.930582 0.398284
272.190643 -356.079285 3.885491 0.409436
285.817078 -374.752045 6.966051 0.400245
274.041107 -358.615051 3.553224 0.414216
286.308136 -375.425018 4.813383 0.396446
295.969055 -388.663696 4.490751 0.382475
302.081482 -397.039734 2.999338 1.000000
302.081451 -397.039734 1.000662 1.000000
290.082642 -380.597321 -0.000180 0.227220
280.460632 -367.411957 -0.000005 0.332230
276.330597 -361.752411 -0.000031 0.221453
274.029877 -358.599640 0.000067 0.254998
272.562042 -356.588257 -0.000146 0.245675
271.540924 -355.188934 0.000001 0.240004
270.788910 -354.158478 -0.000006 0.237216
273.721710 -358.332336 5.277675 0.402696
273.184448 -357.585236 4.627381 0.391176
271.900024 -355.799072 3.813180 0.403554
285.356476 -374.511841 6.897114 0.409804
274.394470 -359.267883 3.637893 0.400735
286.830536 -376.561707 4.913990 0.396324
287.237183 -377.127197 3.780111 0.396201
295.567078 -388.710938 2.826424 0.361642
295.549652 -388.686707 1.174064 0.378309
289.851196 -380.762268 -0.000072 0.229239
280.322754 -367.511841 -0.000006 0.332230
276.231781 -361.822906 0.000068 0.231738
273.953217 -358.654266 0.000180 0.241253
272.499573 -356.632813 -0.000043 0.217897
271.488281 -355.226440 0.000106 0.232218
270.743530 -354.190796 0.000103 0.223183
301.176636 -397.237518 17.205025 1.000000
273.438385 -358.090454 4.748055 0.396201
271.951843 -355.992523 3.847310 0.397917
272.565430 -356.858490 3.663411 0.386275
274.306915 -359.316254 3.636573 0.400000
290.946167 -382.799286 5.526333 0.423775
290.473907 -382.132751 4.072644 0.400000
301.176636 -397.237518 2.993320 1.000000
301.176636 -397.237518 1.006680 1.000000
289.620392 -380.928162 -0.000118 0.229527
280.184143 -367.610779 -0.000006 0.334681
276.133209 -361.893677 0.000028 0.231449
273.876770 -358.709198 0.000133 0.207420
272.437317 -356.677673 -0.000101 0.225779
271.435791 -355.264191 0.000062 0.236063
270.698273 -354.223328 0.000063 0.189639
273.465149 -358.283966 5.230627 0.395956
300.728241 -397.335571 15.071950 1.000000
272.173401 -356.433685 3.936162 0.404412
285.735229 -375.859650 7.092730 0.407353
274.101196 -359.195099 3.611557 0.401225
286.925781 -377.564972 4.985628 0.391054
288.916199 -380.416046 3.959637 0.407721
300.728210 -397.335571 2.990411 1.000000
300.728210 -397.335571 1.009589 1.000000
289.386627 -381.089874 -0.000009 0.228854
280.044861 -367.708740 -0.000006 0.331618
276.032867 -361.961945 0.000246 0.224241
273.799347 -358.762695 0.000248 0.234429
272.373474 -356.720276 0.000240 0.217897
271.382599 -355.300964 0.000175 0.228085
270.652405 -354.255066 0.000164 0.210880
300.282410 -397.433014 17.116955 1.000000
271.730835 -355.921295 4.152786 0.396814
300.282440 -397.433014 12.981105 1.000000
285.390808 -375.781769 7.054133 0.404534
272.880463 -357.592804 3.380061 0.349755
286.477173 -377.361267 4.950949 0.407966
288.742371 -380.654724 3.964409 0.406127
300.282410 -397.432983 2.987566 1.000000
300.282410 -397.432983 1.012433 1.000000
289.153625 -381.252625 -0.000060 0.226451
279.904877 -367.805725 -0.000004 0.335172
275.933350 -362.031403 0.000199 0.211265
273.722198 -358.816620 0.000193 0.224337
272.310547 -356.764191 0.000194 0.227509
271.330017 -355.338531 -0.000028 0.210111
270.606689 -354.286957 0.000128 0.200404
273.205688 -358.222107 5.181026 0.394853
272.657349 -357.412811 4.531668 0.388235
272.013763 -356.462952 3.924088 0.386887
272.715820 -357.499115 3.754229 0.376593
272.721069 -357.506897 3.361558 0.357598
272.718872 -357.503601 2.970126 0.383333
272.706268 -357.485016 2.580140 0.389583
272.694946 -357.468262 2.192911 0.388725
272.664673 -357.423615 1.807972 0.373652
272.675842 -357.440094 1.422524 0.372181
272.702637 -357.479675 1.032245 0.366054
272.729767 -357.519745 0.636656 0.404289
272.733673 -357.525452 0.241051 0.375858
272.247192 -356.807465 0.000189 0.226836
271.276611 -355.375000 -0.000027 0.258939
270.560638 -354.318329 0.000132 0.252787
272.657379 -357.560242 4.966816 0.347672
271.195404 -355.369812 3.989311 0.393627
272.171173 -356.831787 3.995761 0.395466
271.498688 -355.824188 3.447307 0.408333
272.627594 -357.515656 3.356391 0.397304
272.620239 -357.504608 2.965682 0.410907
272.608063 -357.486328 2.577502 0.374632
272.596283 -357.468689 2.192016 0.389216
272.566345 -357.423889 1.808866 0.389216
272.577759 -357.440979 1.425178 0.349020
272.603333 -357.479279 1.036815 0.366789
272.630188 -357.519562 0.643065 0.366912
272.633301 -357.524200 0.249514 0.372794
272.183624 -356.850464 0.000152 0.266724
271.223083 -355.411255 -0.000074 0.263168
270.514526 -354.349640 0.000078 0.246732
272.587830 -357.604980 4.966533 0.387010
271.106720 -355.351959 3.975523 0.404902
271.662811 -356.197845 3.848516 0.404289
271.443146 -355.863678 3.447642 0.399755
272.583344 -357.598206 3.361498 0.379044
272.565735 -357.571381 2.967777 0.368382
272.537323 -357.528137 2.577295 0.376716
272.518890 -357.500122 2.191745 0.382843
272.502228 -357.474762 1.808751 0.375245
272.510345 -357.487152 1.425115 0.386887
272.537537 -357.528473 1.036430 0.369363
272.558594 -357.560547 0.643686 0.397304
272.540680 -357.533264 0.255980 0.357598
272.119812 -356.893097 0.000099 0.248943
271.169281 -355.447083 -0.000113 0.203095
270.468140 -354.380524 0.000040 0.226644
272.518372 -357.649841 4.966441 0.391789
271.019409 -355.334564 3.962074 0.396446
271.512085 -356.095551 3.817935 0.397917
271.387634 -355.903351 3.448072 0.400980
289.303497 -383.575806 6.915449 0.404412
272.520325 -357.652863 2.971338 0.382843
272.492645 -357.610077 2.579467 0.382230
272.474670 -357.582336 2.192477 0.374510
272.456604 -357.554382 1.808068 0.407476
272.465515 -357.568268 1.422981 0.366667
272.492615 -357.610077 1.032840 0.383946
272.513580 -357.642395 0.638626 0.379902
272.493774 -357.611847 0.250017 0.390441
272.055237 -356.934509 0.000214 0.216936
271.114838 -355.481995 -0.000005 0.193195
270.421204 -354.410645 0.000143 0.238466
298.090088 -397.912262 16.913750 1.000000
270.934204 -355.318939 3.949286 0.400368
271.493652 -356.196411 3.831568 0.405760
271.332458 -355.943542 3.448663 0.398284
298.090118 -397.912262 8.849413 1.000000
288.823792 -383.378235 5.468596 0.410539
289.570679 -384.549713 4.146435 0.396324
298.090088 -397.912262 2.974292 1.000000
298.090088 -397.912262 1.025709 1.000000
287.969543 -382.038422 -0.000121 0.223472
279.195038 -368.275818 -0.000000 0.331250
272.525452 -357.814728 0.621209 0.377083
272.446381 -357.690735 0.243972 0.361397
271.990875 -356.976288 0.000142 0.239235
271.060669 -355.517242 -0.000079 0.218666
270.374817 -354.441559 -0.000090 0.240869
297.658569 -398.006592 16.875923 1.000000
297.658569 -398.006592 14.826581 1.000000
271.438324 -356.240448 3.832957 0.349877
287.329834 -381.553986 7.927803 0.408946
288.368591 -383.208618 6.822008 0.404779
288.899811 -384.054810 5.518809 0.405392
287.552246 -381.908264 3.983756 0.405147
288.238159 -383.000854 2.681890 0.374265
288.213989 -382.962372 1.318853 0.372672
287.726959 -382.186554 0.000100 0.227701
279.051147 -368.366913 0.000000 0.333088
275.325409 -362.432129 0.000096 0.244137
273.250153 -359.126465 0.000252 0.216936
271.925720 -357.016846 0.000245 0.210400
271.005188 -355.550476 0.000253 0.234621
270.327484 -354.470978 0.000028 0.190888
297.229187 -398.100464 16.839012 1.000000
271.565063 -356.579224 4.252269 0.401716
271.312592 -356.170776 3.810100 0.405147
286.873474 -381.346283 7.865855 0.395956
297.229187 -398.100433 8.815087 1.000000
287.247498 -381.951385 5.300782 0.407230
287.246918 -381.950470 3.977587 0.405147
288.000244 -383.169220 2.682171 0.388480
287.970612 -383.121338 1.318751 0.390319
287.486603 -382.338196 0.000021 0.226163
278.906616 -368.456940 -0.000002 0.333211
275.222778 -362.496918 0.000012 0.221549
273.170532 -359.176666 0.000173 0.267109
271.860779 -357.057648 0.000186 0.221646
270.950500 -355.584961 0.000180 0.236448
270.280334 -354.500702 -0.000051 0.209150
271.779694 -357.072021 4.745460 0.387623
271.487305 -356.591492 4.245752 0.404657
271.644989 -356.850616 3.947166 0.405024
288.090759 -383.877930 8.280387 0.404289
288.563080 -384.654053 6.975220 0.413971
287.008240 -382.098846 5.300835 0.398652
286.785431 -381.732635 3.956611 0.415931
296.801880 -398.193848 2.967057 1.000000
296.801880 -398.193848 1.032944 1.000000
287.244843 -382.487701 -0.000032 0.227028
278.761475 -368.545959 -0.000003 0.331985
275.119568 -362.560822 -0.000047 0.222511
273.091034 -359.227081 -0.000038 0.224337
271.795563 -357.098114 0.000119 0.221742
270.895508 -355.618958 0.000128 0.235486
270.232880 -354.529968 -0.000090 0.255575
271.685089 -357.062988 4.731271 0.396936
271.410675 -356.604797 4.239655 0.396446
271.329987 -356.470123 3.858279 0.403922
286.541077 -381.865875 7.906072 0.405637
288.497925 -385.132874 7.018504 0.403431
286.568634 -381.911835 5.269075 0.413235
296.376648 -398.286804 4.896355 1.000000
296.376648 -398.286804 2.964762 1.000000
296.376648 -398.286804 1.035238 1.000000
287.000610 -382.633057 0.000056 0.223472
278.615723 -368.634003 -0.000004 0.332475
275.015228 -362.622833 0.000051 0.239619
273.010193 -359.275299 0.000038 0.217897
271.729614 -357.137329 0.000213 0.274029
270.839996 -355.652039 0.000215 0.252787
270.185028 -354.558533 -0.000015 0.240677
271.120178 -356.254608 4.484909 0.402328
270.958801 -355.980865 4.073951 0.408824
271.199982 -356.389984 3.833657 0.401593
271.410583 -356.747223 3.556363 0.406005
286.648621 -382.595581 6.658893 0.403799
287.954620 -384.810974 5.531492 0.416912
287.150299 -383.446564 4.038056 0.402451
295.953400 -398.379333 2.962525 1.000000
295.953400 -398.379333 1.037474 1.000000
286.756866 -382.779205 0.000000 0.226547
278.469330 -368.721008 -0.000004 0.333578
274.911133 -362.685211 -0.000001 0.203768
272.929443 -359.323639 -0.000007 0.224529
271.663788 -357.176727 0.000166 0.233948
270.784546 -355.685242 0.000165 0.267205
270.137177 -354.587158 -0.000058 0.252115
271.066162 -356.299500 4.487780 0.403186
271.591949 -357.205841 4.371363 0.399510
295.532074 -398.471436 12.678428 1.000000
271.055969 -356.281982 3.470235 0.395588
295.532074 -398.471436 8.751375 1.000000
286.066742 -382.156006 5.265424 0.412500
286.960632 -383.696838 4.043964 0.399387
295.532104 -398.471436 2.960347 1.000000
295.532104 -398.471436 1.039654 1.000000
286.510559 -382.921051 0.000094 0.227028
278.322327 -368.806946 -0.000005 0.333578
274.805969 -362.745819 0.000085 0.216263
272.847870 -359.370636 0.000081 0.238370
271.597290 -357.215027 0.000259 0.240677
270.728485 -355.717499 0.000263 0.198193
270.088867 -354.614990 0.000032 0.241253
295.112671 -398.563141 16.667789 1.000000
271.495453 -357.191406 4.358271 0.401225
271.131470 -356.553772 3.853179 0.402574
271.069702 -356.445557 3.492285 0.389583
287.231506 -384.757202 6.907644 0.396814
295.112671 -398.563141 6.801408 1.000000
287.013824 -384.375885 4.074183 0.400123
295.112671 -398.563141 2.958224 1.000000
295.112671 -398.563141 1.041777 1.000000
286.264832 -383.063843 0.000035 0.230200
278.174744 -368.891907 -0.000005 0.331618
274.701019 -362.806793 0.000031 0.223856
272.766449 -359.417847 0.000037 0.270473
271.530914 -357.253540 0.000209 0.257882
270.672607 -355.749969 0.000204 0.207901
270.040253 -354.642212 0.000193 0.256728
271.265381 -356.937378 4.651290 0.407476
271.388153 -357.156006 4.340196 0.403064
271.096588 -356.636841 3.863204 0.406127
286.369507 -383.830597 8.145411 0.430637
285.536713 -382.347839 6.570381 0.410172
286.375092 -383.840546 5.397918 0.393627
294.695068 -398.654419 4.870520 1.000000
294.695068 -398.654419 2.956155 1.000000
294.695068 -398.654419 1.043844 1.000000
286.018372 -383.205414 -0.000049 0.223472
278.026550 -368.975800 -0.000005 0.333211
274.595764 -362.867188 -0.000050 0.239812
272.684814 -359.464722 -0.000044 0.210111
271.464813 -357.292511 -0.000037 0.201365
270.616547 -355.782104 0.000128 0.214725
269.991882 -354.669922 0.000127 0.220877
270.906464 -356.440521 4.498816 0.399510
271.171204 -356.919800 4.272827 0.400123
270.997894 -356.606079 3.849573 0.397304
286.468964 -384.608673 8.253418 0.403922
285.278320 -382.453674 6.566551 0.398775
286.197327 -384.116974 5.410625 0.405760
294.279266 -398.745300 4.864479 1.000000
294.279266 -398.745300 2.954145 1.000000
294.279266 -398.745300 1.045855 1.000000
285.769135 -383.342010 0.000047 0.227124
277.877808 -369.058685 -0.000006 0.331373
274.489319 -362.925537 0.000045 0.235486
272.602295 -359.510040 0.000040 0.224817
271.397583 -357.329498 0.000042 0.202134
270.559875 -355.813202 0.000217 0.233948
269.943024 -354.696747 0.000216 0.217993
271.286377 -357.285583 4.730178 0.400858
271.055450 -356.860565 4.249599 0.399632
271.839722 -358.303894 4.194108 0.409314
272.193787 -358.955414 3.898694 0.399020
285.733490 -383.871582 6.734767 0.394853
293.865143 -398.835815 6.771161 1.000000
293.865143 -398.835815 4.858603 1.000000
293.865143 -398.835815 2.952187 1.000000
293.865143 -398.835815 1.047813 1.000000
285.517212 -383.473694 0.000320 0.227220
277.728485 -369.140503 -0.000007 0.334926
274.382813 -362.983734 0.000060 0.239812
272.519653 -359.555115 0.000064 0.222703
271.330200 -357.366241 0.000069 0.222126
270.503113 -355.844177 0.000241 0.214917
269.894073 -354.723419 0.000244 0.187332
293.452728 -398.925964 16.546259 1.000000
271.140930 -357.174866 4.318112 0.397426
271.825195 -358.455292 4.217102 0.400368
272.107819 -358.984192 3.896400 0.402696
286.065277 -385.102142 6.877493 0.408578
293.452728 -398.925964 6.761628 1.000000
293.452728 -398.925964 4.852890 1.000000
293.452728 -398.925964 2.950285 1.000000
293.452728 -398.925964 1.049716 1.000000
285.268585 -383.611328 0.000161 0.229335
277.578583 -369.221344 -0.000010 0.334436
274.276581 -363.042480 -0.000091 0.213283
272.437317 -359.600739 -0.000097 0.216936
271.263092 -357.403412 -0.000092 0.254037
270.446533 -355.875427 0.000096 0.211938
269.845337 -354.750397 0.000090 0.214917
270.969055 -357.008850 4.631578 0.396078
272.325562 -359.590363 4.898888 0.399142
271.019012 -357.103912 3.931141 0.400123
293.041962 -399.015778 10.597395 1.000000
293.041962 -399.015747 8.667638 1.000000
293.041962 -399.015747 6.752361 1.000000
293.041962 -399.015747 4.847339 1.000000
293.041962 -399.015778 2.948436 1.000000
293.041962 -399.015778 1.051564 1.000000
285.015594 -383.740814 0.000360 0.226259
277.428131 -369.301086 -0.000011 0.334069
274.168579 -363.097809 0.000105 0.226932
272.353516 -359.643616 0.000099 0.209919
271.194733 -357.438324 0.000116 0.216359
270.389404 -355.905701 0.000102 0.266724
269.795685 -354.775818 0.000281 0.233083
271.152161 -357.523041 4.766998 0.399877
270.764526 -356.772766 4.203417 0.407598
271.791046 -358.759888 4.263274 0.398652
271.936768 -359.041931 3.892183 0.400000
292.632721 -399.105225 8.655013 1.000000
292.632721 -399.105225 6.743361 1.000000
292.632721 -399.105225 4.841949 1.000000
292.632721 -399.105225 2.946638 1.000000
292.632721 -399.105225 1.053360 1.000000
284.764404 -383.873657 0.000274 0.226259
277.277100 -369.379791 -0.000013 0.334926
274.061249 -363.154541 0.000020 0.227413
272.270294 -359.687561 0.000024 0.228278
271.126923 -357.474243 0.000022 0.233660
270.332245 -355.935883 0.000021 0.274894
269.746399 -354.801849 0.000206 0.253941
270.991028 -357.376099 4.715845 0.405515
271.537476 -358.452301 4.602379 0.390564
271.668213 -358.709778 4.244973 0.405882
271.847992 -359.063751 3.889058 0.407108
292.225067 -399.194366 8.642757 1.000000
292.225067 -399.194366 6.734627 1.000000
292.225067 -399.194366 4.836715 1.000000
292.225067 -399.194366 2.944896 1.000000
292.225067 -399.194366 1.055104 1.000000
284.510529 -384.001404 0.000375 0.226836
277.125549 -369.457397 -0.000012 0.331127
273.952850 -363.209045 0.000124 0.222607
272.186218 -359.729950 0.000115 0.250481
271.058380 -357.508728 0.000118 0.253845
270.274445 -355.964874 0.000139 0.250577
269.696625 -354.826904 0.000301 0.175509
270.651459 -356.865112 4.563262 0.400245
271.465454 -358.496338 4.603887 0.403064
271.493164 -358.551880 4.204990 0.400490
291.818848 -399.283142 10.549985 1.000000
291.818848 -399.283142 8.630871 1.000000
291.818848 -399.283142 6.726153 1.000000
291.818848 -399.283173 4.831638 1.000000
291.818848 -399.283142 2.943206 1.000000
291.818848 -399.283142 1.056795 1.000000
284.257477 -384.130707 0.000289 0.227989
276.973419 -369.533966 -0.000012 0.333333
273.844757 -363.264282 0.000039 0.239331
272.102417 -359.772766 0.000031 0.194733
270.990021 -357.543610 0.000045 0.204537
270.216919 -355.994324 0.000045 0.210015
269.647278 -354.852844 0.000056 0.201077
270.869598 -357.472260 4.723804 0.399755
271.596039 -358.953827 4.704949 0.395711
271.751648 -359.271210 4.343162 0.400613
271.211731 -358.170044 3.728292 0.397304
291.414032 -399.371643 8.619349 1.000000
291.414032 -399.371613 6.717940 1.000000
291.414032 -399.371643 4.826717 1.000000
291.414032 -399.371613 2.941566 1.000000
291.414032 -399.371613 1.058435 1.000000
284.003540 -384.258301 0.000203 0.227028
276.820801 -369.609436 -0.000011 0.333333
273.736298 -363.318756 -0.000045 0.236063
272.018250 -359.814911 -0.000039 0.225394
270.921448 -357.578033 -0.000036 0.219050
270.159119 -356.023285 -0.000028 0.242791
269.597473 -354.877869 -0.000031 0.192330
270.272369 -356.407379 4.418507 0.406740
271.494995 -358.945526 4.693807 0.400368
271.340576 -358.625000 4.204712 0.405392
271.527069 -359.012085 3.861076 0.402696
280.072906 -376.753174 5.708733 0.388358
291.010681 -399.459839 6.709988 1.000000
291.010651 -399.459839 4.821950 1.000000
291.010681 -399.459839 2.939978 1.000000
291.010681 -399.459839 1.060021 1.000000
283.746185 -384.378845 0.000404 0.226932
276.667633 -369.683899 -0.000011 0.333333
273.626373 -363.370270 0.000153 0.226067
271.933014 -359.854889 0.000156 0.218474
270.851929 -357.610565 0.000167 0.203768
270.100616 -356.050781 0.000159 0.241157
269.546997 -354.901520 0.000165 0.219819
270.237061 -356.490387 4.433467 0.396691
271.301331 -358.739807 4.635683 0.402328
271.272156 -358.678101 4.208068 0.402083
290.608612 -399.547699 10.506807 1.000000
279.912079 -376.939514 5.720109 0.395098
290.608612 -399.547699 6.702287 1.000000
280.027649 -377.183746 3.601904 0.401471
290.608612 -399.547699 2.938441 1.000000
290.608612 -399.547699 1.061558 1.000000
283.490417 -384.502686 0.000326 0.228278
276.513977 -369.757233 -0.000010 0.332475
273.517151 -363.423157 0.000077 0.238658
271.848328 -359.895966 0.000069 0.233756
270.782928 -357.644104 0.000072 0.255479
270.042419 -356.078979 0.000079 0.190119
269.496826 -354.925812 0.000093 0.226836
270.303223 -356.793762 4.509299 0.394853
270.118805 -356.396790 4.069080 0.387500
271.211639 -358.748993 4.215070 0.396691
280.025696 -377.719818 6.908744 0.406250
279.720917 -377.063873 5.723725 0.400735
290.207825 -399.635284 6.694840 1.000000
279.653656 -376.919067 3.582331 0.407353
290.207825 -399.635315 2.936956 1.000000
290.207825 -399.635315 1.063044 1.000000
283.233887 -384.624939 0.000239 0.225394
276.359772 -369.829529 -0.000009 0.332966
273.407532 -363.475311 -0.000007 0.212226
271.763336 -359.936371 -0.000004 0.259323
270.713654 -357.677094 -0.000012 0.207132
269.984039 -356.106689 0.000006 0.209343
269.446503 -354.949768 0.000007 0.195598
270.275024 -356.900391 4.530613 0.400123
270.080627 -356.474243 4.080827 0.403309
271.038727 -358.574677 4.173104 0.398529
279.576721 -377.292267 6.823280 0.407476
279.478180 -377.076172 5.713333 0.401348
289.808319 -399.722626 6.687646 1.000000
289.808350 -399.722626 4.808566 1.000000
289.808319 -399.722626 2.935521 1.000000
289.808319 -399.722626 1.064479 1.000000
282.974823 -384.741791 0.000348 0.226644
276.205109 -369.900726 -0.000008 0.333578
273.296936 -363.525269 0.000094 0.223472
271.677551 -359.975128 0.000093 0.231449
270.643677 -357.708588 0.000105 0.258939
269.925140 -356.133392 0.000094 0.250288
269.395721 -354.972717 0.000111 0.208958
289.410034 -399.809723 16.299049 1.000000
271.097107 -358.909088 4.650448 0.402819
271.000305 -358.692871 4.189822 0.398897
279.836700 -378.428406 6.992742 0.401471
278.856415 -376.238983 5.596115 0.416544
289.410034 -399.809723 6.680702 1.000000
279.265198 -377.152039 3.584824 0.406373
289.410034 -399.809723 2.934133 1.000000
289.410034 -399.809723 1.065866 1.000000
282.716583 -384.860382 0.000261 0.229239
276.049927 -369.970856 -0.000007 0.332475
273.186646 -363.575958 0.000008 0.232987
271.592010 -360.014435 0.000008 0.236448
270.573914 -357.740601 0.000026 0.199058
269.866364 -356.160248 0.000030 0.203191
269.345032 -354.995941 0.000035 0.241157
289.012878 -399.896545 16.278589 1.000000
289.012878 -399.896545 14.311539 1.000000
289.012878 -399.896545 12.372105 1.000000
279.767700 -378.855469 7.046500 0.408211
278.688629 -376.399658 5.605182 0.410539
289.012878 -399.896545 6.674005 1.000000
278.939911 -376.971497 3.570239 0.394485
289.012878 -399.896545 2.932797 1.000000
289.012878 -399.896545 1.067203 1.000000
282.456970 -384.975952 0.000244 0.227413
275.894226 -370.039856 -0.000006 0.331618
273.075714 -363.625214 0.000001 0.239908
271.505981 -360.052612 0.000004 0.230873
270.503815 -357.771790 0.000009 0.232026
269.807281 -356.186554 0.000016 0.261053
269.294098 -355.018616 0.000016 0.254902
270.999817 -359.116272 5.111636 0.406250
278.724396 -377.035217 8.897376 0.397794
278.650513 -376.863861 7.776881 0.396814
278.834137 -377.289795 6.778281 0.412010
278.719086 -377.022888 5.672322 0.400245
279.287170 -378.340759 4.735120 0.409191
278.564789 -376.664948 3.549075 0.405270
288.616821 -399.983093 2.931510 1.000000
288.616821 -399.983124 1.068490 1.000000
282.195496 -385.087250 0.000356 0.225298
275.738098 -370.107819 -0.000005 0.332108
272.964111 -363.672791 0.000107 0.226547
271.419373 -360.089478 0.000117 0.232315
270.433228 -357.801880 0.000116 0.217513
269.747803 -356.211853 0.000130 0.204152
269.242828 -355.040436 0.000132 0.223952
288.221863 -400.069458 16.239927 1.000000
278.693512 -377.534668 8.993964 0.403064
278.646637 -377.423828 7.870309 0.404289
279.413452 -379.237335 7.077714 0.406250
278.077820 -376.078613 5.543448 0.407721
278.193909 -376.353180 4.550035 0.406618
278.827637 -377.851868 3.607772 0.367279
288.221863 -400.069458 2.930273 1.000000
288.221863 -400.069458 1.069728 1.000000
281.934814 -385.200439 0.000271 0.224337
275.581512 -370.174683 -0.000005 0.333211
272.852753 -363.721130 0.000022 0.245867
271.333038 -360.126984 0.000025 0.223568
270.362854 -357.832428 0.000030 0.218762
269.688507 -356.237610 0.000039 0.228566
269.191681 -355.062653 0.000045 0.199154
287.827942 -400.155579 16.221714 1.000000
278.276825 -377.119904 8.876572 0.404779
278.188263 -376.906372 7.751245 0.398775
278.902435 -378.628754 6.965166 0.401225
277.764343 -375.883911 5.508861 0.406985
278.033295 -376.532532 4.558515 0.404534
278.237122 -377.024170 3.559060 0.408333
287.827942 -400.155579 2.929081 1.000000
287.827942 -400.155579 1.070918 1.000000
281.672729 -385.310242 0.000267 0.228181
275.424438 -370.240448 -0.000005 0.331740
272.740814 -363.768066 0.000017 0.213956
271.246246 -360.163391 0.000021 0.244425
270.292053 -357.862030 0.000041 0.212611
269.628876 -356.262634 0.000035 0.195406
269.140289 -355.084167 0.000039 0.229527
287.434998 -400.241486 16.204239 1.000000
277.997559 -377.023224 8.834352 0.404289
277.980316 -376.980774 7.749396 0.409559
278.643616 -378.612671 6.948380 0.402819
277.584930 -376.008057 5.514234 0.405024
278.984467 -379.451202 4.809522 0.413235
278.194885 -377.508728 3.580292 0.416544
287.434998 -400.241455 2.927940 1.000000
287.434998 -400.241486 1.072060 1.000000
281.409119 -385.416351 0.000363 0.225394
275.266876 -370.305145 -0.000006 0.332230
272.628235 -363.813385 0.000114 0.216359
271.158875 -360.198456 0.000129 0.239331
270.220856 -357.890686 0.000139 0.225779
269.568878 -356.286682 0.000144 0.217224
269.088562 -355.105011 0.000136 0.199539
278.114960 -377.914886 10.144480 0.407353
277.611664 -376.651459 8.728746 0.411520
277.801147 -377.127045 7.761922 0.406985
278.634918 -379.220093 7.031488 0.407476
277.591095 -376.599701 5.577641 0.395956
287.042969 -400.327148 6.644186 1.000000
278.265228 -378.292053 3.617285 0.373652
287.042969 -400.327148 2.926846 1.000000
287.042969 -400.327148 1.073153 1.000000
281.146118 -385.524078 0.000276 0.228085
275.108917 -370.368713 -0.000007 0.332108
272.515106 -363.857361 0.000277 0.244521
271.071808 -360.234161 0.000040 0.204152
270.149841 -357.919830 0.000040 0.246251
269.509064 -356.311218 0.000047 0.241734
269.036957 -355.126068 0.000070 0.273260
277.593292 -377.202576 9.930555 0.404412
277.363434 -376.613617 8.701472 0.404902
277.416138 -376.748596 7.672163 0.401716
278.047852 -378.367218 6.881846 0.412255
277.328400 -376.523895 5.558442 0.403922
286.651886 -400.412628 6.638945 1.000000
278.480560 -379.475861 3.675266 0.405392
286.651886 -400.412628 2.925800 1.000000
286.651886 -400.412628 1.074200 1.000000
280.881836 -385.628510 0.000268 0.227989
274.950531 -370.431213 -0.000008 0.332475
272.402222 -363.901947 0.000269 0.232603
270.984253 -360.268738 0.000034 0.231449
270.078461 -357.947906 0.000051 0.241542
269.448944 -356.334930 0.000054 0.206651
268.985107 -355.146545 0.000061 0.257401
277.628082 -377.912628 10.099608 0.407843
277.236603 -376.888489 8.746985 0.408088
277.301361 -377.057892 7.717137 0.405024
277.737946 -378.200043 6.842155 0.405515
286.261658 -400.497955 8.501491 1.000000
278.093964 -379.131287 4.758332 0.376593
277.675323 -378.036133 3.595033 0.379534
286.261658 -400.497955 2.924801 1.000000
277.680908 -378.050812 1.468445 0.373039
277.682281 -378.054291 0.404009 0.374142
274.791687 -370.492554 -0.000010 0.332230
272.288727 -363.944855 0.000367 0.258362
270.896210 -360.302002 0.000138 0.212322
270.006683 -357.975067 0.000148 0.224817
269.388489 -356.357819 0.000149 0.215206
268.932983 -355.166290 0.000151 0.220588
277.115021 -377.185822 9.883865 0.407843
277.210297 -377.440277 8.856441 0.405270
277.040863 -376.987640 7.688409 0.404657
278.247711 -380.212006 7.148052 0.397917
277.461151 -378.110504 5.734388 0.377451
277.465912 -378.123291 4.662807 0.377574
277.458954 -378.104706 3.594426 0.375613
277.425385 -378.015015 2.529529 0.377941
277.406372 -377.964203 1.471360 0.370466
277.443085 -378.062378 0.407797 0.376226
274.632416 -370.552856 -0.000012 0.332353
272.175476 -363.988495 0.000280 0.230008
270.808350 -360.335815 0.000055 0.227701
269.935089 -358.002686 0.000058 0.198097
269.328156 -356.381042 0.000061 0.215879
268.880951 -355.186279 0.000079 0.223183
276.963409 -377.410675 9.923489 0.408578
277.222260 -378.117279 8.994460 0.399755
276.703979 -376.702545 7.618477 0.399142
285.483612 -400.668060 10.366333 1.000000
276.321533 -375.658600 5.424347 0.400000
285.483612 -400.668030 6.624637 1.000000
285.483612 -400.668030 4.770814 1.000000
285.483612 -400.668030 2.922945 1.000000
285.483612 -400.668030 1.077055 1.000000
280.085938 -385.934204 0.000056 0.228854
274.472717 -370.611938 -0.000010 0.334069
272.061768 -364.030853 0.000254 0.219243
270.720154 -360.368622 0.000031 0.217224
269.863190 -358.029449 0.000032 0.219243
269.267517 -356.403534 0.000056 0.264514
268.828735 -355.205719 0.000056 0.193099
277.087341 -378.410950 10.169630 0.409191
276.842712 -377.728485 8.887585 0.407108
276.419525 -376.547852 7.574377 0.399142
277.863220 -380.575531 7.179067 0.401348
276.184753 -375.892853 5.444324 0.402451
276.832062 -377.698792 4.612244 0.399632
276.363281 -376.390869 3.496849 0.391544
285.095703 -400.752838 2.922088 1.000000
285.095703 -400.752838 1.077913 1.000000
279.817932 -386.028717 0.000175 0.227509
274.312622 -370.669983 -0.000008 0.332230
271.947876 -364.072784 0.000185 0.233468
270.631378 -360.399933 0.000150 0.233468
269.790771 -358.054932 0.000165 0.224625
269.206573 -356.425049 0.000171 0.231353
268.776184 -355.224274 0.000168 0.216840
276.445770 -377.269165 9.846367 0.402819
276.769348 -378.192108 8.976669 0.404657
276.339478 -376.965973 7.641217 0.412132
284.708557 -400.837494 10.351199 1.000000
276.078094 -376.220398 5.475736 0.404289
276.963959 -378.747192 4.696885 0.381373
276.244202 -376.694214 3.508940 0.404902
284.708557 -400.837463 2.921276 1.000000
284.708557 -400.837463 1.078724 1.000000
279.550232 -386.124207 0.000147 0.226259
274.152100 -370.726837 -0.000006 0.331985
271.833588 -364.113586 0.000154 0.219531
270.542725 -360.431580 0.000121 0.243560
269.718506 -358.080688 0.000136 0.221357
269.145691 -356.446777 0.000144 0.220396
268.723663 -355.243011 0.000147 0.196367
284.322021 -400.921967 16.090496 1.000000
276.251862 -377.377869 8.773899 0.400000
276.272339 -377.437653 7.718306 0.387132
276.936707 -379.375854 6.965655 0.401103
275.800110 -376.059875 5.447813 0.406250
276.046661 -376.779175 4.519779 0.410417
284.322021 -400.921967 4.763503 1.000000
284.322021 -400.921967 2.920511 1.000000
284.322021 -400.921967 1.079490 1.000000
279.282349 -386.219025 0.000057 0.228950
273.991211 -370.782593 -0.000004 0.332108
271.719147 -364.154022 0.000069 0.228181
270.453888 -360.462738 0.000070 0.208574
269.646179 -358.106293 0.000050 0.243849
269.084717 -356.468262 0.000073 0.250577
268.671112 -355.261505 0.000074 0.229335
276.373627 -378.430756 10.115758 0.401471
276.285339 -378.167084 8.937655 0.412990
275.893188 -376.996429 7.620126 0.406985
277.072113 -380.515839 7.132261 0.409191
283.936096 -401.006317 8.466263 1.000000
275.969482 -377.224304 4.552316 0.392279
283.936096 -401.006317 4.761343 1.000000
283.936096 -401.006317 2.919792 1.000000
283.936096 -401.006317 1.080210 1.000000
279.012451 -386.308136 0.000167 0.224145
273.829926 -370.837250 -0.000004 0.333211
271.603912 -364.192139 0.000171 0.223183
270.364532 -360.492279 0.000176 0.265475
269.573669 -358.131348 -0.000034 0.241638
269.023346 -356.488556 0.000178 0.225394
268.618164 -355.278992 0.000184 0.259227
284.613708 -404.338684 16.925251 1.000000
276.247162 -378.771545 9.059000 0.396814
276.138062 -378.438141 7.883166 0.401593
276.552673 -379.705109 6.993875 0.401471
276.537231 -379.657898 5.867244 0.399387
275.696960 -377.090179 4.534852 0.405760
284.613708 -404.338654 4.927218 1.000000
284.613708 -404.338654 2.975044 1.000000
284.613708 -404.338654 1.024958 1.000000
278.743805 -386.400970 -0.000015 0.331863
273.668274 -370.890747 -0.000003 0.332598
271.488770 -364.230438 0.000153 0.229335
270.275208 -360.521942 0.000161 0.218954
269.500854 -358.155548 -0.000055 0.241926
268.962006 -356.509003 0.000148 0.194156
268.565277 -355.296570 0.000166 0.240388
285.563843 -408.678986 18.032925 1.000000
275.835205 -378.231903 8.920729 0.404657
275.945129 -378.575897 7.896218 0.406250
275.578278 -377.427917 6.627995 0.407476
276.312286 -379.724976 5.866624 0.402451
275.584320 -377.446777 4.559831 0.411642
285.563904 -408.679138 5.144472 1.000000
285.563904 -408.679108 3.047407 1.000000
285.563904 -408.679108 0.952592 1.000000
278.473358 -386.488342 -0.000010 0.332108
273.506256 -370.943146 -0.000002 0.333333
271.373566 -364.268616 0.000052 0.247885
270.185883 -360.551575 0.000059 0.233372
269.427979 -358.179718 -0.000156 0.236544
268.900909 -356.530121 -0.000133 0.235486
268.512604 -355.314850 -0.000126 0.251922
286.666412 -413.715546 19.319147 1.000000
275.583252 -378.175385 8.892705 0.401838
286.666412 -413.715515 14.580797 1.000000
275.330658 -377.365417 6.608099 0.400368
275.895721 -379.177460 5.792130 0.405882
275.289490 -377.233459 4.535874 0.411520
286.666412 -413.715546 5.396726 1.000000
286.666473 -413.715790 3.131438 1.000000
286.666473 -413.715790 0.868563 1.000000
278.202271 -386.573792 -0.000004 0.332598
273.343872 -370.994415 -0.000005 0.334559
