# This PCD file was generated using the MATLAB® pcwrite function
# from Computer Vision Toolbox®.
# .PCD v.7 - Point Cloud Data file format
VERSION .7
FIELDS x y z intensity
SIZE 4 4 4 4
TYPE F F F F
COUNT 1 1 1 1
WIDTH 1221
HEIGHT 1
VIEWPOINT 0 0 0 1 0 0 0
POINTS 1221
DATA ascii
192.355591 -220.429077 5.089159 0.752941
192.355591 -220.429077 4.663590 0.867647
192.355591 -220.429077 4.243996 0.619118
192.355591 -220.429077 3.829371 0.627696
192.355591 -220.429077 3.418754 0.653431
192.355591 -220.429077 3.011217 0.581250
192.355576 -220.429077 2.605863 0.494853
192.355591 -220.429077 2.201810 0.752941
192.355591 -220.429077 1.798190 0.741176
192.355576 -220.429077 1.394137 0.887377
192.355591 -220.429077 0.988783 0.681740
192.355591 -220.429077 0.581246 0.594975
192.355591 -220.429077 0.170629 0.619976
193.642212 -220.042572 0.000451 0.240100
195.300446 -219.544418 0.000517 0.236640
196.521591 -219.177567 0.000440 0.245194
192.294739 -220.357193 5.098652 0.752941
192.294724 -220.357193 4.671775 0.868015
192.294739 -220.357193 4.250891 0.601961
192.294724 -220.357193 3.834992 0.647672
192.294724 -220.357193 3.423113 0.651961
192.294724 -220.357193 3.014324 0.620588
192.294724 -220.357193 2.607724 0.556863
192.294724 -220.357193 2.202430 0.752451
192.294724 -220.357193 1.797570 0.741176
192.294724 -220.357193 1.392276 0.880760
192.294724 -220.357193 0.985676 0.641299
192.294724 -220.357193 0.576887 0.604534
192.294724 -220.357193 0.165008 0.583333
193.620529 -219.968979 0.000476 0.219627
195.282013 -219.482468 0.000507 0.265571
196.505768 -219.124130 0.000448 0.223280
192.233490 -220.284836 5.108355 0.752941
192.233490 -220.284836 4.680142 0.830882
192.233490 -220.284836 4.257940 0.548407
192.233490 -220.284836 3.840739 0.516789
192.233490 -220.284836 3.427570 0.658824
192.233490 -220.284836 3.017500 0.553064
192.233490 -220.284851 2.609627 0.680637
192.233490 -220.284836 2.203064 0.737255
192.233490 -220.284836 1.796936 0.741299
192.233490 -220.284851 1.390372 0.877941
192.233490 -220.284836 0.982499 0.593627
192.233490 -220.284836 0.572430 0.586152
192.233490 -220.284836 0.159261 0.701961
193.597733 -219.895691 0.000193 0.227989
195.263245 -219.420609 0.000321 0.240965
196.490021 -219.070663 0.000379 0.188774
192.171875 -220.212051 5.118272 0.752941
192.171875 -220.212051 4.688692 0.741176
192.171875 -220.212051 4.265144 0.590196
192.171875 -220.212051 3.846611 0.551348
192.171875 -220.212051 3.432124 0.760784
192.171875 -220.212051 3.020747 0.633701
192.171875 -220.212051 2.611572 0.708088
192.171875 -220.212051 2.203712 0.760662
192.171875 -220.212051 1.796288 0.752941
192.171875 -220.212051 1.388428 0.741176
192.171875 -220.212051 0.979253 0.588480
192.171875 -220.212051 0.567876 0.610049
192.171875 -220.212051 0.153389 0.709926
193.577728 -219.821625 0.000340 0.244329
195.246277 -219.358231 0.000443 0.220492
196.475464 -219.016876 0.000518 0.196175
192.109863 -220.138779 5.128405 0.574632
192.109863 -220.138779 4.697429 0.598284
192.109863 -220.138779 4.272504 0.556127
192.109848 -220.138779 3.852612 0.631863
192.109863 -220.138779 3.436778 0.716054
192.109863 -220.138779 3.024064 0.726716
192.109848 -220.138779 2.613559 0.623529
192.109863 -220.138779 2.204374 0.570466
192.109863 -220.138779 1.795626 0.602819
192.109848 -220.138779 1.386440 0.660172
192.109863 -220.138779 0.975936 0.563725
192.109863 -220.138779 0.563222 0.634314
192.109848 -220.138779 0.147388 0.698529
193.557495 -219.747620 0.000349 0.223664
195.229340 -219.295868 0.000477 0.212514
196.460678 -218.963150 0.000505 0.237601
192.047424 -220.065033 5.138758 0.769730
192.047424 -220.065033 4.706356 0.760784
192.047424 -220.065033 4.280025 0.554412
192.047424 -220.065033 3.858743 0.646691
192.047424 -220.065033 3.441533 0.664706
192.047424 -220.065033 3.027452 0.704289
192.047424 -220.065033 2.615590 0.535417
192.047424 -220.065033 2.205050 0.768627
192.047424 -220.065033 1.794950 0.761887
192.047424 -220.065033 1.384410 0.760784
192.047424 -220.065033 0.972547 0.667279
192.047424 -220.065033 0.558468 0.650858
192.047424 -220.065033 0.141257 0.681250
193.537766 -219.673462 0.000352 0.238947
195.212769 -219.233383 0.000493 0.202710
196.446808 -218.909180 0.000625 0.214533
191.984604 -219.990799 5.149333 0.776471
191.984604 -219.990784 4.715474 0.768627
191.984604 -219.990784 4.287707 0.622426
191.984604 -219.990784 3.865005 0.625858
191.984604 -219.990784 3.446390 0.690809
191.984604 -219.990784 3.030914 0.682598
191.984604 -219.990784 2.617664 0.563971
191.984604 -219.990784 2.205741 0.769240
191.984604 -219.990784 1.794259 0.768627
191.984604 -219.990784 1.382336 0.760784
191.984604 -219.990784 0.969085 0.658578
191.984604 -219.990784 0.553610 0.737868
191.984604 -219.990784 0.134995 0.691299
193.518173 -219.599289 0.000288 0.254421
195.196671 -219.170807 0.000516 0.221069
196.432587 -218.855286 0.000565 0.224529
191.921326 -219.916031 5.160134 0.760784
191.921326 -219.916031 4.724788 0.768627
191.921310 -219.916031 4.295553 0.678309
191.921310 -219.916031 3.871402 0.552206
191.921310 -219.916031 3.451350 0.593995
191.921310 -219.916031 3.034450 0.634804
191.921310 -219.916031 2.619783 0.587500
191.921310 -219.916031 2.206447 0.784681
191.921326 -219.916031 1.793553 0.768627
191.921310 -219.916031 1.380217 0.760784
191.921310 -219.916031 0.965550 0.654902
191.921310 -219.916031 0.548650 0.719240
191.921310 -219.916031 0.128598 0.681250
193.500107 -219.524719 0.000407 0.243656
195.181061 -219.108078 0.000552 0.241349
196.418976 -218.801254 0.000561 0.206651
191.857620 -219.840775 5.171165 0.776471
191.857620 -219.840759 4.734299 0.768627
191.857620 -219.840775 4.303565 0.677083
191.857620 -219.840775 3.877934 0.548284
191.857620 -219.840775 3.456416 0.581618
191.857620 -219.840759 3.038061 0.697917
191.857620 -219.840775 2.621946 0.630515
191.857620 -219.840759 2.207167 0.784681
191.857620 -219.840759 1.792833 0.768627
191.857620 -219.840775 1.378054 0.773652
191.857620 -219.840759 0.961939 0.609436
191.857620 -219.840775 0.543584 0.679289
191.857620 -219.840775 0.122066 0.701348
193.482040 -219.450165 0.000434 0.211842
195.164810 -219.045517 0.000345 0.257689
196.405838 -218.747101 0.000578 0.192138
191.793457 -219.764984 5.182428 0.776961
191.793457 -219.764984 4.744011 0.768627
191.793457 -219.764984 4.311749 0.708824
191.793457 -219.764969 3.884605 0.644118
191.793457 -219.764984 3.461589 0.669853
191.793457 -219.764984 3.041748 0.694853
191.793457 -219.764984 2.624155 0.675368
191.793457 -219.764969 2.207903 0.784681
191.793457 -219.764969 1.792097 0.768627
191.793457 -219.764984 1.375845 0.760784
191.793457 -219.764984 0.958251 0.604779
191.793457 -219.764969 0.538411 0.659681
191.793457 -219.764984 0.115396 0.597181
193.463348 -219.375748 0.000242 0.207516
195.149094 -218.982803 0.000163 0.212418
196.391632 -218.693192 0.000229 0.230008
191.728836 -219.688629 5.193930 0.776471
191.728836 -219.688629 4.753927 0.768627
191.728836 -219.688629 4.320103 0.752328
191.728836 -219.688629 3.891415 0.647672
191.728836 -219.688629 3.466871 0.720221
191.728836 -219.688629 3.045513 0.670711
191.728836 -219.688629 2.626411 0.601593
191.728836 -219.688629 2.208655 0.776471
191.728836 -219.688629 1.791346 0.768627
191.728836 -219.688629 1.373589 0.760784
191.728836 -219.688629 0.954487 0.631127
191.728836 -219.688629 0.533129 0.666667
191.728836 -219.688629 0.108585 0.598162
193.446854 -219.300812 0.000366 0.205882
195.135681 -218.919571 0.000395 0.266340
196.378845 -218.638931 0.000145 0.204441
191.663757 -219.611740 5.205670 0.776471
191.663742 -219.611740 4.764050 0.768627
191.663742 -219.611740 4.328631 0.755760
191.663742 -219.611740 3.898368 0.568260
191.663742 -219.611740 3.472264 0.633824
191.663742 -219.611740 3.049356 0.668015
191.663742 -219.611740 2.628713 0.601471
191.663742 -219.611740 2.209421 0.776471
191.663742 -219.611740 1.790579 0.768627
191.663742 -219.611740 1.371287 0.760784
191.663742 -219.611740 0.950643 0.661887
191.663742 -219.611740 0.527736 0.663848
191.663742 -219.611740 0.101632 0.607476
193.429916 -219.225983 0.000310 0.224145
195.121323 -218.856552 0.000318 0.206363
196.366577 -218.584564 0.000098 0.241734
191.598190 -219.534271 5.217654 0.776716
191.598175 -219.534271 4.774384 0.768627
191.598175 -219.534271 4.337336 0.760784
191.598175 -219.534271 3.905465 0.456618
191.598175 -219.534271 3.477767 0.637010
191.598175 -219.534271 3.053279 0.696201
191.598175 -219.534256 2.631064 0.539951
191.598175 -219.534256 2.210204 0.776471
191.598175 -219.534256 1.789796 0.768627
191.598175 -219.534271 1.368936 0.761397
191.598175 -219.534271 0.946721 0.596201
191.598175 -219.534271 0.522233 0.653922
191.598175 -219.534271 0.094535 0.626716
193.413773 -219.150970 0.000303 0.219819
195.107880 -218.793320 0.000348 0.241638
196.354858 -218.530075 0.000091 0.241157
191.532104 -219.456207 5.229888 0.620711
191.532104 -219.456207 4.784931 0.658578
191.532104 -219.456207 4.346222 0.658333
191.532104 -219.456207 3.912709 0.592770
191.532104 -219.456207 3.483386 0.551838
191.532104 -219.456207 3.057283 0.702328
191.532104 -219.456207 2.633463 0.623897
191.532104 -219.456207 2.211003 0.620711
191.532104 -219.456207 1.788997 0.658088
191.532104 -219.456207 1.366537 0.665809
191.532104 -219.456207 0.942716 0.578309
191.532104 -219.456207 0.516615 0.601593
191.532104 -219.456207 0.087291 0.673529
193.398926 -219.075699 0.000439 0.253749
195.095718 -218.729843 0.000561 0.227413
196.344101 -218.475388 0.000237 0.202518
191.465546 -219.377563 5.242372 0.853431
191.465546 -219.377563 4.795695 0.864951
191.465546 -219.377563 4.355290 0.803554
191.465546 -219.377563 3.920102 0.576103
191.465546 -219.377563 3.489118 0.560907
191.465546 -219.377563 3.061370 0.630392
191.465546 -219.377563 2.635911 0.603676
191.465546 -219.377563 2.211819 0.831985
191.465546 -219.377563 1.788181 0.861520
191.465546 -219.377563 1.364089 0.807966
191.465546 -219.377563 0.938630 0.563480
191.465546 -219.377563 0.510882 0.633578
191.465546 -219.377563 0.079899 0.623284
193.383392 -219.000565 0.000356 0.199827
195.082306 -218.666611 0.000401 0.242215
196.332779 -218.420792 0.000141 0.213091
191.398438 -219.298294 5.255113 0.859559
191.398438 -219.298294 4.806682 0.846691
191.398438 -219.298294 4.364546 0.824755
191.398438 -219.298294 3.927648 0.686765
191.398438 -219.298294 3.494971 0.568382
191.398438 -219.298294 3.065541 0.629779
191.398438 -219.298294 2.638411 0.572426
191.398438 -219.298294 2.212652 0.841054
191.398438 -219.298294 1.787349 0.850735
191.398438 -219.298294 1.361589 0.818750
191.398438 -219.298294 0.934459 0.663358
191.398438 -219.298294 0.505029 0.576348
191.398438 -219.298294 0.072353 0.633701
193.368637 -218.925262 0.000312 0.208766
195.068512 -218.603439 0.000063 0.231353
196.321991 -218.366119 0.000081 0.245771
191.330811 -219.218399 5.268113 0.872181
191.330811 -219.218399 4.817891 0.850735
191.330811 -219.218399 4.373990 0.880024
191.330811 -219.218399 3.935346 0.540319
191.330811 -219.218399 3.500942 0.625123
191.330811 -219.218399 3.069796 0.641422
191.330811 -219.218399 2.640960 0.551838
191.330811 -219.218399 2.213500 0.856250
191.330811 -219.218399 1.786499 0.887132
191.330811 -219.218399 1.359040 0.824265
191.330811 -219.218399 0.930203 0.541912
191.330811 -219.218399 0.499059 0.613480
191.330811 -219.218399 0.064654 0.640931
193.355179 -218.849731 0.000414 0.219050
195.057297 -218.539780 0.000190 0.217320
196.312347 -218.311218 0.000222 0.259035
191.262634 -219.137848 5.281379 0.536397
191.262634 -219.137833 4.829329 0.566789
191.262619 -219.137833 4.383627 0.556740
191.262634 -219.137848 3.943202 0.598897
191.262619 -219.137833 3.507034 0.526471
191.262634 -219.137848 3.074139 0.628922
191.262634 -219.137833 2.643562 0.587868
191.262619 -219.137833 2.214367 0.565931
191.262619 -219.137833 1.785633 0.575980
191.262634 -219.137833 1.356438 0.543873
191.262634 -219.137848 0.925861 0.613971
191.262634 -219.137833 0.492966 0.551471
191.262634 -219.137848 0.056798 0.633701
193.341476 -218.774246 0.000373 0.257401
195.046127 -218.476105 0.000231 0.203095
196.302673 -218.256332 0.000250 0.238466
191.193909 -219.056641 5.294915 0.554779
191.193909 -219.056641 4.841000 0.607721
191.193909 -219.056641 4.393458 0.576593
191.193909 -219.056641 3.951218 0.643873
191.193909 -219.056641 3.513250 0.653186
191.193909 -219.056641 3.078570 0.639583
191.193909 -219.056641 2.646216 0.618015
191.193909 -219.056641 2.215252 0.588235
191.193909 -219.056641 1.784748 0.579657
191.193909 -219.056641 1.353783 0.584436
191.193909 -219.056641 0.921430 0.618995
191.193909 -219.056641 0.486750 0.665809
191.193909 -219.056641 0.048782 0.653309
193.329056 -218.698547 0.000472 0.274990
195.035248 -218.412384 0.000239 0.248078
196.293274 -218.201401 0.000253 0.241349
191.124603 -218.974747 5.308724 0.559804
191.124588 -218.974762 4.852907 0.615686
191.124588 -218.974762 4.403490 0.593382
191.124588 -218.974762 3.959396 0.600245
191.124588 -218.974762 3.519593 0.695833
191.124588 -218.974762 3.083090 0.622672
191.124588 -218.974762 2.648925 0.612500
191.124588 -218.974762 2.216154 0.606740
191.124588 -218.974762 1.783846 0.606495
191.124588 -218.974762 1.351075 0.596936
191.124588 -218.974762 0.916910 0.626961
191.124588 -218.974762 0.480407 0.586642
191.124588 -218.974762 0.040604 0.636397
193.316956 -218.622772 0.000533 0.213091
195.025024 -218.348541 0.000295 0.226740
196.284851 -218.146286 0.000405 0.240677
191.054703 -218.892181 5.322811 0.568995
191.054703 -218.892181 4.865054 0.595956
191.054703 -218.892181 4.413723 0.591789
191.054703 -218.892181 3.967738 0.633333
191.054703 -218.892181 3.526063 0.667892
191.054703 -218.892181 3.087701 0.561520
191.054703 -218.892181 2.651688 0.677819
191.054703 -218.892181 2.217074 0.606373
191.054703 -218.892181 1.782926 0.598897
191.054703 -218.892181 1.348312 0.587132
191.054703 -218.892181 0.912298 0.544853
191.054703 -218.892181 0.473937 0.523162
191.054703 -218.892181 0.032262 0.615319
193.305054 -218.546997 0.000533 0.234910
195.015030 -218.284698 0.000299 0.186755
196.276260 -218.091232 0.000416 0.255767
190.984192 -218.808914 5.337186 0.455025
190.984192 -218.808914 4.877447 0.771078
190.984192 -218.808914 4.424164 0.811765
190.984192 -218.808914 3.976250 0.471446
190.984192 -218.808914 3.532664 0.681740
190.984192 -218.808914 3.092406 0.629412
190.984192 -218.808914 2.654507 0.690074
190.984192 -218.808914 2.218013 0.741176
190.984192 -218.808914 1.781987 0.776838
190.984192 -218.808914 1.345493 0.808701
190.984192 -218.808914 0.907593 0.581863
190.984192 -218.808914 0.467336 0.643015
190.984192 -218.808914 0.023750 0.632721
193.293411 -218.471161 0.000483 0.270281
195.005600 -218.220749 0.000333 0.241349
196.267746 -218.036148 0.000353 0.190408
190.913101 -218.724884 5.351845 0.380515
190.913086 -218.724884 4.890087 0.809069
190.913101 -218.724884 4.434813 0.878431
190.913101 -218.724884 3.984931 0.444118
190.913101 -218.724884 3.539396 0.675858
190.913101 -218.724884 3.097205 0.618995
190.913101 -218.724884 2.657382 0.640196
190.913101 -218.724884 2.218971 0.722794
190.913101 -218.724884 1.781029 0.839093
190.913101 -218.724884 1.342618 0.879902
190.913101 -218.724884 0.902794 0.598897
190.913101 -218.724884 0.460604 0.689216
190.913101 -218.724884 0.015070 0.532108
193.281815 -218.395325 0.000340 0.253268
194.996567 -218.156754 0.000353 0.258554
196.260269 -217.980911 0.000453 0.187236
190.841354 -218.640137 5.366801 0.502941
190.841354 -218.640137 4.902983 0.808333
190.841354 -218.640137 4.445677 0.880515
190.841354 -218.640137 3.993788 0.635172
190.841354 -218.640137 3.546265 0.667770
190.841354 -218.640137 3.102101 0.588603
190.841354 -218.640137 2.660315 0.676961
190.841354 -218.640137 2.219948 0.720711
190.841354 -218.640137 1.780052 0.819608
190.841354 -218.640137 1.339685 0.876838
190.841354 -218.640137 0.897899 0.706250
190.841354 -218.640137 0.453735 0.683946
190.841354 -218.640137 0.006212 0.564706
193.271790 -218.319244 0.000393 0.238081
194.988052 -218.092667 0.000388 0.220396
196.252960 -217.925674 0.000497 0.203095
190.768967 -218.554611 5.382056 0.401716
190.768951 -218.554611 4.916137 0.762868
190.768967 -218.554611 4.456759 0.883824
190.768951 -218.554611 4.002822 0.620466
190.768967 -218.554611 3.553272 0.662377
190.768951 -218.554611 3.107095 0.544608
190.768967 -218.554611 2.663307 0.680270
190.768967 -218.554611 2.220944 0.746936
190.768967 -218.554611 1.779055 0.798162
190.768967 -218.554611 1.336693 0.900858
190.768951 -218.554611 0.892905 0.555147
190.768967 -218.554611 0.446728 0.671446
190.768951 -218.554611 -0.002822 0.597059
193.261642 -218.243210 0.000325 0.245483
194.980026 -218.028534 0.000436 0.230392
196.245636 -217.870438 0.000439 0.221646
190.695923 -218.468307 5.397615 0.298284
190.695908 -218.468307 4.929553 0.752941
190.695923 -218.468307 4.468061 0.879412
190.695908 -218.468307 4.012036 0.623039
190.695923 -218.468307 3.560418 0.629289
190.695923 -218.468307 3.112188 0.557353
190.695923 -218.468307 2.666359 0.753676
190.695908 -218.468307 2.221961 0.750368
190.695908 -218.468307 1.778039 0.741176
190.695923 -218.468307 1.333641 0.905392
190.695923 -218.468307 0.887811 0.686275
190.695923 -218.468307 0.439582 0.653799
190.779953 -218.458389 0.000517 0.263937
193.252579 -218.167023 0.000359 0.205978
194.971939 -217.964417 0.000372 0.227316
196.238632 -217.815140 0.000372 0.210496
190.622192 -218.381210 5.413487 0.140809
190.622192 -218.381210 4.943238 0.752941
190.622192 -218.381210 4.479590 0.878431
190.622192 -218.381210 4.021435 0.524020
190.622192 -218.381210 3.567707 0.600123
190.622192 -218.381210 3.117383 0.631250
190.622192 -218.381210 2.669472 0.667892
190.622192 -218.381210 2.222998 0.754534
190.622192 -218.381210 1.777002 0.741176
190.622192 -218.381210 1.330528 0.898775
190.622192 -218.381210 0.882616 0.622304
190.622192 -218.381210 0.432294 0.647426
190.768188 -218.365036 0.000355 0.220588
193.244186 -218.090759 0.000419 0.200019
194.964798 -217.900177 0.000413 0.223472
196.232864 -217.759720 0.000513 0.187332
190.547760 -218.293274 5.429674 0.105882
190.547760 -218.293274 4.957196 0.747304
190.547760 -218.293274 4.491350 0.738113
190.547760 -218.293274 4.031021 0.512868
190.547760 -218.293274 3.575141 0.582598
190.547760 -218.293274 3.122683 0.696691
190.547760 -218.293274 2.672646 0.657108
190.547760 -218.293274 2.224055 0.744363
190.547760 -218.293274 1.775945 0.741176
190.547760 -218.293274 1.327353 0.862868
190.547760 -218.293274 0.877317 0.441299
190.547760 -218.293274 0.424859 0.734314
190.757813 -218.271484 0.000305 0.200404
193.234589 -218.014618 0.000159 0.218281
194.957230 -217.835968 0.000266 0.213860
196.225983 -217.704391 0.000276 0.214821
190.472626 -218.204498 5.446186 0.133578
190.472610 -218.204498 4.971433 0.574387
190.472610 -218.204498 4.503345 0.621569
190.472610 -218.204498 4.040799 0.583824
190.472610 -218.204498 3.582725 0.647794
190.472610 -218.204498 3.128088 0.701348
190.472610 -218.204498 2.675885 0.671691
190.472610 -218.204498 2.225134 0.550735
190.472610 -218.204498 1.774866 0.595343
190.472610 -218.204498 1.324115 0.642034
190.472610 -218.204498 0.871912 0.698775
190.472610 -218.204498 0.417275 0.705392
190.748672 -218.177811 0.000341 0.197905
193.226578 -217.938324 0.000091 0.256824
194.950500 -217.771683 0.000206 0.226932
196.220520 -217.648926 0.000300 0.216263
190.396759 -218.114868 5.463026 0.479289
190.396744 -218.114868 4.985953 0.768627
190.396744 -218.114868 4.515576 0.760784
190.396744 -218.114868 4.050771 0.620221
190.396744 -218.114868 3.590459 0.672426
190.396744 -218.114868 3.133600 0.694608
190.396744 -218.114868 2.679187 0.758088
190.396744 -218.114868 2.226234 0.766176
190.396744 -218.114868 1.773766 0.768627
190.396744 -218.114868 1.320813 0.790196
190.396744 -218.114868 0.866400 0.650858
190.396744 -218.114868 0.409541 0.650000
190.740341 -218.084076 0.000400 0.193772
193.219788 -217.861893 0.000151 0.253460
194.944702 -217.707291 0.000249 0.222318
196.215515 -217.593414 0.000342 0.191176
190.320145 -218.024353 5.480202 0.492525
190.320129 -218.024353 5.000763 0.768627
190.320129 -218.024353 4.528053 0.768627
190.320129 -218.024353 4.060944 0.561397
190.320129 -218.024353 3.598348 0.657353
190.320129 -218.024353 3.139223 0.680515
190.320129 -218.024353 2.682556 0.737010
190.320129 -218.024353 2.227356 0.775613
190.320129 -218.024353 1.772644 0.768627
190.320129 -218.024353 1.317444 0.765319
190.320129 -218.024353 0.860777 0.490564
190.320129 -218.024353 0.401652 0.594485
190.730118 -217.990494 0.000080 0.208093
193.213333 -217.785431 0.000175 0.230584
194.939316 -217.642883 0.000284 0.197520
196.210861 -217.537888 0.000369 0.269127
190.242752 -217.932922 5.497722 0.375980
190.242752 -217.932922 5.015867 0.776348
190.242752 -217.932922 4.540779 0.773652
190.242752 -217.932922 4.071317 0.593505
190.242752 -217.932922 3.606392 0.664461
190.242752 -217.932922 3.144957 0.723897
190.242752 -217.932922 2.685992 0.732230
190.242752 -217.932922 2.228500 0.785662
190.242752 -217.932922 1.771499 0.768627
190.242752 -217.932922 1.314008 0.839583
190.242752 -217.932922 0.855043 0.703064
190.242752 -217.932922 0.393608 0.630147
190.723099 -217.896637 0.000137 0.234141
193.207489 -217.708923 0.000210 0.208574
194.934433 -217.578445 0.000325 0.204921
196.206589 -217.482315 0.000399 0.233180
190.164581 -217.840561 5.515590 0.484804
190.164581 -217.840561 5.031275 0.769730
190.164581 -217.840561 4.553759 0.768627
190.164566 -217.840561 4.081900 0.572672
190.164581 -217.840561 3.614600 0.667770
190.164581 -217.840561 3.150806 0.664583
190.164581 -217.840561 2.689496 0.711765
190.164581 -217.840561 2.229668 0.751716
190.164581 -217.840561 1.770332 0.768627
190.164581 -217.840561 1.310503 0.706495
190.164581 -217.840561 0.849193 0.585662
190.164581 -217.840561 0.385400 0.633578
190.716583 -217.802734 0.000175 0.221069
193.201813 -217.632401 0.000180 0.247885
194.929489 -217.513977 0.000263 0.211745
196.202682 -217.426727 0.000429 0.202230
190.085602 -217.747269 5.533814 0.520833
190.085587 -217.747253 5.046989 0.768137
190.085602 -217.747269 4.566998 0.768627
190.085587 -217.747269 4.092691 0.527819
190.085587 -217.747269 3.622970 0.639461
190.085587 -217.747253 3.156772 0.673162
190.085587 -217.747269 2.693071 0.663603
190.085587 -217.747269 2.230859 0.742034
190.085587 -217.747269 1.769141 0.768627
190.085587 -217.747269 1.306929 0.700980
190.085587 -217.747253 0.843227 0.573162
190.085587 -217.747269 0.377030 0.600245
190.710785 -217.708801 0.000221 0.203095
193.197571 -217.555786 0.000318 0.265186
194.925980 -217.449448 0.000410 0.191561
196.198395 -217.371155 0.000257 0.233276
190.005783 -217.652985 5.552404 0.583211
190.005783 -217.652985 5.063016 0.776471
190.005783 -217.652969 4.580501 0.768627
190.005783 -217.652985 4.103700 0.487623
190.005783 -217.652969 3.631507 0.661642
190.005783 -217.652985 3.162857 0.756005
190.005783 -217.652985 2.696717 0.645711
190.005783 -217.652985 2.232073 0.742402
190.005783 -217.652985 1.767927 0.768627
190.005783 -217.652985 1.303283 0.731740
190.005783 -217.652985 0.837143 0.572672
190.005783 -217.652969 0.368493 0.658211
190.705704 -217.614807 0.000276 0.242118
193.193344 -217.479172 0.000354 0.257305
194.922394 -217.384918 0.000447 0.203095
196.195358 -217.315506 0.000305 0.212803
189.925125 -217.557678 5.571363 0.466054
189.925125 -217.557678 5.079365 0.771691
189.925125 -217.557678 4.594274 0.765196
189.925125 -217.557678 4.114928 0.486275
189.925125 -217.557693 3.640215 0.746446
189.925125 -217.557693 3.169064 0.750000
189.925125 -217.557693 2.700435 0.695588
189.925125 -217.557678 2.233312 0.743505
189.925125 -217.557678 1.766688 0.777574
189.925125 -217.557678 1.299565 0.663113
189.925125 -217.557678 0.830936 0.658824
189.925125 -217.557693 0.359785 0.635539
190.700714 -217.520828 0.000248 0.221934
193.188843 -217.402588 0.000248 0.258458
194.918503 -217.320389 0.000319 0.225971
196.191986 -217.259857 0.000173 0.222030
189.843613 -217.461365 5.590704 0.668995
189.843613 -217.461365 5.096040 0.527328
189.843613 -217.461365 4.608322 0.557230
189.843613 -217.461365 4.126380 0.462500
189.843613 -217.461365 3.649096 0.660294
189.843613 -217.461365 3.175394 0.693260
189.843613 -217.461365 2.704228 0.660049
189.843613 -217.461365 2.234575 0.522549
189.843613 -217.461365 1.765425 0.560417
189.843613 -217.461365 1.295772 0.577819
189.843613 -217.461365 0.824605 0.669730
189.843613 -217.461365 0.350904 0.686520
190.696228 -217.426819 0.000197 0.221934
193.185638 -217.325928 0.000279 0.196847
194.915848 -217.255798 0.000359 0.258747
196.189621 -217.204163 0.000195 0.196463
189.761200 -217.363998 5.610430 0.632475
189.761200 -217.363998 5.113050 0.867402
189.761200 -217.363998 4.622652 0.898897
189.761200 -217.363998 4.138063 0.398162
189.761200 -217.363998 3.658157 0.607598
189.761200 -217.363998 3.181851 0.631740
189.761200 -217.363998 2.708097 0.663848
189.761200 -217.363998 2.235864 0.864461
189.761200 -217.363998 1.764136 0.879534
189.761200 -217.363998 1.291903 0.565441
189.761200 -217.363998 0.818148 0.631985
189.761200 -217.363998 0.341843 0.661520
190.692490 -217.332779 0.000158 0.223952
193.182556 -217.249268 0.000236 0.198193
194.913284 -217.191208 0.000320 0.222414
196.187805 -217.148468 0.000259 0.244329
189.677872 -217.265549 5.630555 0.589828
189.677872 -217.265549 5.130401 0.844485
189.677872 -217.265549 4.637270 0.834804
189.677872 -217.265549 4.149980 0.157475
189.677872 -217.265549 3.667399 0.526716
189.677872 -217.265549 3.188439 0.626961
189.677872 -217.265549 2.712044 0.614216
189.677856 -217.265549 2.237179 0.854044
189.677856 -217.265549 1.762822 0.856863
189.677872 -217.265549 1.287956 0.567892
189.677872 -217.265549 0.811561 0.603309
189.677872 -217.265549 0.332601 0.633946
190.690018 -217.238678 0.000210 0.200019
193.181015 -217.172546 0.000375 0.256344
194.912048 -217.126587 0.000472 0.224529
196.185638 -217.092773 0.000133 0.204344
189.593613 -217.166000 5.651082 0.638113
189.593597 -217.166000 5.148101 0.585539
189.593597 -217.166000 4.652182 0.578186
189.593597 -217.166000 4.162136 0.123897
189.593597 -217.166000 3.676826 0.662500
189.593597 -217.166016 3.195158 0.539828
189.593597 -217.166000 2.716070 0.600735
189.593597 -217.166000 2.238519 0.567524
189.593597 -217.166000 1.761481 0.580760
189.593597 -217.166000 1.283930 0.588480
189.593597 -217.166016 0.804841 0.726838
189.593597 -217.166000 0.323173 0.697549
190.687607 -217.144608 0.000175 0.256055
193.179047 -217.095840 0.000339 0.222991
194.910278 -217.061981 0.000408 0.237601
196.184464 -217.037048 0.000158 0.242983
189.508377 -217.065308 5.672023 0.673039
189.508377 -217.065308 5.166156 0.599265
189.508377 -217.065308 4.667393 0.599755
189.508377 -217.065308 4.174537 0.154412
189.508377 -217.065308 3.686444 0.672672
189.508377 -217.065308 3.202013 0.511275
189.508377 -217.065308 2.720177 0.609804
189.508377 -217.065308 2.239887 0.585907
189.508377 -217.065308 1.760113 0.603064
189.508377 -217.065308 1.279823 0.565809
189.508377 -217.065308 0.797987 0.684436
189.508377 -217.065308 0.313556 0.681495
190.686478 -217.050491 0.000233 0.257689
193.177597 -217.019135 0.000298 0.244714
194.908447 -216.997360 0.000241 0.201269
196.183472 -216.981323 0.000134 0.287101
189.422150 -216.963455 5.693387 0.699265
189.422150 -216.963440 5.184577 0.607230
189.422150 -216.963440 4.682912 0.594975
189.422150 -216.963440 4.187188 0.468995
189.422150 -216.963440 3.696256 0.631495
189.422150 -216.963440 3.209007 0.655637
189.422150 -216.963440 2.724367 0.613603
189.422150 -216.963440 2.241283 0.596691
189.422150 -216.963440 1.758717 0.596078
189.422150 -216.963440 1.275633 0.604779
189.422150 -216.963440 0.790993 0.686029
189.422150 -216.963440 0.303744 0.508824
190.685898 -216.956360 0.000276 0.223280
193.177277 -216.942413 0.000367 0.208670
194.907288 -216.932739 0.000116 0.256824
196.183167 -216.925583 0.000184 0.215206
189.334915 -216.860382 5.715184 0.614093
189.334915 -216.860382 5.203372 0.741176
189.334915 -216.860382 4.698746 0.800613
189.334915 -216.860382 4.200097 0.510417
189.334915 -216.860382 3.706267 0.654534
189.334915 -216.860382 3.216142 0.735784
189.334915 -216.860382 2.728642 0.471446
189.334915 -216.860382 2.242707 0.603309
189.334915 -216.860382 1.757293 0.799142
189.334915 -216.860382 1.271358 0.438848
189.334915 -216.860382 0.783857 0.674510
189.334915 -216.860382 0.293734 0.610539
190.685669 -216.862259 0.000268 0.273068
193.177322 -216.865692 0.000405 0.261053
194.906998 -216.868088 0.000083 0.225875
196.183228 -216.869843 0.000230 0.294502
189.246643 -216.756104 5.737421 0.550735
189.246643 -216.756104 5.222546 0.711275
189.246643 -216.756104 4.714900 0.820466
189.246643 -216.756104 4.213265 0.498284
189.246643 -216.756104 3.716480 0.657230
189.246643 -216.756104 3.223421 0.745711
189.246643 -216.756104 2.733003 0.567402
189.246643 -216.756104 2.244160 0.604412
189.246643 -216.756104 1.755840 0.822672
189.246643 -216.756104 1.266997 0.453186
189.246643 -216.756104 0.776578 0.680637
189.246643 -216.756104 0.283520 0.574387
190.687027 -216.768143 0.000402 0.223760
193.177032 -216.788971 0.000282 0.256440
194.907990 -216.803436 0.000230 0.216071
196.183731 -216.814117 0.000289 0.219146
189.157318 -216.650558 5.760112 0.614461
189.157318 -216.650558 5.242111 0.618750
189.157318 -216.650558 4.731381 0.824142
189.157318 -216.650558 4.226703 0.528431
189.157318 -216.650558 3.726900 0.628922
189.157318 -216.650558 3.230849 0.713971
189.157318 -216.650558 2.737453 0.572672
189.157318 -216.650558 2.245642 0.619118
189.157318 -216.650558 1.754358 0.828676
189.157318 -216.650558 1.262546 0.552451
189.157318 -216.650558 0.769151 0.664216
189.157318 -216.650558 0.273100 0.726348
190.687317 -216.674042 0.000281 0.211842
193.177780 -216.712250 0.000256 0.244137
194.908173 -216.738800 0.000104 0.222799
196.184250 -216.758377 0.000251 0.211073
189.066864 -216.543716 5.783265 0.678431
189.066864 -216.543701 5.262074 0.654902
189.066864 -216.543716 4.748200 0.741176
189.066864 -216.543716 4.240414 0.578554
189.066864 -216.543716 3.737534 0.583333
189.066864 -216.543716 3.238428 0.707230
189.066864 -216.543716 2.741994 0.628799
189.066864 -216.543716 2.247155 0.632721
189.066864 -216.543716 1.752845 0.741176
189.066864 -216.543716 1.258006 0.552941
189.066864 -216.543716 0.761572 0.687255
189.066864 -216.543716 0.262466 0.688480
190.689667 -216.579941 0.000366 0.223760
193.179626 -216.635544 0.000328 0.233372
194.910156 -216.674179 0.000270 0.189735
196.184296 -216.702621 0.000002 0.344118
188.975311 -216.435547 5.806891 0.648039
188.975311 -216.435547 5.282446 0.767034
188.975311 -216.435547 4.765363 0.741176
188.975311 -216.435547 4.254405 0.531618
188.975311 -216.435547 3.748385 0.683211
188.975311 -216.435547 3.246162 0.721569
188.975311 -216.435547 2.746628 0.674755
188.975311 -216.435547 2.248698 0.625613
188.975311 -216.435547 1.751302 0.741176
188.975311 -216.435547 1.253372 0.565196
188.975311 -216.435547 0.753838 0.676593
188.975311 -216.435547 0.251615 0.718750
190.690689 -216.485825 0.000158 0.249712
193.181061 -216.558838 0.000227 0.284025
194.911270 -216.609558 0.000149 0.264321
196.185745 -216.646912 0.000005 0.337623
188.882584 -216.326004 5.831002 0.619363
188.882584 -216.326004 5.303236 0.732598
188.882584 -216.326004 4.782878 0.747672
188.882584 -216.326004 4.268683 0.563848
188.882584 -216.326004 3.759458 0.601225
188.882584 -216.326004 3.254055 0.692647
188.882584 -216.326004 2.751357 0.658456
188.882584 -216.326004 2.250274 0.635172
188.882584 -216.326004 1.749727 0.741176
188.882584 -216.326004 1.248643 0.627083
188.882584 -216.326004 0.745945 0.628064
188.882599 -216.326004 0.240542 0.733456
190.694305 -216.391769 0.000235 0.230681
193.184402 -216.482162 0.000379 0.265955
194.914078 -216.544968 0.000298 0.194156
196.187576 -216.591202 0.000003 0.340441
188.788696 -216.215057 5.855610 0.597794
188.788696 -216.215057 5.324453 0.709926
188.788696 -216.215057 4.800754 0.752574
188.788696 -216.215057 4.283255 0.574265
188.788696 -216.215057 3.770760 0.635907
188.788696 -216.215057 3.262109 0.666667
188.788696 -216.215057 2.756183 0.669363
188.788696 -216.215057 2.251881 0.656863
188.788696 -216.215057 1.748119 0.753431
188.788696 -216.215057 1.243817 0.602574
188.788696 -216.215057 0.737890 0.661029
188.788696 -216.215057 0.229240 0.678064
190.697800 -216.297714 0.000199 0.227797
193.185669 -216.405426 0.000054 0.264706
194.916183 -216.480362 0.000197 0.208093
196.229645 -216.537231 0.009995 1.000000
188.693573 -216.102676 5.880727 0.716667
188.693573 -216.102676 5.346109 0.667034
188.693573 -216.102676 4.818997 0.768627
188.693573 -216.102692 4.298129 0.638235
188.693573 -216.102676 3.782295 0.651961
188.693573 -216.102692 3.270332 0.709436
188.693573 -216.102676 2.761109 0.551348
188.693573 -216.102676 2.253521 0.647917
188.693573 -216.102676 1.746478 0.768627
188.693573 -216.102676 1.238891 0.581127
188.693573 -216.102692 0.729668 0.634559
188.693573 -216.102676 0.217705 0.709559
190.702759 -216.203735 0.000283 0.264225
193.190094 -216.328827 0.000208 0.207901
194.919891 -216.415817 0.000344 0.248847
196.232239 -216.481827 0.009996 1.000000
188.597198 -215.988815 5.906365 0.634436
188.597198 -215.988815 5.368215 0.513113
188.597183 -215.988815 4.837622 0.768627
188.597198 -215.988815 4.313312 0.825368
188.597198 -215.988815 3.794070 0.689583
188.597198 -215.988815 3.278724 0.597672
188.597198 -215.988815 2.766137 0.666544
188.597198 -215.988815 2.255197 0.660662
188.597198 -215.988815 1.744803 0.768627
188.597198 -215.988815 1.233863 0.546691
188.597198 -215.988815 0.721276 0.674020
188.597198 -215.988815 0.205930 0.634681
190.707794 -216.109756 0.000279 0.226355
193.194229 -216.252213 0.000208 0.223183
194.923264 -216.351288 0.000326 0.215494
196.235214 -216.426453 0.009997 1.000000
188.499557 -215.873459 5.932535 0.705882
188.499527 -215.873459 5.390781 0.380760
188.499542 -215.873459 4.856632 0.768627
188.499527 -215.873444 4.328811 0.758578
188.499527 -215.873459 3.806089 0.725858
188.499542 -215.873459 3.287290 0.609314
188.499542 -215.873459 2.771270 0.669730
188.499542 -215.873459 2.256907 0.663971
188.499542 -215.873459 1.743094 0.768627
188.499542 -215.873459 1.228730 0.524877
188.499542 -215.873459 0.712709 0.677328
188.499527 -215.873459 0.193911 0.602819
190.712830 -216.015762 0.000179 0.229047
193.198364 -216.175583 0.000114 0.226836
194.927078 -216.286743 0.000301 0.204825
196.238586 -216.371078 0.009998 1.000000
nan nan nan 0.000000
nan nan nan 0.000000
nan nan nan 0.000000
nan nan nan 0.000000
nan nan nan 0.000000
nan nan nan 0.000000
nan nan nan 0.000000
nan nan nan 0.000000
nan nan nan 0.000000
244.776382 -219.776947 -0.000090 0.227124
228.497421 -218.616013 -0.000068 0.235390
221.507904 -218.117554 -0.000006 0.334314
217.615524 -217.839981 -0.000004 0.331495
215.130234 -217.662735 0.000060 0.246540
213.403549 -217.539597 -0.000025 0.230584
212.130890 -217.448837 0.000020 0.261053
nan nan nan 0.000000
nan nan nan 0.000000
nan nan nan 0.000000
nan nan nan 0.000000
nan nan nan 0.000000
nan nan nan 0.000000
nan nan nan 0.000000
nan nan nan 0.000000
nan nan nan 0.000000
244.755997 -220.060455 -0.000130 0.221934
228.485168 -218.785858 -0.000106 0.229143
221.498840 -218.238586 -0.000006 0.332353
217.608505 -217.933838 -0.000004 0.341667
215.124756 -217.739273 0.000014 0.192426
213.398926 -217.604080 -0.000067 0.214725
212.126984 -217.504440 -0.000041 0.225010
nan nan nan 0.000000
nan nan nan 0.000000
nan nan nan 0.000000
nan nan nan 0.000000
nan nan nan 0.000000
nan nan nan 0.000000
nan nan nan 0.000000
nan nan nan 0.000000
nan nan nan 0.000000
244.730362 -220.343536 -0.000010 0.229047
228.469727 -218.955460 0.000022 0.229047
221.488937 -218.359573 -0.000006 0.334314
217.600815 -218.027664 -0.000004 0.335907
215.117859 -217.815704 0.000132 0.229912
213.393188 -217.668472 0.000030 0.183391
212.121948 -217.559952 0.000079 0.217897
nan nan nan 0.000000
nan nan nan 0.000000
nan nan nan 0.000000
nan nan nan 0.000000
nan nan nan 0.000000
nan nan nan 0.000000
nan nan nan 0.000000
nan nan nan 0.000000
nan nan nan 0.000000
244.705978 -220.626709 -0.000048 0.229239
228.455292 -219.125137 -0.000031 0.220684
221.478210 -218.480453 -0.000006 0.332721
217.592484 -218.121414 -0.000004 0.334314
215.111343 -217.892166 0.000080 0.249423
213.387711 -217.732880 -0.000020 0.211649
212.117188 -217.615494 0.000036 0.228374
nan nan nan 0.000000
nan nan nan 0.000000
nan nan nan 0.000000
nan nan nan 0.000000
nan nan nan 0.000000
nan nan nan 0.000000
nan nan nan 0.000000
nan nan nan 0.000000
nan nan nan 0.000000
244.679596 -220.909698 -0.000086 0.229719
228.439499 -219.294693 -0.000070 0.223280
221.466614 -218.601273 -0.000006 0.335294
217.583496 -218.215103 -0.000004 0.329044
215.104279 -217.968552 0.000031 0.232411
213.381760 -217.797272 -0.000069 0.291811
212.112122 -217.671005 -0.000031 0.248462
nan nan nan 0.000000
nan nan nan 0.000000
nan nan nan 0.000000
nan nan nan 0.000000
nan nan nan 0.000000
302.952332 -227.401642 10.145761 1.000000
302.952240 -227.401611 6.880464 1.000000
302.952271 -227.401611 3.625660 1.000000
302.952271 -227.401611 0.374340 1.000000
244.651260 -221.192520 -0.000124 0.227989
228.422653 -219.464157 -0.000118 0.223472
221.454178 -218.722000 -0.000005 0.333211
217.573853 -218.308731 -0.000004 0.328676
215.096710 -218.044922 -0.000021 0.235006
213.375397 -217.861603 -0.000125 0.259516
212.106628 -217.726486 -0.000084 0.223183
nan nan nan 0.000000
nan nan nan 0.000000
nan nan nan 0.000000
nan nan nan 0.000000
nan nan nan 0.000000
300.698639 -227.843704 9.966040 1.000000
300.698608 -227.843689 6.772788 1.000000
300.698608 -227.843689 3.589792 1.000000
300.698608 -227.843689 0.410207 1.000000
244.621170 -221.475159 -0.000174 0.223856
228.404373 -219.633469 -0.000148 0.223856
221.440887 -218.842636 -0.000005 0.333211
217.563568 -218.402313 -0.000005 0.333456
215.088516 -218.121231 -0.000055 0.220300
213.368500 -217.925888 -0.000163 0.231738
212.100677 -217.781906 -0.000118 0.204056
nan nan nan 0.000000
nan nan nan 0.000000
nan nan nan 0.000000
nan nan nan 0.000000
nan nan nan 0.000000
298.542175 -228.266708 9.794456 1.000000
298.542145 -228.266693 6.669983 1.000000
298.542114 -228.266678 3.555549 1.000000
298.542114 -228.266678 0.444451 1.000000
244.585388 -221.757141 -0.000039 0.224529
228.382874 -219.802414 -0.000008 0.216359
221.426788 -218.963196 -0.000005 0.331618
217.552628 -218.495804 -0.000005 0.338725
215.078857 -218.197357 0.000075 0.222895
213.360443 -217.990036 -0.000046 0.224625
212.093796 -217.837234 -0.000018 0.246732
nan nan nan 0.000000
nan nan nan 0.000000
nan nan nan 0.000000
nan nan nan 0.000000
nan nan nan 0.000000
296.476501 -228.671860 9.630464 1.000000
296.476501 -228.671875 6.571732 1.000000
296.476501 -228.671875 3.522823 1.000000
296.476501 -228.671875 0.477179 1.000000
244.551147 -222.039291 -0.000077 0.223472
228.362579 -219.971481 -0.000065 0.243560
221.411804 -219.083633 -0.000004 0.335539
217.541031 -218.589203 -0.000005 0.330392
215.069733 -218.273544 0.000015 0.229239
213.351974 -218.054138 0.000060 0.204537
212.087097 -217.892563 -0.000066 0.200404
nan nan nan 0.000000
nan nan nan 0.000000
nan nan nan 0.000000
nan nan nan 0.000000
nan nan nan 0.000000
294.495941 -229.060379 9.473593 1.000000
294.495880 -229.060364 6.477742 1.000000
294.495911 -229.060364 3.491514 1.000000
294.495911 -229.060364 0.508484 1.000000
244.514862 -222.321198 -0.000113 0.227413
228.340851 -220.140381 -0.000101 0.227413
221.396011 -219.203964 -0.000004 0.336520
217.528778 -218.682541 -0.000005 0.336520
215.059982 -218.349670 -0.000030 0.232795
213.343811 -218.118271 0.000008 0.190504
212.080063 -217.947861 -0.000120 0.192138
nan nan nan 0.000000
nan nan nan 0.000000
nan nan nan 0.000000
nan nan nan 0.000000
nan nan nan 0.000000
292.595062 -229.433258 9.323392 1.000000
292.595032 -229.433228 6.387752 1.000000
292.595032 -229.433243 3.461538 1.000000
292.595032 -229.433243 0.538460 1.000000
244.476883 -222.602890 -0.000162 0.228950
228.318085 -220.309158 -0.000149 0.216840
221.379379 -219.324203 -0.000003 0.335417
217.515869 -218.775772 -0.000005 0.335784
215.049683 -218.425705 -0.000067 0.262880
213.335175 -218.182327 -0.000042 0.272684
212.072586 -218.003098 -0.000159 0.222511
nan nan nan 0.000000
nan nan nan 0.000000
nan nan nan 0.000000
nan nan nan 0.000000
nan nan nan 0.000000
290.768982 -229.791428 9.179452 1.000000
290.768951 -229.791412 6.301509 1.000000
290.768951 -229.791443 3.432811 1.000000
290.768951 -229.791443 0.567187 1.000000
244.436768 -222.884293 -0.000202 0.230008
228.294052 -220.477737 -0.000189 0.220492
221.361908 -219.444305 -0.000004 0.332108
217.502319 -218.868927 -0.000005 0.328186
215.038971 -218.501694 -0.000131 0.252307
213.326080 -218.246338 -0.000087 0.195502
212.064758 -218.058304 -0.000211 0.232699
nan nan nan 0.000000
nan nan nan 0.000000
nan nan nan 0.000000
nan nan nan 0.000000
289.013275 -230.135834 11.879195 1.000000
289.013214 -230.135834 9.041395 1.000000
289.013214 -230.135834 6.218797 1.000000
289.013214 -230.135834 3.405260 1.000000
289.013214 -230.135834 0.594740 1.000000
244.390762 -223.164780 -0.000047 0.231642
228.266525 -220.645813 -0.000037 0.244906
221.343582 -219.564285 -0.000004 0.333088
217.488113 -218.961975 -0.000006 0.337623
215.026596 -218.577423 0.000017 0.246828
213.315750 -218.310150 0.000039 0.201173
212.055786 -218.113312 -0.000069 0.219339
nan nan nan 0.000000
nan nan nan 0.000000
nan nan nan 0.000000
nan nan nan 0.000000
287.323669 -230.467255 11.693276 1.000000
287.323669 -230.467255 8.908883 1.000000
287.323608 -230.467239 6.139400 1.000000
287.323608 -230.467239 3.378816 1.000000
287.323608 -230.467239 0.621186 1.000000
244.346695 -223.445572 -0.000087 0.226740
228.240417 -220.814102 -0.000102 0.224529
221.324432 -219.684143 -0.000005 0.334436
217.473267 -219.054932 -0.000006 0.333211
215.014694 -218.653244 -0.000023 0.238178
213.305740 -218.374023 -0.000002 0.208189
212.047256 -218.168427 -0.000140 0.256151
nan nan nan 0.000000
nan nan nan 0.000000
nan nan nan 0.000000
nan nan nan 0.000000
285.696411 -230.786453 11.514676 1.000000
285.696411 -230.786453 8.781587 1.000000
285.696381 -230.786438 6.063133 1.000000
285.696350 -230.786438 3.353409 1.000000
285.696350 -230.786438 0.646590 1.000000
244.300705 -223.726059 -0.000127 0.226067
228.212845 -220.982147 -0.000141 0.223376
221.304459 -219.803848 -0.000005 0.337255
217.457764 -219.147781 -0.000006 0.336765
215.002380 -218.728989 -0.000082 0.218666
213.295395 -218.437836 -0.000069 0.244233
212.038254 -218.223419 -0.000185 0.268166
nan nan nan 0.000000
nan nan nan 0.000000
nan nan nan 0.000000
nan nan nan 0.000000
284.127960 -231.094116 11.342987 1.000000
284.127991 -231.094101 8.659218 1.000000
284.127930 -231.094086 5.989816 1.000000
284.127960 -231.094086 3.328989 1.000000
284.127960 -231.094086 0.671011 1.000000
244.252914 -224.006256 -0.000175 0.222703
228.183914 -221.149948 -0.000164 0.247501
221.283646 -219.923431 -0.000005 0.330882
217.375214 -219.228699 0.009998 1.000000
214.989410 -218.804626 -0.000118 0.194060
213.284409 -218.501556 -0.000094 0.228374
212.028275 -218.278259 -0.000075 0.191369
nan nan nan 0.000000
nan nan nan 0.000000
nan nan nan 0.000000
nan nan nan 0.000000
282.615051 -231.390884 11.177827 1.000000
282.615051 -231.390854 8.541496 1.000000
282.615051 -231.390869 5.919284 1.000000
282.615021 -231.390869 3.305496 1.000000
282.615021 -231.390869 0.694504 1.000000
244.203003 -224.286087 -0.000217 0.224625
228.154083 -221.317627 -0.000210 0.222799
221.261978 -220.042847 -0.000006 0.334926
217.358505 -219.320847 0.009997 1.000000
214.976013 -218.880173 -0.000174 0.270473
213.273163 -218.565216 -0.000158 0.206747
212.018600 -218.333176 -0.000148 0.238562
nan nan nan 0.000000
nan nan nan 0.000000
nan nan nan 0.000000
nan nan nan 0.000000
281.154663 -231.677322 11.018834 1.000000
249.906555 -225.671707 5.819089 0.415564
281.154602 -231.677338 5.851391 1.000000
281.154633 -231.677338 3.282879 1.000000
281.154633 -231.677338 0.717120 1.000000
244.147415 -224.564850 -0.000071 0.230584
228.120834 -221.484650 -0.000070 0.222703
221.239487 -220.162125 -0.000006 0.334069
217.341156 -219.412888 0.009995 1.000000
214.961060 -218.955460 -0.000037 0.198962
213.260620 -218.628647 -0.000031 0.232795
212.007721 -218.387848 -0.000008 0.295559
nan nan nan 0.000000
nan nan nan 0.000000
nan nan nan 0.000000
nan nan nan 0.000000
279.743866 -231.954071 10.865682 1.000000
249.550232 -225.932220 5.794522 0.394485
279.743835 -231.954056 5.785986 1.000000
279.743835 -231.954041 3.261096 1.000000
279.743835 -231.954056 0.738906 1.000000
244.093292 -224.843872 -0.000095 0.227509
228.088379 -221.651840 -0.000093 0.230392
221.216156 -220.281235 -0.000006 0.332475
217.389297 -219.518005 -0.000007 0.336029
214.946472 -219.030807 -0.000068 0.198097
213.248260 -218.692093 -0.000049 0.216744
211.997131 -218.442566 -0.000037 0.234045
nan nan nan 0.000000
nan nan nan 0.000000
nan nan nan 0.000000
251.796600 -226.726471 9.214588 0.407598
278.380188 -232.221558 10.718060 1.000000
249.682205 -226.289383 5.810954 0.406618
278.380157 -232.221542 5.722948 1.000000
278.380127 -232.221558 3.240097 1.000000
278.380127 -232.221558 0.759904 1.000000
244.037537 -225.122589 -0.000136 0.228662
228.055023 -221.818832 -0.000137 0.230681
221.192017 -220.400177 -0.000006 0.333701
217.370560 -219.610245 -0.000007 0.335539
214.931580 -219.106064 -0.000136 0.247789
213.235611 -218.755508 -0.000097 0.195406
211.986176 -218.497238 -0.000074 0.263264
nan nan nan 0.000000
nan nan nan 0.000000
nan nan nan 0.000000
250.970428 -226.896896 9.099864 0.412990
277.061066 -232.480316 10.575684 1.000000
248.864136 -226.446152 5.747958 0.402451
277.061035 -232.480286 5.662148 1.000000
277.061035 -232.480316 3.219843 1.000000
277.061035 -232.480316 0.780155 1.000000
243.980026 -225.400940 -0.000187 0.231930
228.020462 -221.985580 -0.000177 0.226163
221.167038 -220.518951 -0.000007 0.334681
217.351181 -219.702362 -0.000007 0.336765
214.915955 -219.181213 -0.000169 0.209246
213.222565 -218.818817 -0.000154 0.225586
211.974945 -218.551834 -0.000137 0.241157
nan nan nan 0.000000
nan nan nan 0.000000
nan nan nan 0.000000
250.591171 -227.155197 9.053043 0.400858
251.686203 -227.397552 7.598949 0.409436
250.253540 -227.080475 5.870339 0.406985
249.773621 -226.974274 4.294735 0.406127
275.784271 -232.730743 3.200301 1.000000
275.784271 -232.730743 0.799699 1.000000
243.920074 -225.678787 -0.000212 0.227413
227.984528 -222.152054 -0.000202 0.227220
221.141220 -220.637543 -0.000007 0.334804
217.331161 -219.794327 -0.000008 0.337377
214.899841 -219.256241 -0.000207 0.200596
213.208984 -218.882034 -0.000190 0.266244
211.962524 -218.606186 0.000008 0.240677
nan nan nan 0.000000
nan nan nan 0.000000
nan nan nan 0.000000
250.600677 -227.497864 9.065577 0.396814
252.735519 -227.985992 7.731579 0.406985
252.347672 -227.897324 6.052563 0.395221
250.769989 -227.536591 4.348554 0.398652
274.547729 -232.973312 3.181430 1.000000
274.547729 -232.973312 0.818570 1.000000
243.854782 -225.955444 -0.000065 0.232891
227.943558 -222.317383 0.000100 0.227316
221.114594 -220.755966 -0.000008 0.332966
217.309891 -219.886017 0.000086 0.211938
214.882263 -219.330948 -0.000070 0.202134
213.194290 -218.945007 -0.000079 0.215206
211.949844 -218.660446 0.000124 0.225682
nan nan nan 0.000000
nan nan nan 0.000000
nan nan nan 0.000000
249.788895 -227.647949 8.953321 0.402574
250.218796 -227.749420 7.443405 0.399142
252.281235 -228.236160 6.053545 0.396569
248.638626 -227.376495 4.244783 0.398652
273.349365 -233.208374 3.163199 1.000000
273.349365 -233.208374 0.836801 1.000000
243.790863 -226.232391 -0.000085 0.226067
227.905243 -222.483292 0.000081 0.241542
221.087128 -220.874176 -0.000008 0.331863
217.288696 -219.977722 0.000072 0.257978
214.865005 -219.405716 -0.000090 0.244810
213.179733 -219.007996 -0.000095 0.229912
211.937317 -218.714783 0.000102 0.226547
nan nan nan 0.000000
nan nan nan 0.000000
nan nan nan 0.000000
249.784225 -227.983627 8.964252 0.405270
252.599289 -228.668777 7.734369 0.405147
