# This PCD file was generated using the MATLABÂ® pcwrite function
# from Computer Vision ToolboxÂ®.
# .PCD v.7 - Point Cloud Data file format
VERSION .7
FIELDS x y z intensity
SIZE 4 4 4 4
TYPE F F F F
COUNT 1 1 1 1
WIDTH 1164
HEIGHT 1
VIEWPOINT 0 0 0 1 0 0 0
POINTS 1164
DATA ascii
248.909027 -322.218140 1.498219 0.356250
248.876648 -322.305298 0.489012 0.390931
251.094223 -316.337067 0.000134 0.224625
253.534500 -309.769562 0.000162 0.237505
254.893738 -306.111420 0.000243 0.204825
255.761276 -303.776642 0.000209 0.212707
256.363922 -302.154633 -0.000004 0.330025
256.808258 -300.958801 -0.000005 0.337868
249.277390 -320.644257 9.279395 0.400735
248.959351 -321.482269 8.470165 0.403186
248.182037 -323.530334 7.849513 0.402574
248.625244 -322.362579 6.583416 0.385049
254.189651 -307.701294 3.750593 0.402451
248.144211 -323.630066 4.644725 0.398039
244.478806 -333.287781 4.092040 1.000000
244.478806 -333.287781 2.696848 1.000000
248.656693 -322.279694 1.495824 0.370711
245.144684 -331.533264 0.000152 0.226836
250.934982 -316.276825 0.000169 0.223856
253.421173 -309.726135 0.000255 0.241253
254.805710 -306.078094 0.000279 0.233756
255.689270 -303.750061 0.000131 0.215975
256.303741 -302.130981 0.000208 0.218954
256.756073 -300.939209 -0.000006 0.329289
254.628937 -306.273834 5.438450 0.409926
248.889526 -321.083710 8.395187 0.407721
248.665680 -321.661285 7.500464 0.404289
248.057343 -323.230988 6.733855 0.410294
254.026505 -307.828308 3.770957 0.400613
248.015747 -323.338379 4.626167 0.402328
244.374985 -332.732941 4.068417 1.000000
244.374985 -332.732941 2.688979 1.000000
244.374985 -332.732941 1.311020 1.000000
244.878830 -331.432800 0.000083 0.227701
250.775696 -316.216614 0.000102 0.221742
253.307648 -309.683228 0.000184 0.239523
254.717636 -306.044891 0.000200 0.242118
255.617477 -303.722931 0.000057 0.250384
256.243286 -302.108124 0.000140 0.254902
256.704041 -300.919250 -0.000005 0.344730
254.520157 -306.288269 5.451756 0.404412
254.233444 -307.013031 5.144567 0.399387
254.169907 -307.173645 4.680634 0.396078
nan nan nan 0.000000
249.172943 -319.805298 5.257546 0.405147
247.844269 -323.163971 4.617977 0.402696
244.273499 -332.190460 4.045419 1.000000
244.273499 -332.190460 2.681319 1.000000
244.273499 -332.190460 1.318680 1.000000
244.614426 -331.328613 0.000113 0.230200
250.617569 -316.153473 0.000194 0.239812
253.194733 -309.638763 0.000212 0.254229
254.630066 -306.010406 0.000231 0.214821
255.546204 -303.694519 0.000150 0.255286
256.183228 -302.084198 0.000220 0.205882
256.652100 -300.898926 -0.000005 0.335417
253.963821 -307.409363 5.764237 0.405637
254.126923 -307.005341 5.151567 0.402451
254.138107 -306.977692 4.649673 0.398039
247.688324 -322.954834 6.715901 0.401838
248.497208 -320.951111 5.408795 0.404657
254.320343 -306.526245 3.154109 0.400000
248.505157 -320.931396 3.454644 0.401471
244.174210 -331.659882 2.673861 1.000000
244.174210 -331.659882 1.326140 1.000000
244.351273 -331.221252 0.000211 0.230200
250.459900 -316.089172 0.000295 0.226740
253.082336 -309.592926 0.000309 0.227316
254.542496 -305.975891 0.000164 0.261150
255.475143 -303.665588 0.000238 0.264033
256.123383 -302.059845 0.000307 0.192907
256.600372 -300.878265 -0.000005 0.332721
248.353394 -320.757080 9.390829 0.402941
248.031357 -321.539001 8.555293 0.401348
253.862656 -307.379547 4.736305 0.400858
247.128174 -323.732147 6.854044 0.397917
253.856140 -307.395325 3.731977 0.406985
247.741745 -322.242310 4.551045 0.400123
244.077087 -331.140808 4.001212 1.000000
244.077087 -331.140778 2.666594 1.000000
244.077087 -331.140778 1.333406 1.000000
244.077087 -331.140778 -0.001213 1.000000
250.301590 -316.026489 0.000152 0.229527
252.969742 -309.547729 0.000235 0.236832
254.455170 -305.940796 0.000090 0.229047
255.403976 -303.636963 0.000169 0.251730
256.063385 -302.035736 0.000243 0.220877
256.548737 -300.857208 -0.000005 0.334191
254.293259 -306.083221 5.425655 0.395956
254.186157 -306.338165 5.013450 0.399755
248.150497 -320.708191 7.374735 0.406618
247.441544 -322.396088 6.653201 0.402819
254.103516 -306.534973 3.629663 0.402696
247.555801 -322.124084 4.547950 0.388603
248.263916 -320.438202 3.436752 0.400000
243.982025 -330.632721 2.659516 1.000000
243.982025 -330.632721 1.340485 1.000000
243.982025 -330.632721 0.020039 1.000000
250.144714 -315.960266 0.000224 0.217320
252.857346 -309.501923 0.000134 0.252115
254.368439 -305.904236 0.000158 0.244810
255.333221 -303.607208 0.000225 0.207036
256.003815 -302.010681 0.000296 0.206171
256.497253 -300.835785 -0.000005 0.346446
254.231445 -305.985016 5.409054 0.402206
247.768677 -321.075928 8.485046 0.409436
253.612549 -307.430206 4.762424 0.408211
nan nan nan 0.000000
254.694580 -304.903625 3.430338 0.402328
253.934372 -306.678680 3.177807 0.391299
243.888947 -330.135345 3.959249 1.000000
243.888962 -330.135315 2.652617 1.000000
243.888962 -330.135315 1.347383 1.000000
243.888947 -330.135345 0.040750 1.000000
249.987335 -315.895294 0.000092 0.223568
252.745163 -309.455536 0.000006 0.242022
254.281433 -305.868286 0.000028 0.224048
255.262314 -303.577881 0.000099 0.210496
255.943863 -301.986450 0.000061 0.201653
256.445953 -300.814026 -0.000005 0.332843
254.139099 -305.959076 5.412269 0.400980
254.147614 -305.939575 4.937588 0.402328
247.340820 -321.532135 7.570551 0.407476
253.662155 -307.051636 4.197546 0.398529
254.434479 -305.282440 3.482212 0.406127
253.818649 -306.693146 3.182658 0.397917
247.660736 -320.799286 3.464724 0.399755
243.614105 -330.069031 2.653407 1.000000
243.614105 -330.069031 1.346594 1.000000
243.614105 -330.069031 0.038380 1.000000
249.831665 -315.826263 0.000221 0.226451
252.634216 -309.406372 0.000134 0.228181
254.195389 -305.830170 0.000156 0.235486
255.192154 -303.546875 0.000214 0.261438
255.884644 -301.960541 0.000119 0.220204
256.394806 -300.791901 -0.000005 0.339093
nan nan nan 0.000000
253.968597 -306.108337 4.986540 0.406495
253.493881 -307.175476 4.728584 0.402206
254.482834 -304.952515 3.863517 0.400123
254.422592 -305.087891 3.462280 0.401103
253.699631 -306.712921 3.188080 0.398652
247.231018 -321.253113 3.493639 0.398652
243.281357 -330.131134 2.656532 1.000000
243.281357 -330.131134 1.343468 1.000000
243.281372 -330.131134 0.028996 1.000000
249.676346 -315.756500 0.000319 0.219819
252.523514 -309.356628 0.000232 0.253749
254.109482 -305.791687 0.000239 0.208381
255.122147 -303.515442 0.000306 0.199635
255.825699 -301.933990 0.000232 0.201461
256.343811 -300.769440 -0.000005 0.341054
253.696075 -306.475830 5.575642 0.393015
253.983551 -305.841553 4.932653 0.409436
247.043396 -321.152893 7.529495 0.395588
254.401031 -304.920502 3.864157 0.406740
254.208130 -305.346100 3.499488 0.398039
253.695999 -306.475891 3.170472 0.390564
242.945404 -330.193848 3.980574 1.000000
242.945404 -330.193848 2.659719 1.000000
242.945404 -330.193848 1.340280 1.000000
242.945435 -330.193848 0.019425 1.000000
249.520187 -315.688599 0.000152 0.233852
252.412186 -309.308258 0.000063 0.218954
254.023193 -305.754089 0.000082 0.208766
255.051575 -303.485291 0.000056 0.238562
255.766418 -301.908203 0.000066 0.236351
256.292938 -300.746582 -0.000005 0.336887
253.401321 -306.876404 5.697602 0.402819
253.901535 -305.793030 4.930488 0.395833
253.255707 -307.191772 4.749178 0.393382
253.783905 -306.047852 4.054309 0.406373
254.212692 -305.119110 3.475525 0.409436
253.505478 -306.650879 3.190018 0.407721
242.606186 -330.257172 3.990336 1.000000
242.606186 -330.257172 2.662972 1.000000
242.606186 -330.257172 1.337028 1.000000
242.606186 -330.257172 0.009663 1.000000
249.365692 -315.617035 0.000218 0.218666
252.302292 -309.256775 0.000190 0.232411
253.937943 -305.714172 0.000206 0.240004
254.981918 -303.453094 0.000111 0.228662
255.707840 -301.880829 0.000179 0.230200
256.258972 -300.687164 0.009995 1.000000
253.820740 -305.742310 5.395732 0.362868
253.673096 -306.056244 5.002858 0.407598
253.107315 -307.259491 4.771754 0.397181
254.038895 -305.278290 3.934863 0.396078
254.219559 -304.894073 3.451725 0.401838
246.383255 -321.559692 4.544747 0.413113
242.263565 -330.321136 4.000293 1.000000
242.263565 -330.321136 2.666289 1.000000
242.263565 -330.321136 1.333712 1.000000
242.263550 -330.321136 -0.000294 1.000000
249.211716 -315.544342 0.000287 0.234814
252.192551 -309.204987 0.000259 0.244137
253.852783 -305.674072 0.000262 0.217224
254.912643 -303.420074 0.000234 0.262687
255.649506 -301.852997 0.000307 0.249616
256.208679 -300.663727 0.009996 1.000000
264.096954 -284.058929 4.614785 1.000000
264.096954 -284.058929 4.254566 1.000000
264.096954 -284.058929 3.899405 1.000000
264.096954 -284.058929 3.548451 1.000000
264.096954 -284.058929 3.200888 1.000000
264.096954 -284.058929 2.855933 1.000000
264.096954 -284.058929 2.512826 1.000000
264.096954 -284.058929 2.170820 1.000000
264.096954 -284.058929 1.829180 1.000000
264.096954 -284.058929 1.487174 1.000000
264.096954 -284.058929 1.144066 1.000000
264.096954 -284.058929 0.799112 1.000000
264.096954 -284.058929 0.451549 1.000000
264.096954 -284.058929 0.100594 1.000000
263.587891 -285.122192 0.000039 0.219819
263.036835 -286.273193 0.000147 0.214341
264.119659 -284.178650 4.590265 1.000000
264.119659 -284.178650 4.233425 1.000000
264.119659 -284.178650 3.881594 1.000000
264.119659 -284.178650 3.533931 1.000000
264.119659 -284.178650 3.189627 1.000000
264.119659 -284.178650 2.847907 1.000000
264.119659 -284.178650 2.508017 1.000000
264.119659 -284.178650 2.169218 1.000000
264.119659 -284.178650 1.830782 1.000000
264.119659 -284.178619 1.491983 1.000000
264.119659 -284.178650 1.152093 1.000000
264.119659 -284.178619 0.810373 1.000000
264.119659 -284.178619 0.466069 1.000000
264.119659 -284.178619 0.118405 1.000000
263.646027 -285.150482 0.000078 0.229335
263.087219 -286.297058 0.000034 0.199539
264.141998 -284.296082 4.566323 1.000000
264.141998 -284.296082 4.212781 1.000000
264.141998 -284.296082 3.864202 1.000000
264.141998 -284.296082 3.519753 1.000000
264.141998 -284.296082 3.178631 1.000000
264.141998 -284.296082 2.840070 1.000000
264.141998 -284.296082 2.503321 1.000000
264.141998 -284.296082 2.167654 1.000000
264.141998 -284.296082 1.832346 1.000000
264.141998 -284.296082 1.496679 1.000000
264.141998 -284.296082 1.159930 1.000000
264.141998 -284.296082 0.821368 1.000000
264.141998 -284.296082 0.480247 1.000000
264.141998 -284.296082 0.135797 1.000000
263.704010 -285.179108 0.000104 0.195021
263.136932 -286.322296 0.000217 0.226259
264.163910 -284.411438 4.542945 1.000000
264.163879 -284.411438 4.192622 1.000000
264.163879 -284.411438 3.847219 1.000000
264.163879 -284.411438 3.505907 1.000000
264.163879 -284.411438 3.167894 1.000000
264.163879 -284.411438 2.832417 1.000000
264.163879 -284.411438 2.498736 1.000000
264.163879 -284.411438 2.166126 1.000000
264.163879 -284.411438 1.833874 1.000000
264.163879 -284.411438 1.501264 1.000000
264.163910 -284.411438 1.167583 1.000000
264.163910 -284.411438 0.832106 1.000000
264.163879 -284.411438 0.494092 1.000000
264.163910 -284.411438 0.152780 1.000000
263.762024 -285.207581 -0.000007 0.221261
263.186951 -286.346863 0.000113 0.266917
264.185394 -284.524689 4.520109 1.000000
264.185394 -284.524689 4.172933 1.000000
264.185394 -284.524689 3.830632 1.000000
264.185394 -284.524689 3.492384 1.000000
264.185394 -284.524689 3.157406 1.000000
264.185394 -284.524689 2.824942 1.000000
264.185394 -284.524689 2.494257 1.000000
264.185394 -284.524689 2.164635 1.000000
264.185394 -284.524689 1.835365 1.000000
264.185394 -284.524689 1.505742 1.000000
264.185394 -284.524689 1.175058 1.000000
264.185394 -284.524689 0.842593 1.000000
264.185394 -284.524689 0.507615 1.000000
264.185394 -284.524689 0.169368 1.000000
263.819580 -285.236969 0.000010 0.207709
263.236908 -286.371582 -0.000042 0.223183
264.206543 -284.635956 4.497798 1.000000
264.206543 -284.635956 4.153696 1.000000
264.206543 -284.635956 3.814425 1.000000
264.206543 -284.635956 3.479173 1.000000
264.206543 -284.635956 3.147160 1.000000
264.206543 -284.635956 2.817638 1.000000
264.206543 -284.635956 2.489882 1.000000
264.206543 -284.635956 2.163177 1.000000
264.206543 -284.635956 1.836823 1.000000
264.206543 -284.635956 1.510118 1.000000
264.206543 -284.635956 1.182361 1.000000
264.206543 -284.635956 0.852840 1.000000
264.206543 -284.635956 0.520827 1.000000
264.206543 -284.635956 0.185574 1.000000
263.877289 -285.266174 -0.000117 0.283737
263.286102 -286.397827 0.000126 0.224337
264.227295 -284.745239 4.476002 1.000000
264.227295 -284.745239 4.134902 1.000000
264.227295 -284.745239 3.798592 1.000000
264.227295 -284.745239 3.466265 1.000000
264.227295 -284.745239 3.137149 1.000000
264.227295 -284.745239 2.810503 1.000000
264.227295 -284.745239 2.485607 1.000000
264.227295 -284.745239 2.161753 1.000000
264.227295 -284.745239 1.838247 1.000000
264.227295 -284.745239 1.514393 1.000000
264.227295 -284.745239 1.189496 1.000000
264.227295 -284.745239 0.862851 1.000000
264.227295 -284.745239 0.533735 1.000000
264.227295 -284.745239 0.201408 1.000000
263.933899 -285.297424 0.000153 0.212707
263.335938 -286.422852 -0.000144 0.195213
264.247711 -284.852631 4.454700 1.000000
264.247711 -284.852631 4.116535 1.000000
264.247711 -284.852631 3.783118 1.000000
264.247711 -284.852631 3.453650 1.000000
264.247711 -284.852631 3.127366 1.000000
264.247711 -284.852631 2.803531 1.000000
264.247711 -284.852631 2.481429 1.000000
264.247711 -284.852631 2.160362 1.000000
264.247711 -284.852631 1.839638 1.000000
264.247711 -284.852631 1.518571 1.000000
264.247711 -284.852631 1.196469 1.000000
264.247711 -284.852631 0.872634 1.000000
264.247711 -284.852631 0.546349 1.000000
264.247711 -284.852631 0.216882 1.000000
263.990967 -285.327820 0.000119 0.226740
263.384888 -286.449463 -0.000061 0.213091
264.267761 -284.958221 4.433880 1.000000
264.267761 -284.958252 4.098583 1.000000
264.267761 -284.958252 3.767993 1.000000
264.267761 -284.958252 3.441320 1.000000
264.267761 -284.958252 3.117804 1.000000
264.267761 -284.958252 2.796715 1.000000
264.267761 -284.958252 2.477345 1.000000
264.267761 -284.958252 2.159002 1.000000
264.267761 -284.958252 1.840999 1.000000
264.267761 -284.958252 1.522655 1.000000
264.267761 -284.958252 1.203285 1.000000
264.267761 -284.958252 0.882196 1.000000
264.267761 -284.958221 0.558680 1.000000
264.267761 -284.958252 0.232007 1.000000
264.047363 -285.359375 0.000274 0.232891
263.433533 -286.476746 0.000108 0.215686
264.287476 -285.062042 4.413526 1.000000
264.287476 -285.062042 4.081032 1.000000
264.287476 -285.062042 3.753208 1.000000
264.287476 -285.062042 3.429266 1.000000
264.287476 -285.062042 3.108456 1.000000
264.287476 -285.062042 2.790052 1.000000
264.287476 -285.062042 2.473353 1.000000
264.287476 -285.062042 2.157672 1.000000
264.287476 -285.062042 1.842328 1.000000
264.287476 -285.062042 1.526646 1.000000
264.287476 -285.062042 1.209948 1.000000
264.287476 -285.062042 0.891544 1.000000
264.287476 -285.062042 0.570733 1.000000
264.287476 -285.062042 0.246792 1.000000
264.104584 -285.389496 -0.000026 0.232122
263.482880 -286.502655 -0.000204 0.265667
264.306854 -285.164154 4.393624 1.000000
264.306854 -285.164154 4.063873 1.000000
264.306854 -285.164154 3.738752 1.000000
264.306854 -285.164154 3.417481 1.000000
264.306854 -285.164154 3.099316 1.000000
264.306854 -285.164154 2.783537 1.000000
264.306854 -285.164124 2.469450 1.000000
264.306854 -285.164124 2.156372 1.000000
264.306854 -285.164154 1.843628 1.000000
264.306854 -285.164124 1.530549 1.000000
264.306854 -285.164154 1.216462 1.000000
264.306854 -285.164154 0.900684 1.000000
264.306854 -285.164124 0.582518 1.000000
264.306854 -285.164154 0.261248 1.000000
264.160339 -285.422272 0.000232 0.259035
263.530975 -286.530853 0.000039 0.242599
264.325928 -285.264557 4.374165 1.000000
264.325928 -285.264557 4.047094 1.000000
264.325928 -285.264557 3.724616 1.000000
264.325928 -285.264557 3.405957 1.000000
264.325928 -285.264557 3.090378 1.000000
264.325928 -285.264557 2.777167 1.000000
264.325928 -285.264557 2.465634 1.000000
264.325928 -285.264557 2.155100 1.000000
264.325928 -285.264557 1.844900 1.000000
264.325928 -285.264557 1.534366 1.000000
264.325928 -285.264557 1.222832 1.000000
264.325928 -285.264557 0.909621 1.000000
264.325928 -285.264557 0.594042 1.000000
264.325928 -285.264557 0.275384 1.000000
264.216614 -285.454071 0.000156 0.257689
263.579498 -286.558289 -0.000033 0.199250
264.344727 -285.363403 4.355132 1.000000
264.344727 -285.363403 4.030683 1.000000
264.344727 -285.363403 3.710790 1.000000
264.344727 -285.363403 3.394686 1.000000
264.344727 -285.363403 3.081637 1.000000
264.344727 -285.363403 2.770937 1.000000
264.344727 -285.363403 2.461901 1.000000
264.344727 -285.363403 2.153857 1.000000
264.344727 -285.363403 1.846143 1.000000
264.344727 -285.363403 1.538099 1.000000
264.344727 -285.363403 1.229063 1.000000
264.344727 -285.363403 0.918363 1.000000
264.344727 -285.363403 0.605313 1.000000
264.344727 -285.363403 0.289209 1.000000
264.272430 -285.486664 0.000181 0.232699
263.627655 -286.586365 -0.000016 0.212322
264.363190 -285.460602 4.336516 1.000000
264.363190 -285.460602 4.014631 1.000000
264.363190 -285.460602 3.697268 1.000000
264.363190 -285.460602 3.383662 1.000000
264.363190 -285.460602 3.073088 1.000000
264.363190 -285.460602 2.764843 1.000000
264.363190 -285.460602 2.458250 1.000000
264.363190 -285.460602 2.152641 1.000000
264.363190 -285.460602 1.847359 1.000000
264.363190 -285.460602 1.541750 1.000000
264.363190 -285.460632 1.235156 1.000000
264.363190 -285.460602 0.926912 1.000000
264.363190 -285.460602 0.616338 1.000000
264.363190 -285.460602 0.302732 1.000000
264.328094 -285.519501 0.000167 0.252980
263.675140 -286.615601 0.000238 0.256055
264.381378 -285.556335 4.318302 1.000000
264.381378 -285.556335 3.998928 1.000000
264.381378 -285.556335 3.684038 1.000000
264.381378 -285.556335 3.372876 1.000000
264.381378 -285.556335 3.064723 1.000000
264.381378 -285.556335 2.758881 1.000000
264.381378 -285.556335 2.454678 1.000000
264.381378 -285.556335 2.151451 1.000000
264.381378 -285.556335 1.848549 1.000000
264.381378 -285.556335 1.545322 1.000000
264.381378 -285.556335 1.241118 1.000000
264.381378 -285.556335 0.935277 1.000000
264.381378 -285.556335 0.627123 1.000000
264.381378 -285.556335 0.315962 1.000000
264.381378 -285.556335 0.001071 1.000000
263.723083 -286.644043 0.000165 0.215398
264.399231 -285.650604 4.300482 1.000000
264.399231 -285.650604 3.983563 1.000000
264.399231 -285.650604 3.671092 1.000000
264.399231 -285.650604 3.362324 1.000000
264.399231 -285.650604 3.056539 1.000000
264.399231 -285.650604 2.753048 1.000000
264.399231 -285.650604 2.451183 1.000000
264.399231 -285.650604 2.150287 1.000000
264.399231 -285.650604 1.849713 1.000000
264.399231 -285.650604 1.548817 1.000000
264.399231 -285.650604 1.246952 1.000000
264.399231 -285.650604 0.943462 1.000000
264.399231 -285.650604 0.637676 1.000000
264.399231 -285.650604 0.328907 1.000000
264.399231 -285.650604 0.016438 1.000000
263.770630 -286.673126 0.000176 0.246444
264.416870 -285.743408 4.283045 1.000000
264.416870 -285.743408 3.968526 1.000000
264.416870 -285.743408 3.658425 1.000000
264.416870 -285.743408 3.351997 1.000000
264.416870 -285.743408 3.048530 1.000000
264.416870 -285.743408 2.747340 1.000000
264.416870 -285.743408 2.447763 1.000000
264.416870 -285.743408 2.149148 1.000000
264.416870 -285.743408 1.850852 1.000000
264.416870 -285.743408 1.552237 1.000000
264.416870 -285.743408 1.252660 1.000000
264.416870 -285.743408 0.951470 1.000000
264.416870 -285.743408 0.648003 1.000000
264.416870 -285.743408 0.341575 1.000000
264.416870 -285.743408 0.031473 1.000000
263.818207 -286.702148 0.000077 0.288735
264.434265 -285.834839 4.265980 1.000000
264.434265 -285.834839 3.953813 1.000000
264.434265 -285.834839 3.646029 1.000000
264.434265 -285.834839 3.341892 1.000000
264.434265 -285.834839 3.040693 1.000000
264.434265 -285.834839 2.741754 1.000000
264.434265 -285.834839 2.444416 1.000000
264.434265 -285.834839 2.148033 1.000000
264.434265 -285.834839 1.851967 1.000000
264.434265 -285.834839 1.555584 1.000000
264.434265 -285.834839 1.258246 1.000000
264.434265 -285.834839 0.959307 1.000000
264.434265 -285.834839 0.658108 1.000000
264.434265 -285.834839 0.353970 1.000000
264.434265 -285.834839 0.046187 1.000000
263.865173 -286.732147 0.000180 0.273837
264.451385 -285.924927 4.249275 1.000000
264.451385 -285.924927 3.939410 1.000000
264.451385 -285.924927 3.633896 1.000000
264.451385 -285.924927 3.332000 1.000000
264.451385 -285.924927 3.033021 1.000000
264.451385 -285.924927 2.736286 1.000000
264.451385 -285.924927 2.441140 1.000000
264.451385 -285.924927 2.146942 1.000000
264.451385 -285.924927 1.853058 1.000000
264.451385 -285.924927 1.558860 1.000000
264.451385 -285.924927 1.263713 1.000000
264.451385 -285.924927 0.966979 1.000000
264.451385 -285.924927 0.668000 1.000000
264.451385 -285.924927 0.366104 1.000000
264.451385 -285.924927 0.060589 1.000000
263.912323 -286.761871 0.000088 0.247213
264.468231 -286.013672 4.232924 1.000000
264.468231 -286.013672 3.925311 1.000000
264.468231 -286.013672 3.622017 1.000000
264.468231 -286.013672 3.322316 1.000000
264.468231 -286.013672 3.025511 1.000000
264.468231 -286.013672 2.730934 1.000000
264.468231 -286.013672 2.437933 1.000000
264.468231 -286.013672 2.145874 1.000000
264.468231 -286.013672 1.854127 1.000000
264.468231 -286.013672 1.562067 1.000000
264.468231 -286.013672 1.269066 1.000000
264.468231 -286.013672 0.974489 1.000000
264.468231 -286.013672 0.677683 1.000000
264.468231 -286.013672 0.377982 1.000000
264.468231 -286.013672 0.074689 1.000000
263.959076 -286.792236 0.000088 0.206171
264.484833 -286.101166 4.216917 1.000000
264.484833 -286.101166 3.911510 1.000000
264.484863 -286.101166 3.610389 1.000000
264.484863 -286.101166 3.312837 1.000000
264.484833 -286.101166 3.018159 1.000000
264.484863 -286.101166 2.725693 1.000000
264.484833 -286.101166 2.434793 1.000000
264.484833 -286.101166 2.144828 1.000000
264.484833 -286.101166 1.855172 1.000000
264.484833 -286.101166 1.565206 1.000000
264.484863 -286.101166 1.274306 1.000000
264.484833 -286.101166 0.981840 1.000000
264.484863 -286.101166 0.687163 1.000000
264.484833 -286.101166 0.389610 1.000000
264.484833 -286.101166 0.088490 1.000000
264.005249 -286.823456 0.000259 0.212899
264.501221 -286.187408 4.201242 1.000000
264.501221 -286.187408 3.897995 1.000000
264.501221 -286.187408 3.599004 1.000000
264.501221 -286.187408 3.303555 1.000000
264.501221 -286.187408 3.010961 1.000000
264.501221 -286.187408 2.720563 1.000000
264.501221 -286.187408 2.431719 1.000000
264.501221 -286.187408 2.143804 1.000000
264.501221 -286.187408 1.856196 1.000000
264.501221 -286.187408 1.568280 1.000000
264.501221 -286.187408 1.279437 1.000000
264.501221 -286.187408 0.989039 1.000000
264.501221 -286.187408 0.696445 1.000000
264.501221 -286.187408 0.400996 1.000000
264.501221 -286.187408 0.102005 1.000000
264.052002 -286.853790 0.000061 0.215782
264.517395 -286.272461 4.185895 1.000000
264.517395 -286.272461 3.884762 1.000000
264.517395 -286.272461 3.587856 1.000000
264.517365 -286.272461 3.294467 1.000000
264.517395 -286.272461 3.003913 1.000000
264.517395 -286.272461 2.715539 1.000000
264.517395 -286.272461 2.428710 1.000000
264.517395 -286.272461 2.142801 1.000000
264.517395 -286.272461 1.857199 1.000000
264.517395 -286.272461 1.571290 1.000000
264.517395 -286.272461 1.284461 1.000000
264.517395 -286.272461 0.996087 1.000000
264.517365 -286.272461 0.705533 1.000000
264.517395 -286.272461 0.412144 1.000000
264.517395 -286.272461 0.115238 1.000000
264.097748 -286.885651 0.000226 0.203095
264.533295 -286.356323 4.170866 1.000000
264.533295 -286.356323 3.871803 1.000000
264.533295 -286.356323 3.576939 1.000000
264.533295 -286.356323 3.285566 1.000000
264.533295 -286.356293 2.997011 1.000000
264.533295 -286.356323 2.710619 1.000000
264.533295 -286.356323 2.425762 1.000000
264.533295 -286.356293 2.141819 1.000000
264.533295 -286.356293 1.858181 1.000000
264.533295 -286.356323 1.574238 1.000000
264.533295 -286.356323 1.289380 1.000000
264.533295 -286.356293 1.002990 1.000000
264.533295 -286.356323 0.714434 1.000000
264.533295 -286.356323 0.423061 1.000000
264.533295 -286.356293 0.128196 1.000000
264.144073 -286.916626 0.000028 0.263552
264.549011 -286.439026 4.156145 1.000000
264.549011 -286.439026 3.859110 1.000000
264.549011 -286.439026 3.566245 1.000000
264.549011 -286.439026 3.276849 1.000000
264.549011 -286.439026 2.990249 1.000000
264.549011 -286.439026 2.705800 1.000000
264.549011 -286.439026 2.422875 1.000000
264.549011 -286.439026 2.140857 1.000000
264.549011 -286.439026 1.859143 1.000000
264.549011 -286.439026 1.577125 1.000000
264.549011 -286.439026 1.294199 1.000000
264.549011 -286.439026 1.009751 1.000000
264.549011 -286.439026 0.723151 1.000000
264.549011 -286.439026 0.433755 1.000000
264.549011 -286.439026 0.140890 1.000000
264.189392 -286.949158 0.000197 0.196175
264.564514 -286.520630 4.141727 1.000000
264.564484 -286.520630 3.846678 1.000000
264.564484 -286.520630 3.555772 1.000000
264.564514 -286.520630 3.268311 1.000000
264.564514 -286.520630 2.983628 1.000000
264.564514 -286.520630 2.701081 1.000000
264.564484 -286.520630 2.420047 1.000000
264.564514 -286.520630 2.139915 1.000000
264.564484 -286.520630 1.860084 1.000000
264.564484 -286.520630 1.579953 1.000000
264.564484 -286.520630 1.298919 1.000000
264.564484 -286.520630 1.016372 1.000000
264.564484 -286.520630 0.731689 1.000000
264.564484 -286.520630 0.444228 1.000000
264.564484 -286.520630 0.153321 1.000000
264.235291 -286.980774 -0.000007 0.219627
264.579773 -286.601166 4.127604 1.000000
264.579773 -286.601166 3.834501 1.000000
264.579773 -286.601166 3.545512 1.000000
264.579773 -286.601166 3.259947 1.000000
264.579773 -286.601166 2.977141 1.000000
264.579773 -286.601166 2.696458 1.000000
264.579773 -286.601166 2.417277 1.000000
264.579773 -286.601166 2.138993 1.000000
264.579773 -286.601166 1.861007 1.000000
264.579773 -286.601166 1.582723 1.000000
264.579773 -286.601166 1.303542 1.000000
264.579773 -286.601166 1.022859 1.000000
264.579803 -286.601166 0.740053 1.000000
264.579773 -286.601166 0.454487 1.000000
264.579773 -286.601166 0.165499 1.000000
264.279938 -287.014130 0.000233 0.191273
264.594910 -286.680634 4.113768 1.000000
264.594910 -286.680634 3.822570 1.000000
264.594910 -286.680634 3.535461 1.000000
264.594910 -286.680634 3.251753 1.000000
264.594910 -286.680634 2.970787 1.000000
264.594910 -286.680634 2.691928 1.000000
264.594910 -286.680634 2.414563 1.000000
264.594910 -286.680634 2.138089 1.000000
264.594910 -286.680634 1.861911 1.000000
264.594910 -286.680634 1.585437 1.000000
264.594910 -286.680634 1.308072 1.000000
264.594910 -286.680634 1.029213 1.000000
264.594910 -286.680634 0.748247 1.000000
264.594910 -286.680634 0.464538 1.000000
264.594910 -286.680634 0.177430 1.000000
264.325714 -287.045990 -0.000100 0.254806
264.609802 -286.759094 4.100211 1.000000
264.609802 -286.759094 3.810882 1.000000
264.609802 -286.759094 3.525614 1.000000
264.609802 -286.759094 3.243725 1.000000
264.609802 -286.759094 2.964561 1.000000
264.609802 -286.759094 2.687490 1.000000
264.609802 -286.759094 2.411905 1.000000
264.609802 -286.759094 2.137203 1.000000
264.609802 -286.759094 1.862796 1.000000
264.609802 -286.759094 1.588095 1.000000
264.609802 -286.759094 1.312509 1.000000
264.609802 -286.759094 1.035439 1.000000
264.609802 -286.759094 0.756275 1.000000
264.609802 -286.759094 0.474386 1.000000
264.609802 -286.759094 0.189118 1.000000
264.370117 -287.079651 0.000041 0.215110
264.624512 -286.836548 4.086928 1.000000
264.624512 -286.836548 3.799429 1.000000
264.624512 -286.836548 3.515965 1.000000
264.624512 -286.836548 3.235859 1.000000
264.624512 -286.836548 2.958461 1.000000
264.624512 -286.836548 2.683143 1.000000
264.624512 -286.836548 2.409300 1.000000
264.624512 -286.836548 2.136336 1.000000
264.624512 -286.836548 1.863664 1.000000
264.624512 -286.836548 1.590700 1.000000
264.624512 -286.836548 1.316857 1.000000
264.624512 -286.836548 1.041540 1.000000
264.624512 -286.836548 0.764141 1.000000
264.624512 -286.836548 0.484035 1.000000
264.624512 -286.836548 0.200571 1.000000
264.414673 -287.113159 0.000036 0.271915
264.639038 -286.913055 4.073915 1.000000
264.639038 -286.913055 3.788208 1.000000
264.639038 -286.913055 3.506512 1.000000
264.639038 -286.913055 3.228153 1.000000
264.639038 -286.913055 2.952484 1.000000
264.639038 -286.913055 2.678883 1.000000
264.639038 -286.913055 2.406747 1.000000
264.639038 -286.913055 2.135486 1.000000
264.639038 -286.913055 1.864514 1.000000
264.639038 -286.913055 1.593252 1.000000
264.639038 -286.913055 1.321117 1.000000
264.639038 -286.913055 1.047516 1.000000
264.639038 -286.913055 0.771847 1.000000
264.639038 -286.913055 0.493487 1.000000
264.639038 -286.913055 0.211792 1.000000
264.459045 -287.146912 0.000007 0.221165
264.653381 -286.988586 4.061161 1.000000
264.653381 -286.988586 3.777210 1.000000
264.653381 -286.988586 3.497248 1.000000
264.653381 -286.988586 3.220600 1.000000
264.653381 -286.988586 2.946626 1.000000
264.653381 -286.988586 2.674708 1.000000
264.653381 -286.988586 2.404246 1.000000
264.653381 -286.988586 2.134652 1.000000
264.653381 -286.988586 1.865348 1.000000
264.653381 -286.988586 1.595754 1.000000
264.653381 -286.988586 1.325292 1.000000
264.653381 -286.988586 1.053374 1.000000
264.653381 -286.988586 0.779400 1.000000
264.653381 -286.988586 0.502752 1.000000
264.653381 -286.988586 0.222789 1.000000
264.502960 -287.181183 0.000051 0.216455
264.667572 -287.063202 4.048663 1.000000
264.667572 -287.063202 3.766434 1.000000
264.667572 -287.063202 3.488169 1.000000
264.667572 -287.063202 3.213199 1.000000
264.667572 -287.063202 2.940886 1.000000
264.667572 -287.063202 2.670617 1.000000
264.667572 -287.063202 2.401795 1.000000
264.667572 -287.063202 2.133836 1.000000
264.667572 -287.063202 1.866164 1.000000
264.667572 -287.063202 1.598205 1.000000
264.667572 -287.063202 1.329383 1.000000
264.667572 -287.063202 1.059114 1.000000
264.667572 -287.063202 0.786801 1.000000
264.667572 -287.063202 0.511831 1.000000
264.667572 -287.063202 0.233565 1.000000
264.546448 -287.216125 0.000201 0.243080
264.681549 -287.136932 4.036414 1.000000
264.681549 -287.136932 3.755874 1.000000
264.681549 -287.136932 3.479271 1.000000
264.681549 -287.136932 3.205945 1.000000
264.681549 -287.136932 2.935260 1.000000
264.681549 -287.136932 2.666607 1.000000
264.681549 -287.136932 2.399392 1.000000
264.681549 -287.136932 2.133036 1.000000
264.681549 -287.136932 1.866964 1.000000
264.681549 -287.136932 1.600607 1.000000
264.681549 -287.136932 1.333393 1.000000
264.681549 -287.136932 1.064740 1.000000
264.681549 -287.136932 0.794055 1.000000
264.681549 -287.136932 0.520729 1.000000
264.681549 -287.136932 0.244126 1.000000
264.590881 -287.249786 -0.000154 0.195117
264.695374 -287.209808 4.024409 1.000000
264.695374 -287.209808 3.745522 1.000000
264.695374 -287.209808 3.470551 1.000000
264.695374 -287.209808 3.198836 1.000000
264.695374 -287.209808 2.929747 1.000000
264.695374 -287.209808 2.662677 1.000000
264.695374 -287.209808 2.397038 1.000000
264.695374 -287.209808 2.132252 1.000000
264.695374 -287.209808 1.867749 1.000000
264.695374 -287.209808 1.602962 1.000000
264.695374 -287.209808 1.337322 1.000000
264.695374 -287.209808 1.070253 1.000000
264.695374 -287.209808 0.801165 1.000000
264.695374 -287.209808 0.529449 1.000000
264.695374 -287.209808 0.254478 1.000000
264.633362 -287.285919 0.000190 0.265571
264.709076 -287.281799 4.012641 1.000000
264.709076 -287.281799 3.735376 1.000000
264.709076 -287.281799 3.462003 1.000000
264.709076 -287.281799 3.191867 1.000000
264.709076 -287.281799 2.924343 1.000000
264.709076 -287.281799 2.658825 1.000000
264.709076 -287.281799 2.394730 1.000000
264.709076 -287.281799 2.131483 1.000000
264.709076 -287.281799 1.868517 1.000000
264.709076 -287.281799 1.605270 1.000000
264.709076 -287.281799 1.341174 1.000000
264.709076 -287.281799 1.075657 1.000000
264.709076 -287.281799 0.808133 1.000000
264.709076 -287.281799 0.537997 1.000000
264.709076 -287.281799 0.264624 1.000000
264.676483 -287.321228 0.000171 0.230681
264.722595 -287.352966 4.001107 1.000000
264.722595 -287.352966 3.725430 1.000000
264.722595 -287.352966 3.453624 1.000000
264.722595 -287.352966 3.185037 1.000000
264.722595 -287.352966 2.919045 1.000000
264.722595 -287.352966 2.655050 1.000000
264.722595 -287.352966 2.392468 1.000000
264.722595 -287.352966 2.130729 1.000000
264.722595 -287.352966 1.869271 1.000000
264.722595 -287.352966 1.607532 1.000000
264.722595 -287.352966 1.344950 1.000000
264.722595 -287.352966 1.080955 1.000000
264.722595 -287.352966 0.814963 1.000000
264.722595 -287.352966 0.546376 1.000000
264.722595 -287.352966 0.274569 1.000000
264.722595 -287.352966 -0.001108 1.000000
264.735962 -287.423340 3.989802 1.000000
264.735962 -287.423340 3.715683 1.000000
264.735962 -287.423340 3.445412 1.000000
264.735962 -287.423340 3.178342 1.000000
264.735962 -287.423340 2.913853 1.000000
264.735962 -287.423340 2.651349 1.000000
264.735962 -287.423340 2.390251 1.000000
264.735962 -287.423340 2.129991 1.000000
264.735962 -287.423340 1.870009 1.000000
264.735962 -287.423340 1.609749 1.000000
264.735962 -287.423340 1.348651 1.000000
264.735962 -287.423340 1.086147 1.000000
264.735962 -287.423340 0.821658 1.000000
264.735962 -287.423340 0.554588 1.000000
264.735962 -287.423340 0.284317 1.000000
264.735962 -287.423340 0.010198 1.000000
264.749176 -287.492920 3.978718 1.000000
264.749176 -287.492920 3.706125 1.000000
264.749176 -287.492920 3.437360 1.000000
264.749176 -287.492920 3.171778 1.000000
264.749176 -287.492920 2.908763 1.000000
264.749176 -287.492920 2.647721 1.000000
264.749176 -287.492920 2.388077 1.000000
264.749176 -287.492920 2.129266 1.000000
264.749176 -287.492920 1.870733 1.000000
264.749176 -287.492920 1.611923 1.000000
264.749176 -287.492920 1.352279 1.000000
264.749176 -287.492920 1.091237 1.000000
264.749176 -287.492920 0.828222 1.000000
264.749176 -287.492920 0.562640 1.000000
264.749176 -287.492920 0.293874 1.000000
264.749176 -287.492920 0.021281 1.000000
264.762238 -287.561737 3.967853 1.000000
264.762238 -287.561737 3.696758 1.000000
264.762238 -287.561737 3.429468 1.000000
264.762238 -287.561737 3.165344 1.000000
264.762238 -287.561737 2.903773 1.000000
264.762238 -287.561737 2.644164 1.000000
264.762238 -287.561737 2.385946 1.000000
264.762238 -287.561737 2.128557 1.000000
264.762238 -287.561737 1.871443 1.000000
264.762238 -287.561737 1.614054 1.000000
264.762238 -287.561737 1.355835 1.000000
264.762238 -287.561737 1.096227 1.000000
264.762238 -287.561737 0.834656 1.000000
264.762238 -287.561737 0.570532 1.000000
264.762238 -287.561737 0.303243 1.000000
264.762238 -287.561737 0.032147 1.000000
264.775177 -287.629791 3.957202 1.000000
264.775146 -287.629822 3.687573 1.000000
264.775177 -287.629791 3.421731 1.000000
264.775146 -287.629791 3.159036 1.000000
264.775146 -287.629822 2.898881 1.000000
264.775146 -287.629822 2.640677 1.000000
264.775146 -287.629791 2.383857 1.000000
264.775146 -287.629822 2.127861 1.000000
264.775146 -287.629822 1.872139 1.000000
264.775177 -287.629791 1.616143 1.000000
264.775177 -287.629791 1.359322 1.000000
264.775146 -287.629791 1.101119 1.000000
264.775146 -287.629791 0.840964 1.000000
264.775177 -287.629791 0.578269 1.000000
264.775146 -287.629791 0.312427 1.000000
264.775177 -287.629791 0.042797 1.000000
264.787933 -287.697144 3.946758 1.000000
264.787933 -287.697144 3.678569 1.000000
264.787933 -287.697144 3.414145 1.000000
264.787933 -287.697144 3.152852 1.000000
264.787933 -287.697144 2.894085 1.000000
264.787933 -287.697144 2.637259 1.000000
264.787933 -287.697144 2.381809 1.000000
264.787933 -287.697144 2.127179 1.000000
264.787933 -287.697144 1.872821 1.000000
264.787964 -287.697144 1.618191 1.000000
264.787933 -287.697144 1.362741 1.000000
264.787933 -287.697144 1.105915 1.000000
264.787933 -287.697144 0.847148 1.000000
264.787933 -287.697144 0.585855 1.000000
264.787933 -287.697144 0.321431 1.000000
264.787933 -287.697144 0.053241 1.000000
264.800629 -287.763794 3.936521 1.000000
264.800629 -287.763794 3.669741 1.000000
264.800629 -287.763794 3.406708 1.000000
264.800629 -287.763794 3.146789 1.000000
264.800629 -287.763794 2.889383 1.000000
264.800629 -287.763794 2.633908 1.000000
264.800629 -287.763794 2.379801 1.000000
264.800629 -287.763794 2.126510 1.000000
264.800629 -287.763794 1.873490 1.000000
264.800629 -287.763794 1.620199 1.000000
264.800629 -287.763794 1.366092 1.000000
264.800629 -287.763794 1.110617 1.000000
264.800629 -287.763794 0.853211 1.000000
264.800629 -287.763794 0.593292 1.000000
264.800629 -287.763763 0.330258 1.000000
264.800629 -287.763794 0.063479 1.000000
264.813141 -287.829681 3.926484 1.000000
264.813141 -287.829681 3.661087 1.000000
264.813141 -287.829681 3.399416 1.000000
264.813141 -287.829681 3.140845 1.000000
264.813141 -287.829681 2.884773 1.000000
264.813141 -287.829681 2.630622 1.000000
264.813141 -287.829681 2.377832 1.000000
264.813141 -287.829681 2.125854 1.000000
264.813141 -287.829681 1.874146 1.000000
264.813141 -287.829681 1.622168 1.000000
264.813141 -287.829681 1.369377 1.000000
264.813141 -287.829681 1.115227 1.000000
264.813141 -287.829681 0.859155 1.000000
264.813141 -287.829681 0.600583 1.000000
264.813141 -287.829681 0.338913 1.000000
264.813141 -287.829681 0.073516 1.000000
264.825531 -287.894958 3.916643 1.000000
264.825531 -287.894958 3.652602 1.000000
264.825531 -287.894958 3.392268 1.000000
264.825531 -287.894958 3.135017 1.000000
264.825531 -287.894958 2.880253 1.000000
264.825531 -287.894958 2.627401 1.000000
264.825531 -287.894958 2.375902 1.000000
264.825531 -287.894958 2.125211 1.000000
264.825531 -287.894958 1.874789 1.000000
264.825531 -287.894958 1.624098 1.000000
264.825531 -287.894958 1.372599 1.000000
264.825531 -287.894958 1.119746 1.000000
264.825531 -287.894958 0.864982 1.000000
264.825531 -287.894958 0.607732 1.000000
264.825531 -287.894958 0.347398 1.000000
264.825531 -287.894958 0.083357 1.000000
264.837799 -287.959534 3.906996 1.000000
264.837799 -287.959534 3.644284 1.000000
264.837799 -287.959534 3.385260 1.000000
264.837799 -287.959534 3.129304 1.000000
264.837799 -287.959534 2.875823 1.000000
264.837799 -287.959534 2.624243 1.000000
264.837799 -287.959534 2.374010 1.000000
264.837799 -287.959534 2.124581 1.000000
264.837799 -287.959534 1.875419 1.000000
264.837799 -287.959534 1.625990 1.000000
264.837830 -287.959534 1.375757 1.000000
264.837799 -287.959534 1.124177 1.000000
264.837799 -287.959534 0.870695 1.000000
264.837799 -287.959534 0.614740 1.000000
264.837830 -287.959534 0.355716 1.000000
264.837830 -287.959534 0.093004 1.000000
264.849945 -288.023499 3.897536 1.000000
264.849945 -288.023499 3.636127 1.000000
264.849945 -288.023499 3.378388 1.000000
264.849945 -288.023499 3.123703 1.000000
264.849945 -288.023499 2.871478 1.000000
264.849945 -288.023499 2.621146 1.000000
264.849945 -288.023499 2.372155 1.000000
264.849945 -288.023499 2.123963 1.000000
264.849945 -288.023499 1.876037 1.000000
264.849945 -288.023499 1.627845 1.000000
264.849945 -288.023499 1.378854 1.000000
264.849945 -288.023499 1.128522 1.000000
264.849945 -288.023499 0.876298 1.000000
264.849945 -288.023499 0.621611 1.000000
264.849945 -288.023499 0.363873 1.000000
264.849945 -288.023499 0.102465 1.000000
264.861969 -288.086823 3.888260 1.000000
264.861969 -288.086823 3.628130 1.000000
264.861969 -288.086823 3.371651 1.000000
264.861969 -288.086823 3.118210 1.000000
264.861969 -288.086823 2.867218 1.000000
264.861969 -288.086823 2.618110 1.000000
264.861969 -288.086823 2.370336 1.000000
264.861969 -288.086823 2.123357 1.000000
264.861969 -288.086823 1.876643 1.000000
264.861969 -288.086823 1.629664 1.000000
264.861969 -288.086823 1.381890 1.000000
264.861969 -288.086823 1.132782 1.000000
264.861969 -288.086823 0.881790 1.000000
264.861969 -288.086823 0.628349 1.000000
264.861969 -288.086823 0.371870 1.000000
264.861969 -288.086823 0.111739 1.000000
264.873901 -288.149536 3.879167 1.000000
264.873901 -288.149536 3.620288 1.000000
264.873901 -288.149506 3.365045 1.000000
264.873901 -288.149536 3.112824 1.000000
264.873901 -288.149536 2.863042 1.000000
264.873901 -288.149506 2.615133 1.000000
264.873901 -288.149536 2.368552 1.000000
264.873901 -288.149536 2.122763 1.000000
264.873901 -288.149506 1.877237 1.000000
264.873901 -288.149536 1.631448 1.000000
264.873901 -288.149536 1.384866 1.000000
264.873901 -288.149506 1.136958 1.000000
264.873901 -288.149536 0.887175 1.000000
264.873901 -288.149506 0.634955 1.000000
264.873901 -288.149536 0.379712 1.000000
264.873901 -288.149536 0.120833 1.000000
264.885681 -288.211639 3.870251 1.000000
264.885681 -288.211639 3.612601 1.000000
264.885681 -288.211639 3.358569 1.000000
264.885681 -288.211639 3.107545 1.000000
264.885681 -288.211639 2.858947 1.000000
264.885681 -288.211639 2.612215 1.000000
264.885681 -288.211639 2.366804 1.000000
264.885681 -288.211639 2.122180 1.000000
264.885681 -288.211639 1.877819 1.000000
264.885681 -288.211639 1.633196 1.000000
264.885681 -288.211639 1.387785 1.000000
264.885681 -288.211639 1.141053 1.000000
264.885681 -288.211639 0.892455 1.000000
264.885681 -288.211639 0.641431 1.000000
264.885681 -288.211639 0.387399 1.000000
264.885681 -288.211639 0.129749 1.000000
264.897369 -288.273163 3.861510 1.000000
264.897369 -288.273163 3.605064 1.000000
264.897369 -288.273163 3.352219 1.000000
264.897369 -288.273163 3.102368 1.000000
264.897369 -288.273163 2.854933 1.000000
264.897369 -288.273163 2.609353 1.000000
264.897369 -288.273163 2.365089 1.000000
264.897369 -288.273163 2.121610 1.000000
264.897369 -288.273163 1.878390 1.000000
264.897369 -288.273163 1.634911 1.000000
264.897369 -288.273163 1.390646 1.000000
264.897369 -288.273163 1.145067 1.000000
264.897369 -288.273163 0.897632 1.000000
264.897369 -288.273163 0.647781 1.000000
264.897369 -288.273163 0.394936 1.000000
264.897369 -288.273163 0.138490 1.000000
264.908936 -288.334137 3.852942 1.000000
264.908936 -288.334137 3.597676 1.000000
264.908936 -288.334137 3.345995 1.000000
264.908936 -288.334137 3.097294 1.000000
264.908936 -288.334137 2.850997 1.000000
264.908936 -288.334137 2.606548 1.000000
264.908936 -288.334137 2.363409 1.000000
264.908936 -288.334137 2.121050 1.000000
264.908936 -288.334137 1.878950 1.000000
264.908936 -288.334137 1.636591 1.000000
264.908936 -288.334137 1.393451 1.000000
264.908936 -288.334137 1.149003 1.000000
264.908936 -288.334137 0.902706 1.000000
264.908936 -288.334137 0.654005 1.000000
264.908936 -288.334137 0.402324 1.000000
264.908936 -288.334137 0.147058 1.000000
264.920410 -288.394531 3.844539 1.000000
264.920410 -288.394531 3.590431 1.000000
264.920410 -288.394531 3.339891 1.000000
264.920410 -288.394531 3.092318 1.000000
264.920410 -288.394531 2.847138 1.000000
264.920410 -288.394531 2.603798 1.000000
264.920410 -288.394531 2.361761 1.000000
264.920410 -288.394531 2.120501 1.000000
264.920410 -288.394531 1.879499 1.000000
264.920410 -288.394531 1.638239 1.000000
264.920410 -288.394531 1.396202 1.000000
264.920410 -288.394531 1.152861 1.000000
264.920410 -288.394531 0.907681 1.000000
264.920410 -288.394531 0.660109 1.000000
264.920410 -288.394531 0.409569 1.000000
264.920410 -288.394531 0.155461 1.000000
264.931793 -288.454376 3.836303 1.000000
264.931793 -288.454376 3.583330 1.000000
264.931793 -288.454376 3.333908 1.000000
264.931793 -288.454376 3.087441 1.000000
264.931793 -288.454376 2.843356 1.000000
264.931793 -288.454376 2.601102 1.000000
264.931793 -288.454376 2.360146 1.000000
264.931793 -288.454376 2.119963 1.000000
264.931793 -288.454376 1.880037 1.000000
264.931793 -288.454376 1.639854 1.000000
264.931793 -288.454376 1.398898 1.000000
264.931793 -288.454376 1.156644 1.000000
264.931793 -288.454376 0.912559 1.000000
264.931793 -288.454376 0.666092 1.000000
264.931793 -288.454376 0.416670 1.000000
264.931793 -288.454376 0.163697 1.000000
264.943054 -288.513702 3.828228 1.000000
264.943054 -288.513702 3.576367 1.000000
264.943054 -288.513702 3.328042 1.000000
264.943054 -288.513702 3.082659 1.000000
264.943054 -288.513702 2.839647 1.000000
264.943054 -288.513702 2.598458 1.000000
264.943054 -288.513702 2.358562 1.000000
264.943054 -288.513702 2.119435 1.000000
264.943054 -288.513702 1.880565 1.000000
264.943054 -288.513702 1.641438 1.000000
264.943054 -288.513702 1.401541 1.000000
264.943054 -288.513702 1.160353 1.000000
264.943054 -288.513702 0.917341 1.000000
264.943054 -288.513702 0.671958 1.000000
264.943054 -288.513702 0.423633 1.000000
264.943054 -288.513702 0.171772 1.000000
264.954224 -288.572540 3.820312 1.000000
264.954224 -288.572540 3.569542 1.000000
264.954224 -288.572540 3.322293 1.000000
264.954224 -288.572540 3.077971 1.000000
264.954224 -288.572540 2.836012 1.000000
264.954224 -288.572540 2.595867 1.000000
264.954224 -288.572540 2.357009 1.000000
264.954224 -288.572540 2.118918 1.000000
264.954224 -288.572540 1.881082 1.000000
264.954224 -288.572540 1.642991 1.000000
264.954224 -288.572540 1.404132 1.000000
264.954224 -288.572540 1.163988 1.000000
264.954224 -288.572540 0.922029 1.000000
264.954224 -288.572540 0.677707 1.000000
264.954224 -288.572540 0.430458 1.000000
264.954224 -288.572540 0.179688 1.000000
264.965302 -288.630829 3.812552 1.000000
264.965302 -288.630829 3.562851 1.000000
264.965302 -288.630829 3.316656 1.000000
264.965302 -288.630829 3.073376 1.000000
264.965302 -288.630829 2.832448 1.000000
264.965302 -288.630829 2.593328 1.000000
264.965302 -288.630829 2.355487 1.000000
264.965302 -288.630829 2.118411 1.000000
264.965302 -288.630829 1.881589 1.000000
264.965302 -288.630829 1.644512 1.000000
264.965302 -288.630829 1.406672 1.000000
264.965302 -288.630829 1.167552 1.000000
264.965302 -288.630829 0.926623 1.000000
264.965302 -288.630829 0.683344 1.000000
264.965302 -288.630829 0.437149 1.000000
264.965302 -288.630829 0.187447 1.000000
264.976288 -288.688629 3.804946 1.000000
264.976288 -288.688629 3.556293 1.000000
264.976288 -288.688629 3.311131 1.000000
264.976288 -288.688629 3.068872 1.000000
264.976288 -288.688629 2.828955 1.000000
264.976288 -288.688629 2.590838 1.000000
264.976288 -288.688629 2.353996 1.000000
264.976288 -288.688629 2.117914 1.000000
264.976288 -288.688629 1.882086 1.000000
264.976288 -288.688629 1.646004 1.000000
264.976288 -288.688629 1.409162 1.000000
264.976288 -288.688629 1.171045 1.000000
264.976288 -288.688629 0.931128 1.000000
264.976288 -288.688629 0.688869 1.000000
264.976288 -288.688629 0.443707 1.000000
264.976288 -288.688629 0.195054 1.000000
264.987183 -288.745972 3.797492 1.000000
264.987183 -288.745972 3.549865 1.000000
264.987183 -288.745972 3.305715 1.000000
264.987183 -288.745972 3.064457 1.000000
264.987183 -288.745972 2.825531 1.000000
264.987183 -288.745972 2.588398 1.000000
264.987183 -288.745972 2.352533 1.000000
264.987183 -288.745972 2.117427 1.000000
264.987183 -288.745972 1.882573 1.000000
264.987183 -288.745972 1.647466 1.000000
264.987183 -288.745972 1.411602 1.000000
264.987183 -288.745972 1.174469 1.000000
264.987183 -288.745972 0.935543 1.000000
264.987183 -288.745972 0.694285 1.000000
264.987183 -288.745972 0.450135 1.000000
264.987183 -288.745972 0.202509 1.000000
264.997986 -288.802856 3.790184 1.000000
264.997986 -288.802856 3.543564 1.000000
264.997986 -288.802856 3.300407 1.000000
264.997986 -288.802856 3.060130 1.000000
264.997986 -288.802856 2.822175 1.000000
264.997986 -288.802856 2.586005 1.000000
264.997986 -288.802856 2.351100 1.000000
264.997986 -288.802856 2.116950 1.000000
264.997986 -288.802856 1.883050 1.000000
264.997986 -288.802856 1.648899 1.000000
264.997986 -288.802856 1.413994 1.000000
264.997986 -288.802856 1.177825 1.000000
264.997986 -288.802856 0.939870 1.000000
264.997986 -288.802856 0.699592 1.000000
264.997986 -288.802856 0.456435 1.000000
264.997986 -288.802856 0.209816 1.000000
265.008667 -288.859283 3.783022 1.000000
265.008667 -288.859283 3.537389 1.000000
265.008667 -288.859283 3.295205 1.000000
265.008667 -288.859283 3.055889 1.000000
