# This PCD file was generated using the MATLABÂ® pcwrite function
# from Computer Vision ToolboxÂ®.
# .PCD v.7 - Point Cloud Data file format
VERSION .7
FIELDS x y z intensity
SIZE 4 4 4 4
TYPE F F F F
COUNT 1 1 1 1
WIDTH 1255
HEIGHT 1
VIEWPOINT 0 0 0 1 0 0 0
POINTS 1255
DATA ascii
-75.406799 9.347258 3.175111 1.000000
-75.406799 9.347257 3.013225 1.000000
-75.406799 9.347257 2.853612 1.000000
-75.406799 9.347257 2.695890 1.000000
-75.406799 9.347257 2.539691 1.000000
-75.406799 9.347257 2.384665 1.000000
-75.406799 9.347257 2.230469 1.000000
-75.406799 9.347257 2.076768 1.000000
-75.406799 9.347257 1.923232 1.000000
-75.406799 9.347257 1.769531 1.000000
-75.406799 9.347257 1.615335 1.000000
-75.406799 9.347257 1.460309 1.000000
-75.406799 9.347257 1.304110 1.000000
-75.406799 9.347257 1.146388 1.000000
-75.406799 9.347257 0.986775 1.000000
-75.406799 9.347259 0.824889 1.000000
-75.439133 9.352491 3.175153 1.000000
-75.439133 9.352490 3.013262 1.000000
-75.439133 9.352489 2.853643 1.000000
-75.439133 9.352490 2.695915 1.000000
-75.439133 9.352490 2.539711 1.000000
-75.439133 9.352490 2.384679 1.000000
-75.439133 9.352490 2.230477 1.000000
-75.439133 9.352490 2.076771 1.000000
-75.439133 9.352490 1.923229 1.000000
-75.439133 9.352491 1.769523 1.000000
-75.439133 9.352490 1.615321 1.000000
-75.439133 9.352491 1.460289 1.000000
-75.439133 9.352491 1.304085 1.000000
-75.439133 9.352491 1.146357 1.000000
-75.439133 9.352491 0.986739 1.000000
-75.439133 9.352491 0.824847 1.000000
-75.471458 9.357725 3.175252 1.000000
-75.471458 9.357725 3.013347 1.000000
-75.471458 9.357725 2.853715 1.000000
-75.471458 9.357725 2.695973 1.000000
-75.471458 9.357725 2.539756 1.000000
-75.471458 9.357725 2.384712 1.000000
-75.471458 9.357725 2.230497 1.000000
-75.471458 9.357725 2.076777 1.000000
-75.471458 9.357725 1.923223 1.000000
-75.471458 9.357725 1.769503 1.000000
-75.471458 9.357725 1.615288 1.000000
-75.471458 9.357725 1.460244 1.000000
-75.471458 9.357726 1.304027 1.000000
-75.471458 9.357727 1.146285 1.000000
-75.471458 9.357727 0.986653 1.000000
-75.471458 9.357727 0.824748 1.000000
-75.503807 9.362960 3.175409 1.000000
-75.503807 9.362960 3.013482 1.000000
-75.503807 9.362960 2.853828 1.000000
-75.503807 9.362959 2.696066 1.000000
-75.503807 9.362960 2.539828 1.000000
-75.503807 9.362960 2.384763 1.000000
-75.503807 9.362960 2.230528 1.000000
-75.503807 9.362960 2.076787 1.000000
-75.503807 9.362960 1.923212 1.000000
-75.503807 9.362960 1.769472 1.000000
-75.503807 9.362960 1.615237 1.000000
-75.503807 9.362961 1.460172 1.000000
-75.503807 9.362960 1.303934 1.000000
-75.503807 9.362962 1.146172 1.000000
-75.503807 9.362962 0.986518 1.000000
-75.503807 9.362962 0.824591 1.000000
-75.536163 9.368197 3.175623 1.000000
-75.536163 9.368198 3.013666 1.000000
-75.536163 9.368198 2.853984 1.000000
-75.536163 9.368198 2.696193 1.000000
-75.536163 9.368198 2.539927 1.000000
-75.536163 9.368198 2.384833 1.000000
-75.536163 9.368198 2.230569 1.000000
-75.536163 9.368199 2.076802 1.000000
-75.536163 9.368199 1.923198 1.000000
-75.536163 9.368198 1.769431 1.000000
-75.536163 9.368198 1.615167 1.000000
-75.536163 9.368199 1.460074 1.000000
-75.536163 9.368198 1.303807 1.000000
-75.536163 9.368198 1.146016 1.000000
-75.536163 9.368198 0.986334 1.000000
-75.536163 9.368198 0.824377 1.000000
-75.568520 9.373437 3.175894 1.000000
-75.568520 9.373437 3.013900 1.000000
-75.568527 9.373436 2.854181 1.000000
-75.568520 9.373437 2.696353 1.000000
-75.568520 9.373437 2.540051 1.000000
-75.568520 9.373437 2.384922 1.000000
-75.568520 9.373437 2.230623 1.000000
-75.568520 9.373437 2.076819 1.000000
-75.568520 9.373437 1.923181 1.000000
-75.568520 9.373437 1.769377 1.000000
-75.568520 9.373437 1.615078 1.000000
-75.568520 9.373437 1.459949 1.000000
-75.568520 9.373438 1.303647 1.000000
-75.568520 9.373437 1.145819 1.000000
-75.568520 9.373439 0.986100 1.000000
-75.568520 9.373439 0.824106 1.000000
-75.600906 9.378678 3.176223 1.000000
-75.600906 9.378678 3.014184 1.000000
-75.600906 9.378678 2.854420 1.000000
-75.600906 9.378678 2.696548 1.000000
-75.600906 9.378678 2.540202 1.000000
-75.600906 9.378678 2.385029 1.000000
-75.600906 9.378678 2.230687 1.000000
-75.600906 9.378679 2.076841 1.000000
-75.600906 9.378679 1.923159 1.000000
-75.600906 9.378678 1.769313 1.000000
-75.600906 9.378678 1.614971 1.000000
-75.600906 9.378679 1.459798 1.000000
-75.600906 9.378679 1.303452 1.000000
-75.600906 9.378679 1.145580 1.000000
-75.600906 9.378679 0.985817 1.000000
-75.600906 9.378679 0.823777 1.000000
-75.633316 9.383923 3.176609 1.000000
-75.633316 9.383924 3.014517 1.000000
-75.633316 9.383924 2.854700 1.000000
-75.633316 9.383923 2.696777 1.000000
-75.633316 9.383923 2.540379 1.000000
-75.633316 9.383923 2.385155 1.000000
-75.633316 9.383923 2.230763 1.000000
-75.633316 9.383924 2.076866 1.000000
-75.633316 9.383924 1.923134 1.000000
-75.633316 9.383924 1.769237 1.000000
-75.633316 9.383924 1.614844 1.000000
-75.633316 9.383924 1.459621 1.000000
-75.633316 9.383923 1.303223 1.000000
-75.633316 9.383924 1.145300 1.000000
-75.633316 9.383924 0.985484 1.000000
-75.633316 9.383924 0.823391 1.000000
-75.665733 9.389173 3.177053 1.000000
-75.665733 9.389173 3.014899 1.000000
-75.665733 9.389173 2.855023 1.000000
-75.665733 9.389173 2.697039 1.000000
-75.665733 9.389173 2.540583 1.000000
-75.665733 9.389173 2.385301 1.000000
-75.665733 9.389173 2.230850 1.000000
-75.665733 9.389173 2.076895 1.000000
-75.665733 9.389173 1.923105 1.000000
-75.665733 9.389173 1.769150 1.000000
-75.665733 9.389173 1.614699 1.000000
-75.665733 9.389174 1.459417 1.000000
-75.665733 9.389174 1.302961 1.000000
-75.665733 9.389174 1.144977 1.000000
-75.665733 9.389173 0.985101 1.000000
-75.665733 9.389174 0.822948 1.000000
-75.698189 9.394425 3.177555 1.000000
-75.698189 9.394425 3.015332 1.000000
-75.698189 9.394425 2.855387 1.000000
-75.698189 9.394425 2.697337 1.000000
-75.698189 9.394425 2.540814 1.000000
-75.698189 9.394425 2.385465 1.000000
-75.698189 9.394425 2.230948 1.000000
-75.698189 9.394425 2.076928 1.000000
-75.698189 9.394425 1.923072 1.000000
-75.698189 9.394425 1.769052 1.000000
-75.698189 9.394425 1.614535 1.000000
-75.698189 9.394425 1.459186 1.000000
-75.698189 9.394425 1.302664 1.000000
-75.698189 9.394426 1.144613 1.000000
-75.698189 9.394427 0.984668 1.000000
-75.698189 9.394425 0.822446 1.000000
-75.730667 9.399682 3.178114 1.000000
-75.730667 9.399683 3.015814 1.000000
-75.730667 9.399683 2.855793 1.000000
-75.730667 9.399683 2.697668 1.000000
-75.730667 9.399683 2.541070 1.000000
-75.730667 9.399683 2.385648 1.000000
-75.730667 9.399682 2.231058 1.000000
-75.730667 9.399682 2.076964 1.000000
-75.730667 9.399682 1.923036 1.000000
-75.730667 9.399682 1.768942 1.000000
-75.730667 9.399683 1.614352 1.000000
-75.730667 9.399684 1.458930 1.000000
-75.730667 9.399684 1.302332 1.000000
-75.730667 9.399684 1.144206 1.000000
-75.730667 9.399684 0.984186 1.000000
-75.730667 9.399684 0.821886 1.000000
-75.763184 9.404946 3.178732 1.000000
-75.763184 9.404946 3.016347 1.000000
-75.763184 9.404945 2.856242 1.000000
-75.763184 9.404946 2.698034 1.000000
-75.763184 9.404946 2.541354 1.000000
-75.763184 9.404946 2.385850 1.000000
-75.763184 9.404945 2.231179 1.000000
-75.763184 9.404944 2.077005 1.000000
-75.763184 9.404944 1.922995 1.000000
-75.763184 9.404946 1.768821 1.000000
-75.763184 9.404946 1.614150 1.000000
-75.763184 9.404946 1.458646 1.000000
-75.763184 9.404946 1.301966 1.000000
-75.763184 9.404946 1.143758 1.000000
-75.763184 9.404946 0.983653 1.000000
-75.763184 9.404947 0.821269 1.000000
-75.795731 9.410214 3.179407 1.000000
-75.795731 9.410214 3.016930 1.000000
-75.795731 9.410214 2.856733 1.000000
-75.795731 9.410214 2.698434 1.000000
-75.795731 9.410214 2.541664 1.000000
-75.795731 9.410214 2.386072 1.000000
-75.795731 9.410214 2.231312 1.000000
-75.795731 9.410213 2.077049 1.000000
-75.795731 9.410213 1.922951 1.000000
-75.795731 9.410214 1.768688 1.000000
-75.795731 9.410214 1.613928 1.000000
-75.795731 9.410214 1.458336 1.000000
-75.795731 9.410214 1.301566 1.000000
-75.795731 9.410214 1.143267 1.000000
-75.795731 9.410215 0.983071 1.000000
-75.795731 9.410215 0.820593 1.000000
-75.828316 9.415489 3.180141 1.000000
-75.828316 9.415490 3.017562 1.000000
-75.828316 9.415491 2.857266 1.000000
-75.828316 9.415491 2.698868 1.000000
-75.828316 9.415490 2.542001 1.000000
-75.828316 9.415491 2.386312 1.000000
-75.828316 9.415491 2.231456 1.000000
-75.828316 9.415491 2.077097 1.000000
-75.828316 9.415491 1.922903 1.000000
-75.828316 9.415491 1.768544 1.000000
-75.828316 9.415491 1.613688 1.000000
-75.828316 9.415491 1.457999 1.000000
-75.828316 9.415491 1.301132 1.000000
-75.828316 9.415491 1.142734 1.000000
-75.828316 9.415491 0.982438 1.000000
-75.828316 9.415491 0.819859 1.000000
-75.860947 9.420771 3.180934 1.000000
-75.860947 9.420772 3.018246 1.000000
-75.860947 9.420772 2.857842 1.000000
-75.860947 9.420773 2.699338 1.000000
-75.860947 9.420772 2.542366 1.000000
-75.860947 9.420772 2.386571 1.000000
-75.860947 9.420772 2.231611 1.000000
-75.860947 9.420772 2.077148 1.000000
-75.860947 9.420772 1.922851 1.000000
-75.860947 9.420773 1.768389 1.000000
-75.860947 9.420772 1.613429 1.000000
-75.860947 9.420773 1.457634 1.000000
-75.860947 9.420774 1.300662 1.000000
-75.860947 9.420773 1.142158 1.000000
-75.860947 9.420774 0.981755 1.000000
-75.860947 9.420774 0.819066 1.000000
-75.893623 9.426061 3.181785 1.000000
-75.893623 9.426061 3.018980 1.000000
-75.893623 9.426061 2.858460 1.000000
-75.893623 9.426061 2.699842 1.000000
-75.893623 9.426061 2.542757 1.000000
-75.893623 9.426062 2.386850 1.000000
-75.893623 9.426061 2.231778 1.000000
-75.893623 9.426061 2.077204 1.000000
-75.893623 9.426061 1.922796 1.000000
-75.893623 9.426062 1.768222 1.000000
-75.893623 9.426062 1.613150 1.000000
-75.893623 9.426062 1.457243 1.000000
-75.893623 9.426061 1.300158 1.000000
-75.893623 9.426062 1.141540 1.000000
-75.893623 9.426063 0.981021 1.000000
-75.893623 9.426063 0.818215 1.000000
-75.926346 9.431357 3.182695 1.000000
-75.926346 9.431357 3.019764 1.000000
-75.926346 9.431358 2.859121 1.000000
-75.926346 9.431359 2.700381 1.000000
-75.926346 9.431359 2.543174 1.000000
-75.926346 9.431357 2.387148 1.000000
-75.926346 9.431359 2.231956 1.000000
-75.926346 9.431357 2.077264 1.000000
-75.926346 9.431357 1.922736 1.000000
-75.926346 9.431358 1.768044 1.000000
-75.926346 9.431357 1.612852 1.000000
-75.926346 9.431359 1.456826 1.000000
-75.926346 9.431359 1.299619 1.000000
-75.926346 9.431359 1.140879 1.000000
-75.926346 9.431358 0.980236 1.000000
-75.926346 9.431359 0.817305 1.000000
-75.959122 9.436664 3.183664 1.000000
-75.959122 9.436664 3.020600 1.000000
-75.959122 9.436664 2.859825 1.000000
-75.959122 9.436664 2.700954 1.000000
-75.959122 9.436664 2.543620 1.000000
-75.959122 9.436665 2.387465 1.000000
-75.959122 9.436664 2.232147 1.000000
-75.959122 9.436664 2.077327 1.000000
-75.959122 9.436664 1.922673 1.000000
-75.959122 9.436664 1.767853 1.000000
-75.959122 9.436664 1.612535 1.000000
-75.959122 9.436664 1.456380 1.000000
-75.959122 9.436665 1.299046 1.000000
-75.959122 9.436666 1.140175 1.000000
-75.959122 9.436665 0.979400 1.000000
-75.959122 9.436665 0.816336 1.000000
-75.991959 9.441978 3.184693 1.000000
-75.991959 9.441979 3.021487 1.000000
-75.991959 9.441978 2.860573 1.000000
-75.991959 9.441979 2.701564 1.000000
-75.991959 9.441979 2.544092 1.000000
-75.991959 9.441979 2.387802 1.000000
-75.991959 9.441979 2.232348 1.000000
-75.991959 9.441978 2.077394 1.000000
-75.991959 9.441978 1.922606 1.000000
-75.991959 9.441979 1.767652 1.000000
-75.991959 9.441979 1.612198 1.000000
-75.991959 9.441979 1.455908 1.000000
-75.991959 9.441980 1.298436 1.000000
-75.991959 9.441979 1.139428 1.000000
-75.991959 9.441979 0.978513 1.000000
-75.991959 9.441979 0.815307 1.000000
-76.024841 9.447303 3.185781 1.000000
-76.024841 9.447301 3.022426 1.000000
-76.024841 9.447301 2.861363 1.000000
-76.024841 9.447303 2.702208 1.000000
-76.024841 9.447302 2.544592 1.000000
-76.024841 9.447302 2.388158 1.000000
-76.024841 9.447301 2.232562 1.000000
-76.024841 9.447301 2.077465 1.000000
-76.024841 9.447302 1.922535 1.000000
-76.024841 9.447301 1.767438 1.000000
-76.024841 9.447302 1.611842 1.000000
-76.024841 9.447303 1.455408 1.000000
-76.024841 9.447303 1.297792 1.000000
-76.024841 9.447302 1.138637 1.000000
-76.024841 9.447303 0.977575 1.000000
-76.024841 9.447303 0.814219 1.000000
-76.057793 9.452636 3.186930 1.000000
-76.057793 9.452636 3.023416 1.000000
-76.057793 9.452636 2.862197 1.000000
-76.057793 9.452637 2.702888 1.000000
-76.057793 9.452637 2.545119 1.000000
-76.057793 9.452637 2.388534 1.000000
-76.057793 9.452637 2.232787 1.000000
-76.057793 9.452636 2.077540 1.000000
-76.057793 9.452635 1.922460 1.000000
-76.057793 9.452637 1.767213 1.000000
-76.057793 9.452637 1.611466 1.000000
-76.057793 9.452637 1.454881 1.000000
-76.057793 9.452637 1.297112 1.000000
-76.057793 9.452637 1.137803 1.000000
-76.057793 9.452638 0.976585 1.000000
-76.057793 9.452637 0.813071 1.000000
-76.090813 9.457982 3.188138 1.000000
-76.090813 9.457982 3.024457 1.000000
-76.090813 9.457982 2.863075 1.000000
-76.090813 9.457982 2.703604 1.000000
-76.090813 9.457982 2.545674 1.000000
-76.090813 9.457982 2.388929 1.000000
-76.090813 9.457982 2.233024 1.000000
-76.090813 9.457982 2.077619 1.000000
-76.090813 9.457982 1.922381 1.000000
-76.090813 9.457982 1.766976 1.000000
-76.090813 9.457982 1.611071 1.000000
-76.090813 9.457982 1.454326 1.000000
-76.090813 9.457982 1.296396 1.000000
-76.090813 9.457982 1.136925 1.000000
-76.090813 9.457982 0.975543 1.000000
-76.090813 9.457982 0.811862 1.000000
-76.123901 9.463336 3.189407 1.000000
-76.123901 9.463338 3.025551 1.000000
-76.123901 9.463337 2.863997 1.000000
-76.123901 9.463336 2.704355 1.000000
-76.123901 9.463336 2.546257 1.000000
-76.123901 9.463337 2.389345 1.000000
-76.123901 9.463337 2.233273 1.000000
-76.123901 9.463336 2.077702 1.000000
-76.123901 9.463336 1.922298 1.000000
-76.123901 9.463336 1.766727 1.000000
-76.123901 9.463336 1.610655 1.000000
-76.123901 9.463337 1.453743 1.000000
-76.123901 9.463338 1.295645 1.000000
-76.123901 9.463338 1.136003 1.000000
-76.123901 9.463338 0.974449 1.000000
-76.123901 9.463338 0.810594 1.000000
-76.157059 9.468705 3.190736 1.000000
-76.157059 9.468705 3.026698 1.000000
-76.157059 9.468705 2.864963 1.000000
-76.157059 9.468705 2.705143 1.000000
-76.157059 9.468705 2.546867 1.000000
-76.157059 9.468705 2.389780 1.000000
-76.157059 9.468705 2.233534 1.000000
-76.157059 9.468704 2.077789 1.000000
-76.157059 9.468704 1.922211 1.000000
-76.157059 9.468705 1.766466 1.000000
-76.157059 9.468705 1.610220 1.000000
-76.157059 9.468705 1.453133 1.000000
-76.157059 9.468705 1.294857 1.000000
-76.157059 9.468706 1.135038 1.000000
-76.157059 9.468705 0.973302 1.000000
-76.157059 9.468706 0.809264 1.000000
-76.190292 9.474085 3.192127 1.000000
-76.190292 9.474085 3.027897 1.000000
-76.190292 9.474083 2.865973 1.000000
-76.190292 9.474084 2.705966 1.000000
-76.190292 9.474084 2.547506 1.000000
-76.190292 9.474084 2.390235 1.000000
-76.190292 9.474085 2.233806 1.000000
-76.190292 9.474085 2.077880 1.000000
-76.190292 9.474085 1.922120 1.000000
-76.190292 9.474085 1.766194 1.000000
-76.190292 9.474084 1.609765 1.000000
-76.190292 9.474085 1.452494 1.000000
-76.190292 9.474085 1.294034 1.000000
-76.190292 9.474085 1.134027 1.000000
-76.190292 9.474085 0.972103 1.000000
-76.190292 9.474085 0.807873 1.000000
-76.223610 9.479477 3.193579 1.000000
-76.223610 9.479478 3.029150 1.000000
-76.223610 9.479476 2.867028 1.000000
-76.223610 9.479477 2.706826 1.000000
-76.223610 9.479478 2.548173 1.000000
-76.223610 9.479477 2.390711 1.000000
-76.223610 9.479478 2.234091 1.000000
-76.223610 9.479477 2.077975 1.000000
-76.223610 9.479476 1.922025 1.000000
-76.223610 9.479478 1.765909 1.000000
-76.223610 9.479477 1.609289 1.000000
-76.223610 9.479478 1.451827 1.000000
-76.223610 9.479478 1.293174 1.000000
-76.223610 9.479477 1.132972 1.000000
-76.223610 9.479478 0.970851 1.000000
-76.223610 9.479478 0.806421 1.000000
-76.257004 9.484882 3.195094 1.000000
-76.257004 9.484882 3.030455 1.000000
-76.257004 9.484882 2.868128 1.000000
-76.257004 9.484883 2.707723 1.000000
-76.257004 9.484882 2.548869 1.000000
-76.257004 9.484883 2.391206 1.000000
-76.257004 9.484882 2.234388 1.000000
-76.257004 9.484882 2.078074 1.000000
-76.257004 9.484882 1.921926 1.000000
-76.257004 9.484883 1.765612 1.000000
-76.257004 9.484883 1.608794 1.000000
-76.257004 9.484883 1.451131 1.000000
-76.257004 9.484884 1.292277 1.000000
-76.257004 9.484883 1.131872 1.000000
-76.257004 9.484884 0.969545 1.000000
-76.257004 9.484884 0.804907 1.000000
-76.290489 9.490302 3.196670 1.000000
-76.290489 9.490304 3.031814 1.000000
-76.290489 9.490303 2.869273 1.000000
-76.290489 9.490302 2.708657 1.000000
-76.290489 9.490304 2.549593 1.000000
-76.290489 9.490302 2.391722 1.000000
-76.290489 9.490304 2.234697 1.000000
-76.290489 9.490304 2.078177 1.000000
-76.290489 9.490304 1.921823 1.000000
-76.290489 9.490302 1.765303 1.000000
-76.290489 9.490303 1.608278 1.000000
-76.290489 9.490304 1.450407 1.000000
-76.290489 9.490304 1.291343 1.000000
-76.290489 9.490303 1.130727 1.000000
-76.290489 9.490304 0.968186 1.000000
-76.290489 9.490304 0.803330 1.000000
-76.324059 9.495736 3.198309 1.000000
-76.324059 9.495738 3.033227 1.000000
-76.324059 9.495738 2.870463 1.000000
-76.324059 9.495737 2.709627 1.000000
-76.324059 9.495738 2.550345 1.000000
-76.324059 9.495736 2.392259 1.000000
-76.324059 9.495738 2.235019 1.000000
-76.324059 9.495738 2.078284 1.000000
-76.324059 9.495737 1.921716 1.000000
-76.324059 9.495738 1.764981 1.000000
-76.324059 9.495736 1.607741 1.000000
-76.324059 9.495738 1.449655 1.000000
-76.324059 9.495738 1.290373 1.000000
-76.324059 9.495738 1.129537 1.000000
-76.324059 9.495738 0.966773 1.000000
-76.324059 9.495738 0.801691 1.000000
-76.357727 9.501185 3.200011 1.000000
-76.357727 9.501186 3.034695 1.000000
-76.357727 9.501187 2.871700 1.000000
-76.357727 9.501187 2.710635 1.000000
-76.357727 9.501186 2.551127 1.000000
-76.357727 9.501187 2.392816 1.000000
-76.357727 9.501187 2.235353 1.000000
-76.357727 9.501187 2.078395 1.000000
-76.357727 9.501187 1.921605 1.000000
-76.357727 9.501186 1.764647 1.000000
-76.357727 9.501187 1.607184 1.000000
-76.357727 9.501187 1.448873 1.000000
-76.357727 9.501187 1.289365 1.000000
-76.357727 9.501187 1.128300 1.000000
-76.357727 9.501187 0.965305 1.000000
-76.357727 9.501188 0.799989 1.000000
-76.391487 9.506654 3.201777 1.000000
-76.391487 9.506653 3.036217 1.000000
-76.391487 9.506654 2.872983 1.000000
-76.391487 9.506654 2.711681 1.000000
-76.391487 9.506652 2.551938 1.000000
-76.391487 9.506653 2.393394 1.000000
-76.391487 9.506654 2.235699 1.000000
-76.391487 9.506654 2.078510 1.000000
-76.391487 9.506652 1.921490 1.000000
-76.391487 9.506654 1.764301 1.000000
-76.391487 9.506653 1.606606 1.000000
-76.391487 9.506654 1.448062 1.000000
-76.391487 9.506654 1.288319 1.000000
-76.391487 9.506654 1.127018 1.000000
-76.391487 9.506654 0.963783 1.000000
-76.391487 9.506654 0.798223 1.000000
-76.425362 9.512137 3.203606 1.000000
-76.425362 9.512137 3.037795 1.000000
-76.425362 9.512136 2.874311 1.000000
-76.425362 9.512136 2.712764 1.000000
-76.425362 9.512136 2.552778 1.000000
-76.425362 9.512137 2.393993 1.000000
-76.425362 9.512136 2.236058 1.000000
-76.425362 9.512136 2.078630 1.000000
-76.425362 9.512136 1.921370 1.000000
-76.425362 9.512136 1.763942 1.000000
-76.425362 9.512137 1.606007 1.000000
-76.425362 9.512137 1.447222 1.000000
-76.425362 9.512136 1.287236 1.000000
-76.425362 9.512137 1.125689 1.000000
-76.425362 9.512137 0.962206 1.000000
-76.425362 9.512137 0.796394 1.000000
-76.459328 9.517637 3.205500 1.000000
-76.459328 9.517635 3.039428 1.000000
-76.459328 9.517636 2.875687 1.000000
-76.459328 9.517636 2.713886 1.000000
-76.459328 9.517635 2.553648 1.000000
-76.459328 9.517635 2.394613 1.000000
-76.459328 9.517635 2.236429 1.000000
-76.459328 9.517636 2.078753 1.000000
-76.459328 9.517635 1.921247 1.000000
-76.459328 9.517635 1.763571 1.000000
-76.459328 9.517635 1.605387 1.000000
-76.459328 9.517636 1.446352 1.000000
-76.459328 9.517635 1.286114 1.000000
-76.459328 9.517636 1.124313 1.000000
-76.459328 9.517635 0.960572 1.000000
-76.459328 9.517636 0.794500 1.000000
-76.493416 9.523151 3.207459 1.000000
-76.493416 9.523150 3.041117 1.000000
-76.493416 9.523151 2.877110 1.000000
-76.493416 9.523151 2.715046 1.000000
-76.493416 9.523151 2.554548 1.000000
-76.493416 9.523151 2.395254 1.000000
-76.493416 9.523151 2.236813 1.000000
-76.493416 9.523151 2.078882 1.000000
-76.493416 9.523150 1.921119 1.000000
-76.493416 9.523151 1.763187 1.000000
-76.493416 9.523151 1.604746 1.000000
-76.493416 9.523151 1.445452 1.000000
-76.493416 9.523151 1.284954 1.000000
-76.493416 9.523151 1.122890 1.000000
-76.493416 9.523151 0.958883 1.000000
-76.493416 9.523151 0.792541 1.000000
-76.527603 9.528686 3.209484 1.000000
-76.527603 9.528686 3.042863 1.000000
-76.527603 9.528686 2.878581 1.000000
-76.527603 9.528687 2.716245 1.000000
-76.527603 9.528686 2.555478 1.000000
-76.527603 9.528686 2.395917 1.000000
-76.527603 9.528687 2.237210 1.000000
-76.527603 9.528687 2.079014 1.000000
-76.527603 9.528685 1.920986 1.000000
-76.527603 9.528687 1.762790 1.000000
-76.527603 9.528686 1.604083 1.000000
-76.527603 9.528687 1.444523 1.000000
-76.527603 9.528686 1.283755 1.000000
-76.527603 9.528686 1.121419 1.000000
-76.527603 9.528687 0.957138 1.000000
-76.527603 9.528687 0.790517 1.000000
-76.561913 9.534240 3.211574 1.000000
-76.561913 9.534241 3.044665 1.000000
-76.561913 9.534240 2.880099 1.000000
-76.561913 9.534241 2.717482 1.000000
-76.561913 9.534240 2.556438 1.000000
-76.561913 9.534240 2.396601 1.000000
-76.561913 9.534240 2.237620 1.000000
-76.561913 9.534240 2.079150 1.000000
-76.561913 9.534239 1.920850 1.000000
-76.561913 9.534240 1.762380 1.000000
-76.561913 9.534240 1.603399 1.000000
-76.561913 9.534240 1.443562 1.000000
-76.561913 9.534240 1.282518 1.000000
-76.561913 9.534242 1.119901 1.000000
-76.561913 9.534240 0.955335 1.000000
-76.561913 9.534241 0.788426 1.000000
-76.596336 9.539811 3.213731 1.000000
-76.596336 9.539813 3.046525 1.000000
-76.596336 9.539812 2.881666 1.000000
-76.596336 9.539813 2.718760 1.000000
-76.596336 9.539812 2.557428 1.000000
-76.596336 9.539812 2.397307 1.000000
-76.596336 9.539813 2.238043 1.000000
-76.596336 9.539813 2.079291 1.000000
-76.596336 9.539811 1.920709 1.000000
-76.596336 9.539813 1.761957 1.000000
-76.596336 9.539813 1.602693 1.000000
-76.596336 9.539813 1.442572 1.000000
-76.596336 9.539813 1.281240 1.000000
-76.596336 9.539813 1.118334 1.000000
-76.596336 9.539813 0.953476 1.000000
-76.596336 9.539813 0.786269 1.000000
-76.630890 9.545406 3.215955 1.000000
-76.630890 9.545407 3.048442 1.000000
-76.630890 9.545406 2.883281 1.000000
-76.630890 9.545407 2.720077 1.000000
-76.630890 9.545406 2.558450 1.000000
-76.630890 9.545406 2.398035 1.000000
-76.630890 9.545406 2.238480 1.000000
-76.630890 9.545408 2.079437 1.000000
-76.630890 9.545407 1.920564 1.000000
-76.630890 9.545406 1.761521 1.000000
-76.630890 9.545407 1.601965 1.000000
-76.630890 9.545407 1.441551 1.000000
-76.630890 9.545407 1.279924 1.000000
-76.630890 9.545407 1.116719 1.000000
-76.630890 9.545407 0.951558 1.000000
-76.630890 9.545408 0.784046 1.000000
-76.665581 9.551020 3.218246 1.000000
-76.665573 9.551022 3.050417 1.000000
-76.665573 9.551020 2.884946 1.000000
-76.665573 9.551022 2.721433 1.000000
-76.665573 9.551022 2.559502 1.000000
-76.665573 9.551022 2.398785 1.000000
-76.665573 9.551022 2.238929 1.000000
-76.665573 9.551022 2.079586 1.000000
-76.665573 9.551020 1.920414 1.000000
-76.665573 9.551022 1.761071 1.000000
-76.665573 9.551022 1.601215 1.000000
-76.665573 9.551022 1.440498 1.000000
-76.665573 9.551022 1.278567 1.000000
-76.665573 9.551022 1.115055 1.000000
-76.665573 9.551022 0.949583 1.000000
-76.665573 9.551022 0.781755 1.000000
-76.700386 9.556656 3.220606 1.000000
-76.700386 9.556657 3.052452 1.000000
-76.700386 9.556656 2.886660 1.000000
-76.700386 9.556657 2.722831 1.000000
-76.700386 9.556658 2.560585 1.000000
-76.700386 9.556656 2.399558 1.000000
-76.700386 9.556658 2.239392 1.000000
-76.700386 9.556658 2.079740 1.000000
-76.700386 9.556656 1.920260 1.000000
-76.700386 9.556658 1.760608 1.000000
-76.700386 9.556658 1.600442 1.000000
-76.700386 9.556656 1.439414 1.000000
-76.700386 9.556658 1.277169 1.000000
-76.700386 9.556657 1.113340 1.000000
-76.700386 9.556657 0.947548 1.000000
-76.700386 9.556657 0.779394 1.000000
-76.735344 9.562313 3.223034 1.000000
-76.735344 9.562313 3.054546 1.000000
-76.735344 9.562312 2.888424 1.000000
-76.735344 9.562314 2.724269 1.000000
-76.735344 9.562314 2.561701 1.000000
-76.735344 9.562314 2.400352 1.000000
-76.735344 9.562314 2.239868 1.000000
-76.735344 9.562313 2.079899 1.000000
-76.735344 9.562312 1.920101 1.000000
-76.735344 9.562314 1.760132 1.000000
-76.735344 9.562314 1.599647 1.000000
-76.735344 9.562314 1.438299 1.000000
-76.735344 9.562315 1.275731 1.000000
-76.735344 9.562313 1.111576 1.000000
-76.735344 9.562314 0.945454 1.000000
-76.735344 9.562313 0.776966 1.000000
-76.770432 9.567994 3.225533 1.000000
-76.770432 9.567993 3.056701 1.000000
-76.770432 9.567995 2.890239 1.000000
-76.770432 9.567994 2.725749 1.000000
-76.770432 9.567995 2.562848 1.000000
-76.770432 9.567993 2.401170 1.000000
-76.770432 9.567995 2.240358 1.000000
-76.770432 9.567995 2.080062 1.000000
-76.770432 9.567993 1.919938 1.000000
-76.770432 9.567995 1.759642 1.000000
-76.770432 9.567995 1.598830 1.000000
-76.770432 9.567995 1.437152 1.000000
-76.770432 9.567995 1.274251 1.000000
-76.770432 9.567995 1.109761 1.000000
-76.770432 9.567995 0.943300 1.000000
-76.770432 9.567995 0.774468 1.000000
-76.805672 9.573698 3.228101 1.000000
-76.805672 9.573698 3.058915 1.000000
-76.805672 9.573698 2.892105 1.000000
-76.805672 9.573698 2.727270 1.000000
-76.805672 9.573699 2.564028 1.000000
-76.805672 9.573697 2.402011 1.000000
-76.805672 9.573698 2.240862 1.000000
-76.805672 9.573699 2.080230 1.000000
-76.805672 9.573697 1.919770 1.000000
-76.805672 9.573698 1.759138 1.000000
-76.805672 9.573699 1.597989 1.000000
-76.805672 9.573699 1.435972 1.000000
-76.805672 9.573699 1.272731 1.000000
-76.805672 9.573697 1.107895 1.000000
-76.805672 9.573699 0.941085 1.000000
-76.805672 9.573698 0.771899 1.000000
-76.841057 9.579427 3.230740 1.000000
-76.841057 9.579427 3.061191 1.000000
-76.841057 9.579429 2.894022 1.000000
-76.841057 9.579427 2.728832 1.000000
-76.841057 9.579427 2.565240 1.000000
-76.841057 9.579426 2.402875 1.000000
-76.841057 9.579429 2.241379 1.000000
-76.841057 9.579428 2.080402 1.000000
-76.841057 9.579427 1.919598 1.000000
-76.841057 9.579429 1.758621 1.000000
-76.841057 9.579428 1.597125 1.000000
-76.841057 9.579427 1.434760 1.000000
-76.841057 9.579428 1.271168 1.000000
-76.841057 9.579428 1.105978 1.000000
-76.841057 9.579429 0.938810 1.000000
-76.841057 9.579428 0.769260 1.000000
-76.876602 9.585181 3.233451 1.000000
-76.876602 9.585180 3.063528 1.000000
-76.876602 9.585181 2.895990 1.000000
-76.876602 9.585180 2.730438 1.000000
-76.876602 9.585181 2.566485 1.000000
-76.876602 9.585181 2.403762 1.000000
-76.876602 9.585182 2.241911 1.000000
-76.876602 9.585183 2.080579 1.000000
-76.876602 9.585181 1.919421 1.000000
-76.876602 9.585182 1.758089 1.000000
-76.876602 9.585181 1.596238 1.000000
-76.876602 9.585181 1.433515 1.000000
-76.876602 9.585181 1.269562 1.000000
-76.876602 9.585181 1.104009 1.000000
-76.876602 9.585182 0.936472 1.000000
-76.876602 9.585183 0.766550 1.000000
-76.912300 9.590960 3.236234 1.000000
-76.912300 9.590959 3.065928 1.000000
-76.912300 9.590960 2.898013 1.000000
-76.912300 9.590959 2.732086 1.000000
-76.912300 9.590959 2.567763 1.000000
-76.912300 9.590960 2.404673 1.000000
-76.912300 9.590958 2.242457 1.000000
-76.912300 9.590960 2.080761 1.000000
-76.912300 9.590960 1.919239 1.000000
-76.912300 9.590960 1.757543 1.000000
-76.912300 9.590960 1.595326 1.000000
-76.912300 9.590959 1.432237 1.000000
-76.912300 9.590960 1.267914 1.000000
-76.912300 9.590960 1.101988 1.000000
-76.912300 9.590960 0.934072 1.000000
-76.912300 9.590961 0.763766 1.000000
-76.948166 9.596765 3.239091 1.000000
-76.948166 9.596766 3.068390 1.000000
-76.948166 9.596765 2.900087 1.000000
-76.948166 9.596765 2.733778 1.000000
-76.948166 9.596765 2.569075 1.000000
-76.948166 9.596765 2.405608 1.000000
-76.948166 9.596765 2.243017 1.000000
-76.948166 9.596766 2.080948 1.000000
-76.948166 9.596765 1.919052 1.000000
-76.948166 9.596765 1.756983 1.000000
-76.948166 9.596765 1.594391 1.000000
-76.948166 9.596766 1.430925 1.000000
-76.948166 9.596765 1.266222 1.000000
-76.948166 9.596766 1.099913 1.000000
-76.948166 9.596765 0.931610 1.000000
-76.948166 9.596766 0.760910 1.000000
-76.984200 9.602598 3.242021 1.000000
-76.984200 9.602598 3.070917 1.000000
-76.984200 9.602596 2.902216 1.000000
-76.984200 9.602596 2.735513 1.000000
-76.984200 9.602598 2.570421 1.000000
-76.984200 9.602598 2.406568 1.000000
-76.984200 9.602597 2.243592 1.000000
-76.984200 9.602598 2.081139 1.000000
-76.984200 9.602598 1.918861 1.000000
-76.984200 9.602597 1.756408 1.000000
-76.984200 9.602598 1.593432 1.000000
-76.984200 9.602598 1.429579 1.000000
-76.984200 9.602598 1.264487 1.000000
-76.984200 9.602597 1.097784 1.000000
-76.984200 9.602598 0.929083 1.000000
-76.984200 9.602600 0.757980 1.000000
-77.020409 9.608458 3.245026 1.000000
-77.020409 9.608459 3.073508 1.000000
-77.020409 9.608458 2.904399 1.000000
-77.020409 9.608459 2.737293 1.000000
-77.020409 9.608458 2.571801 1.000000
-77.020409 9.608459 2.407551 1.000000
-77.020409 9.608458 2.244181 1.000000
-77.020409 9.608458 2.081336 1.000000
-77.020409 9.608458 1.918664 1.000000
-77.020409 9.608459 1.755819 1.000000
-77.020409 9.608458 1.592448 1.000000
-77.020401 9.608459 1.428199 1.000000
-77.020409 9.608458 1.262707 1.000000
-77.020409 9.608459 1.095601 1.000000
-77.020409 9.608459 0.926492 1.000000
-77.020409 9.608459 0.754974 1.000000
-77.056786 9.614348 3.248106 1.000000
-77.056786 9.614347 3.076164 1.000000
-77.056786 9.614346 2.906637 1.000000
-77.056786 9.614347 2.739116 1.000000
-77.056786 9.614346 2.573216 1.000000
-77.056786 9.614347 2.408560 1.000000
-77.056786 9.614347 2.244785 1.000000
-77.056786 9.614347 2.081537 1.000000
-77.056786 9.614347 1.918463 1.000000
-77.056786 9.614347 1.755215 1.000000
-77.056786 9.614346 1.591440 1.000000
-77.056786 9.614347 1.426784 1.000000
-77.056786 9.614347 1.260883 1.000000
-77.056786 9.614347 1.093363 1.000000
-77.056786 9.614347 0.923836 1.000000
-77.056786 9.614348 0.751894 1.000000
-77.093346 9.620267 3.251263 1.000000
-77.093346 9.620266 3.078887 1.000000
-77.093346 9.620266 2.908930 1.000000
-77.093346 9.620266 2.740986 1.000000
-77.093346 9.620265 2.574666 1.000000
-77.093346 9.620266 2.409593 1.000000
-77.093346 9.620265 2.245404 1.000000
-77.093346 9.620267 2.081743 1.000000
-77.093346 9.620266 1.918257 1.000000
-77.093346 9.620266 1.754596 1.000000
-77.093346 9.620266 1.590407 1.000000
-77.093346 9.620266 1.425334 1.000000
-77.093346 9.620266 1.259014 1.000000
-77.093346 9.620268 1.091070 1.000000
-77.093346 9.620267 0.921114 1.000000
-77.093346 9.620267 0.748737 1.000000
-77.130104 9.626215 3.254498 1.000000
-77.130104 9.626215 3.081675 1.000000
-77.130104 9.626213 2.911279 1.000000
-77.130104 9.626215 2.742901 1.000000
-77.130104 9.626213 2.576151 1.000000
-77.130104 9.626214 2.410652 1.000000
-77.130104 9.626215 2.246039 1.000000
-77.130104 9.626215 2.081954 1.000000
-77.130104 9.626215 1.918046 1.000000
-77.130104 9.626215 1.753961 1.000000
-77.130104 9.626213 1.589348 1.000000
-77.130104 9.626215 1.423849 1.000000
-77.130104 9.626215 1.257099 1.000000
-77.130104 9.626213 1.088721 1.000000
-77.130104 9.626215 0.918325 1.000000
-77.130104 9.626215 0.745503 1.000000
-77.167046 9.632195 3.257810 1.000000
-77.167046 9.632195 3.084531 1.000000
-77.167046 9.632195 2.913686 1.000000
-77.167046 9.632196 2.744863 1.000000
-77.167046 9.632195 2.577672 1.000000
-77.167046 9.632195 2.411736 1.000000
-77.167046 9.632195 2.246688 1.000000
-77.167046 9.632196 2.082171 1.000000
-77.167046 9.632195 1.917829 1.000000
-77.167046 9.632196 1.753312 1.000000
-77.167046 9.632195 1.588264 1.000000
-77.167046 9.632196 1.422328 1.000000
-77.167046 9.632195 1.255137 1.000000
-77.167046 9.632195 1.086314 1.000000
-77.167046 9.632196 0.915469 1.000000
-77.167046 9.632196 0.742190 1.000000
-77.204178 9.638208 3.261201 1.000000
-77.204185 9.638207 3.087456 1.000000
-77.204178 9.638208 2.916149 1.000000
-77.204185 9.638207 2.746871 1.000000
-77.204185 9.638207 2.579230 1.000000
-77.204178 9.638209 2.412846 1.000000
-77.204178 9.638208 2.247354 1.000000
-77.204178 9.638209 2.082392 1.000000
-77.204185 9.638207 1.917608 1.000000
-77.204178 9.638209 1.752646 1.000000
-77.204185 9.638207 1.587154 1.000000
-77.204178 9.638209 1.420770 1.000000
-77.204185 9.638207 1.253129 1.000000
-77.204185 9.638207 1.083851 1.000000
-77.204178 9.638209 0.912545 1.000000
-77.204178 9.638209 0.738799 1.000000
-77.241524 9.644253 3.264673 1.000000
-77.241524 9.644253 3.090449 1.000000
-77.241524 9.644254 2.918671 1.000000
-77.241524 9.644254 2.748928 1.000000
-77.241524 9.644253 2.580824 1.000000
-77.241524 9.644254 2.413983 1.000000
-77.241524 9.644253 2.248034 1.000000
-77.241524 9.644254 2.082619 1.000000
-77.241524 9.644253 1.917381 1.000000
-77.241524 9.644254 1.751966 1.000000
-77.241524 9.644253 1.586017 1.000000
-77.241524 9.644253 1.419176 1.000000
-77.241524 9.644255 1.251073 1.000000
-77.241524 9.644254 1.081329 1.000000
-77.241524 9.644253 0.909551 1.000000
-77.241524 9.644255 0.735327 1.000000
-77.279076 9.650331 3.268226 1.000000
-77.279076 9.650331 3.093513 1.000000
-77.279076 9.650331 2.921252 1.000000
-77.279076 9.650331 2.751031 1.000000
-77.279076 9.650331 2.582456 1.000000
-77.279076 9.650332 2.415146 1.000000
-77.279076 9.650331 2.248731 1.000000
-77.279076 9.650332 2.082851 1.000000
-77.279076 9.650332 1.917149 1.000000
-77.279076 9.650332 1.751269 1.000000
-77.279076 9.650332 1.584854 1.000000
-77.279083 9.650331 1.417544 1.000000
-77.279076 9.650332 1.248969 1.000000
-77.279076 9.650331 1.078748 1.000000
-77.279076 9.650331 0.906488 1.000000
-77.279076 9.650331 0.731774 1.000000
-77.316841 9.656446 3.271861 1.000000
-77.316841 9.656445 3.096647 1.000000
-77.316841 9.656445 2.923892 1.000000
-77.316841 9.656446 2.753184 1.000000
-77.316841 9.656446 2.584126 1.000000
-77.316841 9.656445 2.416336 1.000000
-77.316841 9.656444 2.249444 1.000000
-77.316841 9.656446 2.083089 1.000000
-77.316841 9.656445 1.916911 1.000000
-77.316841 9.656446 1.750556 1.000000
-77.316841 9.656445 1.583664 1.000000
-77.316841 9.656444 1.415874 1.000000
-77.316841 9.656446 1.246816 1.000000
-77.316841 9.656446 1.076108 1.000000
-77.316841 9.656446 0.903354 1.000000
-77.316841 9.656446 0.728139 1.000000
-77.354820 9.662594 3.275579 1.000000
-77.354820 9.662594 3.099853 1.000000
-77.354820 9.662593 2.926594 1.000000
-77.354820 9.662593 2.755386 1.000000
-77.354820 9.662593 2.585834 1.000000
-77.354820 9.662594 2.417553 1.000000
-77.354820 9.662593 2.250174 1.000000
-77.354820 9.662595 2.083332 1.000000
-77.354820 9.662593 1.916668 1.000000
-77.354820 9.662594 1.749826 1.000000
-77.354820 9.662594 1.582447 1.000000
-77.354820 9.662593 1.414167 1.000000
-77.354820 9.662595 1.244614 1.000000
-77.354820 9.662595 1.073407 1.000000
-77.354820 9.662595 0.900147 1.000000
-77.354820 9.662595 0.724421 1.000000
-77.393028 9.668779 3.279382 1.000000
-77.393036 9.668778 3.103132 1.000000
-77.393036 9.668778 2.929356 1.000000
-77.393036 9.668777 2.757638 1.000000
-77.393028 9.668779 2.587580 1.000000
-77.393036 9.668778 2.418797 1.000000
-77.393044 9.668777 2.250919 1.000000
-77.393036 9.668778 2.083580 1.000000
-77.393036 9.668777 1.916420 1.000000
-77.393044 9.668777 1.749081 1.000000
-77.393028 9.668779 1.581202 1.000000
-77.393036 9.668778 1.412420 1.000000
-77.393036 9.668777 1.242362 1.000000
-77.393028 9.668779 1.070644 1.000000
-77.393028 9.668779 0.896869 1.000000
-77.393028 9.668779 0.720618 1.000000
-77.431473 9.675000 3.283270 1.000000
-77.431473 9.675000 3.106484 1.000000
-77.431473 9.674999 2.932180 1.000000
-77.431473 9.675001 2.759940 1.000000
-77.431473 9.675001 2.589365 1.000000
-77.431473 9.675000 2.420070 1.000000
-77.431473 9.675000 2.251682 1.000000
-77.431473 9.675001 2.083834 1.000000
-77.431473 9.675000 1.916166 1.000000
-77.431473 9.675000 1.748318 1.000000
-77.431473 9.675000 1.579929 1.000000
-77.431473 9.675000 1.410635 1.000000
-77.431473 9.675000 1.240059 1.000000
-77.431473 9.675002 1.067820 1.000000
-77.431473 9.675002 0.893516 1.000000
-77.431473 9.675002 0.716730 1.000000
-77.470154 9.681260 3.287246 1.000000
-77.470154 9.681260 3.109912 1.000000
-77.470154 9.681260 2.935068 1.000000
-77.470154 9.681261 2.762295 1.000000
-77.470146 9.681261 2.591191 1.000000
-77.470154 9.681260 2.421372 1.000000
-77.470154 9.681260 2.252462 1.000000
-77.470154 9.681261 2.084094 1.000000
-77.470154 9.681260 1.915906 1.000000
-77.470154 9.681260 1.747538 1.000000
-77.470146 9.681261 1.578628 1.000000
-77.470146 9.681261 1.408809 1.000000
-77.470154 9.681261 1.237705 1.000000
-77.470146 9.681262 1.064932 1.000000
-77.470146 9.681262 0.890089 1.000000
-77.470146 9.681262 0.712755 1.000000
-77.509071 9.687560 3.291308 1.000000
-77.509071 9.687560 3.113415 1.000000
-77.509071 9.687562 2.938018 1.000000
-77.509071 9.687562 2.764700 1.000000
-77.509071 9.687562 2.593057 1.000000
-77.509071 9.687561 2.422702 1.000000
-77.509071 9.687560 2.253258 1.000000
-77.509071 9.687562 2.084359 1.000000
-77.509071 9.687561 1.915641 1.000000
-77.509071 9.687561 1.746742 1.000000
-77.509071 9.687562 1.577299 1.000000
-77.509071 9.687562 1.406943 1.000000
-77.509071 9.687562 1.235300 1.000000
-77.509071 9.687562 1.061981 1.000000
-77.509071 9.687562 0.886586 1.000000
-77.509071 9.687561 0.708692 1.000000
-77.548233 9.693902 3.295460 1.000000
-77.548233 9.693902 3.116994 1.000000
-77.548233 9.693903 2.941034 1.000000
-77.548233 9.693902 2.767159 1.000000
-77.548233 9.693901 2.594964 1.000000
-77.548233 9.693902 2.424060 1.000000
-77.548233 9.693902 2.254072 1.000000
-77.548233 9.693902 2.084630 1.000000
-77.548233 9.693901 1.915370 1.000000
-77.548233 9.693901 1.745927 1.000000
-77.548233 9.693903 1.575940 1.000000
-77.548233 9.693903 1.405036 1.000000
-77.548233 9.693903 1.232841 1.000000
-77.548233 9.693903 1.058966 1.000000
-77.548233 9.693901 0.883006 1.000000
-77.548233 9.693901 0.704540 1.000000
-77.587654 9.700281 3.299701 1.000000
-77.587654 9.700281 3.120652 1.000000
-77.587654 9.700281 2.944116 1.000000
-77.587654 9.700283 2.769671 1.000000
-77.587654 9.700281 2.596912 1.000000
-77.587654 9.700282 2.425449 1.000000
-77.587654 9.700283 2.254904 1.000000
-77.587654 9.700281 2.084908 1.000000
-77.587654 9.700281 1.915093 1.000000
-77.587654 9.700281 1.745095 1.000000
-77.587654 9.700283 1.574551 1.000000
-77.587654 9.700282 1.403088 1.000000
-77.587654 9.700283 1.230329 1.000000
-77.587654 9.700281 1.055884 1.000000
-77.587654 9.700281 0.879348 1.000000
-77.587654 9.700283 0.700299 1.000000
-77.627335 9.706706 3.304036 1.000000
-77.627335 9.706705 3.124389 1.000000
-77.627335 9.706706 2.947264 1.000000
-77.627335 9.706705 2.772238 1.000000
-77.627335 9.706705 2.598902 1.000000
-77.627335 9.706705 2.426868 1.000000
-77.627335 9.706706 2.255754 1.000000
-77.627335 9.706706 2.085191 1.000000
-77.627335 9.706706 1.914809 1.000000
-77.627335 9.706705 1.744246 1.000000
-77.627335 9.706706 1.573132 1.000000
-77.627335 9.706706 1.401098 1.000000
-77.627335 9.706706 1.227763 1.000000
-77.627335 9.706706 1.052736 1.000000
-77.627335 9.706706 0.875612 1.000000
-77.627335 9.706706 0.695965 1.000000
-77.667290 9.713172 3.308462 1.000000
-77.667290 9.713172 3.128205 1.000000
-77.667290 9.713172 2.950480 1.000000
-77.667290 9.713172 2.774859 1.000000
-77.667290 9.713172 2.600935 1.000000
-77.667290 9.713171 2.428317 1.000000
-77.667290 9.713173 2.256623 1.000000
-77.667290 9.713172 2.085480 1.000000
-77.667290 9.713172 1.914520 1.000000
-77.667290 9.713172 1.743377 1.000000
-77.667290 9.713171 1.571683 1.000000
-77.667290 9.713174 1.399065 1.000000
-77.667290 9.713173 1.225141 1.000000
-77.667290 9.713172 1.049520 1.000000
-77.667290 9.713173 0.871795 1.000000
-77.667290 9.713173 0.691538 1.000000
-77.707504 9.719683 3.312983 1.000000
-77.707504 9.719683 3.132103 1.000000
-77.707504 9.719682 2.953764 1.000000
-77.707504 9.719682 2.777536 1.000000
-77.707504 9.719683 2.603012 1.000000
-77.707504 9.719683 2.429797 1.000000
-77.707504 9.719684 2.257509 1.000000
-77.707504 9.719683 2.085775 1.000000
-77.707504 9.719683 1.914225 1.000000
-77.707504 9.719683 1.742491 1.000000
-77.707504 9.719683 1.570203 1.000000
-77.707504 9.719684 1.396989 1.000000
-77.707504 9.719684 1.222464 1.000000
-77.707504 9.719684 1.046237 1.000000
-77.707504 9.719685 0.867897 1.000000
-77.707504 9.719685 0.687018 1.000000
-77.748009 9.726240 3.317600 1.000000
-77.748009 9.726240 3.136084 1.000000
-77.748009 9.726240 2.957118 1.000000
-77.748009 9.726239 2.780270 1.000000
-77.748009 9.726239 2.605132 1.000000
-77.748009 9.726241 2.431308 1.000000
-77.748009 9.726241 2.258415 1.000000
-77.748009 9.726240 2.086077 1.000000
-77.748009 9.726240 1.913923 1.000000
-77.748009 9.726240 1.741585 1.000000
-77.748009 9.726240 1.568692 1.000000
-77.748009 9.726240 1.394868 1.000000
-77.748009 9.726240 1.219730 1.000000
-77.748009 9.726242 1.042883 1.000000
-77.748009 9.726240 0.863916 1.000000
-77.748009 9.726240 0.682400 1.000000
-77.788795 9.732843 3.322314 1.000000
-77.788795 9.732844 3.140149 1.000000
-77.788803 9.732843 2.960542 1.000000
-77.788803 9.732842 2.783062 1.000000
-77.788795 9.732844 2.607297 1.000000
-77.788795 9.732843 2.432851 1.000000
-77.788795 9.732844 2.259339 1.000000
-77.788803 9.732843 2.086385 1.000000
-77.788803 9.732843 1.913615 1.000000
-77.788803 9.732843 1.740661 1.000000
-77.788803 9.732842 1.567149 1.000000
-77.788803 9.732843 1.392703 1.000000
-77.788803 9.732843 1.216938 1.000000
-77.788803 9.732843 1.039459 1.000000
-77.788795 9.732844 0.859851 1.000000
-77.788803 9.732843 0.677686 1.000000
-77.829887 9.739494 3.327127 1.000000
-77.829887 9.739494 3.144299 1.000000
-77.829887 9.739496 2.964037 1.000000
-77.829887 9.739495 2.785912 1.000000
-77.829887 9.739495 2.609507 1.000000
-77.829887 9.739496 2.434426 1.000000
-77.829887 9.739495 2.260283 1.000000
-77.829887 9.739494 2.086699 1.000000
-77.829887 9.739494 1.913301 1.000000
-77.829887 9.739494 1.739717 1.000000
-77.829887 9.739494 1.565573 1.000000
-77.829887 9.739494 1.390493 1.000000
-77.829887 9.739495 1.214088 1.000000
-77.829887 9.739494 1.035962 1.000000
-77.829887 9.739494 0.855701 1.000000
-77.829887 9.739496 0.672874 1.000000
-77.871277 9.746194 3.332040 1.000000
-77.871277 9.746194 3.148535 1.000000
-77.871277 9.746194 2.967607 1.000000
-77.871277 9.746194 2.788821 1.000000
-77.871277 9.746195 2.611764 1.000000
-77.871277 9.746194 2.436035 1.000000
-77.871277 9.746193 2.261247 1.000000
-77.871277 9.746194 2.087020 1.000000
-77.871277 9.746194 1.912980 1.000000
-77.871277 9.746193 1.738753 1.000000
-77.871277 9.746193 1.563965 1.000000
-77.871277 9.746194 1.388236 1.000000
-77.871277 9.746194 1.211179 1.000000
-77.871277 9.746194 1.032393 1.000000
-77.871277 9.746194 0.851465 1.000000
-77.871277 9.746196 0.667961 1.000000
-77.912971 9.752945 3.337055 1.000000
-77.912979 9.752943 3.152859 1.000000
-77.912979 9.752945 2.971250 1.000000
-77.912971 9.752946 2.791791 1.000000
-77.912979 9.752945 2.614067 1.000000
-77.912971 9.752945 2.437676 1.000000
-77.912971 9.752946 2.262230 1.000000
-77.912979 9.752945 2.087348 1.000000
-77.912979 9.752945 1.912652 1.000000
-77.912979 9.752945 1.737770 1.000000
-77.912979 9.752945 1.562323 1.000000
-77.912979 9.752944 1.385933 1.000000
-77.912979 9.752945 1.208209 1.000000
-77.912971 9.752945 1.028751 1.000000
-77.912979 9.752945 0.847141 1.000000
-77.912979 9.752945 0.662945 1.000000
-77.954987 9.759746 3.342174 1.000000
-77.954987 9.759747 3.157272 1.000000
-77.954994 9.759745 2.974968 1.000000
-77.954987 9.759746 2.794822 1.000000
-77.954987 9.759747 2.616418 1.000000
-77.954987 9.759747 2.439352 1.000000
-77.954994 9.759746 2.263234 1.000000
-77.954994 9.759746 2.087682 1.000000
-77.954994 9.759746 1.912318 1.000000
-77.954994 9.759746 1.736766 1.000000
-77.954987 9.759747 1.560648 1.000000
-77.954987 9.759747 1.383582 1.000000
-77.954987 9.759747 1.205178 1.000000
-77.954987 9.759747 1.025032 1.000000
-77.954987 9.759747 0.842728 1.000000
-77.954987 9.759747 0.657827 1.000000
-77.997330 9.766599 3.347397 1.000000
-77.997330 9.766599 3.161777 1.000000
-77.997337 9.766597 2.978763 1.000000
-77.997337 9.766598 2.797916 1.000000
-77.997330 9.766598 2.618817 1.000000
-77.997330 9.766599 2.441062 1.000000
-77.997330 9.766600 2.264259 1.000000
-77.997330 9.766599 2.088023 1.000000
-77.997330 9.766599 1.911977 1.000000
-77.997330 9.766599 1.735741 1.000000
-77.997330 9.766599 1.558938 1.000000
-77.997330 9.766598 1.381183 1.000000
-77.997330 9.766599 1.202084 1.000000
-77.997330 9.766599 1.021237 1.000000
-77.997337 9.766598 0.838223 1.000000
-77.997330 9.766599 0.652603 1.000000
-78.040001 9.773506 3.352729 1.000000
-78.040001 9.773505 3.166374 1.000000
-78.040001 9.773507 2.982635 1.000000
-78.040001 9.773505 2.801073 1.000000
-78.040001 9.773505 2.621266 1.000000
-78.040001 9.773505 2.442807 1.000000
-78.040001 9.773507 2.265304 1.000000
-78.040001 9.773505 2.088372 1.000000
-78.040001 9.773505 1.911628 1.000000
-78.040001 9.773507 1.734696 1.000000
-78.040001 9.773506 1.557193 1.000000
-78.040001 9.773506 1.378734 1.000000
-78.040001 9.773507 1.198927 1.000000
-78.040001 9.773506 1.017365 1.000000
-78.040001 9.773506 0.833626 1.000000
-78.040001 9.773507 0.647272 1.000000
-78.083023 9.780469 3.358168 1.000000
-78.083023 9.780470 3.171064 1.000000
-78.083023 9.780471 2.986587 1.000000
-78.083023 9.780471 2.804294 1.000000
-78.083023 9.780469 2.623764 1.000000
-78.083023 9.780469 2.444588 1.000000
-78.083023 9.780469 2.266371 1.000000
-78.083023 9.780470 2.088727 1.000000
-78.083023 9.780470 1.911273 1.000000
-78.083023 9.780470 1.733629 1.000000
-78.083023 9.780470 1.555412 1.000000
-78.083023 9.780471 1.376236 1.000000
-78.083023 9.780471 1.195706 1.000000
-78.083023 9.780471 1.013413 1.000000
-78.083023 9.780471 0.828936 1.000000
-78.083023 9.780470 0.641832 1.000000
-78.126389 9.787490 3.363719 1.000000
-78.126389 9.787490 3.175850 1.000000
-78.126389 9.787490 2.990618 1.000000
-78.126389 9.787490 2.807581 1.000000
-78.126389 9.787489 2.626313 1.000000
-78.126389 9.787489 2.446405 1.000000
-78.126389 9.787490 2.267460 1.000000
-78.126389 9.787490 2.089090 1.000000
-78.126389 9.787490 1.910910 1.000000
-78.126389 9.787490 1.732540 1.000000
-78.126389 9.787490 1.553595 1.000000
-78.126389 9.787490 1.373687 1.000000
-78.126389 9.787489 1.192419 1.000000
-78.126389 9.787490 1.009381 1.000000
-78.126389 9.787492 0.824151 1.000000
-78.126389 9.787489 0.636281 1.000000
-78.170113 9.794569 3.369381 1.000000
-78.170113 9.794566 3.180733 1.000000
-78.170113 9.794568 2.994732 1.000000
-78.170113 9.794569 2.810935 1.000000
-78.170113 9.794567 2.628914 1.000000
-78.170113 9.794567 2.448258 1.000000
-78.170113 9.794567 2.268570 1.000000
-78.170113 9.794568 2.089459 1.000000
-78.170113 9.794567 1.910540 1.000000
-78.170113 9.794568 1.731430 1.000000
-78.170113 9.794569 1.551742 1.000000
-78.170113 9.794567 1.371086 1.000000
-78.170113 9.794567 1.189065 1.000000
-78.170113 9.794569 1.005268 1.000000
-78.170113 9.794565 0.819267 1.000000
-78.170113 9.794569 0.630619 1.000000
-78.214195 9.801703 3.375159 1.000000
-78.214195 9.801705 3.185714 1.000000
-78.214195 9.801703 2.998929 1.000000
-78.214195 9.801703 2.814356 1.000000
-78.214195 9.801705 2.631567 1.000000
-78.214195 9.801703 2.450150 1.000000
-78.214195 9.801703 2.269704 1.000000
