# This PCD file was generated using the MATLABÂ® pcwrite function
# from Computer Vision System ToolboxÂ®.
# .PCD v.7 - Point Cloud Data file format
VERSION .7
FIELDS x y z intensity
SIZE 4 4 4 4
TYPE F F F F
COUNT 1 1 1 1
WIDTH 1192
HEIGHT 1
VIEWPOINT 0 0 0 1 0 0 0
POINTS 1192
DATA ascii
384.706329 132.284531 0.438503 0.678431
384.706329 132.284531 0.311042 0.678431
384.731323 132.296265 0.188289 0.252949
384.801331 132.329102 0.075869 0.559655
385.016449 132.430038 0.000044 0.447990
385.503448 132.658539 0.000043 0.418860
385.938690 132.862732 0.000042 0.373800
386.330109 133.046387 0.000042 0.397971
384.611328 132.343201 4.484053 0.351919
384.801331 132.430069 4.299799 0.471809
384.801331 132.430069 4.170897 0.246479
384.801331 132.430069 4.042782 0.695552
384.801331 132.430069 3.915400 0.368292
384.745697 132.404633 3.800457 0.567346
384.706329 132.386627 3.681295 0.678431
384.706329 132.386627 3.554413 0.678431
384.706329 132.386627 3.428078 0.678431
384.706329 132.386627 3.302244 0.678431
384.706329 132.386627 3.176865 0.678431
384.706329 132.386627 3.051895 0.678431
384.706329 132.386627 2.927291 0.678431
384.706329 132.386627 2.803007 0.678431
384.706329 132.386627 2.679000 0.678431
384.706329 132.386627 2.555228 0.678431
384.706329 132.386627 2.431647 0.678431
384.706329 132.386627 2.308213 0.678431
384.706329 132.386627 2.184886 0.678431
384.706329 132.386627 2.061622 0.678431
384.706329 132.386627 1.938378 0.678431
384.706329 132.386627 1.815114 0.678431
384.706329 132.386627 1.691787 0.678431
384.706329 132.386627 1.568353 0.678431
384.706329 132.386627 1.444772 0.678431
384.706329 132.386627 1.320999 0.678431
384.706329 132.386627 1.196993 0.678431
384.706329 132.386627 1.072709 0.678431
384.706329 132.386627 0.948105 0.678431
384.706329 132.386627 0.823135 0.678431
384.706329 132.386627 0.697756 0.678431
384.706329 132.386627 0.571922 0.678431
384.706329 132.386627 0.445587 0.678431
384.706329 132.386627 0.318705 0.678431
384.731323 132.398056 0.196509 0.174258
384.801331 132.430069 0.084599 0.554269
384.978851 132.511246 0.000042 0.397192
385.468048 132.734940 0.000042 0.485725
385.905273 132.934860 0.000042 0.457511
386.298462 133.114655 0.000041 0.471946
384.801331 132.530136 4.418794 0.402258
384.801331 132.530136 4.289631 0.468635
384.801331 132.530136 4.161300 0.826062
384.801331 132.530136 4.033751 0.673503
384.801331 132.530136 3.906931 0.341207
384.731323 132.498962 3.795516 0.162661
384.706329 132.487823 3.673862 0.437308
384.706329 132.487823 3.547541 0.437308
384.706329 132.487823 3.421764 0.437308
384.706329 132.487823 3.296486 0.437308
384.706329 132.487823 3.171662 0.464256
384.706329 132.487823 3.047244 0.476265
384.706329 132.487823 2.923191 0.476265
384.706329 132.487823 2.799457 0.476265
384.706329 132.487823 2.675998 0.476265
384.706329 132.487823 2.552773 0.476265
384.706329 132.487823 2.429738 0.476265
384.706329 132.487823 2.306850 0.456779
384.706329 132.487823 2.184068 0.456779
384.706329 132.487823 2.061349 0.456779
384.706329 132.487823 1.938651 0.456779
384.706329 132.487823 1.815932 0.456779
384.706329 132.487823 1.693149 0.456779
384.706329 132.487823 1.570262 0.456779
384.706329 132.487823 1.447227 0.456779
384.706329 132.487823 1.324001 0.605356
384.706329 132.487823 1.200543 0.598062
384.706329 132.487823 1.076809 0.598062
384.706329 132.487823 0.952755 0.598062
384.706329 132.487823 0.828338 0.598062
384.706329 132.487823 0.703513 0.598062
384.706329 132.487823 0.578236 0.598062
384.706329 132.487823 0.452459 0.598062
384.706329 132.487823 0.326139 0.571267
384.731323 132.498947 0.204482 0.162493
384.801331 132.530136 0.093068 0.554330
384.942017 132.592804 0.000042 0.515480
385.433411 132.811691 0.000041 0.453758
385.872559 133.007309 0.000041 0.495445
386.267517 133.183243 0.000040 0.401770
384.801331 132.629333 4.408378 0.312459
384.801331 132.629333 4.279771 0.381628
384.801331 132.629333 4.151993 0.816037
384.801331 132.629333 4.024992 0.762402
384.801331 132.629333 3.898720 0.638270
384.731323 132.598969 3.787784 0.168414
384.706329 132.588120 3.666652 0.678431
384.706329 132.588120 3.540875 0.678431
384.706329 132.588120 3.415640 0.669673
384.706329 132.588120 3.290902 0.504875
384.706329 132.588120 3.166615 0.506096
384.706329 132.588120 3.042734 0.492622
384.706329 132.588120 2.919215 0.478523
384.706329 132.588120 2.796013 0.479744
384.706329 132.588120 2.673087 0.506096
384.706329 132.588120 2.550392 0.506096
384.706329 132.588120 2.427887 0.478523
384.706329 132.588120 2.305529 0.375128
384.706329 132.588120 2.183275 0.414374
384.706329 132.588120 2.061085 0.423377
384.706329 132.588120 1.938915 0.423377
384.706329 132.588120 1.816724 0.423377
384.706329 132.588120 1.694471 0.423377
384.706329 132.588120 1.572113 0.423377
384.706329 132.588120 1.449608 0.423377
384.706329 132.588120 1.326913 0.364782
384.706329 132.588120 1.203987 0.364782
384.706329 132.588120 1.080785 0.383780
384.706329 132.588120 0.957266 0.392355
384.706329 132.588120 0.833385 0.392355
384.706329 132.588120 0.709098 0.392355
384.706329 132.588120 0.584360 0.392355
384.706329 132.588120 0.459125 0.392355
384.706329 132.588120 0.333348 0.392355
384.715332 132.592026 0.208864 0.031373
384.801331 132.629333 0.101280 0.280369
384.906006 132.674728 0.000040 0.386694
385.399536 132.888779 0.000040 0.484489
385.840576 133.080078 0.000040 0.506340
386.237213 133.252121 0.000039 0.498680
384.801331 132.727676 4.398281 0.309056
384.801331 132.727676 4.270214 0.780148
384.801331 132.727676 4.142971 0.733364
384.801331 132.727676 4.016503 0.572061
384.801331 132.727676 3.890759 0.499702
384.731323 132.698135 3.780289 0.126497
384.706329 132.687576 3.659665 0.678431
384.706329 132.687576 3.534416 0.678431
384.706329 132.687576 3.409706 0.678431
384.706329 132.687576 3.285491 0.678431
384.706329 132.687576 3.161725 0.678431
384.706329 132.687576 3.038363 0.678431
384.706329 132.687576 2.915361 0.678431
384.706329 132.687576 2.792677 0.678431
384.706329 132.687576 2.670265 0.678431
384.706329 132.687576 2.548085 0.678431
384.706329 132.687576 2.426094 0.678431
384.706329 132.687576 2.304248 0.678431
384.706329 132.687576 2.182507 0.678431
384.706329 132.687576 2.060829 0.678431
384.706329 132.687576 1.939171 0.678431
384.706329 132.687576 1.817493 0.678431
384.706329 132.687576 1.695752 0.678431
384.706329 132.687576 1.573907 0.678431
384.706329 132.687576 1.451915 0.678431
384.706329 132.687576 1.329735 0.678431
384.706329 132.687576 1.207323 0.678431
384.706329 132.687576 1.084639 0.678431
384.706329 132.687576 0.961637 0.678431
384.706329 132.687576 0.838275 0.678431
384.706329 132.687576 0.714509 0.678431
384.706329 132.687576 0.590294 0.678431
384.706329 132.687576 0.465584 0.678431
384.706329 132.687576 0.340334 0.678431
384.706329 132.687576 0.214498 0.482902
384.801331 132.727676 0.109239 0.793790
384.870789 132.757004 0.000039 0.472709
385.366394 132.966202 0.000039 0.373983
385.809296 133.153152 0.000038 0.390097
386.207611 133.321289 0.000038 0.387915
384.801331 132.825211 4.388498 0.792706
384.801331 132.825211 4.260953 0.745205
384.801331 132.825211 4.134230 0.461845
384.801331 132.825211 4.008277 0.335225
384.801331 132.825211 3.883047 0.450965
384.731323 132.796478 3.773027 0.117708
384.706329 132.786209 3.652895 0.678431
384.706329 132.786209 3.528157 0.678431
384.706329 132.786209 3.403956 0.678431
384.706329 132.786209 3.280247 0.678431
384.706329 132.786209 3.156986 0.678431
384.706329 132.786209 3.034127 0.678431
384.706329 132.786209 2.911628 0.678431
384.706329 132.786209 2.789443 0.678431
384.706329 132.786209 2.667531 0.678431
384.706329 132.786209 2.545850 0.678431
384.706329 132.786209 2.424356 0.678431
384.706329 132.786209 2.303007 0.678431
384.706329 132.786209 2.181762 0.678431
384.706329 132.786209 2.060580 0.678431
384.706329 132.786209 1.939419 0.678431
384.706329 132.786209 1.818237 0.678431
384.706329 132.786209 1.696993 0.678431
384.706329 132.786209 1.575644 0.678431
384.706329 132.786209 1.454150 0.678431
384.706329 132.786209 1.332469 0.678431
384.706329 132.786209 1.210557 0.678431
384.706329 132.786209 1.088372 0.678431
384.706329 132.786209 0.965873 0.678431
384.706329 132.786209 0.843014 0.678431
384.706329 132.786209 0.719753 0.678431
384.706329 132.786209 0.596044 0.678431
384.706329 132.786209 0.471843 0.678431
384.706329 132.786209 0.347104 0.678431
384.706329 132.786209 0.221781 0.504784
384.801331 132.825211 0.116952 0.803494
384.836395 132.839615 0.000038 0.485924
385.334015 133.043930 0.000038 0.402426
385.778748 133.226532 0.000037 0.392203
386.178711 133.390762 0.000037 0.405264
384.801331 132.921967 4.379022 0.789685
384.801331 132.921967 4.251983 0.614496
384.801331 132.921967 4.125762 0.441138
384.801331 132.921967 4.000310 0.643793
384.801331 132.921967 3.875577 0.545998
384.731323 132.894028 3.765994 0.112413
384.706329 132.884048 3.646338 0.678431
384.706329 132.884048 3.522095 0.678431
384.706329 132.884048 3.398387 0.678431
384.706329 132.884048 3.275168 0.678431
384.706329 132.884048 3.152396 0.678431
384.706329 132.884048 3.030025 0.678431
384.706329 132.884048 2.908011 0.678431
384.706329 132.884048 2.786311 0.678431
384.706329 132.884048 2.664883 0.678431
384.706329 132.884048 2.543684 0.678431
384.706329 132.884048 2.422672 0.678431
384.706329 132.884048 2.301805 0.678431
384.706329 132.884048 2.181041 0.678431
384.706329 132.884048 2.060340 0.678431
384.706329 132.884048 1.939660 0.678431
384.706329 132.884048 1.818958 0.678431
384.706329 132.884048 1.698195 0.678431
384.706329 132.884048 1.577328 0.678431
384.706329 132.884048 1.456316 0.678431
384.706329 132.884048 1.335117 0.678431
384.706329 132.884048 1.213689 0.678431
384.706329 132.884048 1.091989 0.678431
384.706329 132.884048 0.969975 0.678431
384.706329 132.884048 0.847604 0.678431
384.706329 132.884048 0.724831 0.678431
384.706329 132.884048 0.601613 0.678431
384.706329 132.884048 0.477905 0.678431
384.706329 132.884048 0.353661 0.678431
384.706329 132.884048 0.228835 0.471427
384.801331 132.921967 0.124422 0.398047
384.801331 132.921967 -0.000311 0.389151
385.302429 133.121979 0.000037 0.490730
385.748901 133.300217 0.000036 0.516960
386.150452 133.460495 0.000036 0.351995
384.801331 133.017975 4.369849 0.835386
384.801331 133.017975 4.243299 0.719432
384.801331 133.017975 4.117566 0.547066
384.801331 133.017975 3.992598 0.723507
384.801331 133.017975 3.868345 0.599374
384.731323 132.990814 3.759185 0.093263
384.706329 132.981125 3.639991 0.508766
384.706329 132.981125 3.516226 0.508766
384.706329 132.981125 3.392995 0.508766
384.706329 132.981125 3.270252 0.508766
384.706329 132.981125 3.147953 0.508766
384.706329 132.981125 3.026054 0.508766
384.706329 132.981125 2.904510 0.508766
384.706329 132.981125 2.783280 0.508766
384.706329 132.981125 2.662319 0.508766
384.706329 132.981125 2.541588 0.508766
384.706329 132.981125 2.421042 0.508766
384.706329 132.981125 2.300642 0.508766
384.706329 132.981125 2.180343 0.508766
384.706329 132.981125 2.060108 0.508766
384.706329 132.981125 1.939892 0.508766
384.706329 132.981125 1.819656 0.508766
384.706329 132.981125 1.699358 0.508766
384.706329 132.981125 1.578957 0.515282
384.706329 132.981125 1.458412 0.515282
384.706329 132.981125 1.337680 0.515282
384.706329 132.981125 1.216720 0.622965
384.706329 132.981125 1.095490 0.619501
384.706329 132.981125 0.973946 0.616434
384.706329 132.981125 0.852047 0.616892
384.706329 132.981125 0.729748 0.622965
384.706329 132.981125 0.607005 0.622965
384.706329 132.981125 0.483773 0.616434
384.706329 132.981125 0.360009 0.616434
384.706329 132.981125 0.235664 0.474647
384.801331 133.017975 0.131654 0.749783
384.801331 133.017975 0.007402 0.193896
385.271576 133.200348 0.000035 0.366140
385.719788 133.374176 0.000035 0.437156
386.122894 133.530518 0.000034 0.461189
384.801331 133.113235 4.360973 0.819364
384.801331 133.113235 4.234898 0.799207
384.801331 133.113235 4.109634 0.287694
384.801331 133.113235 3.985135 0.633890
384.801331 133.113235 3.861347 0.612985
384.731323 133.086884 3.752595 0.089708
384.706329 133.077469 3.633847 0.681956
384.706329 133.077469 3.510546 0.662623
384.706329 133.077469 3.387777 0.662623
384.706329 133.077469 3.265493 0.633402
384.706329 133.077469 3.143652 0.633402
384.706329 133.077469 3.022210 0.665202
384.706329 133.077469 2.901122 0.665202
384.706329 133.077469 2.780345 0.644511
384.706329 133.077469 2.659839 0.631251
384.706329 133.077469 2.539559 0.631251
384.706329 133.077469 2.419465 0.611872
384.706329 133.077469 2.299515 0.415564
384.706329 133.077469 2.179668 0.495827
384.706329 133.077469 2.059882 0.495827
384.706329 133.077469 1.940117 0.493263
384.706329 133.077469 1.820332 0.492409
384.706329 133.077469 1.700485 0.492409
384.706329 133.077469 1.580535 0.492409
384.706329 133.077469 1.460441 0.492409
384.706329 133.077469 1.340161 0.513420
384.706329 133.077469 1.219654 0.513420
384.706329 133.077469 1.098878 0.513420
384.706329 133.077469 0.977790 0.513420
384.706329 133.077469 0.856347 0.513420
384.706329 133.077469 0.734506 0.513420
384.706329 133.077469 0.612223 0.513420
384.706329 133.077469 0.489454 0.513420
384.706329 133.077469 0.366152 0.513420
384.706329 133.077469 0.242273 0.569238
384.801331 133.113235 0.138651 0.748821
384.801331 133.113235 0.014864 0.308705
385.241516 133.279007 0.000034 0.386679
385.691406 133.448425 0.000034 0.402365
386.096039 133.600800 0.000034 0.456245
384.801331 133.207809 4.352391 0.775051
384.801331 133.207809 4.226773 0.726848
384.801331 133.207809 4.101966 0.575280
384.801331 133.207809 3.977918 0.382620
384.801331 133.207809 3.854580 0.659190
384.724335 133.179672 3.747653 0.111894
384.706329 133.173096 3.627908 0.678431
384.706329 133.173096 3.505055 0.678431
384.706329 133.173096 3.382732 0.678431
384.706329 133.173096 3.260893 0.678431
384.706329 133.173096 3.139495 0.678431
384.706329 133.173096 3.018494 0.678431
384.706329 133.173096 2.897846 0.678431
384.706329 133.173096 2.777508 0.678431
384.706329 133.173096 2.657440 0.678431
384.706329 133.173096 2.537598 0.678431
384.706329 133.173096 2.417941 0.678431
384.706329 133.173096 2.298426 0.678431
384.706329 133.173096 2.179015 0.678431
384.706329 133.173096 2.059665 0.678431
384.706329 133.173096 1.940335 0.678431
384.706329 133.173096 1.820985 0.678431
384.706329 133.173096 1.701574 0.678431
384.706329 133.173096 1.582060 0.678431
384.706329 133.173096 1.462402 0.678431
384.706329 133.173096 1.342560 0.678431
384.706329 133.173096 1.222491 0.678431
384.706329 133.173096 1.102154 0.678431
384.706329 133.173096 0.981506 0.678431
384.706329 133.173096 0.860505 0.678431
384.706329 133.173096 0.739107 0.678431
384.706329 133.173096 0.617268 0.678431
384.706329 133.173096 0.494945 0.678431
384.706329 133.173096 0.372092 0.678431
384.706329 133.173096 0.248663 0.604288
384.801331 133.207809 0.145418 0.345495
384.801331 133.207809 0.022081 0.405341
385.212219 133.357956 0.000033 0.428229
385.663757 133.522949 0.000033 0.469810
386.069855 133.671341 0.000032 0.439261
384.801331 133.301697 4.344095 0.643717
384.801331 133.301697 4.218921 0.736263
384.801331 133.301697 4.094553 0.461448
384.801331 133.301697 3.970942 0.846616
384.801331 133.301697 3.848041 0.435065
384.714111 133.270798 3.743573 0.164309
384.706329 133.268036 3.622167 0.678431
384.706329 133.268036 3.499747 0.678431
384.706329 133.268036 3.377856 0.678431
384.706329 133.268036 3.256447 0.678431
384.706329 133.268036 3.135477 0.678431
384.706329 133.268036 3.014902 0.678431
384.706329 133.268036 2.894680 0.678431
384.706329 133.268036 2.774767 0.678431
384.706329 133.268036 2.655121 0.678431
384.706329 133.268036 2.535702 0.678431
384.706329 133.268036 2.416466 0.678431
384.706329 133.268036 2.297374 0.678431
384.706329 133.268036 2.178384 0.678431
384.706329 133.268036 2.059454 0.678431
384.706329 133.268036 1.940545 0.678431
384.706329 133.268036 1.821616 0.678431
384.706329 133.268036 1.702626 0.678431
384.706329 133.268036 1.583533 0.678431
384.706329 133.268036 1.464298 0.678431
384.706329 133.268036 1.344878 0.678431
384.706329 133.268036 1.225233 0.678431
384.706329 133.268036 1.105320 0.678431
384.706329 133.268036 0.985098 0.678431
384.706329 133.268036 0.864523 0.678431
384.706329 133.268036 0.743553 0.678431
384.706329 133.268036 0.622145 0.678431
384.706329 133.268036 0.500253 0.678431
384.706329 133.268036 0.377833 0.678431
384.706329 133.268036 0.254840 0.661585
384.803619 133.302521 0.152460 0.534463
384.801331 133.301697 0.029057 0.600565
385.183716 133.437180 0.000033 0.396963
385.636841 133.597748 0.000032 0.448341
386.044373 133.742142 0.000031 0.406165
384.801331 133.394943 4.336082 0.558892
384.801331 133.394943 4.211335 0.382040
384.801331 133.394943 4.087393 0.737652
384.801331 133.394943 3.964205 0.864759
384.801331 133.394943 3.841723 0.849577
384.706329 133.362335 3.739195 0.400397
384.706329 133.362335 3.616622 0.678431
384.706329 133.362335 3.494621 0.678431
384.706329 133.362335 3.373146 0.678431
384.706329 133.362335 3.252152 0.678431
384.706329 133.362335 3.131595 0.678431
384.706329 133.362335 3.011433 0.678431
384.706329 133.362335 2.891622 0.678431
384.706329 133.362335 2.772118 0.678431
384.706329 133.362335 2.652882 0.678431
384.706329 133.362335 2.533870 0.678431
384.706329 133.362335 2.415043 0.678431
384.706329 133.362335 2.296357 0.678431
384.706329 133.362335 2.177774 0.678431
384.706329 133.362335 2.059251 0.678431
384.706329 133.362335 1.940749 0.678431
384.706329 133.362335 1.822226 0.678431
384.706329 133.362335 1.703642 0.678431
384.706329 133.362335 1.584957 0.678431
384.706329 133.362335 1.466129 0.678431
384.706329 133.362335 1.347118 0.678431
384.706329 133.362335 1.227882 0.678431
384.706329 133.362335 1.108378 0.678431
384.706329 133.362335 0.988567 0.678431
384.706329 133.362335 0.868405 0.678431
384.706329 133.362335 0.747848 0.678431
384.706329 133.362335 0.626854 0.678431
384.706329 133.362335 0.505379 0.678431
384.706329 133.362335 0.383378 0.678431
384.706329 133.362335 0.260805 0.678431
384.774567 133.385757 0.152454 0.571939
384.801331 133.394943 0.035795 0.587243
385.155945 133.516693 0.000031 0.433021
385.610657 133.672791 0.000031 0.406790
386.019592 133.813187 0.000030 0.515023
384.801331 133.487564 4.328348 0.459113
384.801331 133.487564 4.204014 0.423911
384.801331 133.487564 4.080482 0.454383
384.801331 133.487564 3.957701 0.866148
384.801331 133.487564 3.835625 0.701503
384.706329 133.455978 3.733437 0.494896
384.706329 133.455978 3.611269 0.678431
384.706329 133.455978 3.489672 0.678431
384.706329 133.455978 3.368599 0.678431
384.706329 133.455978 3.248006 0.678431
384.706329 133.455978 3.127848 0.678431
384.706329 133.455978 3.008084 0.678431
384.706329 133.455978 2.888669 0.678431
384.706329 133.455978 2.769562 0.678431
384.706329 133.455978 2.650721 0.678431
384.706329 133.455978 2.532103 0.678431
384.706329 133.455978 2.413669 0.678431
384.706329 133.455978 2.295376 0.678431
384.706329 133.455978 2.177185 0.678431
384.706329 133.455978 2.059055 0.678431
384.706329 133.455978 1.940945 0.678431
384.706329 133.455978 1.822815 0.678431
384.706329 133.455978 1.704624 0.678431
384.706329 133.455978 1.586331 0.678431
384.706329 133.455978 1.467897 0.678431
384.706329 133.455978 1.349280 0.678431
384.706329 133.455978 1.230438 0.678431
384.706329 133.455978 1.111331 0.678431
384.706329 133.455978 0.991916 0.678431
384.706329 133.455978 0.872151 0.678431
384.706329 133.455978 0.751994 0.678431
384.706329 133.455978 0.631401 0.678431
384.706329 133.455978 0.510328 0.678431
384.706329 133.455978 0.388731 0.678431
384.706329 133.455978 0.266564 0.678431
384.746338 133.469284 0.152453 0.725032
384.801331 133.487564 0.042298 0.564584
385.128998 133.596466 0.000030 0.440803
385.585205 133.748093 0.000029 0.441215
385.995514 133.884476 0.000029 0.357412
384.801331 133.579575 4.320887 0.337072
384.801331 133.579575 4.196952 0.599466
384.801331 133.579575 4.073814 0.715328
384.801331 133.579575 3.951428 0.711925
384.801331 133.579575 3.829742 0.719539
384.706329 133.549026 3.727882 0.527276
384.706329 133.549026 3.606106 0.678431
384.706329 133.549026 3.484899 0.678431
384.706329 133.549026 3.364214 0.678431
384.706329 133.549026 3.244007 0.678431
384.706329 133.549026 3.124234 0.678431
384.706329 133.549026 3.004854 0.678431
384.706329 133.549026 2.885822 0.678431
384.706329 133.549026 2.767096 0.678431
384.706329 133.549026 2.648635 0.678431
384.706329 133.549026 2.530398 0.678431
384.706329 133.549026 2.412343 0.678431
384.706329 133.549026 2.294430 0.678431
384.706329 133.549026 2.176617 0.678431
384.706329 133.549026 2.058866 0.678431
384.706329 133.549026 1.941134 0.678431
384.706329 133.549026 1.823382 0.678431
384.706329 133.549026 1.705570 0.678431
384.706329 133.549026 1.587657 0.678431
384.706329 133.549026 1.469602 0.678431
384.706329 133.549026 1.351365 0.678431
384.706329 133.549026 1.232904 0.678431
384.706329 133.549026 1.114178 0.678431
384.706329 133.549026 0.995146 0.678431
384.706329 133.549026 0.875766 0.678431
384.706329 133.549026 0.755993 0.678431
384.706329 133.549026 0.635786 0.678431
384.706329 133.549026 0.515102 0.678431
384.706329 133.549026 0.393894 0.678431
384.706329 133.549026 0.272118 0.678431
384.731323 133.557068 0.155130 0.413855
384.801331 133.579575 0.048572 0.446525
385.102844 133.676498 0.000028 0.448157
385.560516 133.823654 0.000028 0.452750
385.972107 133.955978 0.000028 0.537041
384.801331 133.671005 4.313694 0.339651
384.801331 133.671005 4.190144 0.707851
384.801331 133.671005 4.067389 0.611948
384.801331 133.671005 3.945381 0.367895
384.801331 133.671005 3.824073 0.852735
384.706329 133.641479 3.722528 0.373037
384.706329 133.641479 3.601130 0.511009
384.706329 133.641479 3.480298 0.513787
384.706329 133.641479 3.359987 0.513298
384.706329 133.641479 3.240152 0.512322
384.706329 133.641479 3.120751 0.512322
384.706329 133.641479 3.001740 0.512322
384.706329 133.641479 2.883077 0.512322
384.706329 133.641479 2.764719 0.512322
384.706329 133.641479 2.646625 0.512322
384.706329 133.641479 2.528754 0.521508
384.706329 133.641479 2.411066 0.543694
384.706329 133.641479 2.293517 0.543694
384.706329 133.641479 2.176070 0.543694
384.706329 133.641479 2.058683 0.543694
384.706329 133.641479 1.941317 0.543694
384.706329 133.641479 1.823930 0.543694
384.706329 133.641479 1.706482 0.543694
384.706329 133.641479 1.588934 0.543694
384.706329 133.641479 1.471246 0.543694
384.706329 133.641479 1.353374 0.543694
384.706329 133.641479 1.235281 0.543694
384.706329 133.641479 1.116923 0.542702
384.706329 133.641479 0.998260 0.542214
384.706329 133.641495 0.879249 0.542214
384.706329 133.641479 0.759848 0.548012
384.706329 133.641495 0.640013 0.549020
384.706329 133.641479 0.519702 0.574380
384.706329 133.641479 0.398870 0.671626
384.706329 133.641495 0.277472 0.672801
384.731323 133.649261 0.160846 0.403632
384.801331 133.671005 0.054618 0.387610
385.077454 133.756790 0.000028 0.475059
385.536560 133.899445 0.000027 0.361776
385.949432 134.027725 0.000027 0.374746
384.801331 133.761887 4.306769 0.208392
384.801331 133.761887 4.183588 0.868055
384.801331 133.761887 4.061201 0.670207
384.801331 133.761887 3.939559 0.355795
384.801331 133.761887 3.818613 0.366583
384.710358 133.734589 3.716563 0.155291
384.710358 133.734589 3.595584 0.152255
384.710358 133.734589 3.475171 0.149722
384.710358 133.734589 3.355277 0.167514
384.710358 133.734589 3.235857 0.278233
384.710358 133.734589 3.116869 0.203403
384.710358 133.734589 2.998271 0.164752
384.710358 133.734589 2.880018 0.178027
384.710358 133.734589 2.762071 0.266667
384.710358 133.734589 2.644386 0.275303
384.710358 133.734589 2.526923 0.293935
384.710358 133.734589 2.409642 0.295857
384.710358 133.734589 2.292501 0.132540
384.710358 133.734589 2.175460 0.284184
384.710358 133.734589 2.058480 0.290196
384.710358 133.734589 1.941520 0.299748
384.710358 133.734589 1.824539 0.262165
384.710358 133.734589 1.707499 0.303395
384.710358 133.734589 1.590358 0.249149
384.710358 133.734589 1.473077 0.252506
384.710358 133.734589 1.355614 0.349905
384.710358 133.734589 1.237929 0.352941
384.710358 133.734589 1.119982 0.347890
384.710358 133.734589 1.001729 0.352483
384.710358 133.734589 0.883130 0.265660
384.710358 133.734589 0.764143 0.264820
384.710358 133.734589 0.644724 0.290822
384.710358 133.734589 0.524829 0.284474
384.710358 133.734589 0.404416 0.262119
384.710358 133.734589 0.283437 0.277790
384.731323 133.740891 0.166351 0.346197
384.801331 133.761887 0.060441 0.563226
385.052856 133.837326 0.000027 0.395834
385.513336 133.975464 0.000026 0.492149
385.927460 134.099686 0.000026 0.490410
384.801331 133.852234 4.300106 0.307561
384.801331 133.852234 4.177280 0.884184
384.801331 133.852234 4.055247 0.590829
384.801331 133.852234 3.933956 0.692271
384.801331 133.852234 3.813360 0.272343
384.706329 133.824738 3.712411 0.564706
384.706329 133.824738 3.591726 0.678431
384.706329 133.824738 3.471603 0.678431
384.706329 133.824738 3.351999 0.678431
384.706329 133.824738 3.232868 0.678431
384.706329 133.824738 3.114168 0.678431
384.706329 133.824738 2.995857 0.678431
384.706329 133.824738 2.877891 0.678431
384.706329 133.824738 2.760228 0.678431
384.706329 133.824738 2.642828 0.678431
384.706329 133.824738 2.525649 0.678431
384.706329 133.824738 2.408651 0.678431
384.706329 133.824738 2.291794 0.678431
384.706329 133.824738 2.175036 0.678431
384.706329 133.824738 2.058339 0.678431
384.706329 133.824738 1.941661 0.678431
384.706329 133.824738 1.824964 0.678431
384.706329 133.824738 1.708206 0.678431
384.706329 133.824738 1.591349 0.678431
384.706329 133.824738 1.474351 0.678431
384.706329 133.824738 1.357172 0.678431
384.706329 133.824738 1.239772 0.678431
384.706329 133.824738 1.122110 0.678431
384.706329 133.824738 1.004143 0.678431
384.706329 133.824738 0.885831 0.678431
384.706329 133.824738 0.767132 0.678431
384.706329 133.824738 0.648001 0.678431
384.706329 133.824738 0.528396 0.678431
384.706329 133.824738 0.408274 0.678431
384.706329 133.824738 0.287589 0.650095
384.731323 133.831970 0.171648 0.248508
384.801331 133.852234 0.066043 0.659892
385.029053 133.918106 0.000025 0.498009
385.490875 134.051712 0.000025 0.442466
385.906189 134.171860 0.000024 0.371878
384.801331 133.942062 4.293702 0.344060
384.801331 133.942062 4.171218 0.854261
384.801331 133.942062 4.049524 0.713115
384.801331 133.942062 3.928571 0.678431
384.801331 133.942062 3.808311 0.600702
384.706329 133.915588 3.707644 0.623346
384.706329 133.915588 3.587294 0.678431
384.706329 133.915588 3.467506 0.678431
384.706329 133.915588 3.348235 0.678431
384.706329 133.915588 3.229436 0.678431
384.706329 133.915588 3.111066 0.678431
384.706329 133.915588 2.993084 0.678431
384.706329 133.915588 2.875446 0.678431
384.706329 133.915588 2.758111 0.678431
384.706329 133.915588 2.641037 0.678431
384.706329 133.915588 2.524185 0.678431
384.706329 133.915588 2.407513 0.678431
384.706329 133.915588 2.290981 0.678431
384.706329 133.915588 2.174549 0.678431
384.706329 133.915588 2.058176 0.678431
384.706329 133.915588 1.941824 0.678431
384.706329 133.915588 1.825451 0.678431
384.706329 133.915588 1.709019 0.678431
384.706329 133.915588 1.592487 0.678431
384.706329 133.915588 1.475815 0.678431
384.706329 133.915588 1.358962 0.678431
384.706329 133.915588 1.241889 0.678431
384.706329 133.915588 1.124554 0.678431
384.706329 133.915588 1.006916 0.678431
384.706329 133.915588 0.888934 0.678431
384.706329 133.915588 0.770564 0.678431
384.706329 133.915588 0.651765 0.678431
384.706329 133.915588 0.532494 0.678431
384.706329 133.915588 0.412706 0.678431
384.706329 133.915588 0.292356 0.675364
384.731323 133.922546 0.176738 0.250538
384.801331 133.942062 0.071428 0.628122
385.006042 133.999115 0.000024 0.488624
385.469147 134.128174 0.000024 0.481666
385.885620 134.244247 0.000023 0.367590
384.801331 134.031403 4.287553 0.534142
384.801331 134.031403 4.165398 0.561776
384.801331 134.031403 4.044030 0.653284
384.801331 134.031403 3.923401 0.673701
384.801331 134.031403 3.803464 0.392996
384.706329 134.005920 3.703065 0.632227
384.706329 134.005920 3.583039 0.678431
384.706329 134.005920 3.463572 0.678431
384.706329 134.005920 3.344621 0.678431
384.706329 134.005920 3.226140 0.678431
384.706329 134.005920 3.108088 0.678431
384.706329 134.005920 2.990422 0.678431
384.706329 134.005920 2.873099 0.678431
384.706329 134.005920 2.756079 0.678431
384.706329 134.005920 2.639319 0.678431
384.706329 134.005920 2.522780 0.678431
384.706329 134.005920 2.406421 0.678431
384.706329 134.005920 2.290201 0.678431
384.706329 134.005920 2.174081 0.678431
384.706329 134.005920 2.058020 0.678431
384.706329 134.005920 1.941980 0.678431
384.706329 134.005920 1.825919 0.678431
384.706329 134.005920 1.709799 0.678431
384.706329 134.005920 1.593579 0.678431
384.706329 134.005920 1.477220 0.678431
384.706329 134.005920 1.360681 0.678431
384.706329 134.005920 1.243921 0.678431
384.706329 134.005920 1.126901 0.678431
384.706329 134.005920 1.009578 0.678431
384.706329 134.005920 0.891912 0.678431
384.706329 134.005920 0.773860 0.678431
384.706329 134.005920 0.655380 0.678431
384.706329 134.005920 0.536428 0.678431
384.706329 134.005920 0.416960 0.678431
384.706329 134.005920 0.296934 0.678431
384.731323 134.012634 0.181626 0.253407
384.801331 134.031403 0.076598 0.541176
384.983826 134.080338 0.000023 0.372305
385.448181 134.204849 0.000022 0.396597
385.865784 134.316833 0.000022 0.505074
384.801331 134.120270 4.281656 0.434669
384.801331 134.120270 4.159817 0.795285
384.801331 134.120270 4.038761 0.730739
384.801331 134.120270 3.918443 0.419165
384.793610 134.118286 3.800458 0.795712
384.706329 134.095795 3.698676 0.509667
384.706329 134.095795 3.578959 0.493080
384.706329 134.095795 3.459799 0.493080
384.706329 134.095795 3.341155 0.493080
384.706329 134.095795 3.222979 0.493080
384.706329 134.095795 3.105232 0.493080
384.706329 134.095795 2.987869 0.493080
384.706329 134.095795 2.870849 0.493080
384.706329 134.095795 2.754130 0.493080
384.706329 134.095795 2.637671 0.493080
384.706329 134.095795 2.521432 0.493080
384.706329 134.095795 2.405373 0.493080
384.706329 134.095795 2.289453 0.493080
384.706329 134.095795 2.173632 0.493080
384.706329 134.095795 2.057871 0.493080
384.706329 134.095795 1.942129 0.493080
384.706329 134.095795 1.826368 0.493080
384.706329 134.095795 1.710547 0.493080
384.706329 134.095795 1.594627 0.493080
384.706329 134.095795 1.478567 0.493050
384.706329 134.095795 1.362329 0.485664
384.706329 134.095795 1.245870 0.485664
384.706329 134.095795 1.129151 0.485664
384.706329 134.095795 1.012131 0.485664
384.706329 134.095795 0.894768 0.485664
384.706329 134.095795 0.777020 0.500801
384.706329 134.095795 0.658846 0.678431
384.706329 134.095795 0.540201 0.678431
384.706329 134.095795 0.421041 0.678431
384.706329 134.095795 0.301324 0.678431
384.731323 134.102234 0.186313 0.178698
384.801331 134.120270 0.081555 0.561822
384.962402 134.161774 0.000021 0.427527
385.427948 134.281723 0.000021 0.461784
385.846649 134.389603 0.000021 0.410971
384.801331 134.208694 4.276010 0.383368
384.801331 134.208694 4.154470 0.815534
384.801331 134.208694 4.033715 0.746578
384.801331 134.208694 3.913695 0.343069
384.772614 134.201599 3.800450 0.798566
384.715302 134.187424 3.692699 0.109789
384.715302 134.187424 3.573402 0.116152
384.715302 134.187424 3.454662 0.159640
384.715302 134.187424 3.336435 0.147326
384.715302 134.187424 3.218676 0.185687
384.715302 134.187424 3.101342 0.206073
384.715302 134.187424 2.984393 0.179110
384.715302 134.187424 2.867784 0.112139
384.715302 134.187424 2.751476 0.207752
384.715302 134.187424 2.635427 0.253681
384.715302 134.187424 2.519598 0.321721
384.715302 134.187424 2.403947 0.345647
384.715302 134.187424 2.288434 0.161898
384.715302 134.187424 2.173021 0.214755
384.715302 134.187424 2.057667 0.358892
384.715302 134.187424 1.942333 0.378531
384.715302 134.187424 1.826979 0.384985
384.715302 134.187424 1.711565 0.384756
384.715302 134.187424 1.596053 0.330159
384.715302 134.187424 1.480402 0.309804
384.715302 134.187424 1.364573 0.370275
384.715302 134.187424 1.248524 0.277653
384.715302 134.187424 1.132216 0.293965
384.715302 134.187424 1.015607 0.319570
384.715302 134.187424 0.898657 0.300374
384.715302 134.187424 0.781324 0.296666
384.715302 134.187424 0.663565 0.316213
384.715302 134.187424 0.545337 0.345098
384.715302 134.187424 0.426598 0.326452
384.715302 134.187424 0.307302 0.316243
384.731323 134.191391 0.190803 0.186999
384.801331 134.208694 0.086304 0.635279
384.941803 134.243423 0.000021 0.433204
385.408508 134.358795 0.000020 0.474128
385.828217 134.462555 0.000020 0.331304
384.801331 134.296692 4.270609 0.770901
384.801331 134.296692 4.149358 0.734218
384.801331 134.296692 4.028890 0.590646
384.801331 134.296692 3.909155 0.276081
384.752441 134.285126 3.800441 0.793988
384.706329 134.274200 3.690451 0.678431
384.706329 134.274200 3.571313 0.678431
384.706329 134.274200 3.452731 0.678431
384.706329 134.274200 3.334661 0.678431
384.706329 134.274200 3.217058 0.678431
384.706329 134.274200 3.099880 0.678431
384.706329 134.274200 2.983086 0.678431
384.706329 134.274200 2.866632 0.678431
384.706329 134.274200 2.750479 0.678431
384.706329 134.274200 2.634583 0.678431
384.706329 134.274200 2.518908 0.678431
384.706329 134.274200 2.403410 0.678431
384.706329 134.274200 2.288052 0.678431
384.706329 134.274200 2.172791 0.678431
384.706329 134.274200 2.057590 0.678431
384.706329 134.274200 1.942409 0.678431
384.706329 134.274200 1.827209 0.678431
384.706329 134.274200 1.711948 0.678431
384.706329 134.274200 1.596590 0.678431
384.706329 134.274200 1.481092 0.678431
384.706329 134.274200 1.365416 0.678431
384.706329 134.274200 1.249521 0.678431
384.706329 134.274200 1.133368 0.678431
384.706329 134.274200 1.016914 0.678431
384.706329 134.274200 0.900119 0.678431
384.706329 134.274200 0.782942 0.678431
384.706329 134.274200 0.665339 0.678431
384.706329 134.274200 0.547268 0.678431
384.706329 134.274200 0.428686 0.678431
384.706329 134.274200 0.309548 0.678431
384.731323 134.280121 0.195096 0.198184
384.801331 134.296692 0.090845 0.500511
384.921997 134.325272 0.000019 0.414939
385.389801 134.436050 0.000019 0.481865
385.810516 134.535690 0.000019 0.430976
384.801331 134.384277 4.265451 0.747204
384.801331 134.384277 4.144476 0.445609
384.801331 134.384277 4.024282 0.528939
384.801331 134.384277 3.904818 0.478447
384.731323 134.368423 3.800805 0.178637
384.706329 134.362762 3.686611 0.678431
384.706329 134.362762 3.567744 0.678431
384.706329 134.362762 3.449431 0.678431
384.706329 134.362762 3.331629 0.678431
384.706329 134.362762 3.214293 0.678431
384.706329 134.362762 3.097382 0.678431
384.706329 134.362762 2.980852 0.678431
384.706329 134.362762 2.864663 0.678431
384.706329 134.362762 2.748774 0.678431
384.706329 134.362762 2.633142 0.678431
384.706329 134.362762 2.517729 0.678431
384.706329 134.362762 2.402494 0.678431
384.706329 134.362762 2.287397 0.678431
384.706329 134.362762 2.172399 0.678431
384.706329 134.362762 2.057460 0.678431
384.706329 134.362762 1.942540 0.678431
384.706329 134.362762 1.827601 0.678431
384.706329 134.362762 1.712603 0.678431
384.706329 134.362762 1.597506 0.678431
384.706329 134.362762 1.482270 0.678431
384.706329 134.362762 1.366858 0.678431
384.706329 134.362762 1.251226 0.678431
384.706329 134.362762 1.135336 0.678431
384.706329 134.362762 1.019147 0.678431
384.706329 134.362762 0.902618 0.678431
384.706329 134.362762 0.785707 0.678431
384.706329 134.362762 0.668371 0.678431
384.706329 134.362762 0.550568 0.678431
384.706329 134.362762 0.432256 0.678431
384.706329 134.362762 0.313388 0.678431
384.731323 134.368423 0.199196 0.208789
384.801331 134.384277 0.095182 0.417212
384.902985 134.407303 0.000018 0.408881
385.371857 134.513489 0.000018 0.469886
385.793549 134.608994 0.000017 0.435080
384.801331 134.471481 4.260534 0.630594
384.801331 134.471481 4.139822 0.449866
384.801331 134.471481 4.019888 0.588952
384.801331 134.471481 3.900684 0.508492
384.731323 134.456345 3.796896 0.292226
384.706329 134.450943 3.682950 0.340749
384.706329 134.450943 3.564341 0.340749
384.706329 134.450943 3.446285 0.340749
384.706329 134.450943 3.328738 0.340749
384.706329 134.450943 3.211658 0.340749
384.706329 134.450943 3.095000 0.340749
384.706329 134.450943 2.978724 0.340749
384.706329 134.450943 2.862787 0.340749
384.706329 134.450943 2.747149 0.340749
384.706329 134.450943 2.631768 0.340749
384.706329 134.450943 2.516605 0.340749
384.706329 134.450943 2.401620 0.340749
384.706329 134.450943 2.286773 0.340749
384.706329 134.450943 2.172024 0.341726
384.706329 134.450943 2.057335 0.361212
384.706329 134.450943 1.942665 0.361212
384.706329 134.450943 1.827975 0.471244
384.706329 134.450943 1.713227 0.537728
384.706329 134.450943 1.598379 0.527962
384.706329 134.450943 1.483394 0.509590
384.706329 134.450943 1.368232 0.509590
384.706329 134.450943 1.252851 0.509590
384.706329 134.450943 1.137213 0.509590
384.706329 134.450943 1.021276 0.491554
384.706329 134.450943 0.905000 0.381674
384.706329 134.450943 0.788342 0.381674
384.706329 134.450943 0.671261 0.381674
384.706329 134.450943 0.553715 0.381674
384.706329 134.450943 0.435659 0.381674
384.706329 134.450943 0.317049 0.381674
384.730255 134.456116 0.202877 0.220462
384.801331 134.471481 0.099316 0.250904
384.884766 134.489517 0.000016 0.393164
385.354675 134.591095 0.000017 0.484306
385.777283 134.682449 0.000016 0.358587
384.801331 134.558319 4.255857 0.484550
384.801331 134.558319 4.135394 0.445548
384.801331 134.558319 4.015707 0.407782
384.801331 134.558319 3.896750 0.531640
384.731323 134.543900 3.793177 0.251759
384.706329 134.538757 3.679467 0.656580
384.706329 134.538757 3.561103 0.672358
384.706329 134.538757 3.443292 0.672358
384.706329 134.538757 3.325989 0.672358
384.706329 134.538757 3.209150 0.672358
384.706329 134.538757 3.092733 0.672618
384.706329 134.538757 2.976697 0.672862
384.706329 134.538757 2.861001 0.672862
384.706329 134.538757 2.745602 0.672862
384.706329 134.538757 2.630460 0.672862
384.706329 134.538757 2.515536 0.672480
384.706329 134.538757 2.400789 0.544060
384.706329 134.538757 2.286180 0.448463
384.706329 134.538757 2.171668 0.448463
384.706329 134.538757 2.057216 0.448463
384.706329 134.538757 1.942784 0.480323
384.706329 134.538757 1.828331 0.480323
384.706329 134.538757 1.713820 0.480323
384.706329 134.538757 1.599211 0.480323
384.706329 134.538757 1.484464 0.480323
384.706329 134.538757 1.369540 0.480323
384.706329 134.538757 1.254398 0.480323
384.706329 134.538757 1.138999 0.462562
384.706329 134.538757 1.023303 0.449454
384.706329 134.538757 0.907267 0.449454
384.706329 134.538757 0.790851 0.480323
384.706329 134.538757 0.674012 0.480323
384.706329 134.538757 0.556709 0.480323
384.706329 134.538757 0.438897 0.480323
384.706329 134.538757 0.320533 0.492607
384.724152 134.542419 0.205316 0.130480
384.801331 134.558319 0.103250 0.330129
384.867371 134.571915 0.000016 0.412833
385.338257 134.668869 0.000015 0.481132
385.761719 134.756073 0.000015 0.381704
384.801331 134.644791 4.251414 0.783337
384.801331 134.644791 4.131188 0.727382
384.801331 134.644791 4.011738 0.365225
384.801331 134.644791 3.893014 0.568063
384.731323 134.631088 3.789646 0.169635
384.706329 134.626205 3.676160 0.667765
384.706329 134.626205 3.558029 0.678431
384.706329 134.626205 3.440449 0.678431
384.706329 134.626205 3.323377 0.678431
384.706329 134.626205 3.206768 0.678431
384.706329 134.626205 3.090581 0.678431
384.706329 134.626205 2.974774 0.678431
384.706329 134.626205 2.859305 0.678431
384.706329 134.626205 2.744133 0.678431
384.706329 134.626205 2.629218 0.678431
384.706329 134.626205 2.514521 0.678431
384.706329 134.626205 2.400000 0.678431
384.706329 134.626205 2.285616 0.678431
384.706329 134.626205 2.171330 0.678431
384.706329 134.626205 2.057104 0.678431
384.706329 134.626205 1.942896 0.678431
384.706329 134.626205 1.828669 0.678431
384.706329 134.626205 1.714384 0.678431
384.706329 134.626205 1.600000 0.678431
384.706329 134.626205 1.485479 0.678431
384.706329 134.626205 1.370781 0.678431
384.706329 134.626205 1.255867 0.678431
384.706329 134.626205 1.140695 0.678431
384.706329 134.626205 1.025226 0.678431
384.706329 134.626205 0.909419 0.678431
384.706329 134.626205 0.793232 0.678431
384.706329 134.626205 0.676623 0.678431
384.706329 134.626205 0.559551 0.678431
384.706329 134.626205 0.441972 0.678431
384.706329 134.626205 0.323841 0.678431
384.718384 134.628555 0.207637 0.231525
384.801331 134.644791 0.106985 0.652506
384.850800 134.654465 0.000014 0.457862
385.322601 134.746811 0.000014 0.420951
385.746918 134.829849 0.000014 0.341192
384.801331 134.730942 4.247205 0.516838
384.801331 134.730942 4.127204 0.725490
384.801331 134.730942 4.007977 0.186709
384.801331 134.730942 3.889476 0.564462
384.731323 134.717957 3.786300 0.160815
384.706329 134.713318 3.673025 0.678431
384.706329 134.713318 3.555116 0.678431
384.706329 134.713318 3.437756 0.678431
384.706329 134.713318 3.320903 0.678431
384.706329 134.713318 3.204512 0.678431
384.706329 134.713318 3.088542 0.678431
384.706329 134.713318 2.972951 0.678431
384.706329 134.713318 2.857699 0.678431
384.706329 134.713318 2.742742 0.678431
384.706329 134.713318 2.628042 0.678431
384.706329 134.713318 2.513559 0.678431
384.706329 134.713318 2.399252 0.678431
384.706329 134.713318 2.285082 0.678431
384.706329 134.713318 2.171010 0.678431
384.706329 134.713318 2.056997 0.678431
384.706329 134.713318 1.943003 0.678431
384.706329 134.713318 1.828990 0.678431
384.706329 134.713318 1.714918 0.678431
384.706329 134.713318 1.600748 0.678431
384.706329 134.713318 1.486441 0.678431
384.706329 134.713318 1.371958 0.678431
384.706329 134.713318 1.257258 0.678431
384.706329 134.713318 1.142301 0.678431
384.706329 134.713318 1.027048 0.678431
384.706329 134.713318 0.911458 0.678431
384.706329 134.713318 0.795488 0.678431
384.706329 134.713318 0.679097 0.678431
384.706329 134.713318 0.562244 0.678431
384.706329 134.713318 0.444884 0.678431
384.706329 134.713318 0.326975 0.678431
384.712860 134.714523 0.209838 0.199268
384.801331 134.730942 0.110525 0.473762
384.835022 134.737198 0.000013 0.467018
385.307709 134.824890 0.000013 0.411780
385.732819 134.903763 0.000013 0.437980
384.801331 134.816772 4.243226 0.732311
384.801331 134.816772 4.123439 0.580179
384.801331 134.816772 4.004422 0.082841
384.801331 134.816772 3.886131 0.592981
384.731323 134.804504 3.783138 0.148119
384.706329 134.800110 3.670064 0.678431
384.706329 134.800110 3.552363 0.678431
384.706329 134.800110 3.435211 0.678431
384.706329 134.800110 3.318565 0.678431
384.706329 134.800110 3.202380 0.678431
384.706329 134.800110 3.086616 0.678431
384.706329 134.800110 2.971230 0.678431
384.706329 134.800110 2.856180 0.678431
384.706329 134.800110 2.741427 0.678431
384.706329 134.800110 2.626930 0.678431
384.706329 134.800110 2.512650 0.678431
384.706329 134.800110 2.398546 0.678431
384.706329 134.800110 2.284578 0.678431
384.706329 134.800110 2.170707 0.678431
384.706329 134.800110 2.056896 0.678431
384.706329 134.800110 1.943104 0.678431
384.706329 134.800110 1.829292 0.678431
384.706329 134.800110 1.715422 0.678431
384.706329 134.800110 1.601455 0.678431
384.706329 134.800110 1.487350 0.678431
384.706329 134.800110 1.373069 0.678431
384.706329 134.800110 1.258572 0.678431
384.706329 134.800110 1.143820 0.678431
384.706329 134.800110 1.028770 0.678431
384.706329 134.800110 0.913384 0.678431
384.706329 134.800110 0.797620 0.678431
384.706329 134.800110 0.681435 0.678431
384.706329 134.800110 0.564789 0.678431
384.706329 134.800110 0.447637 0.678431
384.706329 134.800110 0.329936 0.678431
384.707672 134.800354 0.211920 0.200488
384.801331 134.816772 0.113869 0.494728
384.820068 134.820053 0.000012 0.500847
385.293579 134.903107 0.000012 0.375891
385.719452 134.977798 0.000012 0.421195
384.801331 134.902313 4.239478 0.754223
384.801331 134.902313 4.119890 0.468055
384.801331 134.902313 4.001073 0.703304
384.801331 134.902313 3.882979 0.828244
384.731323 134.890747 3.780158 0.153735
384.706329 134.886612 3.667274 0.678431
384.706329 134.886612 3.549769 0.678431
384.706329 134.886612 3.432813 0.678431
384.706329 134.886612 3.316361 0.678431
384.706329 134.886612 3.200371 0.678431
384.706329 134.886612 3.084800 0.678431
384.706329 134.886612 2.969607 0.678431
384.706329 134.886612 2.854750 0.678431
384.706329 134.886612 2.740189 0.678431
384.706329 134.886612 2.625883 0.678431
384.706329 134.886612 2.511793 0.678431
384.706329 134.886612 2.397879 0.678431
384.706329 134.886612 2.284102 0.678431
384.706329 134.886612 2.170422 0.678431
384.706329 134.886612 2.056801 0.678431
384.706329 134.886612 1.943199 0.678431
384.706329 134.886612 1.829578 0.678431
384.706329 134.886612 1.715898 0.678431
384.706329 134.886612 1.602121 0.678431
384.706329 134.886612 1.488207 0.678431
384.706329 134.886612 1.374117 0.678431
384.706329 134.886612 1.259811 0.678431
384.706329 134.886612 1.145250 0.678431
384.706329 134.886612 1.030393 0.678431
384.706329 134.886612 0.915200 0.678431
384.706329 134.886612 0.799629 0.678431
384.706329 134.886612 0.683639 0.678431
384.706329 134.886612 0.567187 0.678431
384.706329 134.886612 0.450230 0.678431
384.706329 134.886612 0.332726 0.678431
384.706329 134.886612 0.214629 0.383459
384.801331 134.902313 0.117020 0.783810
384.801331 134.902313 -0.001072 0.239277
385.280243 134.981476 0.000010 0.440787
385.706818 135.051987 0.000010 0.431601
384.801331 134.987579 4.235957 0.739528
384.801331 134.987579 4.116557 0.342718
384.801331 134.987579 3.997927 0.828351
384.801331 134.987579 3.880019 0.819364
384.731323 134.976715 3.777360 0.150988
384.706329 134.972824 3.664653 0.678431
384.706329 134.972824 3.547333 0.678431
384.706329 134.972839 3.430561 0.678431
384.706329 134.972839 3.314292 0.678431
384.706329 134.972839 3.198484 0.678431
384.706329 134.972839 3.083095 0.678431
384.706329 134.972839 2.968083 0.678431
384.706329 134.972839 2.853406 0.678431
384.706329 134.972839 2.739025 0.678431
384.706329 134.972839 2.624899 0.678431
384.706329 134.972839 2.510989 0.678431
384.706329 134.972839 2.397254 0.678431
384.706329 134.972839 2.283655 0.678431
384.706329 134.972839 2.170154 0.678431
384.706329 134.972839 2.056711 0.678431
384.706329 134.972839 1.943288 0.678431
384.706329 134.972839 1.829845 0.678431
384.706329 134.972839 1.716344 0.678431
384.706329 134.972839 1.602746 0.678431
384.706329 134.972839 1.489011 0.678431
384.706329 134.972839 1.375101 0.678431
384.706329 134.972839 1.260975 0.678431
384.706329 134.972824 1.146593 0.678431
384.706329 134.972824 1.031917 0.678431
384.706329 134.972824 0.916905 0.678431
384.706329 134.972824 0.801516 0.678431
384.706329 134.972839 0.685708 0.678431
384.706329 134.972824 0.569439 0.678431
384.706329 134.972824 0.452666 0.678431
384.706329 134.972824 0.335347 0.678431
384.706329 134.972839 0.217436 0.391089
384.801331 134.987579 0.119981 0.813947
384.801331 134.987579 0.002073 0.297185
385.267670 135.059952 0.000009 0.525948
385.694916 135.126282 0.000009 0.529686
384.801331 135.072586 4.232662 0.523690
384.801331 135.072586 4.113439 0.289601
384.801331 135.072586 3.994983 0.828519
384.801331 135.072586 3.877249 0.688075
384.731323 135.062424 3.774741 0.123751
384.706329 135.058792 3.662200 0.678431
384.706329 135.058792 3.545053 0.678431
384.706329 135.058792 3.428453 0.678431
384.706329 135.058792 3.312356 0.678431
384.706329 135.058792 3.196718 0.678431
384.706329 135.058792 3.081499 0.678431
384.706329 135.058792 2.966656 0.678431
384.706329 135.058792 2.852149 0.678431
384.706329 135.058792 2.737936 0.678431
384.706329 135.058792 2.623978 0.678431
384.706329 135.058792 2.510236 0.678431
384.706329 135.058792 2.396668 0.678431
384.706329 135.058792 2.283237 0.678431
384.706329 135.058792 2.169904 0.678431
384.706329 135.058792 2.056628 0.678431
384.706329 135.058792 1.943372 0.678431
384.706329 135.058792 1.830096 0.678431
384.706329 135.058792 1.716762 0.678431
384.706329 135.058792 1.603331 0.678431
