# This PCD file was generated using the MATLAB® pcwrite function
# from Computer Vision System Toolbox®.
# .PCD v.7 - Point Cloud Data file format
VERSION .7
FIELDS x y z intensity
SIZE 4 4 4 4
TYPE F F F F
COUNT 1 1 1 1
WIDTH 1220
HEIGHT 1
VIEWPOINT 0 0 0 1 0 0 0
POINTS 1220
DATA ascii
45.074814 166.978424 2.072719 0.085267
45.074814 166.978424 1.927281 0.094118
45.074814 166.978424 1.781819 0.306386
45.183765 166.907928 1.632034 0.718532
45.183765 166.907928 1.484671 0.722347
45.183765 166.907928 1.337131 0.719783
45.183765 166.907928 1.189363 0.714672
45.183769 166.907928 1.041316 0.704250
45.266743 166.854233 0.883204 0.732967
45.266743 166.854233 0.733134 0.721569
45.266743 166.854233 0.582625 0.733608
45.266743 166.854233 0.431623 0.733196
45.266743 166.854233 0.280073 0.721569
45.266743 166.854233 0.127920 0.732555
45.149769 166.929932 -0.000012 0.548119
44.487087 167.358734 -0.000012 0.451942
43.908951 167.732849 -0.000012 0.409537
43.399990 168.062180 -0.000011 0.523949
42.948341 168.354431 -0.000011 0.447364
42.544712 168.615616 -0.000010 0.504448
42.181713 168.850510 -0.000010 0.647974
44.983669 166.907928 4.889390 0.731960
44.983673 166.907928 4.735098 0.732097
45.064884 166.854233 4.604499 0.726986
45.064884 166.854233 4.450794 0.732967
45.064884 166.854233 4.297970 0.737560
45.064884 166.854233 4.145966 0.732677
45.064884 166.854233 3.994724 0.737560
45.064884 166.854233 3.844189 0.724376
45.064888 166.854233 3.694303 0.715221
44.983665 166.907928 3.531544 0.728008
44.983669 166.907928 3.384088 0.733761
44.983665 166.907928 3.237114 0.733684
44.877029 166.978424 3.077978 0.094118
44.877029 166.978424 2.933498 0.086275
44.877029 166.978424 2.789340 0.086275
44.877029 166.978424 2.645454 0.093355
44.877029 166.978424 2.501791 0.086275
44.877029 166.978424 2.358299 0.072160
44.877029 166.978424 2.214930 0.062745
44.877029 166.978424 2.071635 0.084337
44.877029 166.978424 1.928365 0.094118
44.877029 166.978424 1.785070 0.272145
44.983669 166.907928 1.637516 0.720104
44.983669 166.907928 1.492349 0.720012
44.983665 166.907928 1.347007 0.720516
44.983669 166.907928 1.201440 0.717845
44.983669 166.907928 1.055599 0.721523
45.064888 166.854233 0.899842 0.732265
45.064888 166.854233 0.752008 0.726986
45.064888 166.854233 0.603741 0.732967
45.064888 166.854233 0.454989 0.732601
45.064888 166.854233 0.305696 0.721569
45.064888 166.854233 0.155810 0.725612
45.064888 166.854233 0.005275 0.737011
44.431145 167.273209 -0.000012 0.405005
43.856705 167.652969 -0.000012 0.497063
43.351006 167.987289 -0.000011 0.414984
42.902248 168.283966 -0.000011 0.467308
42.501202 168.549088 -0.000010 0.385275
42.140526 168.787537 -0.000010 0.469337
44.789433 166.907928 4.847246 0.727459
44.811508 166.893021 4.701784 0.733455
44.868938 166.854233 4.566510 0.717067
44.868935 166.854233 4.415047 0.721569
44.868938 166.854233 4.264452 0.718853
44.868938 166.854233 4.114665 0.721569
44.868938 166.854233 3.965630 0.720653
44.868938 166.854233 3.817290 0.698222
44.868938 166.854233 3.669590 0.698039
44.789429 166.907928 3.509205 0.731121
44.789429 166.907928 3.363900 0.737469
44.789429 166.907928 3.219069 0.729335
44.685036 166.978424 3.062255 0.094118
44.685036 166.978424 2.919882 0.082551
44.685036 166.978424 2.777826 0.081178
44.685036 166.978424 2.636039 0.076204
44.685036 166.978424 2.494471 0.081178
44.685036 166.978424 2.353073 0.076066
44.685036 166.978424 2.211795 0.086275
44.685036 166.978424 2.070590 0.092409
44.685036 166.978424 1.929410 0.094118
44.685036 166.978424 1.788205 0.240192
44.789429 166.907928 1.642803 0.726711
44.789433 166.907928 1.499753 0.726070
44.789429 166.907928 1.356531 0.721569
44.789429 166.907928 1.213088 0.721569
44.789429 166.907928 1.069374 0.737377
44.868942 166.854233 0.915889 0.720378
44.868942 166.854233 0.770212 0.711315
44.868942 166.854233 0.624107 0.719493
44.868942 166.854233 0.477524 0.717342
44.868942 166.854233 0.330409 0.716701
44.868942 166.854233 0.182709 0.726070
44.868942 166.854233 0.034369 0.735393
44.374363 167.188232 -0.000012 0.470008
43.803684 167.573608 -0.000012 0.474845
43.301285 167.912872 -0.000011 0.335149
42.855461 168.213943 -0.000011 0.510567
42.457039 168.483002 -0.000011 0.370336
42.098721 168.724976 -0.000010 0.478645
44.600758 166.907928 4.806580 0.724208
44.678608 166.854233 4.680068 0.737362
44.678608 166.854233 4.529854 0.729473
44.678608 166.854233 4.380554 0.716381
44.678608 166.854233 4.232110 0.714946
44.678604 166.854233 4.084462 0.729610
44.678608 166.854233 3.937555 0.725429
44.678604 166.854233 3.791334 0.704021
44.678608 166.854233 3.645744 0.698039
44.600754 166.907928 3.487649 0.732647
44.600758 166.907928 3.344419 0.733333
44.600758 166.907928 3.201657 0.721569
44.498539 166.978424 3.047083 0.094118
44.498539 166.978424 2.906744 0.121645
44.498539 166.978424 2.766717 0.112871
44.498539 166.978424 2.626956 0.079210
44.498539 166.978424 2.487409 0.082094
44.498539 166.978424 2.348030 0.080568
44.498539 166.978424 2.208770 0.097337
44.498539 166.978424 2.069582 0.115297
44.498539 166.978424 1.930418 0.129412
44.498539 166.978424 1.791230 0.236637
44.600754 166.907928 1.647905 0.727398
44.600758 166.907928 1.506898 0.732464
44.600758 166.907928 1.365722 0.737270
44.600754 166.907928 1.224327 0.721569
44.600758 166.907928 1.082666 0.731167
44.678612 166.854233 0.931372 0.699229
44.678612 166.854233 0.787776 0.698039
44.678612 166.854233 0.643758 0.717891
44.678612 166.854233 0.499269 0.716701
44.678612 166.854233 0.354255 0.714855
44.678612 166.854233 0.208665 0.734356
44.678612 166.854233 0.062443 0.741176
44.316750 167.103806 -0.000012 0.524193
43.749878 167.494781 -0.000012 0.405066
43.250835 167.838959 -0.000011 0.472221
42.807991 168.144394 -0.000011 0.473838
42.412228 168.417343 -0.000010 0.364584
42.056305 168.662827 -0.000010 0.440162
44.417385 166.907928 4.767323 0.735134
44.493622 166.854233 4.642581 0.736095
44.493622 166.854233 4.494468 0.724147
44.493622 166.854233 4.347256 0.726802
44.493622 166.854233 4.200888 0.738659
44.493622 166.854233 4.055305 0.738659
44.493622 166.854233 3.910454 0.729564
44.493622 166.854233 3.766278 0.724300
44.493622 166.854233 3.622724 0.714031
44.417381 166.907928 3.466841 0.724971
44.417385 166.907928 3.325614 0.732921
44.417385 166.907928 3.184850 0.727169
44.317284 166.978424 3.032437 0.094118
44.317284 166.978424 2.894061 0.109850
44.317284 166.978424 2.755993 0.100435
44.317284 166.978424 2.618186 0.073808
44.317284 166.978424 2.480592 0.073503
44.317284 166.978424 2.343162 0.081453
44.317284 166.978424 2.205850 0.093523
44.317284 166.978424 2.068609 0.112688
44.317284 166.978424 1.931391 0.126375
44.317284 166.978424 1.794150 0.255741
44.417385 166.907928 1.652830 0.714717
44.417385 166.907928 1.513795 0.723171
44.417385 166.907928 1.374594 0.733333
44.417385 166.907928 1.235177 0.733013
44.417385 166.907928 1.095497 0.737560
44.493626 166.854233 0.946320 0.702266
44.493626 166.854233 0.804732 0.698039
44.493626 166.854233 0.662729 0.702266
44.493626 166.854233 0.520261 0.721569
44.493626 166.854233 0.377275 0.700801
44.493626 166.854233 0.233721 0.710170
44.493626 166.854233 0.089545 0.741176
44.258308 167.019958 -0.000012 0.495537
43.695305 167.416473 -0.000011 0.468833
43.199665 167.765549 -0.000011 0.429511
42.759842 168.075302 -0.000011 0.417762
42.366776 168.352127 -0.000010 0.353704
42.013279 168.601089 -0.000010 0.442023
44.239052 166.907928 4.729407 0.735882
44.313721 166.854233 4.606375 0.722255
44.313721 166.854233 4.460291 0.711498
44.313721 166.854233 4.315096 0.710765
44.313721 166.854233 4.170733 0.737224
44.313721 166.854233 4.027146 0.733822
44.313721 166.854233 3.884279 0.732708
44.313721 166.854233 3.742078 0.722301
44.239052 166.907928 3.586541 0.727398
44.239048 166.907928 3.446743 0.733333
44.239052 166.907928 3.307452 0.731304
44.141010 166.978424 3.155124 0.233127
44.141006 166.978424 3.018291 0.092668
44.141006 166.978424 2.881811 0.081315
44.141006 166.978424 2.745635 0.073182
44.141010 166.978424 2.609716 0.062745
44.141010 166.978424 2.474007 0.095933
44.141006 166.978424 2.338460 0.074235
44.141006 166.978424 2.203029 0.087953
44.141006 166.978424 2.067669 0.104967
44.141006 166.978424 1.932331 0.094118
44.141006 166.978424 1.796970 0.199115
44.239052 166.907928 1.657587 0.733333
44.239052 166.907928 1.520457 0.733333
44.239052 166.907928 1.383162 0.738140
44.239052 166.907928 1.245656 0.736950
44.239048 166.907928 1.107889 0.739925
44.313721 166.854233 0.960756 0.716747
44.313721 166.854233 0.821108 0.717113
44.313725 166.854233 0.681051 0.720928
44.313725 166.854233 0.540534 0.721569
44.313725 166.854233 0.399508 0.721477
44.313725 166.854233 0.257921 0.717525
44.313725 166.854233 0.115720 0.732235
44.199051 166.936691 -0.000012 0.381125
43.639965 167.338715 -0.000011 0.567742
43.147778 167.692627 -0.000011 0.345983
42.711014 168.006699 -0.000010 0.333898
42.320686 168.287369 -0.000010 0.369100
41.969650 168.539780 -0.000010 0.346059
44.098148 166.883972 4.703334 0.734524
44.138664 166.854233 4.571392 0.727825
44.138664 166.854233 4.427269 0.721889
44.138664 166.854233 4.284022 0.733333
44.138664 166.854233 4.141598 0.739803
44.138664 166.854233 3.999937 0.720790
44.138664 166.854233 3.858988 0.720836
44.138664 166.854233 3.718696 0.710719
44.098145 166.883987 3.571385 0.723445
44.098145 166.883987 3.432923 0.719219
44.098145 166.883987 3.294962 0.726711
43.969482 166.978424 3.139620 0.270695
43.969482 166.978424 3.004624 0.114580
43.969482 166.978424 2.869975 0.095216
43.969482 166.978424 2.735627 0.087221
43.969482 166.978424 2.601532 0.158907
43.969482 166.978424 2.467645 0.132113
43.969482 166.978424 2.333917 0.111894
43.969482 166.978424 2.200305 0.126040
43.969482 166.978424 2.066760 0.126040
43.969482 166.978424 1.933239 0.107073
43.969482 166.978424 1.799695 0.182208
44.098145 166.883987 1.660858 0.732540
44.098145 166.883987 1.525038 0.741115
44.098145 166.883987 1.389055 0.735256
44.098145 166.883987 1.252862 0.733333
44.098145 166.883987 1.116412 0.731609
44.138668 166.854233 0.974705 0.732876
44.138668 166.854233 0.836932 0.732143
44.138668 166.854233 0.698754 0.732143
44.138668 166.854233 0.560124 0.739925
44.138668 166.854233 0.420990 0.740383
44.138668 166.854233 0.281304 0.723552
44.138668 166.854233 0.141011 0.739025
44.138672 166.854233 0.000061 0.740810
43.583866 167.261505 -0.000011 0.434653
43.095177 167.620224 -0.000011 0.457725
42.661518 167.938568 -0.000011 0.462058
42.273968 168.223053 -0.000010 0.451240
41.925423 168.478912 -0.000010 0.468544
43.968235 166.854233 4.680728 0.739773
43.968231 166.854233 4.537578 0.732158
43.968235 166.854233 4.395350 0.733333
43.968231 166.854233 4.253987 0.732235
43.968231 166.854233 4.113435 0.732799
43.968235 166.854233 3.973638 0.712291
43.968235 166.854233 3.834542 0.720882
43.968235 166.854233 3.696095 0.721569
43.896591 166.907913 3.544666 0.731868
43.896591 166.907913 3.408559 0.729656
43.896591 166.907913 3.272943 0.710491
43.896591 166.907913 3.137772 0.717571
43.896591 166.907913 3.002995 0.721569
43.896591 166.907913 2.868564 0.721569
43.916901 166.892700 2.736264 0.547616
43.916901 166.892700 2.602053 0.557534
43.916901 166.892700 2.468050 0.557534
43.916901 166.892700 2.334206 0.546624
43.916901 166.892700 2.200478 0.536095
43.916901 166.892700 2.066818 0.536095
43.916901 166.892700 1.933181 0.526162
43.896591 166.907913 1.800020 0.731502
43.896591 166.907913 1.666624 0.737469
43.896591 166.907913 1.533114 0.723781
43.896591 166.907913 1.399443 0.735363
43.896591 166.907913 1.265566 0.737957
43.896591 166.907913 1.131436 0.723491
43.968235 166.854233 0.988188 0.717159
43.968239 166.854233 0.852226 0.698314
43.968239 166.854233 0.715865 0.717342
43.968239 166.854233 0.579058 0.721569
43.968235 166.854233 0.441754 0.733608
43.968235 166.854233 0.303904 0.734676
43.968239 166.854233 0.165457 0.740917
43.968239 166.854233 0.026361 0.735134
43.527012 167.184845 -0.000011 0.631785
43.041866 167.548355 -0.000011 0.352010
42.611355 167.870926 -0.000011 0.394232
42.226612 168.159210 -0.000010 0.475700
41.880600 168.418472 -0.000010 0.408484
43.802208 166.854233 4.646185 0.718624
43.802208 166.854233 4.504879 0.708659
43.802208 166.854233 4.364484 0.721569
43.802208 166.854233 4.224943 0.737041
43.802208 166.854233 4.086202 0.735637
43.802208 166.854233 3.948206 0.725017
43.802208 166.854233 3.810903 0.725017
43.802208 166.854233 3.674240 0.725017
43.732014 166.907913 3.524762 0.721660
43.732014 166.907913 3.390409 0.721614
43.732014 166.907913 3.256541 0.709850
43.732014 166.907913 3.123111 0.699916
43.732014 166.907913 2.990070 0.710811
43.732014 166.907913 2.857372 0.703593
43.802212 166.854233 2.731343 0.728237
43.802208 166.854233 2.598030 0.708659
43.802208 166.854233 2.464921 0.704295
43.802212 166.854233 2.331973 0.723217
43.802212 166.854233 2.199138 0.719783
43.802212 166.854233 2.066372 0.729885
43.802212 166.854233 1.933628 0.739773
43.732014 166.907913 1.802597 0.738689
43.732014 166.907913 1.670920 0.725017
43.732014 166.907913 1.539130 0.727550
43.732010 166.907913 1.407182 0.736248
43.732014 166.907913 1.275030 0.740841
43.732014 166.907913 1.142628 0.718853
43.802212 166.854233 1.001226 0.721569
43.802212 166.854233 0.867016 0.721569
43.802212 166.854233 0.732412 0.704936
43.802212 166.854233 0.597368 0.726436
43.802212 166.854233 0.461834 0.732052
43.802212 166.854233 0.325760 0.734432
43.802212 166.854233 0.189096 0.733333
43.802212 166.854233 0.051793 0.733333
43.469406 167.108734 -0.000011 0.450050
42.987854 167.477005 -0.000011 0.477028
42.560528 167.803787 -0.000010 0.351766
42.178635 168.095825 -0.000010 0.364645
41.835186 168.358475 -0.000010 0.363287
43.640392 166.854233 4.612769 0.698039
43.640392 166.854233 4.473248 0.698039
43.640392 166.854233 4.334625 0.708797
43.640392 166.854233 4.196847 0.735546
43.640392 166.854233 4.059858 0.730526
43.640392 166.854233 3.923604 0.729564
43.640392 166.854233 3.788034 0.729564
43.640392 166.854233 3.653097 0.729564
43.571606 166.907913 3.505507 0.732006
43.571606 166.907913 3.372850 0.725917
43.571606 166.907913 3.240673 0.721111
43.571606 166.907913 3.108927 0.721569
43.571606 166.907913 2.977567 0.721202
43.571602 166.907913 2.846545 0.702403
43.640396 166.854233 2.722108 0.733333
43.640396 166.854233 2.590477 0.722347
43.640392 166.854233 2.459051 0.732052
43.640396 166.854233 2.327780 0.733333
43.640396 166.854233 2.196623 0.733608
43.640396 166.854233 2.065534 0.733974
43.640396 166.854233 1.934466 0.739803
43.571606 166.907913 1.805090 0.741176
43.571602 166.907913 1.675076 0.739086
43.571602 166.907913 1.544950 0.721569
43.571606 166.907913 1.414668 0.731411
43.571606 166.907913 1.284185 0.740841
43.571602 166.907913 1.153455 0.726818
43.571606 166.907913 1.022433 0.722301
43.640392 166.854233 0.881323 0.721569
43.640396 166.854233 0.748419 0.717617
43.640396 166.854233 0.615081 0.709300
43.640396 166.854233 0.481257 0.723873
43.640396 166.854233 0.346902 0.733333
43.640396 166.854233 0.211965 0.722164
43.640396 166.854233 0.076395 0.726207
43.411057 167.033218 -0.000011 0.442771
42.933144 167.406174 -0.000011 0.374655
42.509048 167.737152 -0.000010 0.466606
42.130039 168.032928 -0.000010 0.396902
41.789181 168.298935 -0.000010 0.371115
43.482597 166.854233 4.580433 0.702495
43.482597 166.854233 4.442637 0.699825
43.482597 166.854233 4.305731 0.713802
43.482597 166.854233 4.169658 0.727031
43.482597 166.854233 4.034365 0.721111
43.482597 166.854233 3.899797 0.721065
43.482597 166.854233 3.765905 0.724376
43.482597 166.854233 3.632638 0.729015
43.415184 166.907913 3.486874 0.733333
43.415184 166.907913 3.355859 0.733333
43.415184 166.907913 3.225318 0.709804
43.415184 166.907913 3.095203 0.721614
43.415184 166.907913 2.965469 0.721614
43.415184 166.907913 2.836068 0.721248
43.482601 166.854233 2.713171 0.733333
43.482601 166.854233 2.583170 0.726665
43.482601 166.854233 2.453369 0.730159
43.482601 166.854233 2.323724 0.736522
43.482601 166.854233 2.194190 0.726070
43.482601 166.854233 2.064723 0.734920
43.482601 166.854233 1.935277 0.734249
43.415184 166.907913 1.807502 0.735729
43.415184 166.907913 1.679097 0.741176
43.415184 166.907913 1.550582 0.724056
43.415184 166.907913 1.421912 0.740261
43.415184 166.907913 1.293044 0.735454
43.415184 166.907913 1.163932 0.730297
43.415188 166.907913 1.034531 0.719585
43.482601 166.854233 0.895168 0.733089
43.482601 166.854233 0.763909 0.725078
43.482601 166.854233 0.632221 0.729564
43.482601 166.854233 0.500054 0.735073
43.482601 166.854233 0.367361 0.733364
43.482601 166.854233 0.234094 0.730159
43.482601 166.854233 0.100202 0.728145
43.351967 166.958252 -0.000011 0.432654
42.877739 167.335907 -0.000011 0.513680
42.456913 167.671021 -0.000010 0.453895
42.080826 167.970505 -0.000010 0.324849
41.742599 168.239838 -0.000010 0.428214
43.328644 166.854233 4.549129 0.722301
43.328644 166.854233 4.413006 0.713985
43.328644 166.854233 4.277760 0.722164
43.328644 166.854233 4.143337 0.733623
43.328644 166.854233 4.009685 0.728832
43.328644 166.854233 3.876750 0.724727
43.328644 166.854233 3.744483 0.726314
43.262573 166.907913 3.598777 0.730800
43.262573 166.907913 3.468837 0.733288
43.262573 166.907913 3.339411 0.720287
43.262573 166.907913 3.210453 0.709850
43.262573 166.907913 3.081917 0.733333
43.262573 166.907913 2.953757 0.722026
43.262573 166.907913 2.825925 0.709987
43.328648 166.854233 2.704519 0.727733
43.328648 166.854233 2.576095 0.728420
43.328648 166.854233 2.447869 0.721569
43.328648 166.854233 2.319797 0.724422
43.328644 166.854233 2.191834 0.714443
43.328648 166.854233 2.063938 0.728466
43.328648 166.854233 1.936062 0.726665
43.328644 166.854233 1.808166 0.721569
43.262573 166.907913 1.682990 0.733898
43.262573 166.907913 1.556034 0.724926
43.262573 166.907913 1.428925 0.735546
43.262573 166.907913 1.301620 0.735546
43.262573 166.907913 1.174075 0.728862
43.262573 166.907913 1.046244 0.725063
43.328648 166.854233 0.908571 0.731121
43.328648 166.854233 0.778905 0.733333
43.328648 166.854233 0.648814 0.733333
43.328648 166.854233 0.518250 0.729702
43.328648 166.854233 0.387167 0.721569
43.328648 166.854233 0.255516 0.717250
43.328648 166.854233 0.123249 0.721706
43.328648 166.854233 -0.009686 0.736080
42.821648 167.266174 -0.000010 0.541619
42.404129 167.605408 -0.000010 0.353491
42.031006 167.908569 -0.000010 0.526162
41.695435 168.181213 -0.000009 0.489876
43.178368 166.854233 4.518816 0.722255
43.178368 166.854233 4.384312 0.730938
43.178368 166.854233 4.250674 0.737224
43.178368 166.854233 4.117850 0.740215
43.178368 166.854233 3.985787 0.732876
43.178368 166.854233 3.854433 0.733455
43.178368 166.854233 3.723738 0.740063
43.113605 166.907913 3.579765 0.723690
43.113605 166.907913 3.451370 0.722942
43.113605 166.907913 3.323483 0.723033
43.113605 166.907913 3.196059 0.719738
43.113605 166.907913 3.069051 0.733333
43.113605 166.907913 2.942415 0.721569
43.151161 166.876785 2.820265 0.721569
43.178371 166.854233 2.696142 0.731868
43.178371 166.854233 2.569245 0.728008
43.178371 166.854233 2.442544 0.723064
43.178371 166.854233 2.315994 0.733639
43.178371 166.854233 2.189553 0.730526
43.178371 166.854233 2.063177 0.730938
43.178371 166.854233 1.936823 0.722210
43.178371 166.854233 1.810447 0.700206
43.113605 166.907913 1.686760 0.721569
43.113605 166.907913 1.561313 0.716014
43.113605 166.907913 1.435716 0.728054
43.113605 166.907913 1.309925 0.737987
43.113605 166.907913 1.183896 0.734066
43.113605 166.907913 1.057585 0.727123
43.178371 166.854233 0.921550 0.721065
43.178371 166.854233 0.793425 0.718029
43.178371 166.854233 0.664881 0.733196
43.178371 166.854233 0.535870 0.733288
43.178371 166.854233 0.406346 0.721569
43.178371 166.854233 0.276261 0.711879
43.178371 166.854233 0.145566 0.721935
43.178371 166.854233 0.014212 0.733333
42.764874 167.196991 -0.000010 0.495537
42.350708 167.540298 -0.000010 0.391104
41.980576 167.847122 -0.000010 0.358358
41.647701 168.123047 -0.000010 0.480964
43.031609 166.854233 4.489452 0.721767
43.031612 166.854233 4.356516 0.723964
43.031612 166.854233 4.224436 0.733577
43.031612 166.854233 4.093161 0.736996
43.031612 166.854233 3.962637 0.721614
43.031612 166.854233 3.832815 0.722271
43.031612 166.854233 3.703643 0.721798
42.968128 166.907913 3.561348 0.730434
42.968128 166.907913 3.434450 0.732967
42.968128 166.907913 3.308054 0.731868
42.968128 166.907913 3.182116 0.733333
42.968128 166.907913 3.056589 0.731456
42.968128 166.907913 2.931428 0.721019
43.031616 166.854233 2.813681 0.733333
43.031612 166.854233 2.688026 0.733333
43.031612 166.854233 2.562608 0.733333
43.031612 166.854233 2.437384 0.733364
43.031612 166.854233 2.312310 0.738994
43.031612 166.854233 2.187343 0.738628
43.031616 166.854233 2.062441 0.733333
43.031616 166.854233 1.937559 0.738109
43.031612 166.854233 1.812657 0.732921
42.968124 166.907913 1.690412 0.700618
42.968128 166.907913 1.566427 0.721569
42.968128 166.907913 1.442294 0.721569
42.968124 166.907913 1.317970 0.733333
42.968128 166.907913 1.193410 0.727214
42.968128 166.907913 1.068572 0.713298
43.031616 166.854233 0.934122 0.739834
43.031612 166.854233 0.807491 0.740642
43.031616 166.854233 0.680445 0.733288
43.031612 166.854233 0.552938 0.733196
43.031616 166.854233 0.424924 0.713298
43.031616 166.854233 0.296355 0.711925
43.031612 166.854233 0.167185 0.726757
43.031612 166.854233 0.037362 0.734127
42.707428 167.128372 -0.000010 0.413611
42.296650 167.475739 -0.000010 0.500557
41.929546 167.786163 -0.000010 0.352239
41.599396 168.065353 -0.000009 0.440070
42.888222 166.854233 4.461000 0.726986
42.888222 166.854233 4.329583 0.729931
42.888222 166.854233 4.199014 0.733333
42.888222 166.854233 4.069238 0.724239
42.888222 166.854233 3.940207 0.712108
42.888222 166.854233 3.811867 0.721111
42.888222 166.854233 3.684172 0.718807
42.825989 166.907913 3.543504 0.727733
42.825985 166.907913 3.418055 0.721889
42.825985 166.907913 3.293104 0.727123
42.825985 166.907913 3.168605 0.709804
42.825989 166.907913 3.044513 0.719875
42.825989 166.907913 2.920783 0.727825
42.888226 166.854233 2.804382 0.719646
42.888226 166.854233 2.680163 0.711223
42.888226 166.854233 2.556179 0.723873
42.888226 166.854233 2.432385 0.724971
42.888226 166.854233 2.308741 0.730892
42.888226 166.854233 2.185202 0.715129
42.888226 166.854233 2.061727 0.725887
42.888226 166.854233 1.938273 0.728099
42.888226 166.854233 1.814798 0.730159
42.825989 166.907913 1.693950 0.702266
42.825985 166.907913 1.571383 0.719585
42.825985 166.907913 1.448669 0.731350
42.825989 166.907913 1.325765 0.736492
42.825989 166.907913 1.202629 0.741176
42.825989 166.907913 1.079217 0.730297
42.888226 166.854233 0.946304 0.737499
42.888226 166.854233 0.821120 0.740505
42.888226 166.854233 0.695526 0.734127
42.888226 166.854233 0.569477 0.725795
42.888226 166.854233 0.442926 0.721981
42.888226 166.854233 0.315827 0.729931
42.888226 166.854233 0.188131 0.720790
42.888226 166.854233 0.059793 0.718166
42.649303 167.060333 -0.000010 0.441199
42.241959 167.411713 -0.000010 0.404700
41.877922 167.725723 -0.000010 0.486992
41.550529 168.008133 -0.000009 0.486900
42.748062 166.854233 4.433423 0.730022
42.748062 166.854233 4.303478 0.741176
42.748058 166.854233 4.174371 0.732601
42.748062 166.854233 4.046050 0.736919
42.748062 166.854233 3.918465 0.725338
42.748058 166.854233 3.791564 0.713115
42.748062 166.854233 3.665300 0.712108
42.687046 166.907913 3.526207 0.727459
42.687046 166.907913 3.402165 0.721569
42.687042 166.907913 3.278614 0.717800
42.687042 166.907928 3.155509 0.715694
42.687046 166.907913 3.032808 0.724926
42.687046 166.907913 2.910464 0.733333
42.748062 166.854233 2.795368 0.734585
42.748062 166.854233 2.672541 0.720287
42.748062 166.854233 2.549946 0.711040
42.748062 166.854233 2.427540 0.700984
42.748062 166.854233 2.305281 0.718990
42.748062 166.854233 2.183126 0.723445
42.748062 166.854233 2.061035 0.727642
42.748062 166.854233 1.938965 0.730861
42.748062 166.854233 1.816873 0.732326
42.687042 166.907928 1.697379 0.684718
42.687046 166.907913 1.576186 0.710033
42.687046 166.907913 1.454847 0.719127
42.687046 166.907913 1.333320 0.735729
42.687046 166.907913 1.211564 0.734462
42.687046 166.907913 1.089535 0.717113
42.748062 166.854233 0.958112 0.723781
42.748062 166.854233 0.834331 0.712016
42.748062 166.854233 0.710144 0.713207
42.748062 166.854233 0.585507 0.709438
42.748062 166.854233 0.460374 0.709438
42.748062 166.854233 0.334699 0.716518
42.748062 166.854233 0.208435 0.698772
42.748062 166.854233 0.081535 0.715969
42.590519 166.992844 -0.000010 0.502159
42.186642 167.348206 -0.000010 0.424628
41.825706 167.665787 -0.000010 0.402930
41.501102 167.951401 -0.000009 0.413230
42.610992 166.854233 4.406686 0.727047
42.610992 166.854233 4.278170 0.728695
42.610992 166.854233 4.150480 0.727642
42.610992 166.854233 4.023570 0.733333
42.610992 166.854233 3.897386 0.720790
42.610992 166.854233 3.771880 0.700160
42.610992 166.854233 3.647003 0.698772
42.551170 166.907928 3.509438 0.721569
42.551170 166.907928 3.386759 0.715541
42.551170 166.907913 3.264565 0.740810
42.551170 166.907913 3.142814 0.737835
42.551170 166.907913 3.021460 0.734707
42.551170 166.907928 2.900461 0.736156
42.610992 166.854233 2.786629 0.712795
42.610992 166.854233 2.665152 0.718029
42.610992 166.854233 2.543904 0.703929
42.610992 166.854233 2.422843 0.720287
42.610992 166.854233 2.301927 0.717159
42.610992 166.854233 2.181114 0.728511
42.610992 166.854233 2.060364 0.731914
42.610992 166.854233 1.939635 0.733333
42.610992 166.854233 1.818885 0.731502
42.551170 166.907928 1.700705 0.698039
42.551170 166.907928 1.580842 0.730846
42.551170 166.907928 1.460837 0.733333
42.551170 166.907913 1.340645 0.726574
42.551170 166.907913 1.220227 0.733333
42.551170 166.907913 1.099539 0.729519
42.610992 166.854233 0.969559 0.720378
42.610992 166.854233 0.847138 0.721477
42.610992 166.854233 0.724316 0.707134
42.610992 166.854233 0.601049 0.698497
42.610992 166.854233 0.477291 0.702449
42.610992 166.854233 0.352996 0.698772
42.610992 166.854233 0.228120 0.716426
42.610992 166.854233 0.102614 0.721569
42.531075 166.925949 -0.000010 0.469352
42.130707 167.285263 -0.000010 0.437217
41.772903 167.606369 -0.000009 0.409400
41.451118 167.895157 -0.000009 0.472801
42.476891 166.854233 4.380757 0.729564
42.476891 166.854233 4.253625 0.710948
42.476891 166.854233 4.127313 0.713939
42.476891 166.854233 4.001769 0.713939
42.476891 166.854233 3.876945 0.708293
42.476891 166.854233 3.752790 0.713848
42.476891 166.854233 3.629259 0.713298
42.418236 166.907913 3.493176 0.720836
42.418236 166.907913 3.371819 0.721157
42.418236 166.907928 3.250941 0.741176
42.418236 166.907928 3.130501 0.730907
42.418236 166.907928 3.010455 0.701335
42.418236 166.907913 2.890759 0.724651
42.476891 166.854233 2.778154 0.722881
42.476891 166.854233 2.657986 0.714809
42.476891 166.854233 2.538044 0.704707
42.476891 166.854233 2.418287 0.712383
42.476891 166.854233 2.298674 0.698039
42.476891 166.854233 2.179163 0.725383
42.476891 166.854233 2.059714 0.733333
42.476891 166.854233 1.940286 0.735485
42.476891 166.854233 1.820837 0.723918
42.418236 166.907928 1.703929 0.715969
42.418236 166.907928 1.585358 0.724239
42.418236 166.907928 1.466645 0.727214
42.418236 166.907913 1.347749 0.734401
42.418236 166.907913 1.228628 0.741176
42.418236 166.907913 1.109240 0.735821
42.476891 166.854233 0.980661 0.719448
42.476891 166.854233 0.859559 0.718257
42.476894 166.854233 0.738060 0.710353
42.476894 166.854233 0.616120 0.715587
42.476894 166.854233 0.493695 0.721569
42.476894 166.854233 0.370740 0.717525
42.476894 166.854233 0.247209 0.711360
42.476894 166.854233 0.123055 0.703456
42.476894 166.854233 -0.001770 0.729519
42.074154 167.222870 -0.000010 0.416693
41.719521 167.547470 -0.000009 0.445823
41.400585 167.839401 -0.000009 0.567727
42.345634 166.854233 4.355606 0.738521
42.345634 166.854233 4.229817 0.722484
42.345634 166.854233 4.104838 0.728969
42.345634 166.854233 3.980621 0.712932
42.345634 166.854233 3.857116 0.721569
42.345634 166.854233 3.734273 0.700175
42.288124 166.907913 3.597997 0.724010
42.288124 166.907913 3.477401 0.711131
42.288124 166.907928 3.357326 0.723873
42.288124 166.907913 3.237726 0.733333
42.288124 166.907913 3.118558 0.729046
42.288124 166.907928 2.999780 0.722057
42.288124 166.907913 2.881349 0.721202
42.345634 166.854233 2.769933 0.716518
42.345634 166.854233 2.651034 0.715450
42.345634 166.854233 2.532360 0.709895
42.345634 166.854233 2.413868 0.711635
42.345634 166.854233 2.295519 0.708614
42.345634 166.854233 2.177270 0.721569
42.345634 166.854233 2.059083 0.731914
42.345634 166.854233 1.940916 0.738384
42.345634 166.854233 1.822729 0.724941
42.288124 166.907928 1.707057 0.733333
42.288124 166.907913 1.589739 0.720882
42.288124 166.907913 1.472280 0.717906
42.288124 166.907913 1.354640 0.733669
42.288124 166.907913 1.236777 0.741176
42.288128 166.907913 1.118651 0.733333
42.345638 166.854233 0.991429 0.712703
42.345638 166.854233 0.871607 0.705852
42.345634 166.854233 0.751392 0.700435
42.345638 166.854233 0.630740 0.709895
42.345634 166.854233 0.509609 0.722805
42.345638 166.854233 0.387953 0.718944
42.345634 166.854233 0.265726 0.715969
42.345638 166.854233 0.142883 0.698039
42.345634 166.854233 0.019378 0.721431
42.016991 167.161026 -0.000009 0.450431
41.665565 167.489105 -0.000009 0.458930
41.349510 167.784149 -0.000008 0.273777
42.217110 166.854233 4.331203 0.741176
42.217110 166.854233 4.206717 0.733394
42.217110 166.854233 4.083033 0.733791
42.217110 166.854233 3.960103 0.722988
42.217110 166.854233 3.837877 0.721569
42.217110 166.854233 3.716306 0.726543
42.160721 166.907928 3.581442 0.733013
42.160721 166.907913 3.462096 0.733333
42.160721 166.907928 3.343264 0.722164
42.160721 166.907928 3.224903 0.727123
42.160721 166.907928 3.106970 0.719829
42.160721 166.907928 2.989423 0.698039
42.160717 166.907928 2.872218 0.698955
42.217110 166.854233 2.761957 0.711498
42.217110 166.854233 2.644289 0.710536
42.217110 166.854233 2.526845 0.719875
42.217113 166.854233 2.409581 0.710674
42.217110 166.854233 2.292457 0.699733
42.217110 166.854233 2.175434 0.720562
42.217110 166.854233 2.058471 0.730571
42.217110 166.854233 1.941528 0.734874
42.217110 166.854233 1.824566 0.723918
42.160721 166.907928 1.710092 0.733333
42.160721 166.907928 1.593989 0.730297
42.160721 166.907928 1.477747 0.734279
42.160721 166.907913 1.361326 0.733425
42.160721 166.907913 1.244684 0.738598
42.160721 166.907928 1.127782 0.725322
42.217113 166.854233 1.001878 0.727962
42.217113 166.854233 0.883297 0.709102
42.217110 166.854233 0.764327 0.721019
42.217113 166.854233 0.644925 0.711635
42.217113 166.854233 0.525049 0.733150
42.217113 166.854233 0.404653 0.727031
42.217113 166.854233 0.283693 0.698405
42.217113 166.854233 0.162123 0.710170
42.217113 166.854233 0.039897 0.722072
41.959225 167.099762 -0.000009 0.554681
41.611034 167.431259 -0.000009 0.357702
41.297894 167.729401 -0.000009 0.494575
42.091209 166.854233 4.307520 0.737072
42.091209 166.854233 4.184299 0.734096
42.091209 166.854233 4.061872 0.727352
42.091209 166.854233 3.940190 0.724147
42.091209 166.854233 3.819205 0.721569
42.091209 166.854233 3.698870 0.734310
42.035915 166.907928 3.565376 0.719127
42.035915 166.907928 3.447242 0.733333
42.035915 166.907928 3.329618 0.729473
42.035915 166.907928 3.212459 0.733333
42.035915 166.907928 3.095724 0.700343
42.035915 166.907928 2.979371 0.711452
42.035915 166.907928 2.863358 0.713207
42.091209 166.854233 2.754216 0.727916
42.091209 166.854233 2.637744 0.719081
42.091209 166.854233 2.521492 0.709804
42.091209 166.854233 2.405420 0.709804
42.091213 166.854233 2.289486 0.709895
42.091209 166.854233 2.173652 0.727352
42.091209 166.854233 2.057878 0.729473
42.091209 166.854233 1.942123 0.737499
42.091209 166.854233 1.826348 0.722087
42.035915 166.907928 1.713037 0.732830
42.035915 166.907928 1.598114 0.730480
42.035915 166.907928 1.483053 0.733623
42.035915 166.907928 1.367814 0.738994
42.035915 166.907928 1.252357 0.725368
42.035915 166.907928 1.136642 0.713115
42.091213 166.854233 1.012018 0.717479
42.091213 166.854233 0.894641 0.715663
42.091213 166.854233 0.776880 0.719722
42.091213 166.854233 0.658692 0.724147
42.091209 166.854233 0.540033 0.726024
42.091213 166.854233 0.420860 0.729839
42.091209 166.854233 0.301129 0.702266
42.091213 166.854233 0.180794 0.721569
42.091213 166.854233 0.059809 0.721569
41.900860 167.039063 -0.000009 0.539086
41.555943 167.373962 -0.000009 0.447059
41.245743 167.675156 -0.000008 0.278233
41.967831 166.854233 4.284532 0.739498
41.967831 166.854233 4.162538 0.725063
41.967831 166.854233 4.041331 0.734035
41.967831 166.854233 3.920861 0.735790
41.967831 166.854233 3.801082 0.723125
41.967831 166.854233 3.681945 0.720195
41.913612 166.907928 3.549781 0.729656
41.913612 166.907928 3.432824 0.721706
41.913612 166.907928 3.316371 0.731868
41.913612 166.907928 3.200380 0.722988
41.913612 166.907928 3.084808 0.698039
41.913612 166.907928 2.969614 0.698039
41.913612 166.907928 2.854757 0.704112
41.967831 166.854233 2.746702 0.727962
41.967831 166.854233 2.631391 0.719081
41.967831 166.854233 2.516297 0.699229
41.967831 166.854233 2.401381 0.706615
41.967831 166.854233 2.286602 0.698222
41.967831 166.854233 2.171922 0.721569
41.967834 166.854233 2.057301 0.729473
41.967834 166.854233 1.942699 0.739528
41.967831 166.854233 1.828078 0.732845
41.913612 166.907928 1.715896 0.726024
41.913612 166.907928 1.602118 0.722530
41.913612 166.907928 1.488203 0.719127
41.913612 166.907928 1.374112 0.725704
41.913612 166.907928 1.259805 0.715969
41.913612 166.907913 1.145243 0.699138
41.913612 166.907928 1.030386 0.701350
41.967831 166.854233 0.905653 0.722789
41.967831 166.854233 0.789065 0.736736
41.967831 166.854233 0.672054 0.723964
41.967831 166.854233 0.554578 0.733333
41.967834 166.854233 0.436592 0.730846
41.967831 166.854233 0.318053 0.720470
41.967834 166.854233 0.198917 0.716609
41.967834 166.854233 0.079138 0.721996
41.841904 166.978928 -0.000009 0.525200
41.500286 167.317215 -0.000008 0.470939
41.193058 167.621429 -0.000008 0.329015
29.526052 166.854233 4.284534 0.732967
29.526052 166.854233 4.162540 0.733333
29.526052 166.854233 4.041333 0.733333
29.526052 166.854233 3.920863 0.733104
29.526052 166.854233 3.801084 0.733288
29.526054 166.854233 3.681946 0.733196
29.580280 166.907928 3.549781 0.712245
29.580280 166.907928 3.432823 0.721019
29.580280 166.907928 3.316371 0.719585
29.580280 166.907928 3.200380 0.721569
29.580280 166.907928 3.084808 0.729381
29.580280 166.907928 2.969614 0.719966
29.580278 166.907928 2.854756 0.721569
29.526056 166.854233 2.746703 0.736538
29.526056 166.854233 2.631391 0.713756
29.526054 166.854233 2.516297 0.711315
29.526054 166.854233 2.401381 0.717479
29.526056 166.854233 2.286602 0.733883
29.651478 166.978424 2.168456 0.120134
29.651478 166.978424 2.056145 0.112871
29.651478 166.978424 1.943854 0.107912
29.651478 166.978424 1.831544 0.107912
29.651478 166.978424 1.719176 0.117647
29.651478 166.978424 1.606712 0.129412
29.651478 166.978424 1.494112 0.147341
29.580280 166.907928 1.374112 0.722622
29.580280 166.907928 1.259806 0.732006
29.580278 166.907928 1.145244 0.729015
29.580278 166.907928 1.030386 0.715404
29.526058 166.854233 0.905653 0.735744
29.526058 166.854233 0.789065 0.721798
29.526058 166.854233 0.672054 0.723781
29.526058 166.854233 0.554578 0.725612
29.526056 166.854233 0.436592 0.721569
29.526058 166.854233 0.318054 0.728740
29.526056 166.854233 0.198918 0.732235
29.526056 166.854233 0.079138 0.722393
29.652119 166.979065 0.000034 0.342626
29.993723 167.317322 0.000034 0.397101
30.300943 167.621552 0.000033 0.418616
29.402672 166.854233 4.307523 0.725933
29.402672 166.854233 4.184301 0.724559
29.402672 166.854233 4.061874 0.725338
29.402672 166.854233 3.940192 0.729381
29.402672 166.854233 3.819207 0.731685
29.402672 166.854233 3.698872 0.727749
29.457975 166.907928 3.565375 0.702358
29.457975 166.907928 3.447242 0.720287
29.457975 166.907928 3.329617 0.702632
29.457975 166.907928 3.212459 0.711635
29.457977 166.907928 3.095724 0.730526
29.457975 166.907928 2.979371 0.724743
29.457975 166.907928 2.863357 0.730205
29.402676 166.854233 2.754216 0.737011
29.402676 166.854233 2.637744 0.722972
29.402676 166.854233 2.521492 0.710353
29.402676 166.854233 2.405420 0.712291
29.402676 166.854233 2.289486 0.727779
29.530586 166.978424 2.170151 0.114977
29.530586 166.978424 2.056710 0.101045
29.530586 166.978424 1.943289 0.094713
29.530586 166.978424 1.829849 0.097017
29.530586 166.978424 1.716350 0.119570
29.530586 166.978424 1.602754 0.120729
29.530586 166.978424 1.489022 0.162600
29.457975 166.907928 1.367814 0.734890
29.457975 166.907928 1.252357 0.729702
29.457975 166.907928 1.136643 0.731731
29.402676 166.854233 1.012018 0.737163
29.402676 166.854233 0.894641 0.732906
29.402678 166.854233 0.776880 0.721569
29.402676 166.854233 0.658691 0.729564
29.402678 166.854233 0.540033 0.733333
29.402678 166.854233 0.420860 0.728969
29.402676 166.854233 0.301129 0.728786
29.402678 166.854233 0.180794 0.725658
29.402678 166.854233 0.059809 0.726345
29.593159 167.039185 0.000034 0.415534
29.938070 167.374084 0.000033 0.373068
30.248264 167.675278 0.000034 0.285863
29.276772 166.854233 4.331205 0.732738
29.276772 166.854233 4.206719 0.721614
29.276772 166.854233 4.083035 0.722713
29.276772 166.854233 3.960105 0.730755
29.276772 166.854233 3.837879 0.717342
29.276772 166.854233 3.716308 0.738888
29.333172 166.907928 3.581441 0.720470
29.333172 166.907928 3.462095 0.705119
29.333172 166.907928 3.343263 0.705119
29.333172 166.907928 3.224903 0.721569
29.333172 166.907928 3.106970 0.714260
29.333172 166.907928 2.989422 0.726986
29.333172 166.907928 2.872218 0.731624
29.276775 166.854233 2.761957 0.721569
29.276775 166.854233 2.644290 0.721569
29.276775 166.854233 2.526845 0.709804
29.276773 166.854233 2.409581 0.709804
29.276775 166.854233 2.292457 0.709804
29.407223 166.978424 2.171897 0.101717
29.407223 166.978424 2.057292 0.086275
29.407223 166.978424 1.942707 0.088136
29.407223 166.978424 1.828103 0.094118
29.407223 166.978424 1.713439 0.122744
29.407223 166.978424 1.598677 0.094118
29.407223 166.978424 1.483777 0.155154
29.333172 166.907928 1.361326 0.736553
29.333172 166.907928 1.244684 0.735882
29.333172 166.907928 1.127782 0.737392
29.276775 166.854233 1.001878 0.698039
29.276775 166.854233 0.883296 0.710903
29.276775 166.854233 0.764327 0.721569
29.276777 166.854233 0.644925 0.727550
29.276775 166.854233 0.525049 0.733333
29.276775 166.854233 0.404653 0.727871
29.276777 166.854233 0.283693 0.733150
29.276775 166.854233 0.162123 0.721569
29.276777 166.854233 0.039897 0.733333
29.534798 167.099884 0.000034 0.482399
29.882977 167.431381 0.000033 0.305318
30.196112 167.729507 0.000033 0.428656
29.148247 166.854233 4.355609 0.731075
29.148247 166.854233 4.229820 0.721569
29.148247 166.854233 4.104841 0.724376
29.148247 166.854233 3.980624 0.725994
29.148247 166.854233 3.857118 0.725612
29.148247 166.854233 3.734275 0.733059
29.205769 166.907928 3.597996 0.698405
29.205769 166.907928 3.477400 0.698589
29.205769 166.907928 3.357325 0.698497
29.205769 166.907928 3.237725 0.703548
29.205769 166.907928 3.118557 0.730205
29.205769 166.907928 2.999780 0.721752
29.205769 166.907928 2.881349 0.712062
29.148251 166.854233 2.769933 0.721981
29.148251 166.854233 2.651035 0.725246
29.148251 166.854233 2.532360 0.730541
29.148251 166.854233 2.413868 0.717067
29.148251 166.854233 2.295519 0.725246
29.281290 166.978424 2.173697 0.104829
29.281290 166.978424 2.057892 0.094667
29.281290 166.978424 1.942108 0.096742
29.281290 166.978424 1.826303 0.104921
29.281288 166.978424 1.710439 0.111254
29.281290 166.978424 1.594476 0.094118
29.281288 166.978424 1.478373 0.207279
29.205769 166.907928 1.354640 0.717296
29.205769 166.907928 1.236777 0.730800
29.205767 166.907928 1.118651 0.737408
29.148252 166.854233 0.991429 0.681956
29.148251 166.854233 0.871606 0.714305
29.148251 166.854233 0.751391 0.720012
29.148252 166.854233 0.630740 0.719265
29.148252 166.854233 0.509609 0.721569
29.148252 166.854233 0.387953 0.721569
29.148254 166.854233 0.265727 0.721569
29.148252 166.854233 0.142884 0.727962
29.148252 166.854233 0.019378 0.728145
29.477032 167.161163 0.000033 0.336187
29.828451 167.489227 0.000033 0.451804
30.144497 167.784256 0.000033 0.492592
29.016991 166.854233 4.380760 0.722759
29.016993 166.854233 4.253627 0.709804
29.016991 166.854233 4.127315 0.710399
29.016993 166.854233 4.001771 0.728511
29.016991 166.854233 3.876946 0.726436
29.016991 166.854233 3.752792 0.727825
29.016991 166.854233 3.629261 0.716701
29.075657 166.907928 3.493175 0.708095
29.075657 166.907928 3.371817 0.711879
29.075655 166.907928 3.250941 0.729473
29.075657 166.907928 3.130500 0.711681
29.075657 166.907928 3.010455 0.719265
29.075657 166.907928 2.890759 0.698039
29.016994 166.854233 2.778154 0.727733
29.016994 166.854233 2.657986 0.736751
29.016994 166.854233 2.538044 0.729610
29.016994 166.854233 2.418287 0.717525
29.016994 166.854233 2.298674 0.729610
29.152679 166.978424 2.175551 0.124117
29.152679 166.978424 2.058510 0.106065
29.152679 166.978424 1.941489 0.106065
29.152679 166.978424 1.824449 0.107073
29.152679 166.978424 1.707347 0.117647
29.152679 166.978424 1.590146 0.094118
29.152679 166.978424 1.472803 0.230167
29.075655 166.907928 1.347749 0.721569
29.075655 166.907928 1.228628 0.721706
29.075657 166.907928 1.109241 0.722942
29.016996 166.854233 0.980661 0.706493
29.016996 166.854233 0.859559 0.731304
29.016994 166.854233 0.738060 0.733333
29.016996 166.854233 0.616120 0.712016
29.016996 166.854233 0.493695 0.709804
29.016996 166.854233 0.370740 0.709804
29.016996 166.854233 0.247209 0.709804
29.016996 166.854233 0.123055 0.721569
29.016998 166.854233 -0.001770 0.725322
29.419870 167.222992 0.000033 0.533394
29.774494 167.547592 0.000033 0.430472
30.093420 167.839508 0.000033 0.338674
28.882889 166.854233 4.406689 0.732464
28.882889 166.854233 4.278172 0.731121
28.882889 166.854233 4.150484 0.719448
28.882887 166.854233 4.023573 0.733043
28.882889 166.854233 3.897389 0.733364
28.882889 166.854233 3.771882 0.716060
28.882889 166.854233 3.647005 0.710399
28.942722 166.907928 3.509437 0.716793
28.942722 166.907928 3.386758 0.724010
28.942722 166.907928 3.264565 0.732097
28.942722 166.907928 3.142813 0.721798
28.942724 166.907928 3.021459 0.698039
28.942722 166.907928 2.900460 0.714672
28.882893 166.854233 2.786629 0.719448
28.882893 166.854233 2.665152 0.730037
28.882893 166.854233 2.543904 0.721569
28.882893 166.854233 2.422843 0.724468
28.882895 166.854233 2.301927 0.732830
29.021278 166.978424 2.177463 0.130175
29.021280 166.978424 2.059148 0.123156
29.021280 166.978424 1.940852 0.129000
29.021278 166.978424 1.822537 0.117647
29.021282 166.978424 1.704160 0.117647
29.021282 166.978424 1.585682 0.094118
29.021282 166.978424 1.467062 0.253056
28.942722 166.907928 1.340646 0.711543
28.942722 166.907928 1.220227 0.720928
28.942722 166.907928 1.099540 0.716152
28.882895 166.854233 0.969559 0.726162
28.882895 166.854233 0.847138 0.733333
28.882895 166.854233 0.724316 0.733333
28.882895 166.854233 0.601049 0.709804
28.882895 166.854233 0.477291 0.709804
28.882896 166.854233 0.352997 0.709804
28.882895 166.854233 0.228120 0.709804
28.882895 166.854233 0.102614 0.724971
28.962961 166.926086 0.000033 0.301991
29.363317 167.285385 0.000033 0.384665
29.721111 167.606491 0.000033 0.425025
30.042889 167.895264 0.000033 0.489601
28.745811 166.854218 4.433428 0.713436
28.745819 166.854233 4.303481 0.739635
28.745819 166.854233 4.174374 0.739254
28.745819 166.854218 4.046053 0.736584
28.745819 166.854233 3.918468 0.739925
28.745819 166.854233 3.791566 0.720836
28.745819 166.854233 3.665302 0.727916
28.806849 166.907928 3.526206 0.728435
28.806849 166.907928 3.402164 0.721614
28.806849 166.907928 3.278613 0.713390
28.806849 166.907928 3.155509 0.723690
28.806849 166.907928 3.032807 0.698222
28.806847 166.907928 2.910464 0.710994
28.745823 166.854233 2.795368 0.719127
28.745823 166.854233 2.672541 0.727214
28.745825 166.854233 2.549946 0.730388
28.745823 166.854233 2.427540 0.721706
28.745825 166.854233 2.305281 0.737408
28.886974 166.978424 2.179435 0.160739
28.886974 166.978424 2.059805 0.149020
28.886974 166.978424 1.940195 0.137301
28.886974 166.978424 1.820565 0.137255
28.886974 166.978424 1.700874 0.137255
28.886974 166.978424 1.581079 0.129412
28.806849 166.907928 1.454847 0.700893
28.806847 166.907928 1.333321 0.728420
28.806849 166.907928 1.211565 0.725338
28.806847 166.907928 1.089536 0.734218
28.745827 166.854233 0.958111 0.719127
28.745827 166.854233 0.834331 0.717800
28.745827 166.854233 0.710144 0.717800
28.745825 166.854233 0.585507 0.709804
28.745827 166.854233 0.460374 0.709804
28.745827 166.854233 0.334699 0.716243
28.745827 166.854233 0.208435 0.725338
28.745827 166.854233 0.081535 0.736675
28.903519 166.992981 0.000033 0.393652
29.307383 167.348328 0.000033 0.432288
29.668310 167.665909 0.000033 0.453544
29.992908 167.951508 0.000033 0.460243
28.605648 166.854218 4.461006 0.711315
28.605648 166.854218 4.329589 0.731456
28.605656 166.854233 4.199017 0.740597
28.605656 166.854233 4.069241 0.737072
28.605658 166.854233 3.940209 0.729198
28.605658 166.854233 3.811869 0.727962
28.605656 166.854218 3.684175 0.725246
28.667908 166.907928 3.543502 0.733852
28.667908 166.907928 3.418054 0.722820
28.667908 166.907928 3.293103 0.728054
28.667908 166.907928 3.168604 0.728649
28.667908 166.907928 3.044512 0.714763
28.667908 166.907928 2.920782 0.698039
28.605661 166.854233 2.804382 0.721569
28.605661 166.854233 2.680163 0.727855
28.605661 166.854233 2.556179 0.736706
28.605661 166.854233 2.432386 0.728191
28.605659 166.854233 2.308741 0.736492
28.749638 166.978424 2.181468 0.150576
28.749638 166.978424 2.060483 0.133043
28.749638 166.978424 1.939517 0.133043
28.749638 166.978424 1.818532 0.133043
28.749638 166.978424 1.697484 0.115480
28.749640 166.978424 1.576332 0.125963
28.667908 166.907928 1.448669 0.702358
28.667908 166.907928 1.325765 0.713481
28.667908 166.907928 1.202629 0.729992
28.667908 166.907928 1.079218 0.723568
28.605661 166.854233 0.946304 0.715785
28.605663 166.854233 0.821120 0.709804
28.605663 166.854233 0.695526 0.709804
28.605663 166.854233 0.569477 0.709804
28.605663 166.854233 0.442926 0.709804
28.605663 166.854233 0.315827 0.723964
28.605663 166.854233 0.188132 0.734371
28.605665 166.854233 0.059793 0.737804
28.844730 167.060455 0.000033 0.395346
29.252068 167.411819 0.000033 0.476081
29.616096 167.725830 0.000032 0.350835
29.943481 168.008240 0.000032 0.528649
28.462261 166.854218 4.489459 0.713024
28.462259 166.854218 4.356522 0.723033
28.462267 166.854233 4.224440 0.730114
28.462267 166.854233 4.093164 0.736217
28.462267 166.854233 3.962640 0.739223
28.462269 166.854233 3.832817 0.736858
28.462265 166.854233 3.703646 0.730114
28.525768 166.907928 3.561347 0.723690
28.525768 166.907928 3.434449 0.728283
28.525768 166.907928 3.308053 0.737804
28.525766 166.907928 3.182115 0.736797
28.525768 166.907928 3.056588 0.720333
28.525766 166.907928 2.931428 0.728191
28.462271 166.854233 2.813682 0.730892
28.462273 166.854233 2.688027 0.731121
28.462273 166.854233 2.562609 0.731167
28.462273 166.854233 2.437385 0.725719
28.462273 166.854233 2.312310 0.735164
28.609138 166.978424 2.183566 0.118593
28.609138 166.978424 2.061182 0.195346
28.609138 166.978424 1.938818 0.094118
28.609138 166.978424 1.816434 0.094118
28.609138 166.978424 1.693986 0.094118
28.609138 166.978424 1.571434 0.094118
28.525768 166.907928 1.442295 0.725338
28.525766 166.907928 1.317970 0.723354
28.525766 166.907928 1.193410 0.710903
28.525766 166.907928 1.068572 0.699413
28.462273 166.854233 0.934122 0.711452
28.462273 166.854233 0.807491 0.709804
28.462273 166.854233 0.680445 0.709804
28.462275 166.854233 0.552938 0.709804
28.462273 166.854233 0.424924 0.709804
28.462273 166.854233 0.296355 0.728099
28.462276 166.854233 0.167185 0.726940
28.462275 166.854233 0.037362 0.721340
28.786613 167.128510 0.000033 0.404105
29.197378 167.475861 0.000033 0.444877
29.564472 167.786285 0.000032 0.360143
