# This PCD file was generated using the MATLAB® pcwrite function
# from Computer Vision System Toolbox®.
# .PCD v.7 - Point Cloud Data file format
VERSION .7
FIELDS x y z intensity
SIZE 4 4 4 4
TYPE F F F F
COUNT 1 1 1 1
WIDTH 1221
HEIGHT 1
VIEWPOINT 0 0 0 1 0 0 0
POINTS 1221
DATA ascii
77.614662 185.070221 1.450152 0.410315
77.614670 185.070221 1.327578 0.420218
77.614670 185.070221 1.204773 0.422553
77.614662 185.070221 1.081694 0.425162
77.614670 185.070221 0.958297 0.430274
77.614670 185.070221 0.834538 0.396353
77.614670 185.070221 0.710373 0.396124
77.614670 185.070221 0.585758 0.419181
77.614670 185.070221 0.460648 0.396353
77.614670 185.070221 0.334995 0.442893
77.614670 185.070221 0.208753 0.396490
77.614670 185.070221 0.081875 0.438392
77.441055 184.955444 -0.000025 0.457313
76.992294 184.658768 -0.000025 0.310369
76.591248 184.393646 -0.000024 0.469062
76.230568 184.155197 -0.000024 0.458259
77.614662 184.961197 4.417418 0.431724
77.614662 184.961197 4.288328 0.441184
77.614670 184.961197 4.160070 0.408988
77.656967 184.988571 4.043649 0.493935
77.682198 185.004898 3.922395 0.314443
77.682198 185.004898 3.795234 0.314229
77.682198 185.004898 3.668711 0.314229
77.682198 185.004898 3.542779 0.314229
77.682198 185.004898 3.417390 0.314229
77.682198 185.004898 3.292497 0.314015
77.614662 184.961197 3.158002 0.404028
77.614670 184.961197 3.035035 0.379324
77.614670 184.961197 2.912428 0.434806
77.614670 184.961197 2.790136 0.402884
77.614670 184.961197 2.668117 0.392721
77.614662 184.961197 2.546329 0.423102
77.614670 184.961197 2.424728 0.429633
77.614670 184.961197 2.303273 0.448066
77.614662 184.961197 2.181922 0.439094
77.614670 184.961197 2.060634 0.431098
77.614670 184.961197 1.939366 0.408988
77.614662 184.961197 1.818078 0.404807
77.614670 184.961197 1.696727 0.421485
77.614670 184.961197 1.575272 0.427970
77.614670 184.961197 1.453671 0.394705
77.614670 184.961197 1.331882 0.403708
77.614670 184.961197 1.209863 0.444831
77.614670 184.961197 1.087572 0.421363
77.614670 184.961197 0.964964 0.395987
77.614670 184.961197 0.841998 0.416968
77.614670 184.961197 0.718628 0.438361
77.614670 184.961197 0.594811 0.408179
77.614670 184.961197 0.470501 0.412390
77.614670 184.961197 0.345652 0.419333
77.614670 184.961197 0.220219 0.407889
77.614670 184.961197 0.094153 0.439582
77.490044 184.880554 -0.000024 0.520729
77.038391 184.588303 -0.000024 0.379980
76.634758 184.327118 -0.000024 0.492775
76.271759 184.092224 -0.000024 0.364218
77.614662 184.853546 4.402273 0.431510
77.614662 184.853546 4.273992 0.415396
77.614662 184.853546 4.146537 0.450813
77.694679 184.904221 4.040638 0.558953
77.694679 184.904221 3.913390 0.678431
77.694679 184.904221 3.786824 0.678431
77.694672 184.904221 3.660894 0.678431
77.694672 184.904221 3.535552 0.668315
77.694672 184.904221 3.410750 0.678431
77.694672 184.904205 3.286442 0.678431
77.614662 184.853546 3.150747 0.423804
77.614662 184.853546 3.028551 0.418936
77.614662 184.853546 2.906712 0.412131
77.614662 184.853546 2.785186 0.420157
77.614670 184.853546 2.663932 0.389151
77.614670 184.853546 2.542906 0.439094
77.614662 184.853546 2.422067 0.419364
77.614662 184.853546 2.301373 0.400092
77.614670 184.853546 2.180782 0.429664
77.614662 184.853546 2.060254 0.400122
77.614662 184.853546 1.939746 0.382635
77.614670 184.853546 1.819217 0.393851
77.614662 184.853546 1.698627 0.369787
77.614662 184.853546 1.577933 0.405264
77.614670 184.853546 1.457094 0.399756
77.614670 184.853546 1.336068 0.376471
77.614662 184.853546 1.214814 0.415930
77.614670 184.853546 1.093288 0.412222
77.614670 184.853546 0.971449 0.400000
77.614662 184.853546 0.849253 0.379507
77.614670 184.853546 0.726656 0.364706
77.614670 184.853546 0.603614 0.395346
77.614670 184.853546 0.480083 0.357382
77.614670 184.853546 0.356017 0.450980
77.614670 184.853546 0.231369 0.379232
77.614670 184.853546 0.106093 0.407843
77.538284 184.805176 -0.000024 0.457832
77.083794 184.517380 -0.000024 0.407492
76.677612 184.260162 -0.000024 0.411002
76.312325 184.028854 -0.000024 0.337652
77.614670 184.747223 4.387545 0.437201
77.614662 184.747223 4.260051 0.384237
77.614662 184.747223 4.133378 0.394156
77.694679 184.796799 4.028128 0.678431
77.694672 184.796799 3.901659 0.678431
77.694679 184.796799 3.775870 0.678431
77.694679 184.796799 3.650712 0.678431
77.694679 184.796799 3.526138 0.656092
77.694679 184.796799 3.402102 0.678431
77.614670 184.747223 3.265537 0.390478
77.614662 184.747223 3.143692 0.405615
77.614662 184.747223 3.022245 0.419196
77.614670 184.747223 2.901153 0.410193
77.614670 184.747223 2.780373 0.397116
77.614670 184.747223 2.659862 0.405264
77.614662 184.747223 2.539578 0.361669
77.614670 184.747223 2.419480 0.396445
77.614670 184.747223 2.299525 0.412848
77.614670 184.747223 2.179674 0.428763
77.614670 184.747223 2.059885 0.418738
77.614670 184.747223 1.940115 0.408133
77.614670 184.747223 1.820326 0.415198
77.614670 184.747223 1.700474 0.398978
77.614670 184.747223 1.580520 0.397635
77.614670 184.747223 1.460422 0.389456
77.614670 184.747223 1.340138 0.392782
77.614670 184.747223 1.219627 0.408576
77.614670 184.747223 1.098847 0.378149
77.614670 184.747223 0.977755 0.400763
77.614670 184.747223 0.856308 0.406699
77.614670 184.747223 0.734462 0.400870
77.614670 184.747223 0.612175 0.433967
77.614670 184.747223 0.489401 0.405554
77.614670 184.747223 0.366096 0.445151
77.614670 184.747223 0.242212 0.390173
77.614670 184.747223 0.117704 0.426184
77.585793 184.729340 -0.000025 0.493446
77.128494 184.446014 -0.000024 0.484474
76.719810 184.192795 -0.000024 0.401434
76.352264 183.965073 -0.000024 0.429419
77.614662 184.642197 4.373224 0.423926
77.614670 184.642197 4.246494 0.436561
77.614662 184.642197 4.120581 0.404578
77.694679 184.690689 4.015963 0.678431
77.694679 184.690689 3.890253 0.678431
77.694679 184.690689 3.765218 0.678431
77.694679 184.690689 3.640810 0.678431
77.694679 184.690689 3.516984 0.678431
77.694679 184.690689 3.393692 0.678431
77.614662 184.642197 3.257946 0.389883
77.614662 184.642197 3.136832 0.390051
77.614662 184.642197 3.016114 0.391302
77.614670 184.642197 2.895748 0.366445
77.614670 184.642197 2.775692 0.390784
77.614670 184.642197 2.655903 0.407752
77.614662 184.642197 2.536341 0.409491
77.614662 184.642197 2.416963 0.396414
77.614662 184.642197 2.297729 0.395254
77.614662 184.642197 2.178596 0.405859
77.614662 184.642197 2.059525 0.416663
77.614662 184.642197 1.940475 0.412161
77.614670 184.642197 1.821403 0.378775
77.614662 184.642197 1.702271 0.418555
77.614670 184.642197 1.583036 0.388846
77.614662 184.642197 1.463659 0.410269
77.614670 184.642197 1.344096 0.392218
77.614670 184.642197 1.224308 0.417212
77.614670 184.642197 1.104252 0.418967
77.614670 184.642197 0.983886 0.447974
77.614670 184.642197 0.863168 0.404440
77.614670 184.642197 0.742053 0.406973
77.614670 184.642197 0.620499 0.432059
77.614670 184.642197 0.498462 0.433600
77.614670 184.642197 0.375896 0.397910
77.614670 184.642197 0.252756 0.398428
77.614670 184.642197 0.128994 0.403891
77.614670 184.642197 0.004564 0.435828
77.172493 184.374207 -0.000024 0.486351
76.761345 184.125031 -0.000024 0.511620
76.391579 183.900925 -0.000024 0.524147
77.614662 184.538406 4.359300 0.411017
77.614662 184.538406 4.233314 0.398520
77.614662 184.538406 4.108140 0.395926
77.694679 184.585831 4.004135 0.678431
77.694679 184.585831 3.879163 0.678431
77.694679 184.585831 3.754861 0.678431
77.694679 184.585831 3.631184 0.678431
77.694679 184.585831 3.508084 0.678431
77.694672 184.585831 3.385514 0.678431
77.614670 184.538406 3.250566 0.414435
77.614662 184.538406 3.130162 0.414374
77.614670 184.538406 3.010152 0.369863
77.614670 184.538406 2.890492 0.397604
77.614662 184.538406 2.771140 0.379797
77.614662 184.538406 2.652055 0.402014
77.614662 184.538406 2.533194 0.405921
77.614670 184.538406 2.414517 0.408850
77.614662 184.538406 2.295982 0.394217
77.614670 184.538406 2.177548 0.407797
77.614662 184.538406 2.059176 0.396078
77.614662 184.538406 1.940824 0.410697
77.614670 184.538406 1.822451 0.396353
77.614662 184.538406 1.704018 0.396994
77.614670 184.538406 1.585483 0.402762
77.614662 184.538406 1.466806 0.396841
77.614670 184.538406 1.347944 0.449271
77.614662 184.538406 1.228859 0.433524
77.614670 184.538406 1.109508 0.431373
77.614670 184.538406 0.989848 0.383276
77.614670 184.538406 0.869837 0.407065
77.614670 184.538406 0.749434 0.426474
77.614670 184.538406 0.628593 0.406088
77.614670 184.538406 0.507272 0.380682
77.614670 184.538406 0.385425 0.399939
77.614670 184.538406 0.263007 0.392432
77.614670 184.538406 0.139971 0.375174
77.614670 184.538406 0.016272 0.436606
77.215782 184.301971 -0.000024 0.385473
76.802216 184.056839 -0.000024 0.420768
76.430267 183.836380 -0.000023 0.515877
77.614662 184.435822 4.345763 0.416205
77.614662 184.435822 4.220500 0.399939
77.614662 184.435822 4.096044 0.419608
77.694679 184.482178 3.992636 0.678431
77.694679 184.482178 3.868381 0.678431
77.694672 184.482178 3.744792 0.678431
77.694672 184.482178 3.621824 0.678431
77.694672 184.482178 3.499430 0.678431
77.694679 184.482178 3.377565 0.678431
77.614670 184.435822 3.243391 0.431373
77.614662 184.435822 3.123678 0.394766
77.614670 184.435822 3.004356 0.392096
77.614670 184.435822 2.885383 0.399756
77.614670 184.435822 2.766716 0.395422
77.614670 184.435822 2.648314 0.408026
77.614670 184.435822 2.530135 0.398291
77.614670 184.435822 2.412139 0.413687
77.614670 184.435822 2.294284 0.399619
77.614670 184.435822 2.176530 0.412985
77.614670 184.435822 2.058836 0.418830
77.614670 184.435822 1.941163 0.432959
77.614670 184.435822 1.823470 0.378698
77.614670 184.435822 1.705716 0.406561
77.614670 184.435822 1.587861 0.389105
77.614670 184.435822 1.469865 0.408026
77.614670 184.435822 1.351686 0.425361
77.614670 184.435822 1.233284 0.417273
77.614670 184.435822 1.114617 0.448905
77.614670 184.435822 0.995644 0.407233
77.614670 184.435822 0.876322 0.405493
77.614670 184.435822 0.756609 0.405921
77.614670 184.435822 0.636462 0.393805
77.614670 184.435822 0.515837 0.391516
77.614670 184.435822 0.394689 0.402792
77.614670 184.435822 0.272973 0.408438
77.614670 184.435822 0.150644 0.420203
77.614670 184.435822 0.027654 0.423056
77.258362 184.229324 -0.000024 0.523003
76.842407 183.988266 -0.000023 0.311971
76.468315 183.771469 -0.000023 0.422721
77.614662 184.334381 4.332604 0.412665
77.614662 184.334381 4.208044 0.408621
77.614662 184.334381 4.084285 0.371328
77.694679 184.379715 3.981458 0.678431
77.694679 184.379715 3.857899 0.678431
77.694679 184.379715 3.735005 0.678431
77.694679 184.379715 3.612727 0.678431
77.694672 184.379715 3.491019 0.678431
77.694679 184.379715 3.369837 0.678431
77.614670 184.334381 3.236416 0.397742
77.614662 184.334381 3.117374 0.413825
77.614662 184.334381 2.998722 0.406607
77.614670 184.334381 2.880416 0.354040
77.614670 184.334381 2.762415 0.366369
77.614670 184.334381 2.644677 0.397635
77.614662 184.334381 2.527161 0.405081
77.614662 184.334381 2.409827 0.396902
77.614670 184.334381 2.292633 0.398962
77.614670 184.334381 2.175539 0.425589
77.614670 184.334381 2.058506 0.397406
77.614670 184.334381 1.941493 0.434180
77.614670 184.334381 1.824460 0.381018
77.614670 184.334381 1.707367 0.407431
77.614670 184.334381 1.590173 0.416556
77.614670 184.334381 1.472839 0.408118
77.614670 184.334381 1.355323 0.412940
77.614670 184.334381 1.237585 0.421073
77.614670 184.334381 1.119583 0.404852
77.614670 184.334381 1.001278 0.408515
77.614662 184.334381 0.882626 0.390539
77.614670 184.334381 0.763584 0.435416
77.614670 184.334381 0.644111 0.424903
77.614670 184.334381 0.524162 0.388663
77.614670 184.334381 0.403694 0.404349
77.614670 184.334381 0.282661 0.407843
77.614670 184.334381 0.161018 0.390784
77.614670 184.334381 0.038718 0.450599
77.300232 184.156265 -0.000024 0.395850
76.881927 183.919296 -0.000024 0.554177
76.505722 183.706177 -0.000023 0.370642
77.614662 184.234070 4.319815 0.383459
77.614662 184.234070 4.195937 0.392279
77.614662 184.234070 4.072858 0.378592
77.694679 184.278366 3.970593 0.678431
77.694679 184.278366 3.847712 0.678431
77.694672 184.278366 3.725492 0.678431
77.694679 184.278366 3.603884 0.678431
77.694672 184.278366 3.482844 0.678431
77.694672 184.278366 3.362326 0.678431
77.614670 184.234085 3.229636 0.390723
77.614662 184.234070 3.111248 0.407843
77.614662 184.234070 2.993246 0.407156
77.614662 184.234070 2.875589 0.386343
77.614670 184.234085 2.758235 0.392401
77.614670 184.234085 2.641142 0.407477
77.614670 184.234085 2.524271 0.360204
77.614662 184.234070 2.407580 0.423056
77.614670 184.234085 2.291028 0.396078
77.614662 184.234085 2.174577 0.414038
77.614662 184.234085 2.058186 0.447013
77.614662 184.234085 1.941814 0.407843
77.614662 184.234085 1.825423 0.428977
77.614670 184.234085 1.708971 0.412345
77.614662 184.234070 1.592420 0.395773
77.614670 184.234085 1.475729 0.387396
77.614670 184.234085 1.358858 0.397543
77.614670 184.234085 1.241765 0.382147
77.614670 184.234070 1.124411 0.401968
77.614670 184.234085 1.006754 0.397650
77.614670 184.234085 0.888752 0.413626
77.614670 184.234085 0.770363 0.434653
77.614670 184.234085 0.651545 0.405493
77.614670 184.234085 0.532254 0.397498
77.614670 184.234085 0.412447 0.405859
77.614670 184.234085 0.292077 0.393652
77.614670 184.234085 0.171101 0.378271
77.614670 184.234085 0.049472 0.411795
77.341377 184.082794 -0.000023 0.341131
76.920761 183.849930 -0.000023 0.445167
76.542488 183.640518 -0.000023 0.437919
77.614662 184.134857 4.307385 0.386450
77.614662 184.134857 4.184172 0.413626
77.614662 184.134857 4.061751 0.408804
77.694679 184.178131 3.960035 0.678431
77.694679 184.178131 3.837813 0.678431
77.694679 184.178131 3.716247 0.678431
77.694679 184.178131 3.595291 0.678431
77.694672 184.178131 3.474899 0.678431
77.694672 184.178131 3.355027 0.678431
77.614662 184.134857 3.223048 0.409613
77.614670 184.134857 3.105294 0.392859
77.614670 184.134857 2.987924 0.406516
77.614662 184.134857 2.870898 0.437903
77.614670 184.134857 2.754172 0.402152
77.614670 184.134857 2.637707 0.427695
77.614670 184.134857 2.521462 0.381521
77.614670 184.134857 2.405396 0.395773
77.614662 184.134857 2.289469 0.442313
77.614662 184.134857 2.173642 0.398901
77.614662 184.134857 2.057874 0.421317
77.614662 184.134857 1.942126 0.415015
77.614670 184.134857 1.826358 0.400763
77.614670 184.134857 1.710531 0.389456
77.614670 184.134857 1.594604 0.398199
77.614670 184.134857 1.478538 0.405631
77.614670 184.134857 1.362293 0.400031
77.614670 184.134857 1.245828 0.418418
77.614670 184.134857 1.129102 0.430045
77.614670 184.134857 1.012075 0.402197
77.614670 184.134857 0.894706 0.443320
77.614670 184.134857 0.776952 0.405219
77.614670 184.134857 0.658770 0.388602
77.614670 184.134857 0.540118 0.396078
77.614670 184.134857 0.420952 0.415290
77.614670 184.134857 0.301228 0.410925
77.614670 184.134857 0.180900 0.430823
77.614670 184.134857 0.059922 0.383948
77.381798 184.008911 -0.000023 0.427924
76.958923 183.780197 -0.000023 0.357183
76.578606 183.574509 -0.000022 0.516701
77.614662 184.036682 4.295310 0.425986
77.614662 184.036682 4.172740 0.406882
77.614662 184.036682 4.050961 0.436027
77.636368 184.048141 3.935309 0.491920
77.636375 184.048141 3.814629 0.485756
77.636368 184.048141 3.694596 0.501747
77.636375 184.048141 3.575167 0.490822
77.636375 184.048141 3.456294 0.495811
77.636375 184.048141 3.337934 0.482353
77.614670 184.036682 3.216647 0.403571
77.614662 184.036682 3.099509 0.398947
77.614662 184.036682 2.982754 0.405768
77.614670 184.036682 2.866340 0.391043
77.614662 184.036682 2.750225 0.402014
77.614670 184.036682 2.634370 0.397223
77.614670 184.036682 2.518733 0.396078
77.614670 184.036682 2.403275 0.402762
77.614662 184.036682 2.287954 0.392706
77.614670 184.036682 2.172733 0.398703
77.614670 184.036682 2.057571 0.431373
77.614670 184.036682 1.942429 0.450523
77.614670 184.036682 1.827267 0.388464
77.614662 184.036682 1.712046 0.388113
77.614670 184.036682 1.596726 0.422095
77.614670 184.036682 1.481267 0.404990
77.614670 184.036682 1.365630 0.401724
77.614670 184.036682 1.249775 0.410010
77.614670 184.036682 1.133660 0.422919
77.614670 184.036682 1.017246 0.430457
77.614670 184.036682 0.900491 0.417121
77.614670 184.036682 0.783353 0.398245
77.614670 184.036682 0.665790 0.411765
77.614670 184.036682 0.547759 0.386740
77.614670 184.036682 0.429217 0.427680
77.614670 184.036682 0.310119 0.398428
77.614670 184.036682 0.190421 0.366262
77.614670 184.036682 0.070076 0.354116
77.421501 183.934647 -0.000023 0.427970
76.996391 183.710098 -0.000023 0.594430
76.614075 183.508148 -0.000022 0.409552
77.614670 183.939514 4.283577 0.449149
77.614670 183.939514 4.161635 0.395132
77.626770 183.945770 4.043654 0.482353
77.694679 183.980789 3.939811 0.678431
77.694679 183.980789 3.818850 0.678431
77.694679 183.980789 3.698538 0.678431
77.694679 183.980774 3.578830 0.678431
77.694672 183.980774 3.459681 0.678431
77.694672 183.980774 3.341045 0.678431
77.614670 183.939514 3.210428 0.390570
77.614670 183.939514 3.093889 0.405158
77.614670 183.939514 2.977731 0.400397
77.614670 183.939514 2.861912 0.433890
77.614670 183.939514 2.746390 0.406744
77.614662 183.939514 2.631127 0.410056
77.614670 183.939514 2.516081 0.394049
77.614670 183.939514 2.401213 0.404349
77.614670 183.939514 2.286482 0.410559
77.614670 183.939514 2.171850 0.410056
77.614670 183.939514 2.057277 0.394293
77.614670 183.939514 1.942723 0.400366
77.614670 183.939514 1.828150 0.357488
77.614670 183.939514 1.713517 0.400305
77.614670 183.939514 1.598787 0.370764
77.614670 183.939514 1.483918 0.408484
77.614670 183.939514 1.368873 0.398428
77.614670 183.939514 1.253609 0.406577
77.614670 183.939514 1.138088 0.410574
77.614670 183.939514 1.022269 0.419333
77.614670 183.939514 0.906110 0.395911
77.614670 183.939514 0.789571 0.422309
77.614670 183.939514 0.672609 0.399390
77.614670 183.939514 0.555182 0.410376
77.614670 183.939514 0.437245 0.421439
77.614670 183.939514 0.318757 0.397543
77.614670 183.939514 0.199670 0.362722
77.614670 183.939514 0.079941 0.354223
77.460464 183.859985 -0.000023 0.545373
77.033173 183.639633 -0.000023 0.422919
76.648895 183.441452 -0.000022 0.489677
77.614670 183.843338 4.272182 0.406622
77.614662 183.843338 4.150848 0.355154
77.665794 183.869080 4.043643 0.482353
77.694679 183.883606 3.930131 0.678431
77.694679 183.883606 3.809774 0.678431
77.694679 183.883606 3.690063 0.678431
77.694679 183.883606 3.570952 0.678431
77.694679 183.883606 3.452397 0.678431
77.694672 183.883606 3.334354 0.678431
77.614670 183.843338 3.204388 0.393408
77.614670 183.843338 3.088431 0.409262
77.614670 183.843338 2.972852 0.396689
77.614670 183.843338 2.857611 0.406012
77.614662 183.843338 2.742666 0.426947
77.614670 183.843338 2.627978 0.407889
77.614670 183.843338 2.513506 0.404395
77.614670 183.843338 2.399211 0.407843
77.614670 183.843338 2.285053 0.414466
77.614670 183.843338 2.170992 0.413230
77.614670 183.843338 2.056991 0.420050
77.614670 183.843338 1.943009 0.393057
77.614670 183.843338 1.829007 0.417517
77.614670 183.843338 1.714947 0.392187
77.614670 183.843338 1.600789 0.409186
77.614670 183.843338 1.486494 0.394049
77.614670 183.843338 1.372022 0.431373
77.614670 183.843338 1.257334 0.395071
77.614670 183.843338 1.142389 0.450980
77.614670 183.843338 1.027148 0.430915
77.614670 183.843338 0.911569 0.395712
77.614670 183.843338 0.795611 0.411063
77.614670 183.843338 0.679233 0.405600
77.614670 183.843338 0.562391 0.439582
77.614670 183.843338 0.445043 0.392248
77.614670 183.843338 0.327146 0.385199
77.614670 183.843338 0.208653 0.404501
77.614670 183.843338 0.089521 0.434913
77.498688 183.784958 -0.000022 0.470497
77.069260 183.568802 -0.000022 0.355627
76.683060 183.374405 -0.000022 0.394049
77.614662 183.748093 4.261118 0.369192
77.614662 183.748093 4.140375 0.395789
77.694679 183.787399 4.041194 0.558953
77.694679 183.787399 3.920732 0.678431
77.694679 183.787399 3.800961 0.678431
77.694679 183.787399 3.681833 0.678431
77.694672 183.787399 3.563302 0.678431
77.694672 183.787399 3.445324 0.678431
77.694672 183.787399 3.327856 0.678431
77.614662 183.748093 3.198523 0.378546
77.614670 183.748093 3.083130 0.406744
77.614670 183.748093 2.968114 0.407889
77.614662 183.748093 2.853435 0.377234
77.614670 183.748093 2.739050 0.388907
77.614670 183.748093 2.624920 0.401129
77.614662 183.748093 2.511006 0.412161
77.614662 183.748093 2.397267 0.405081
77.614670 183.748093 2.283665 0.401236
77.614670 183.748093 2.170160 0.423102
77.614670 183.748093 2.056714 0.389441
77.614670 183.748093 1.943286 0.411841
77.614670 183.748093 1.829840 0.419608
77.614670 183.748093 1.716335 0.406012
77.614670 183.748093 1.602733 0.411704
77.614670 183.748093 1.488994 0.391501
77.614670 183.748108 1.375080 0.374166
77.614670 183.748108 1.260950 0.399145
77.614670 183.748093 1.146565 0.407843
77.614670 183.748108 1.031885 0.410239
77.614670 183.748108 0.916869 0.419608
77.614670 183.748093 0.801476 0.426520
77.614670 183.748108 0.685664 0.396765
77.614670 183.748108 0.569392 0.389349
77.614670 183.748108 0.452615 0.409400
77.614670 183.748108 0.335292 0.368475
77.614670 183.748108 0.217376 0.379568
77.614670 183.748108 0.098825 0.406027
77.536186 183.709549 -0.000022 0.542687
77.104652 183.497620 -0.000022 0.410468
76.716553 183.307022 -0.000022 0.421241
77.614662 183.653778 4.250377 0.419608
77.614662 183.653778 4.130207 0.419608
77.694679 183.692108 4.031497 0.678431
77.694679 183.692093 3.911608 0.678431
77.694679 183.692093 3.792406 0.678431
77.694679 183.692108 3.673843 0.678431
77.694672 183.692093 3.555875 0.678431
77.694672 183.692093 3.438458 0.678431
77.694672 183.692093 3.321548 0.678431
77.614662 183.653778 3.192830 0.422675
77.614670 183.653778 3.077985 0.391424
77.614662 183.653778 2.963515 0.368933
77.614670 183.653778 2.849380 0.411643
77.614662 183.653778 2.735539 0.416785
77.614670 183.653778 2.621951 0.405386
77.614670 183.653778 2.508578 0.418585
77.614670 183.653778 2.395380 0.412711
77.614670 183.653778 2.282317 0.386892
77.614670 183.653778 2.169351 0.394385
77.614670 183.653778 2.056444 0.375280
77.614670 183.653778 1.943556 0.382605
77.614670 183.653778 1.830648 0.368780
77.614670 183.653778 1.717682 0.366873
77.614670 183.653778 1.604620 0.354726
77.614670 183.653778 1.491422 0.361044
77.614670 183.653778 1.378049 0.377676
77.614670 183.653778 1.264461 0.381659
77.614670 183.653778 1.150620 0.382895
77.614670 183.653778 1.036484 0.379431
77.614670 183.653778 0.922014 0.419547
77.614670 183.653778 0.807170 0.369223
77.614670 183.653778 0.691908 0.374563
77.614670 183.653778 0.576188 0.374289
77.614670 183.653778 0.459966 0.348196
77.614670 183.653778 0.343200 0.367727
77.614670 183.653778 0.225845 0.350286
77.614670 183.653778 0.107856 0.343252
77.572937 183.633789 -0.000022 0.505074
77.139343 183.426102 -0.000022 0.511513
76.749397 183.239319 -0.000022 0.394903
77.614662 183.560333 4.239951 0.401633
77.614662 183.560333 4.120338 0.397864
77.694679 183.597702 4.022086 0.678431
77.694672 183.597702 3.902752 0.678431
77.694679 183.597702 3.784102 0.678431
77.694672 183.597702 3.666089 0.678431
77.694672 183.597702 3.548667 0.678431
77.694672 183.597702 3.431795 0.678431
77.694672 183.597702 3.315426 0.678431
77.614670 183.560333 3.187304 0.430777
77.614670 183.560333 3.072991 0.401587
77.614670 183.560333 2.959052 0.379919
77.614670 183.560333 2.845445 0.399619
77.614670 183.560333 2.732131 0.407843
77.614670 183.560333 2.619070 0.429725
77.614670 183.560333 2.506222 0.408255
77.614670 183.560333 2.393548 0.407843
77.614670 183.560333 2.281010 0.399252
77.614670 183.560333 2.168567 0.413916
77.614670 183.560333 2.056183 0.396231
77.614670 183.560333 1.943817 0.409125
77.614670 183.560333 1.831433 0.436316
77.614670 183.560333 1.718990 0.428153
77.614670 183.560333 1.606452 0.401083
77.614670 183.560333 1.493778 0.412573
77.614670 183.560333 1.380930 0.401633
77.614670 183.560333 1.267868 0.395636
77.614670 183.560333 1.154555 0.400809
77.614670 183.560333 1.040948 0.441260
77.614670 183.560333 0.927008 0.413535
77.614670 183.560333 0.812696 0.436622
77.614670 183.560333 0.697968 0.359869
77.614670 183.560333 0.582784 0.352941
77.614670 183.560333 0.467101 0.398993
77.614670 183.560333 0.350875 0.410101
77.614670 183.560333 0.234064 0.392706
77.614670 183.560333 0.116621 0.384070
77.608940 183.557663 -0.000022 0.543221
77.173325 183.354248 -0.000022 0.332341
76.781563 183.171295 -0.000021 0.424445
77.614662 183.467743 4.229836 0.409033
77.614670 183.467743 4.110764 0.389609
77.694679 183.504166 4.012955 0.678431
77.694679 183.504166 3.894160 0.678431
77.694672 183.504166 3.776045 0.678431
77.694679 183.504166 3.658566 0.678431
77.694672 183.504166 3.541675 0.678431
77.694672 183.504166 3.425329 0.678431
77.694672 183.504166 3.309486 0.678431
77.614670 183.467743 3.181942 0.408667
77.614662 183.467743 3.068146 0.405386
77.614670 183.467758 2.954721 0.388907
77.614670 183.467743 2.841628 0.414099
77.614670 183.467743 2.728825 0.409171
77.614670 183.467743 2.616274 0.413031
77.614662 183.467743 2.503936 0.400275
77.614662 183.467743 2.391771 0.407843
77.614670 183.467743 2.279741 0.400504
77.614670 183.467743 2.167806 0.416892
77.614670 183.467743 2.055929 0.409537
77.614670 183.467743 1.944071 0.400259
77.614670 183.467743 1.832194 0.419883
77.614670 183.467743 1.720259 0.403754
77.614670 183.467743 1.608229 0.415442
77.614670 183.467743 1.496064 0.413870
77.614670 183.467743 1.383725 0.411444
77.614670 183.467758 1.271175 0.436332
77.614670 183.467743 1.158372 0.443763
77.614670 183.467758 1.045279 0.437781
77.614670 183.467743 0.931854 0.430121
77.614670 183.467743 0.818057 0.447303
77.614670 183.467758 0.703848 0.432013
77.614670 183.467758 0.589184 0.422446
77.614670 183.467743 0.474023 0.407156
77.614670 183.467758 0.358322 0.400397
77.614670 183.467758 0.242038 0.400397
77.614670 183.467758 0.125126 0.417868
77.614670 183.467758 0.007541 0.392004
77.206604 183.282059 -0.000021 0.476249
76.813065 183.102966 -0.000021 0.463325
77.614662 183.375992 4.220025 0.410513
77.614662 183.375992 4.101476 0.403067
77.694679 183.411453 4.004098 0.678431
77.694679 183.411453 3.885826 0.678431
77.694679 183.411453 3.768231 0.678431
77.694679 183.411453 3.651268 0.678431
77.694672 183.411453 3.534892 0.668315
77.694672 183.411453 3.419058 0.678431
77.694672 183.411453 3.303724 0.678431
77.614670 183.375992 3.176743 0.415747
77.614670 183.375992 3.063446 0.414435
77.614670 183.375992 2.950520 0.402945
77.614670 183.375992 2.837924 0.405127
77.614670 183.375992 2.725618 0.425498
77.614670 183.375992 2.613563 0.407797
77.614670 183.375992 2.501719 0.404395
77.614670 183.375992 2.390048 0.393210
77.614662 183.375992 2.278509 0.403662
77.614670 183.375992 2.167067 0.405966
77.614670 183.375992 2.055683 0.407843
77.614670 183.375992 1.944317 0.408667
77.614670 183.375992 1.832932 0.411017
77.614670 183.375992 1.721490 0.415656
77.614670 183.375992 1.609953 0.412985
77.614670 183.375992 1.498281 0.416388
77.614670 183.375992 1.386437 0.441459
77.614670 183.375992 1.274381 0.449760
77.614670 183.375992 1.162076 0.437781
77.614670 183.375992 1.049479 0.415167
77.614670 183.375992 0.936554 0.449622
77.614670 183.375992 0.823257 0.450980
77.614670 183.375992 0.709550 0.377569
77.614670 183.375992 0.595391 0.434821
77.614670 183.375992 0.480737 0.419608
77.614670 183.375992 0.365546 0.396658
77.614670 183.375992 0.249773 0.395056
77.614670 183.375992 0.133376 0.405112
77.614670 183.375992 0.016308 0.379004
77.239174 183.209549 -0.000021 0.468513
76.843895 183.034332 -0.000021 0.334768
77.614662 183.285019 4.210512 0.388235
77.614662 183.285019 4.092471 0.426276
77.694679 183.319550 3.995511 0.678431
77.694672 183.319550 3.877745 0.678431
77.694679 183.319550 3.760654 0.678431
77.694679 183.319550 3.644192 0.678431
77.694672 183.319550 3.528314 0.656092
77.694672 183.319550 3.412977 0.678431
77.694672 183.319550 3.298138 0.678431
77.614662 183.285019 3.171700 0.401511
77.614670 183.285019 3.058889 0.395407
77.614670 183.285019 2.946447 0.402533
77.614670 183.285019 2.834334 0.416938
77.614670 183.285019 2.722509 0.407889
77.614670 183.285019 2.610934 0.392065
77.614670 183.285019 2.499569 0.407385
77.614670 183.285019 2.388376 0.406012
77.614670 183.285019 2.277316 0.410788
77.614670 183.285019 2.166352 0.399054
77.614662 183.285019 2.055444 0.389822
77.614662 183.285019 1.944556 0.407797
77.614670 183.285019 1.833648 0.403983
77.614670 183.285019 1.722684 0.415793
77.614670 183.285019 1.611624 0.393164
77.614670 183.285019 1.500431 0.407843
77.614670 183.285019 1.389066 0.424414
77.614670 183.285019 1.277491 0.397391
77.614670 183.285019 1.165666 0.439902
77.614670 183.285019 1.053552 0.421256
77.614670 183.285019 0.941111 0.427268
77.614670 183.285019 0.828300 0.396078
77.614670 183.285019 0.715080 0.389944
77.614670 183.285019 0.601410 0.392706
77.614670 183.285019 0.487247 0.408576
77.614670 183.285019 0.372549 0.447303
77.614670 183.285019 0.257273 0.407843
77.614670 183.285019 0.141374 0.442329
77.614670 183.285019 0.024808 0.443946
77.271027 183.136719 -0.000021 0.410437
76.874046 182.965393 -0.000021 0.487083
77.614662 183.194824 4.201291 0.438804
77.614670 183.194824 4.083743 0.409583
77.694679 183.228424 3.987186 0.678431
77.694672 183.228424 3.869912 0.678431
77.694672 183.228424 3.753309 0.678431
77.694672 183.228424 3.637333 0.678431
77.694679 183.228424 3.521939 0.670802
77.694672 183.228424 3.407083 0.678431
77.694672 183.228424 3.292722 0.678431
77.614670 183.194824 3.166812 0.405921
77.614670 183.194824 3.054472 0.406455
77.614670 183.194824 2.942499 0.421653
77.614670 183.194824 2.830854 0.404028
77.614670 183.194824 2.719496 0.398810
77.614670 183.194824 2.608386 0.408759
77.614670 183.194824 2.497485 0.410742
77.614670 183.194824 2.386756 0.411795
77.614670 183.194824 2.276159 0.405447
77.614670 183.194824 2.165658 0.395453
77.614670 183.194824 2.055213 0.410193
77.614670 183.194824 1.944787 0.402975
77.614670 183.194824 1.834342 0.407401
77.614670 183.194824 1.723840 0.396536
77.614670 183.194824 1.613244 0.424750
77.614670 183.194824 1.502515 0.435447
77.614670 183.194824 1.391614 0.439216
77.614670 183.194824 1.280504 0.426184
77.614670 183.194824 1.169146 0.421210
77.614670 183.194824 1.057500 0.431373
77.614670 183.194824 0.945527 0.431373
77.614670 183.194824 0.833187 0.444480
77.614670 183.194824 0.720440 0.441337
77.614670 183.194824 0.607244 0.430381
77.614670 183.194824 0.493557 0.353124
77.614670 183.194824 0.379338 0.411017
77.614670 183.194824 0.264543 0.401144
77.614670 183.194824 0.149127 0.414099
77.614670 183.194824 0.033047 0.446937
77.302170 183.063583 -0.000021 0.416022
76.903519 182.896149 -0.000020 0.540475
77.614662 183.105362 4.192358 0.409216
77.614670 183.105362 4.075287 0.419608
77.636375 183.114227 3.964437 0.500740
77.636375 183.114227 3.848506 0.498344
77.636375 183.114227 3.733238 0.489342
77.636375 183.114227 3.618589 0.507439
77.636375 183.114227 3.504516 0.511589
77.636375 183.114227 3.390975 0.515297
77.636375 183.114227 3.277924 0.453101
77.614670 183.105362 3.162077 0.406928
77.614670 183.105362 3.050193 0.397681
77.614670 183.105362 2.938674 0.438651
77.614670 183.105362 2.827482 0.405692
77.614670 183.105362 2.716576 0.413153
77.614670 183.105362 2.605916 0.401175
77.614670 183.105362 2.495466 0.392676
77.614670 183.105362 2.385186 0.404578
77.614670 183.105362 2.275038 0.417685
77.614670 183.105362 2.164985 0.416251
77.614670 183.105362 2.054989 0.416022
77.614670 183.105362 1.945011 0.420798
77.614670 183.105362 1.835014 0.410330
77.614670 183.105362 1.724961 0.423651
77.614670 183.105362 1.614814 0.427329
77.614670 183.105362 1.504534 0.400137
77.614670 183.105362 1.394083 0.401816
77.614670 183.105362 1.283424 0.432074
77.614670 183.105362 1.172518 0.433127
77.614670 183.105362 1.061325 0.406332
77.614670 183.105362 0.949807 0.414878
77.614670 183.105362 0.837923 0.428305
77.614670 183.105362 0.725633 0.429435
77.614670 183.105362 0.612896 0.435294
77.614670 183.105362 0.499671 0.406226
77.614670 183.105362 0.385915 0.382132
77.614670 183.105362 0.271585 0.396078
77.614670 183.105362 0.156638 0.433707
77.614670 183.105362 0.041029 0.398535
77.332581 182.990128 -0.000020 0.470039
76.932320 182.826630 -0.000020 0.404974
77.614670 183.016617 4.183707 0.390539
77.614662 183.016617 4.067097 0.431525
77.636375 183.025238 3.956684 0.477348
77.636375 183.025238 3.841210 0.495537
77.636368 183.025238 3.726398 0.504555
77.636368 183.025238 3.612202 0.484474
77.636368 183.025238 3.498579 0.475563
77.636375 183.025238 3.385486 0.499626
77.614670 183.016617 3.269338 0.409262
77.614670 183.016617 3.157491 0.427588
77.614670 183.016617 3.046048 0.407111
77.614670 183.016617 2.934970 0.427451
77.614670 183.016617 2.824216 0.412116
77.614670 183.016617 2.713748 0.417914
77.614670 183.016617 2.603525 0.407843
77.614670 183.016617 2.493511 0.393500
77.614670 183.016617 2.383667 0.436698
77.614670 183.016617 2.273953 0.398459
77.614670 183.016617 2.164334 0.396948
77.614670 183.016617 2.054772 0.419608
77.614670 183.016617 1.945228 0.399023
77.614670 183.016617 1.835665 0.412848
77.614670 183.016617 1.726047 0.431373
77.614670 183.016617 1.616334 0.405402
77.614670 183.016617 1.506489 0.392706
77.614670 183.016617 1.396475 0.414878
77.614670 183.016617 1.286252 0.417319
77.614670 183.016617 1.175783 0.415290
77.614670 183.016617 1.065030 0.428473
77.614670 183.016617 0.953951 0.414267
77.614670 183.016617 0.842508 0.413825
77.614670 183.016617 0.730662 0.399420
77.614670 183.016617 0.618370 0.444266
77.614670 183.016617 0.505591 0.447532
77.614670 183.016617 0.392285 0.399893
77.614670 183.016617 0.278406 0.401694
77.614670 183.016617 0.163913 0.393042
77.614670 183.016617 0.048760 0.395224
77.362282 182.916397 -0.000020 0.400504
76.960426 182.756836 -0.000020 0.378302
77.614662 182.928558 4.175332 0.388006
77.614670 182.928558 4.059169 0.419287
77.694679 182.959427 3.963751 0.678431
77.694672 182.959427 3.847860 0.678431
77.694679 182.959427 3.732633 0.678431
77.694672 182.959427 3.618024 0.678431
77.694672 182.959427 3.503991 0.678431
77.694672 182.959427 3.390489 0.678431
77.614670 182.928558 3.264470 0.406973
77.614670 182.928558 3.153052 0.427741
77.614670 182.928558 3.042037 0.407843
77.614670 182.928558 2.931385 0.430854
77.614670 182.928558 2.821055 0.404669
77.614670 182.928558 2.711010 0.397726
77.614670 182.928558 2.601211 0.414771
77.614670 182.928558 2.491618 0.403937
77.614670 182.928558 2.382195 0.450752
77.614670 182.928558 2.272903 0.412757
77.614662 182.928558 2.163704 0.407752
77.614670 182.928558 2.054562 0.400626
77.614670 182.928558 1.945438 0.422644
77.614670 182.928558 1.836296 0.436530
77.614670 182.928558 1.727097 0.409674
77.614670 182.928558 1.617805 0.436698
77.614670 182.928558 1.508382 0.406332
77.614670 182.928558 1.398789 0.443488
77.614670 182.928558 1.288990 0.425208
77.614670 182.928558 1.178944 0.405005
77.614670 182.928558 1.068615 0.399496
77.614670 182.928558 0.957963 0.435676
77.614670 182.928558 0.846948 0.407843
77.614670 182.928558 0.735530 0.401099
77.614670 182.928558 0.623669 0.412314
77.614670 182.928558 0.511323 0.424262
77.614670 182.928558 0.398450 0.392142
77.614670 182.928558 0.285009 0.416434
77.614670 182.928558 0.170954 0.412573
77.614670 182.928558 0.056243 0.395621
77.391251 182.842377 -0.000021 0.512901
76.987854 182.686768 -0.000020 0.502480
77.614662 182.841171 4.167229 0.409949
77.614670 182.841171 4.051499 0.417578
77.694679 182.871124 3.956437 0.678431
77.694679 182.871124 3.840978 0.678431
77.694672 182.871124 3.726179 0.678431
77.694672 182.871124 3.611997 0.678431
77.694672 182.871124 3.498388 0.678431
77.694672 182.871124 3.385310 0.678431
77.614670 182.841171 3.259760 0.375967
77.614670 182.841171 3.148757 0.401679
77.614670 182.841171 3.038155 0.383597
77.614670 182.841171 2.927915 0.417655
77.614670 182.841171 2.817997 0.416297
77.614670 182.841171 2.708362 0.384970
77.614670 182.841171 2.598971 0.401556
77.614670 182.841171 2.489787 0.374243
77.614670 182.841171 2.380771 0.405646
77.614670 182.841171 2.271886 0.413199
77.614670 182.841171 2.163094 0.376471
77.614670 182.841171 2.054358 0.388235
77.614670 182.841171 1.945641 0.367697
77.614670 182.841171 1.836905 0.375967
77.614670 182.841171 1.728114 0.388937
77.614670 182.841171 1.619229 0.416541
77.614670 182.841171 1.510213 0.392035
77.614670 182.841171 1.401029 0.389471
77.614670 182.841171 1.291638 0.387274
77.614670 182.841171 1.182003 0.391836
77.614670 182.841171 1.072084 0.392752
77.614670 182.841171 0.961844 0.398917
77.614670 182.841171 0.851243 0.396078
77.614670 182.841171 0.740240 0.376471
77.614670 182.841171 0.628795 0.419608
77.614670 182.841171 0.516868 0.403555
77.614670 182.841171 0.404416 0.409064
77.614670 182.841171 0.291397 0.399023
77.614670 182.841171 0.177767 0.416785
77.614670 182.841171 0.063484 0.403433
77.419495 182.768082 -0.000020 0.496651
77.014587 182.616440 -0.000019 0.426780
77.614662 182.754410 4.159393 0.396078
77.613037 182.753830 4.043654 0.498772
77.694679 182.783493 3.949363 0.678431
77.694672 182.783493 3.834321 0.678431
77.694672 182.783493 3.719938 0.678431
77.694679 182.783493 3.606170 0.678431
77.694672 182.783493 3.492971 0.678431
77.694672 182.783493 3.380301 0.678431
77.614670 182.754410 3.255206 0.406012
77.614670 182.754410 3.144604 0.378378
77.614670 182.754410 3.034402 0.399908
77.614670 182.754410 2.924561 0.403021
77.614670 182.754410 2.815040 0.411063
77.614670 182.754410 2.705801 0.417121
77.614670 182.754410 2.596806 0.388952
77.614670 182.754410 2.488016 0.430945
77.614670 182.754410 2.379395 0.413214
77.614670 182.754410 2.270903 0.404120
77.614670 182.754410 2.162505 0.390784
77.614670 182.754410 2.054162 0.406012
77.614670 182.754410 1.945838 0.415930
77.614670 182.754410 1.837495 0.396078
77.614670 182.754410 1.729097 0.382605
77.614670 182.754410 1.620605 0.392920
77.614670 182.754410 1.511984 0.393393
77.614670 182.754410 1.403194 0.401068
77.614670 182.754410 1.294199 0.392889
77.614670 182.754410 1.184960 0.384024
77.614670 182.754410 1.075439 0.405234
77.614670 182.754410 0.965598 0.400580
77.614670 182.754410 0.855396 0.372992
77.614670 182.754425 0.744794 0.411933
77.614670 182.754425 0.633752 0.377111
77.614670 182.754410 0.522230 0.405585
77.614670 182.754425 0.410184 0.396262
77.614670 182.754425 0.297574 0.422095
77.614670 182.754425 0.184355 0.404776
77.614670 182.754410 0.070485 0.422095
77.447006 182.693497 -0.000019 0.492393
77.040627 182.545837 -0.000019 0.282872
77.614662 182.668274 4.151821 0.446815
77.640381 182.677338 4.043649 0.502754
77.694679 182.696472 3.942527 0.678431
77.694672 182.696472 3.827889 0.678431
77.694672 182.696472 3.713907 0.678431
77.694672 182.696472 3.600537 0.678431
77.694672 182.696472 3.487736 0.678431
77.694672 182.696472 3.375461 0.678431
77.614670 182.668289 3.250804 0.373983
77.614670 182.668289 3.140590 0.385489
77.614670 182.668289 3.030775 0.396078
77.614670 182.668289 2.921318 0.400854
77.614670 182.668289 2.812181 0.423560
77.614670 182.668289 2.703326 0.427161
77.614670 182.668289 2.594713 0.410513
77.614670 182.668289 2.486305 0.418280
77.614670 182.668289 2.378064 0.402274
77.614670 182.668289 2.269953 0.398657
77.614670 182.668289 2.161935 0.399771
77.614670 182.668289 2.053972 0.408255
77.614670 182.668289 1.946028 0.418647
77.614670 182.668289 1.838065 0.413962
77.614670 182.668289 1.730047 0.438361
77.614670 182.668289 1.621936 0.398733
77.614670 182.668289 1.513695 0.399649
77.614670 182.668289 1.405287 0.389380
77.614670 182.668289 1.296674 0.390204
77.614670 182.668289 1.187818 0.381323
77.614670 182.668289 1.078681 0.372717
77.614670 182.668289 0.969225 0.340200
77.614670 182.668289 0.859409 0.407370
77.614670 182.668289 0.749196 0.407401
77.614670 182.668289 0.638543 0.384329
77.614670 182.668289 0.527412 0.407980
77.614670 182.668289 0.415759 0.379507
77.614670 182.668289 0.303544 0.433341
77.614670 182.668289 0.190722 0.407477
77.614670 182.668289 0.077251 0.409628
77.473785 182.618652 -0.000019 0.425864
77.065979 182.474991 -0.000019 0.351675
77.614670 182.582748 4.144508 0.466590
77.666969 182.600586 4.043643 0.482353
77.694679 182.610046 3.935926 0.678431
77.694672 182.610046 3.821676 0.678431
77.694679 182.610046 3.708083 0.678431
77.694672 182.610046 3.595098 0.678431
77.694672 182.610046 3.482680 0.678431
77.694672 182.610046 3.370787 0.678431
77.614670 182.582748 3.246553 0.402426
77.614670 182.582748 3.136714 0.389258
77.614670 182.582748 3.027272 0.402106
77.614670 182.582748 2.918187 0.407294
77.614670 182.582748 2.809422 0.445624
77.614670 182.582748 2.700936 0.429007
77.614670 182.582748 2.592692 0.431754
77.614670 182.582748 2.484652 0.407706
77.614670 182.582748 2.376780 0.415839
77.614662 182.582748 2.269036 0.414557
77.614670 182.582748 2.161384 0.441657
77.614670 182.582748 2.053789 0.407156
77.614670 182.582748 1.946211 0.386450
77.614670 182.582748 1.838615 0.390906
77.614670 182.582748 1.730964 0.366445
77.614670 182.582748 1.623221 0.419608
77.614670 182.582748 1.515348 0.388602
77.614670 182.582748 1.407308 0.381186
77.614670 182.582748 1.299064 0.360342
77.614670 182.582748 1.190578 0.397971
77.614670 182.582748 1.081813 0.401495
77.614670 182.582748 0.972728 0.394781
77.614670 182.582748 0.863286 0.419608
77.614670 182.582748 0.753447 0.358221
77.614670 182.582748 0.643171 0.396307
77.614670 182.582748 0.532416 0.377646
77.614670 182.582748 0.421144 0.450980
77.614670 182.582748 0.309309 0.407294
77.614670 182.582748 0.196871 0.405051
77.614670 182.582748 0.083785 0.394751
77.499825 182.543549 -0.000018 0.424109
77.090630 182.403900 -0.000018 0.421927
77.614662 182.497772 4.137449 0.405966
77.694679 182.524200 4.044125 0.558953
77.694672 182.524200 3.929554 0.678431
77.694672 182.524200 3.815681 0.678431
77.694672 182.524200 3.702460 0.678431
77.694672 182.524200 3.589847 0.678431
77.694672 182.524200 3.477799 0.678431
77.694672 182.524200 3.366275 0.678431
77.614670 182.497772 3.242451 0.416358
77.614670 182.497772 3.132972 0.427115
77.614670 182.497772 3.023890 0.414435
77.614670 182.497772 2.915165 0.396628
77.614670 182.497772 2.806757 0.420523
77.614670 182.497772 2.698629 0.419867
77.614670 182.497772 2.590741 0.396078
77.614670 182.497772 2.483057 0.387121
77.614670 182.497772 2.375539 0.437263
77.614670 182.497772 2.268150 0.405158
77.614670 182.497772 2.160853 0.407614
77.614670 182.497772 2.053612 0.376547
77.614670 182.497772 1.946388 0.395346
77.614670 182.497772 1.839146 0.396078
77.614670 182.497772 1.731850 0.376471
77.614670 182.497772 1.624461 0.388464
77.614670 182.497772 1.516943 0.377310
77.614670 182.497772 1.409259 0.413367
77.614670 182.497772 1.301371 0.419242
77.614670 182.497772 1.193243 0.405447
77.614670 182.497772 1.084835 0.409964
77.614670 182.497772 0.976109 0.447898
77.614670 182.497772 0.867027 0.409674
77.614670 182.497772 0.757549 0.358267
77.614670 182.497772 0.647636 0.395773
77.614670 182.497772 0.537247 0.412390
77.614670 182.497772 0.426340 0.416495
77.614670 182.497772 0.314874 0.430457
77.614670 182.497772 0.202806 0.411063
77.614670 182.497772 0.090093 0.419150
77.525131 182.468201 -0.000018 0.417365
77.114578 182.332565 -0.000018 0.361791
77.614662 182.413345 4.130642 0.410224
77.694672 182.438919 4.037614 0.678431
77.694679 182.438919 3.923409 0.678431
77.694679 182.438919 3.809898 0.678431
77.694672 182.438919 3.697038 0.678431
77.694672 182.438919 3.584784 0.678431
77.694672 182.438919 3.473093 0.678431
77.694672 182.438919 3.361923 0.678431
77.614662 182.413345 3.238493 0.427207
77.614670 182.413345 3.129364 0.414527
77.614670 182.413345 3.020630 0.407523
77.614670 182.413361 2.912251 0.409491
77.614670 182.413361 2.804188 0.442023
77.614670 182.413345 2.696404 0.393408
77.614670 182.413361 2.588860 0.418509
77.614670 182.413361 2.481519 0.364111
77.614670 182.413345 2.374343 0.391623
77.614670 182.413345 2.267296 0.373785
77.614670 182.413361 2.160341 0.415564
77.614670 182.413345 2.053441 0.379416
77.614670 182.413345 1.946559 0.402914
77.614670 182.413361 1.839659 0.393408
77.614670 182.413361 1.732704 0.393576
77.614670 182.413345 1.625657 0.376471
77.614670 182.413361 1.518481 0.414054
77.614670 182.413361 1.411140 0.400839
77.614670 182.413345 1.303596 0.409491
77.614670 182.413361 1.195812 0.401679
77.614670 182.413361 1.087749 0.412528
77.614670 182.413361 0.979370 0.406790
77.614670 182.413361 0.870636 0.356985
77.614670 182.413345 0.761507 0.388235
77.614670 182.413361 0.651943 0.381689
77.614670 182.413361 0.541905 0.364797
77.614670 182.413361 0.431352 0.377844
77.614670 182.413361 0.320241 0.394675
77.614670 182.413361 0.208530 0.427878
77.614670 182.413361 0.096175 0.377691
77.549690 182.392593 -0.000018 0.500893
77.137833 182.261002 -0.000018 0.406271
77.614670 182.329468 4.124083 0.366583
77.694679 182.354156 4.031341 0.678431
77.694679 182.354156 3.917487 0.678431
77.694672 182.354156 3.804325 0.678431
77.694679 182.354156 3.691813 0.678431
77.694672 182.354156 3.579905 0.678431
77.694672 182.354156 3.468557 0.678431
77.694672 182.354156 3.357730 0.678431
77.614670 182.329468 3.234680 0.425635
77.614670 182.329468 3.125887 0.446250
77.614670 182.329468 3.017487 0.404990
77.614670 182.329468 2.909441 0.394476
77.614670 182.329468 2.801712 0.416114
77.614670 182.329468 2.694259 0.408438
77.614670 182.329468 2.587046 0.381750
77.614670 182.329468 2.480036 0.420981
77.614670 182.329468 2.373190 0.394965
77.614670 182.329468 2.266473 0.399847
77.614670 182.329468 2.159847 0.412253
77.614670 182.329468 2.053277 0.406455
77.614670 182.329468 1.946724 0.418906
77.614670 182.329468 1.840152 0.398108
77.614670 182.329468 1.733527 0.382773
77.614670 182.329468 1.626809 0.392630
77.614670 182.329468 1.519964 0.392859
77.614670 182.329468 1.412953 0.406012
77.614670 182.329468 1.305741 0.409308
77.614670 182.329468 1.198288 0.410697
77.614670 182.329468 1.090558 0.402945
77.614670 182.329468 0.982513 0.402518
77.614670 182.329468 0.874113 0.400977
77.614670 182.329468 0.765320 0.391531
77.614670 182.329468 0.656094 0.374685
77.614670 182.329468 0.546395 0.409491
77.614670 182.329468 0.436182 0.410422
77.614670 182.329468 0.325413 0.378866
77.614670 182.329468 0.214046 0.396078
77.614670 182.329468 0.102037 0.405859
77.573509 182.316757 -0.000018 0.368124
77.160378 182.189209 -0.000017 0.612879
77.614670 182.246078 4.117766 0.408209
77.694679 182.269913 4.025300 0.678431
77.694672 182.269913 3.911784 0.678431
77.694679 182.269913 3.798960 0.678431
77.694672 182.269913 3.686782 0.678431
77.694672 182.269913 3.575206 0.678431
77.694672 182.269913 3.464190 0.678431
77.694672 182.269913 3.353692 0.678431
77.614670 182.246078 3.231008 0.421317
77.614670 182.246078 3.122539 0.407935
77.614670 182.246078 3.014461 0.388373
77.614670 182.246078 2.906737 0.397192
77.614670 182.246078 2.799328 0.406378
77.614670 182.246078 2.692195 0.401907
77.614670 182.246078 2.585300 0.407752
77.614670 182.246078 2.478608 0.397391
77.614670 182.246078 2.372081 0.377844
77.614670 182.246078 2.265681 0.407324
77.614670 182.246078 2.159372 0.434348
77.614670 182.246078 2.053118 0.400732
77.614670 182.246078 1.946882 0.419608
77.614670 182.246078 1.840628 0.417929
77.614670 182.246078 1.734319 0.409903
77.614670 182.246078 1.627919 0.405219
77.614670 182.246078 1.521392 0.396262
77.614670 182.246078 1.414699 0.413108
77.614670 182.246078 1.307805 0.385657
77.614670 182.246078 1.200672 0.357504
77.614670 182.246078 1.093263 0.395422
77.614670 182.246078 0.985538 0.396262
77.614670 182.246078 0.877461 0.377981
77.614670 182.246078 0.768992 0.417655
77.614670 182.246078 0.660090 0.398733
77.614670 182.246078 0.550718 0.387213
77.614670 182.246078 0.440832 0.394125
77.614670 182.246078 0.330392 0.394675
77.614670 182.246078 0.219357 0.378073
77.614670 182.246078 0.107681 0.418418
77.596588 182.240692 -0.000017 0.391333
77.182220 182.117203 -0.000017 0.311543
77.614662 182.163177 4.111690 0.412802
77.694679 182.186172 4.019489 0.678431
77.694679 182.186172 3.906299 0.678431
77.694679 182.186172 3.793798 0.678431
77.694672 182.186172 3.681942 0.678431
