# This PCD file was generated using the MATLABÂ® pcwrite function
# from Computer Vision ToolboxÂ®.
# .PCD v.7 - Point Cloud Data file format
VERSION .7
FIELDS x y z intensity
SIZE 4 4 4 4
TYPE F F F F
COUNT 1 1 1 1
WIDTH 1319
HEIGHT 1
VIEWPOINT 0 0 0 1 0 0 0
POINTS 1319
DATA ascii
nan nan nan 0.000000
nan nan nan 0.000000
312.403381 63.120163 -0.000016 0.537500
300.372284 74.147148 0.000027 0.545833
295.207245 78.881165 0.000022 0.527941
292.330566 81.517761 0.000018 0.549387
290.494049 83.200996 0.000010 0.526348
289.217651 84.370880 -0.000005 0.326961
288.277191 85.232841 -0.000004 0.330515
nan nan nan 0.000000
nan nan nan 0.000000
nan nan nan 0.000000
nan nan nan 0.000000
nan nan nan 0.000000
nan nan nan 0.000000
nan nan nan 0.000000
nan nan nan 0.000000
nan nan nan 0.000000
312.210602 62.911308 -0.000016 0.534926
300.256836 74.022003 0.000025 0.538971
295.124939 78.791962 0.000019 0.538603
292.266754 81.448586 0.000015 0.534681
290.442017 83.144592 0.000008 0.553922
289.173798 84.323380 -0.000005 0.335907
288.239380 85.191887 -0.000004 0.326961
nan nan nan 0.000000
nan nan nan 0.000000
nan nan nan 0.000000
nan nan nan 0.000000
nan nan nan 0.000000
nan nan nan 0.000000
nan nan nan 0.000000
nan nan nan 0.000000
nan nan nan 0.000000
312.016388 62.703804 -0.000016 0.537500
300.140442 73.897720 0.000029 0.540441
295.041962 78.703377 0.000024 0.537500
292.202362 81.379875 0.000019 0.518505
290.389587 83.088562 0.000004 0.561887
289.129639 84.276176 -0.000005 0.335539
288.201294 85.151192 -0.000004 0.328431
nan nan nan 0.000000
nan nan nan 0.000000
nan nan nan 0.000000
nan nan nan 0.000000
nan nan nan 0.000000
nan nan nan 0.000000
nan nan nan 0.000000
nan nan nan 0.000000
nan nan nan 0.000000
311.820679 62.497692 -0.000014 0.535539
300.023224 73.774185 0.000026 0.535539
294.958435 78.615311 0.000018 0.534926
292.137573 81.311600 0.000017 0.536887
290.336761 83.032898 0.000001 0.545956
289.085114 84.229286 -0.000005 0.337745
288.162933 85.110756 -0.000004 0.331618
nan nan nan 0.000000
nan nan nan 0.000000
nan nan nan 0.000000
nan nan nan 0.000000
nan nan nan 0.000000
nan nan nan 0.000000
nan nan nan 0.000000
nan nan nan 0.000000
nan nan nan 0.000000
311.623596 62.292931 -0.000013 0.534926
299.905090 73.651550 0.000031 0.537255
294.874237 78.527901 0.000023 0.542279
292.072296 81.243805 0.000022 0.537745
290.283539 82.977631 0.000006 0.557966
289.040283 84.182709 -0.000005 0.330637
288.124268 85.070595 -0.000004 0.329657
nan nan nan 0.000000
nan nan nan 0.000000
nan nan nan 0.000000
nan nan nan 0.000000
nan nan nan 0.000000
nan nan nan 0.000000
nan nan nan 0.000000
nan nan nan 0.000000
nan nan nan 0.000000
311.425049 62.089527 -0.000014 0.533946
299.786163 73.529663 0.000028 0.527574
294.789490 78.441025 0.000020 0.525368
292.006561 81.176430 0.000019 0.529289
290.229950 82.922699 0.000003 0.527696
288.995117 84.136444 -0.000005 0.334191
288.085327 85.030708 -0.000004 0.336029
nan nan nan 0.000000
nan nan nan 0.000000
nan nan nan 0.000000
nan nan nan 0.000000
nan nan nan 0.000000
nan nan nan 0.000000
nan nan nan 0.000000
nan nan nan 0.000000
nan nan nan 0.000000
311.225128 61.887527 -0.000014 0.542402
299.666382 73.408653 0.000030 0.534559
294.704102 78.354782 0.000022 0.523039
291.940338 81.109550 0.000021 0.514706
290.175964 82.868172 0.000006 0.546201
288.949677 84.090500 -0.000006 0.338603
288.046112 84.991089 -0.000002 0.337255
nan nan nan 0.000000
nan nan nan 0.000000
nan nan nan 0.000000
nan nan nan 0.000000
nan nan nan 0.000000
352.475098 19.789585 10.170707 0.416544
352.475098 19.789579 6.895417 0.409681
352.554230 19.709595 3.632481 0.678676
352.475098 19.789583 0.369360 0.413971
311.023773 61.686928 -0.000015 0.534191
299.545746 73.288490 0.000032 0.531618
294.618134 78.269104 0.000019 0.529534
291.873749 81.043022 0.000001 0.559804
290.121613 82.814003 0.000003 0.547059
288.871277 84.077797 0.009998 1.000000
288.006622 84.951752 -0.000000 0.322549
nan nan nan 0.000000
nan nan nan 0.000000
nan nan nan 0.000000
nan nan nan 0.000000
351.581238 19.709593 13.398132 0.678431
351.503235 19.789570 10.114861 0.412377
351.503174 19.789589 6.861952 0.403799
351.581238 19.709599 3.621321 0.680515
351.503204 19.789577 0.380506 0.401961
310.821014 61.487747 -0.000015 0.532353
299.424286 73.169128 0.000030 0.541054
294.531555 78.184036 0.000017 0.530025
291.806610 80.977036 -0.000001 0.554412
290.066895 82.760208 -0.000003 0.527206
288.825378 84.032715 0.009998 1.000000
287.966858 84.912689 -0.000002 0.336397
nan nan nan 0.000000
nan nan nan 0.000000
350.544434 19.789568 19.886330 0.404657
350.544434 19.789574 16.581455 0.423284
350.621368 19.709595 13.321296 0.681250
350.544434 19.789572 10.060156 0.411765
350.544434 19.789574 6.829176 0.421814
350.621368 19.709593 3.610393 0.681985
350.544434 19.789568 0.391423 0.407476
310.616913 61.289978 -0.000014 0.536152
299.301941 73.050682 0.000035 0.543137
294.444366 78.099609 0.000022 0.545343
291.738983 80.911568 0.000004 0.563603
290.011780 82.706833 0.000003 0.506863
288.779205 83.987953 0.009998 1.000000
287.926819 84.873909 -0.000001 0.328799
nan nan nan 0.000000
nan nan nan 0.000000
349.598480 19.789551 19.767426 0.396201
349.598450 19.789570 16.484524 0.417034
349.674347 19.709602 13.246032 0.678431
349.598450 19.789570 10.006576 0.399877
349.598450 19.789560 6.797075 0.382475
349.674347 19.709597 3.599687 0.681250
349.598450 19.789564 0.402117 0.408824
310.411407 61.093655 -0.000014 0.537010
299.178833 72.933006 0.000029 0.531373
294.356659 78.015732 0.000016 0.538235
291.670959 80.846519 -0.000001 0.551103
289.956299 82.653801 -0.000003 0.538971
288.732697 83.943520 0.009997 1.000000
287.886536 84.835396 -0.000002 0.334069
nan nan nan 0.000000
348.749634 19.699045 22.978188 0.298162
348.664948 19.789562 19.650946 0.408088
348.664948 19.789551 16.389570 0.432475
348.749634 19.699049 13.173967 0.303431
348.664948 19.789562 9.954086 0.406495
348.664948 19.789555 6.765628 0.408333
348.749634 19.699043 3.589437 0.308946
348.664948 19.789562 0.412592 0.401471
310.204559 60.898724 -0.000015 0.536520
299.054871 72.816284 0.000034 0.523407
294.268280 77.932533 0.000021 0.540441
291.602417 80.781990 0.000004 0.519485
289.900452 82.601196 0.000002 0.533578
288.717499 83.865585 -0.000005 0.332721
287.845947 84.797173 -0.000003 0.335784
347.743530 19.789557 26.141794 0.405392
347.797974 19.730568 22.833298 0.293627
347.743561 19.789545 19.536839 0.373039
347.743561 19.789547 16.296543 0.390686
347.797974 19.730577 13.096793 0.298529
347.743561 19.789547 9.902664 0.415196
347.743561 19.789545 6.734818 0.403554
347.797974 19.730566 3.578457 0.303431
347.743530 19.789562 0.422854 0.433946
309.996338 60.705280 -0.000015 0.536274
298.930145 72.700356 0.000031 0.541912
294.179413 77.849846 0.000008 0.541544
291.533478 80.717911 0.000001 0.567402
289.844238 82.548958 -0.000000 0.545098
288.670135 83.821587 -0.000005 0.331863
287.805115 84.759232 -0.000003 0.331985
346.906677 19.709585 26.014961 0.497794
346.833954 19.789536 22.683266 0.406373
346.833954 19.789543 19.425034 0.429044
347.056488 19.544926 16.254452 0.301348
346.833954 19.789543 13.016879 0.406250
346.833923 19.789553 9.852280 0.396936
346.833923 19.789555 6.704631 0.400123
346.906677 19.709589 3.568860 0.679779
346.833923 19.789555 0.432909 0.401103
309.786743 60.513302 -0.000014 0.540074
298.804626 72.585304 0.000028 0.529657
294.089935 77.767845 0.000007 0.541789
291.464081 80.654335 0.000002 0.544363
289.787628 82.497124 0.000002 0.529902
288.622498 83.777916 -0.000005 0.328554
287.764038 84.721573 -0.000002 0.327941
346.007538 19.709574 25.863985 0.657108
345.935791 19.789543 22.553232 0.431618
345.935822 19.789532 19.315491 0.404167
346.007538 19.709576 16.132023 0.657966
345.935822 19.789549 12.947614 0.410294
345.935791 19.789543 9.802916 0.394118
345.935822 19.789555 6.675055 0.412745
346.007538 19.709581 3.558998 0.658333
345.935791 19.789547 0.442762 0.431250
309.575867 60.322769 -0.000015 0.536642
298.678223 72.471176 0.000030 0.537745
293.999878 77.686501 0.000009 0.542034
291.394196 80.591255 0.000005 0.544485
289.730682 82.445702 0.000004 0.582843
288.574493 83.734612 0.000002 0.519240
287.722656 84.684219 -0.000000 0.333578
345.819000 18.918846 25.980476 0.678431
345.738953 19.009327 22.650782 0.401716
345.738953 19.009338 19.397669 0.431250
345.819000 18.918852 16.201004 0.678431
345.738953 19.009340 12.999574 0.406985
345.738953 19.009333 9.839951 0.416912
345.738953 19.009344 6.697243 0.403554
345.819000 18.918852 3.566607 0.679534
345.738953 19.009346 0.435369 0.406127
309.363647 60.133732 -0.000015 0.535662
298.551056 72.357948 0.000035 0.537500
293.909241 77.605797 0.000013 0.532843
291.323883 80.528656 0.000008 0.537868
289.673370 82.394676 0.000008 0.531250
288.526184 83.691620 0.000006 0.527206
287.681000 84.647141 -0.000000 0.331863
345.738983 17.993784 26.141344 0.414706
345.819031 17.902021 22.841877 0.674020
345.738983 17.993790 19.536509 0.421078
345.738983 17.993790 16.296272 0.408946
345.819031 17.902023 13.101363 0.678431
345.738983 17.993793 9.902514 0.432598
345.738983 17.993799 6.734729 0.393995
345.819031 17.902025 3.579110 0.678554
345.738983 17.993801 0.422884 0.371446
309.150085 59.946167 -0.000015 0.539338
298.423126 72.245552 0.000032 0.531618
293.818054 77.525681 0.000009 0.530760
291.253174 80.466537 0.000006 0.539951
289.615723 82.344025 0.000005 0.509926
288.477631 83.648941 -0.000000 0.582108
287.639130 84.610352 -0.000000 0.334191
nan nan nan 0.000000
345.819000 16.868742 23.010578 0.678431
345.738983 16.961821 19.678452 0.382966
345.738983 16.961821 16.411991 0.400735
345.818970 16.868763 13.191217 0.678431
345.738983 16.961824 9.966478 0.398039
345.738983 16.961832 6.773052 0.396324
345.819000 16.868742 3.591890 0.678431
345.738983 16.961832 0.410119 0.378064
308.935242 59.760094 -0.000015 0.535049
298.294373 72.134094 0.000033 0.531985
293.726288 77.446243 0.000012 0.530025
291.182007 80.404922 0.000008 0.541422
289.557709 82.293793 0.000007 0.523284
288.428772 83.606621 0.000002 0.540931
287.597015 84.573860 0.000000 0.332475
nan nan nan 0.000000
nan nan nan 0.000000
345.738983 15.912998 19.823584 0.401225
345.738953 15.913027 16.530302 0.421691
345.819000 15.818611 13.283093 0.678064
345.738953 15.913019 10.031878 0.395221
345.738953 15.913029 6.812237 0.434191
345.819000 15.818607 3.604960 0.678431
345.738953 15.913015 0.397067 0.400735
308.719086 59.575539 -0.000015 0.533211
298.165039 72.023338 0.000014 0.531863
293.634003 77.367424 0.000010 0.532721
291.110443 80.343796 0.000007 0.516422
289.499359 82.243950 0.000003 0.536274
288.379608 83.564644 0.000001 0.531127
287.554596 84.537666 -0.000001 0.337623
nan nan nan 0.000000
nan nan nan 0.000000
nan nan nan 0.000000
345.738953 14.846762 16.651295 0.419730
345.835602 14.731138 13.380028 0.319730
345.738953 14.846764 10.098761 0.426348
345.738953 14.846769 6.852309 0.430882
345.835602 14.731138 3.618746 0.316544
345.738953 14.846773 0.383719 0.398775
308.501678 59.392494 -0.000015 0.535539
298.034790 71.913681 0.000015 0.531127
293.541168 77.289246 0.000009 0.543015
291.038422 80.283180 0.000009 0.531373
289.440674 82.194542 0.000006 0.543015
288.330139 83.523010 0.000003 0.540809
287.511963 84.501762 -0.000001 0.343260
nan nan nan 0.000000
nan nan nan 0.000000
nan nan nan 0.000000
nan nan nan 0.000000
nan nan nan 0.000000
345.738953 13.762543 10.167167 0.406373
345.738983 13.762522 6.893297 0.409926
345.760681 13.736179 3.630493 0.400000
345.738953 13.762541 0.370068 0.411275
308.282959 59.210972 -0.000015 0.538971
297.903778 71.804886 0.000013 0.537500
293.447784 77.211708 0.000007 0.528186
290.966003 80.223053 0.000005 0.529167
289.381622 82.145515 0.000002 0.510539
288.280396 83.481720 0.000003 0.518995
287.469055 84.466156 -0.000004 0.336397
nan nan nan 0.000000
nan nan nan 0.000000
nan nan nan 0.000000
nan nan nan 0.000000
nan nan nan 0.000000
nan nan nan 0.000000
nan nan nan 0.000000
nan nan nan 0.000000
nan nan nan 0.000000
308.062988 59.030983 -0.000015 0.530392
297.771973 71.697075 0.000015 0.533946
293.353851 77.134865 0.000009 0.537868
290.893158 80.163445 0.000008 0.516176
289.322205 82.096931 0.000005 0.551838
288.230377 83.440788 0.000005 0.497794
287.425934 84.430855 -0.000005 0.343873
nan nan nan 0.000000
nan nan nan 0.000000
nan nan nan 0.000000
nan nan nan 0.000000
nan nan nan 0.000000
nan nan nan 0.000000
nan nan nan 0.000000
nan nan nan 0.000000
nan nan nan 0.000000
307.841797 58.852524 -0.000015 0.538971
297.639465 71.590134 0.000012 0.533946
293.259399 77.058632 0.000005 0.549387
290.819916 80.104324 0.000004 0.539338
289.262512 82.048744 0.000004 0.507843
288.180054 83.400185 0.000002 0.528431
287.382538 84.395851 -0.000003 0.320833
nan nan nan 0.000000
nan nan nan 0.000000
nan nan nan 0.000000
nan nan nan 0.000000
nan nan nan 0.000000
nan nan nan 0.000000
nan nan nan 0.000000
nan nan nan 0.000000
nan nan nan 0.000000
307.619354 58.675613 -0.000015 0.537745
297.506165 71.484161 0.000014 0.529167
293.164398 76.983101 0.000007 0.531250
290.746216 80.045769 0.000009 0.547304
289.202423 82.000999 0.000006 0.532230
288.129456 83.359955 0.000003 0.534436
287.338928 84.361160 -0.000004 0.335294
nan nan nan 0.000000
nan nan nan 0.000000
nan nan nan 0.000000
nan nan nan 0.000000
nan nan nan 0.000000
nan nan nan 0.000000
nan nan nan 0.000000
nan nan nan 0.000000
nan nan nan 0.000000
307.395660 58.500275 -0.000015 0.537868
297.372162 71.379082 0.000011 0.532966
293.068878 76.908203 0.000004 0.537745
290.672150 79.987686 0.000006 0.594118
289.142059 81.953636 0.000003 0.547794
288.078583 83.320053 0.000000 0.524020
287.295044 84.326775 -0.000002 0.339461
nan nan nan 0.000000
nan nan nan 0.000000
nan nan nan 0.000000
nan nan nan 0.000000
nan nan nan 0.000000
nan nan nan 0.000000
nan nan nan 0.000000
nan nan nan 0.000000
nan nan nan 0.000000
307.170746 58.326500 -0.000015 0.532598
297.237396 71.274986 0.000013 0.542034
292.972839 76.834023 0.000009 0.539828
290.597656 79.930138 0.000008 0.545221
289.081329 81.906715 0.000001 0.550735
288.027405 83.280540 0.000003 0.526103
287.250946 84.292686 -0.000004 0.339093
nan nan nan 0.000000
nan nan nan 0.000000
nan nan nan 0.000000
nan nan nan 0.000000
nan nan nan 0.000000
nan nan nan 0.000000
nan nan nan 0.000000
nan nan nan 0.000000
nan nan nan 0.000000
306.944672 58.154289 -0.000015 0.541054
297.101929 71.171837 0.000016 0.534926
292.876282 76.760490 0.000009 0.531740
290.522766 79.873108 0.000009 0.512868
289.020264 81.860222 0.000002 0.508824
287.975983 83.241379 0.000005 0.528064
287.206635 84.258919 -0.000003 0.332721
nan nan nan 0.000000
nan nan nan 0.000000
nan nan nan 0.000000
nan nan nan 0.000000
nan nan nan 0.000000
nan nan nan 0.000000
nan nan nan 0.000000
nan nan nan 0.000000
nan nan nan 0.000000
306.717346 57.983658 -0.000015 0.537500
296.965729 71.069633 0.000018 0.536887
292.779205 76.687637 0.000011 0.553064
290.447479 79.816612 0.000012 0.541789
288.958923 81.814163 0.000004 0.531863
287.924255 83.202576 0.000007 0.515686
287.162018 84.225449 -0.000004 0.340319
nan nan nan 0.000000
nan nan nan 0.000000
nan nan nan 0.000000
nan nan nan 0.000000
nan nan nan 0.000000
nan nan nan 0.000000
nan nan nan 0.000000
nan nan nan 0.000000
nan nan nan 0.000000
306.488861 57.814644 -0.000015 0.535294
296.828857 70.968323 0.000015 0.532598
292.681610 76.615440 0.000008 0.540441
290.371826 79.760597 0.000004 0.539583
288.897217 81.768509 0.000001 0.545343
287.872314 83.164116 0.000004 0.530025
287.117218 84.192322 0.000004 0.327819
nan nan nan 0.000000
nan nan nan 0.000000
nan nan nan 0.000000
nan nan nan 0.000000
nan nan nan 0.000000
nan nan nan 0.000000
nan nan nan 0.000000
nan nan nan 0.000000
nan nan nan 0.000000
306.259216 57.647198 -0.000015 0.536397
296.691223 70.868034 0.000017 0.520466
292.583557 76.543953 0.000010 0.539093
290.295746 79.705154 0.000006 0.520956
288.835236 81.723320 0.000005 0.535417
287.820068 83.126022 0.000002 0.559804
287.072144 84.159485 0.000003 0.327083
nan nan nan 0.000000
nan nan nan 0.000000
nan nan nan 0.000000
nan nan nan 0.000000
nan nan nan 0.000000
nan nan nan 0.000000
nan nan nan 0.000000
nan nan nan 0.000000
nan nan nan 0.000000
306.028381 57.481369 -0.000015 0.536029
296.552917 70.768692 0.000019 0.535662
292.484985 76.473129 0.000009 0.539216
290.219330 79.650246 0.000008 0.527451
288.772888 81.678566 0.000007 0.547426
287.767578 83.088318 0.000005 0.527206
287.026886 84.126945 -0.000001 0.329167
nan nan nan 0.000000
nan nan nan 0.000000
nan nan nan 0.000000
nan nan nan 0.000000
nan nan nan 0.000000
nan nan nan 0.000000
nan nan nan 0.000000
nan nan nan 0.000000
nan nan nan 0.000000
305.796417 57.317089 -0.000019 0.531495
296.413971 70.670280 0.000015 0.537500
292.385925 76.402977 0.000005 0.531250
290.142487 79.595856 0.000007 0.541544
288.710266 81.634216 0.000003 0.528186
287.714783 83.050964 0.000004 0.558578
286.981384 84.094749 0.000001 0.335662
nan nan nan 0.000000
nan nan nan 0.000000
nan nan nan 0.000000
nan nan nan 0.000000
nan nan nan 0.000000
nan nan nan 0.000000
nan nan nan 0.000000
nan nan nan 0.000000
nan nan nan 0.000000
305.563354 57.154465 -0.000021 0.538971
296.274261 70.572891 0.000018 0.533701
292.286377 76.333565 0.000007 0.547794
290.065277 79.542023 0.000010 0.550490
288.647308 81.590332 0.000006 0.537990
287.661774 83.013985 0.000005 0.532230
286.935669 84.062859 -0.000001 0.330760
nan nan nan 0.000000
nan nan nan 0.000000
nan nan nan 0.000000
nan nan nan 0.000000
nan nan nan 0.000000
nan nan nan 0.000000
nan nan nan 0.000000
nan nan nan 0.000000
nan nan nan 0.000000
305.329041 56.993565 -0.000018 0.533701
296.133942 70.476440 0.000016 0.531127
292.186340 76.264832 0.000008 0.543015
289.987701 79.488731 0.000011 0.533456
288.584076 81.546883 0.000009 0.564338
287.608490 82.977379 0.000007 0.496324
286.867279 84.064255 0.009995 1.000000
nan nan nan 0.000000
nan nan nan 0.000000
nan nan nan 0.000000
307.445709 53.333214 8.664591 0.627206
307.445709 53.333214 7.168669 0.093750
nan nan nan 0.000000
nan nan nan 0.000000
nan nan nan 0.000000
nan nan nan 0.000000
305.093719 56.834209 -0.000020 0.534926
295.992950 70.380951 0.000012 0.540196
292.085846 76.196785 0.000005 0.541789
289.909760 79.435944 0.000008 0.537132
288.520538 81.503853 0.000005 0.531495
287.554962 82.941116 0.000000 0.525613
286.821320 84.033173 0.009996 1.000000
nan nan nan 0.000000
nan nan nan 0.000000
307.151764 53.209026 10.164243 0.734804
307.069580 53.333218 8.633638 0.270466
307.069580 53.333218 7.144664 0.130515
307.151764 53.209023 5.679071 0.724265
307.151764 53.209023 4.204287 0.698039
307.151764 53.209023 2.734237 0.724265
307.116241 53.262711 1.266816 0.733578
304.857239 56.676556 -0.000019 0.537990
295.851257 70.286507 0.000014 0.548162
291.984833 76.129517 0.000015 0.542770
289.831451 79.383720 0.000006 0.547672
288.456665 81.461296 0.000009 0.527328
287.501160 82.905258 0.000002 0.552696
286.775177 84.002403 0.009996 1.000000
nan nan nan 0.000000
nan nan nan 0.000000
306.777863 53.209030 10.126897 0.734804
306.742889 53.262711 8.615781 0.741176
306.696930 53.333218 7.121131 0.145956
306.777863 53.209030 5.662242 0.722917
306.777863 53.209019 4.194204 0.721446
306.777863 53.209030 2.730879 0.721691
306.742859 53.262711 1.270169 0.721814
304.619659 56.520515 -0.000021 0.531740
295.708954 70.192993 0.000011 0.530637
291.883392 76.062874 0.000011 0.542157
289.752777 79.332031 0.000002 0.535172
288.392548 81.419159 0.000006 0.543995
287.447144 82.869766 -0.000000 0.530637
286.728821 83.971954 0.009997 1.000000
nan nan nan 0.000000
nan nan nan 0.000000
306.407349 53.209011 10.090290 0.722672
306.372894 53.262711 8.585978 0.729902
306.327667 53.333214 7.098062 0.145098
306.407349 53.209023 5.645743 0.729412
306.407349 53.209023 4.184318 0.725980
306.407349 53.209015 2.727586 0.737500
306.372894 53.262711 1.273458 0.729412
304.380981 56.366203 -0.000019 0.536887
295.565918 70.100540 0.000013 0.534804
291.781464 75.996971 0.000014 0.528799
289.673737 79.280922 0.000004 0.544240
288.328125 81.377480 0.000004 0.510049
287.392853 82.834671 0.000002 0.559314
286.682220 83.941849 0.009999 1.000000
nan nan nan 0.000000
nan nan nan 0.000000
306.040161 53.209015 10.054396 0.702941
306.006226 53.262711 8.556756 0.729412
305.986938 53.293221 7.080886 0.715686
306.040161 53.209026 5.629569 0.704289
306.040161 53.209026 4.174627 0.729044
306.040161 53.209026 2.724358 0.735294
306.006226 53.262714 1.276681 0.733333
304.141296 56.213482 -0.000021 0.535539
295.422333 70.009079 0.000015 0.537623
291.679077 75.931793 0.000015 0.539706
289.594330 79.230377 0.000008 0.532108
288.263367 81.336273 0.000006 0.512500
287.338287 82.799957 0.000007 0.560539
286.635468 83.912056 0.010001 1.000000
nan nan nan 0.000000
305.834137 52.955208 11.583245 0.528676
305.676178 53.209019 10.019207 0.729412
305.642761 53.262714 8.528111 0.724265
305.598907 53.333214 7.053270 0.136887
305.676178 53.209015 5.613714 0.729044
305.676178 53.209023 4.165127 0.737500
305.598907 53.333225 2.718799 0.190809
305.642761 53.262718 1.279841 0.730392
303.900482 56.062500 -0.000020 0.537255
295.278046 69.918594 0.000013 0.531127
291.576294 75.867249 0.000008 0.530515
289.514587 79.180344 0.000004 0.560294
288.198364 81.295479 0.000003 0.514216
287.283569 82.765594 0.000003 0.543382
286.588470 83.882584 0.010001 1.000000
nan nan nan 0.000000
307.119507 50.264126 12.223646 0.562990
305.315338 53.209030 9.984712 0.704044
305.282440 53.262707 8.500032 0.730147
305.239258 53.333218 7.031533 0.129412
305.315338 53.209019 5.598168 0.722917
305.315338 53.209030 4.155814 0.730882
305.239258 53.333218 2.715708 0.140074
305.282471 53.262718 1.282939 0.731740
303.658630 55.913223 -0.000017 0.532475
295.133148 69.829155 0.000015 0.543995
291.473022 75.803497 0.000010 0.498897
289.434509 79.130913 0.000007 0.550980
288.133087 81.255188 0.000006 0.524632
287.228516 82.731636 0.000005 0.535662
286.541260 83.853447 0.010001 1.000000
nan nan nan 0.000000
nan nan nan 0.000000
304.957581 53.209023 9.950902 0.733946
304.925201 53.262711 8.472506 0.724387
304.882690 53.333218 7.010226 0.144608
304.957581 53.209015 5.582932 0.742770
304.957581 53.209023 4.146686 0.736397
304.882690 53.333218 2.712678 0.080025
304.925201 53.262722 1.285976 0.729412
303.415771 55.765583 -0.000018 0.534804
294.987610 69.740723 0.000017 0.535294
291.369293 75.740471 0.000012 0.539706
289.354065 79.082039 0.000011 0.559069
288.067505 81.215340 0.000008 0.533578
287.173309 82.698067 0.000009 0.537623
286.493866 83.824631 0.009998 1.000000
nan nan nan 0.000000
nan nan nan 0.000000
304.602814 53.209015 9.917759 0.734926
304.570984 53.262711 8.445524 0.734314
304.529114 53.333214 6.989340 0.117770
304.602814 53.209015 5.567998 0.721078
304.602844 53.209023 4.137737 0.724877
304.529114 53.333214 2.709707 0.082353
304.570984 53.262711 1.288951 0.728799
303.171875 55.619682 -0.000016 0.536765
294.841492 69.653313 0.000019 0.532843
291.265106 75.678177 0.000015 0.553431
289.273254 79.033730 0.000013 0.524877
288.001648 81.175926 0.000006 0.553431
287.117828 82.664879 0.000010 0.536887
286.466675 83.761826 -0.000001 0.334804
nan nan nan 0.000000
304.251038 53.209007 11.359705 0.728676
304.251007 53.209007 9.885272 0.721569
304.219666 53.262714 8.419081 0.723774
304.178436 53.333206 6.968872 0.108701
304.251007 53.209019 5.553357 0.725123
304.251007 53.209015 4.128967 0.735294
304.178436 53.333214 2.706794 0.077819
304.219635 53.262711 1.291869 0.736397
302.926971 55.475445 -0.000017 0.540196
294.694763 69.566872 0.000016 0.527451
291.160553 75.616585 0.000013 0.547059
289.192169 78.985947 0.000011 0.515074
287.935547 81.136971 0.000003 0.521814
287.062134 82.632057 0.000005 0.568137
286.418671 83.733482 -0.000017 0.327206
nan nan nan 0.000000
303.902069 53.209015 11.321914 0.733701
303.902069 53.209015 9.853436 0.690074
303.871185 53.262714 8.393164 0.729902
303.830658 53.333214 6.948810 0.119975
303.902069 53.209015 5.539011 0.729412
303.902039 53.209007 4.120371 0.729044
303.830658 53.333214 2.703941 0.086520
303.871185 53.262707 1.294728 0.720098
302.681030 55.332981 -0.000015 0.538235
294.547424 69.481514 0.000018 0.545588
291.055542 75.555740 0.000015 0.525245
289.110718 78.938766 0.000014 0.541299
287.869171 81.098511 0.000006 0.529167
287.006165 82.599648 0.000007 0.546078
286.370392 83.705635 0.000012 0.326471
nan nan nan 0.000000
303.555847 53.209015 11.284876 0.714828
303.555847 53.209015 9.822235 0.726225
303.555847 53.209015 8.376913 0.718627
303.485626 53.333199 6.929148 0.094118
303.555847 53.209015 5.524951 0.731863
303.555847 53.209015 4.111947 0.733333
303.485626 53.333214 2.701145 0.080270
303.525482 53.262718 1.297530 0.728799
302.434143 55.192169 -0.000016 0.539461
294.399536 69.397148 0.000017 0.548652
290.950073 75.495628 0.000017 0.528309
289.028931 78.892159 0.000016 0.546936
287.802490 81.060516 0.000009 0.514461
286.950012 82.567635 0.000009 0.572304
286.321899 83.678131 0.000042 0.328064
nan nan nan 0.000000
303.212433 53.209007 11.248585 0.729412
303.212402 53.209015 9.791656 0.732721
303.212402 53.209015 8.351986 0.725123
303.143311 53.333206 6.909881 0.107721
303.212402 53.209015 5.511171 0.727451
303.212402 53.209015 4.103690 0.734926
303.143311 53.333206 2.698404 0.081373
303.182556 53.262718 1.300276 0.721569
302.186279 55.053082 -0.000017 0.533211
294.251007 69.313797 0.000013 0.537623
290.844269 75.436195 0.000009 0.532598
288.946869 78.846069 0.000012 0.515074
287.735565 81.022949 0.000005 0.544363
286.893646 82.535980 0.000002 0.512132
286.273376 83.650726 0.000005 0.334559
306.802979 46.026215 14.736072 0.699387
302.871613 53.209015 11.213017 0.737010
302.871613 53.209015 9.761692 0.729412
302.871613 53.209015 8.327559 0.721569
302.803619 53.333202 6.890998 0.458701
302.871613 53.209015 5.497668 0.729657
302.871613 53.209015 4.095600 0.729779
302.803619 53.333199 2.695718 0.065809
302.842194 53.262718 1.302967 0.721569
301.937500 54.915657 -0.000022 0.537010
294.101959 69.231468 0.000010 0.535294
290.738037 75.377518 0.000007 0.534314
288.864502 78.800552 0.000006 0.525368
287.668396 80.985870 0.000005 0.538848
286.837067 82.504723 -0.000002 0.523652
286.224487 83.623909 0.000039 0.329167
306.399872 46.026215 14.687899 0.789706
302.533417 53.209011 11.178170 0.722059
302.533417 53.209023 9.732334 0.729412
302.533417 53.209015 8.303625 0.724632
302.504486 53.262711 6.881709 0.721569
302.504486 53.262711 5.479439 0.767402
302.533417 53.209023 4.087674 0.722917
302.466553 53.333210 2.693086 0.089828
302.504486 53.262711 1.305604 0.726716
301.687683 54.780113 -0.000020 0.539706
293.952301 69.150253 0.000011 0.519975
290.631348 75.319633 0.000008 0.540686
288.781738 78.755661 0.000008 0.518137
287.600922 80.949280 0.000008 0.568382
286.780212 82.473900 0.000002 0.527206
286.175598 83.597183 0.000001 0.506495
305.999756 46.026215 14.640706 0.788971
302.197723 53.209011 11.144030 0.752941
302.197754 53.209026 9.703573 0.729412
302.197723 53.209015 8.280178 0.716912
302.169312 53.262703 6.863551 0.711275
302.169312 53.262707 5.466497 0.726225
302.197723 53.209015 4.079909 0.729412
302.131989 53.333206 2.690509 0.390686
302.169281 53.262714 1.308187 0.741544
301.436981 54.646244 -0.000021 0.534436
293.802002 69.070190 0.000022 0.522304
290.524261 75.262489 0.000010 0.531127
288.698700 78.711349 0.000010 0.545711
287.533234 80.913162 0.000010 0.540441
286.723175 82.443466 0.000004 0.525613
286.126404 83.570930 -0.000001 0.509436
305.602600 46.026211 14.594472 0.819608
301.864532 53.209011 11.110586 0.752941
301.864532 53.209015 9.675396 0.737868
301.864532 53.209011 8.257210 0.725123
301.836609 53.262703 6.845762 0.721569
301.836609 53.262707 5.453819 0.747672
301.864532 53.209015 4.072302 0.722304
301.799896 53.333202 2.687983 0.070711
301.836609 53.262703 1.310717 0.730147
301.185333 54.514145 -0.000022 0.533824
293.651215 68.991089 0.000026 0.544485
290.416779 75.206131 0.000015 0.556618
288.615326 78.667633 0.000013 0.530882
287.465271 80.877510 0.000014 0.528064
286.665955 82.413445 0.000011 0.551593
286.076996 83.545067 0.000010 0.558333
305.208313 46.026215 14.549185 0.826226
301.533752 53.209015 11.077826 0.730637
301.533752 53.209019 9.647797 0.728309
301.533752 53.209015 8.234709 0.721569
301.506287 53.262707 6.828339 0.699265
301.506287 53.262699 5.441399 0.733333
301.533752 53.209007 4.064850 0.724265
301.470215 53.333214 2.685508 0.093505
301.506287 53.262711 1.313195 0.730760
300.932739 54.383869 -0.000019 0.536029
293.499878 68.913033 0.000028 0.541176
290.308929 75.150490 0.000017 0.537990
288.531677 78.624481 0.000016 0.525000
287.397095 80.842316 0.000012 0.530515
286.608490 82.383820 0.000013 0.549755
286.027496 83.519516 0.000013 0.547181
304.816833 46.026215 14.504825 0.830882
301.205322 53.209007 11.045738 0.728676
301.205322 53.209015 9.620767 0.706005
301.205292 53.209019 8.212670 0.722917
301.178314 53.262703 6.811272 0.728799
301.178314 53.262703 5.429236 0.727083
301.205322 53.209015 4.057550 0.724020
301.142853 53.333206 2.683086 0.095833
301.178314 53.262703 1.315623 0.731985
300.679260 54.255295 -0.000020 0.534559
293.348022 68.835953 0.000024 0.519853
290.200684 75.095551 0.000013 0.539706
288.447784 78.581856 0.000008 0.534191
287.328674 80.807579 0.000008 0.561152
286.550842 82.354553 0.000009 0.542034
285.977814 83.494278 0.000005 0.564828
300.852661 53.262703 12.439559 0.730637
300.852661 53.262703 11.001382 0.709804
300.879181 53.209007 9.594296 0.723897
300.879181 53.209019 8.191090 0.721569
300.852661 53.262711 6.794559 0.712990
300.852661 53.262703 5.417323 0.719485
300.879181 53.209015 4.050404 0.729412
300.817810 53.333218 2.680713 0.086275
300.852661 53.262714 1.318001 0.722794
300.424866 54.128475 -0.000022 0.536152
293.195648 68.759972 0.000021 0.545711
290.092102 75.041359 0.000007 0.553186
288.363525 78.539848 0.000005 0.517034
287.259979 80.773346 0.000006 0.548897
286.492981 82.325684 0.000002 0.545098
285.927917 83.469398 0.000004 0.541422
300.529236 53.262711 12.403924 0.733333
300.529236 53.262707 10.970655 0.709804
300.555298 53.209003 9.568373 0.728431
300.555298 53.209003 8.169960 0.732230
300.529205 53.262707 6.778192 0.712377
300.529236 53.262707 5.405659 0.721324
300.555298 53.209007 4.043406 0.729902
300.494995 53.333206 2.678390 0.094118
300.529205 53.262711 1.320328 0.732721
300.169617 54.003456 -0.000022 0.538848
293.042694 68.685081 0.000022 0.540686
289.983063 74.988007 0.000010 0.529167
288.278961 78.498474 0.000010 0.529412
287.191040 80.739609 0.000010 0.543873
286.434906 82.297272 0.000006 0.532843
285.877838 83.444893 0.000004 0.550735
300.207977 53.262707 12.369036 0.717770
300.207977 53.262703 10.940574 0.721814
300.233582 53.209011 9.542994 0.736274
300.233582 53.209007 8.149269 0.725858
300.207977 53.262707 6.762171 0.721569
300.207977 53.262714 5.394238 0.729412
300.233582 53.209007 4.036553 0.729412
300.174347 53.333214 2.676115 0.105882
300.207977 53.262718 1.322607 0.721691
299.913483 53.880295 -0.000019 0.537132
292.889313 68.611176 0.000015 0.550368
289.873718 74.935341 0.000004 0.531495
288.194183 78.457626 0.000003 0.534436
287.121948 80.706291 -0.000000 0.511520
286.376678 82.269211 0.000000 0.522794
285.827606 83.420692 -0.000003 0.571078
299.888855 53.262707 12.334886 0.721569
299.888855 53.262703 10.911128 0.727696
299.914001 53.209015 9.518150 0.722304
299.914001 53.209011 8.129017 0.729412
299.888855 53.262711 6.746487 0.736520
299.888855 53.262707 5.383059 0.741176
299.914001 53.209015 4.029846 0.727574
299.855865 53.333202 2.673888 0.075490
299.888855 53.262711 1.324839 0.717892
299.656525 53.758865 -0.000019 0.534191
292.735321 68.538467 0.000019 0.538235
289.763947 74.883583 0.000016 0.550245
288.109070 78.417435 0.000007 0.536520
287.052551 80.673531 0.000004 0.543627
286.318237 82.241600 0.000001 0.507721
285.777191 83.396896 0.000001 0.561152
299.571838 53.262711 12.301457 0.718995
299.571838 53.262711 10.882303 0.741176
299.596527 53.209015 9.493832 0.752941
299.596527 53.209015 8.109191 0.725368
299.571838 53.262711 6.731133 0.724020
299.571838 53.262711 5.372117 0.725858
299.596527 53.209015 4.023280 0.723774
299.539429 53.333206 2.671708 0.077574
299.571838 53.262711 1.327022 0.725490
299.398712 53.639191 -0.000021 0.528309
292.580841 68.466805 0.000021 0.531250
289.653839 74.832512 0.000019 0.537010
288.023682 78.377853 0.000014 0.540809
286.982941 80.641235 0.000006 0.549877
286.259613 82.214394 0.000003 0.526593
285.726654 83.373428 0.000000 0.549142
299.256836 53.262703 12.268744 0.707475
299.256836 53.262703 10.854101 0.727941
299.225006 53.333199 9.445242 0.235049
299.281067 53.209015 8.089791 0.723284
299.256836 53.262703 6.716110 0.740441
299.256836 53.262703 5.361407 0.717157
299.281067 53.209011 4.016855 0.720466
299.225006 53.333199 2.669574 0.070098
299.256836 53.262703 1.329159 0.731618
299.140076 53.521317 -0.000022 0.533946
292.425934 68.396164 0.000017 0.542892
289.543427 74.782150 0.000014 0.536765
287.938019 78.338799 0.000010 0.530025
286.913147 80.609398 0.000001 0.505147
286.200745 82.187569 -0.000002 0.512990
285.675934 83.350334 0.000005 0.565686
298.943787 53.262711 12.236737 0.729412
298.943787 53.262711 10.826500 0.723407
298.912567 53.333206 9.422035 0.246569
298.967590 53.209015 8.070808 0.721446
298.943787 53.262711 6.701410 0.726961
298.943787 53.262711 5.350930 0.719485
298.967590 53.209015 4.010568 0.721569
298.912567 53.333206 2.667488 0.082598
298.943817 53.262703 1.331250 0.743137
298.880585 53.405380 -0.000018 0.535907
292.270447 68.326698 0.000021 0.533946
289.432617 74.732620 0.000015 0.526961
287.852081 78.300407 0.000015 0.544853
286.843048 80.578117 0.000011 0.554657
286.141724 82.161224 0.000007 0.530882
285.625031 83.327591 0.000009 0.504167
298.632721 53.262714 12.205421 0.725980
298.632721 53.262703 10.799500 0.723897
298.602081 53.333206 9.399330 0.223529
298.656067 53.209011 8.052239 0.726103
298.632721 53.262711 6.687027 0.739951
298.632721 53.262711 5.340680 0.698529
298.656067 53.209015 4.004418 0.732721
298.602051 53.333206 2.665446 0.082353
298.632721 53.262714 1.333296 0.716912
298.656067 53.209015 -0.004419 0.730515
292.114532 68.258217 0.000016 0.538848
289.321503 74.683800 0.000009 0.539461
287.765900 78.262550 0.000009 0.537010
286.772797 80.547256 0.000005 0.502819
286.082550 82.135223 0.000002 0.511275
285.573975 83.305176 0.000004 0.521691
298.323486 53.262711 12.174795 0.696814
298.323486 53.262711 10.773092 0.722672
298.293427 53.333210 9.377123 0.222181
298.346405 53.209007 8.034077 0.733088
298.323517 53.262711 6.672960 0.749755
298.323517 53.262711 5.330653 0.716789
298.346405 53.209007 3.998403 0.731373
298.293427 53.333210 2.663448 0.093873
298.323486 53.262711 1.335297 0.729412
298.359283 53.178757 -0.000019 0.533211
291.958130 68.190918 0.000020 0.541299
289.209991 74.635841 0.000014 0.543873
287.679443 78.225334 0.000010 0.556127
286.702301 80.516937 0.000009 0.531373
286.023163 82.109673 0.000007 0.551593
285.522797 83.283142 0.000005 0.537255
298.016113 53.262711 12.144839 0.738235
298.016113 53.262703 10.747268 0.721569
297.986633 53.333214 9.355407 0.192157
298.038574 53.209011 8.016313 0.732966
298.016113 53.262711 6.659205 0.738725
298.016113 53.262711 5.320850 0.721569
298.038574 53.209015 3.992520 0.722549
297.986633 53.333210 2.661496 0.089338
298.016113 53.262711 1.337254 0.734069
298.038574 53.209015 0.007480 0.722426
291.801239 68.124687 0.000021 0.534681
289.098175 74.588661 0.000018 0.548652
287.592743 78.188736 0.000014 0.543750
286.631592 80.487083 0.000010 0.553554
285.963593 82.084534 0.000008 0.544976
285.471436 83.261467 0.000009 0.536520
297.710571 53.262711 12.115557 0.717525
297.710571 53.262711 10.722015 0.709804
297.681641 53.333214 9.334175 0.223529
297.732544 53.209007 7.998945 0.729412
297.681641 53.333199 6.636991 0.192157
297.710541 53.262711 5.311263 0.735294
297.732544 53.209007 3.986769 0.731127
297.681641 53.333210 2.659586 0.082353
297.710541 53.262711 1.339167 0.721569
297.732544 53.209019 0.013232 0.751471
291.643921 68.059479 0.000015 0.538725
288.986053 74.542183 0.000013 0.550613
287.505768 78.152695 0.000009 0.528186
286.560730 80.457710 0.000005 0.543873
285.903870 82.059784 0.000003 0.458088
285.419922 83.240112 0.000001 0.542525
297.406708 53.262703 12.086930 0.724510
297.406708 53.262703 10.697335 0.718750
297.378387 53.333214 9.313420 0.195343
297.428284 53.209015 7.981968 0.726348
297.378387 53.333202 6.623868 0.181250
297.406708 53.262707 5.301893 0.728676
297.428284 53.209003 3.981146 0.720956
297.378387 53.333214 2.657720 0.074510
297.406708 53.262718 1.341037 0.728676
297.428284 53.209000 0.018853 0.736520
291.486145 67.995483 0.000020 0.538480
288.873596 74.496552 0.000015 0.526838
287.418549 78.117325 0.000014 0.544240
286.489624 80.428864 0.000010 0.505515
285.843964 82.035477 0.000008 0.523162
285.368286 83.219162 0.000005 0.557476
297.104553 53.262711 12.058957 0.723039
297.104553 53.262711 10.673211 0.723897
297.076782 53.333206 9.293135 0.231495
297.125702 53.209015 7.965378 0.725123
297.076782 53.333206 6.611044 0.160784
297.104553 53.262707 5.292736 0.724755
297.125702 53.209015 3.975651 0.738725
297.076782 53.333206 2.655896 0.086275
297.104553 53.262711 1.342864 0.729412
297.125702 53.209015 0.024348 0.730025
291.327942 67.932487 0.000015 0.527696
288.760834 74.451630 0.000009 0.528431
287.331085 78.082474 0.000005 0.540931
286.418335 80.400452 0.000001 0.517279
285.783905 82.011551 -0.000001 0.559436
285.316498 83.198563 0.000006 0.575245
296.824768 53.209003 12.046041 0.726961
296.803162 53.265129 10.649085 0.729167
296.783417 53.316292 9.276619 0.426348
296.824768 53.209000 7.949170 0.699265
296.776886 53.333206 6.598514 0.168627
296.803162 53.265129 5.283576 0.725980
296.824768 53.209011 3.970283 0.721569
296.776886 53.333218 2.654113 0.064338
296.803162 53.265125 1.344692 0.745221
296.824768 53.209000 0.029716 0.752941
291.169250 67.870705 0.000020 0.539951
288.647736 74.407600 0.000014 0.548162
287.243378 78.048317 0.000009 0.518137
286.346802 80.372612 0.000006 0.549265
285.723663 81.988136 0.000014 0.514706
285.264557 83.178337 0.000010 0.574020
296.525482 53.209007 12.019301 0.736520
296.505188 53.262711 10.626625 0.731985
296.478577 53.333206 9.253963 0.268505
296.525482 53.209007 7.933335 0.710662
296.478577 53.333214 6.586276 0.166054
296.505188 53.262711 5.275048 0.729412
296.525482 53.209007 3.965039 0.727451
296.525482 53.209007 2.654546 0.724510
296.505188 53.262711 1.346394 0.736887
296.525482 53.209007 0.034960 0.752941
291.010162 67.809906 0.000014 0.531985
288.534363 74.364273 0.000008 0.532721
287.155457 78.014709 0.000003 0.549265
286.275146 80.345222 0.000001 0.531250
285.663269 81.965042 0.000005 0.507353
285.212494 83.158424 0.000002 0.552083
296.227753 53.209015 11.993193 0.725980
296.207916 53.262695 10.604145 0.711275
296.181854 53.333210 9.235060 0.239706
296.227753 53.209015 7.917874 0.726961
296.181824 53.333214 6.574325 0.160784
296.207886 53.262711 5.266515 0.721569
296.227753 53.209015 3.959918 0.721569
296.227783 53.209011 2.652840 0.738848
296.207886 53.262711 1.348097 0.752941
296.227753 53.209015 0.040081 0.726471
290.850708 67.750267 0.000011 0.540809
288.420685 74.321793 0.000009 0.534804
287.067261 77.981812 0.000011 0.530637
286.203247 80.318398 0.000008 0.538848
285.602722 81.942406 0.000005 0.504044
285.160278 83.138916 0.000002 0.566054
295.931580 53.209007 11.967707 0.721569
295.912140 53.262703 10.582198 0.743750
295.886627 53.333206 9.216606 0.237745
295.886627 53.333206 7.883187 0.379902
295.886597 53.333210 6.562657 0.160784
295.912170 53.262707 5.258183 0.696446
295.931580 53.209007 3.954920 0.729412
295.931580 53.209007 2.651174 0.721569
295.912109 53.262707 1.349760 0.721569
295.931580 53.209007 0.045080 0.731740
290.690735 67.691818 0.000016 0.525980
288.306641 74.280190 0.000020 0.532230
286.978851 77.949501 0.000016 0.531863
286.131195 80.292053 0.000012 0.488971
285.541992 81.920219 0.000010 0.550735
285.107910 83.119781 0.000007 0.506250
295.636871 53.209015 11.942828 0.721569
295.617859 53.262703 10.560780 0.735662
295.592896 53.333202 9.198595 0.235662
295.607056 53.293205 7.874800 0.709804
295.607056 53.293205 6.556151 0.716054
295.617859 53.262711 5.250050 0.711275
295.636871 53.209003 3.950040 0.729044
295.636871 53.209007 2.649550 0.710049
295.617859 53.262711 1.351382 0.729412
295.636871 53.209015 0.049958 0.698039
290.530426 67.634407 0.000014 0.560662
288.192383 74.239265 0.000018 0.551716
286.890259 77.917763 0.000013 0.552083
286.058929 80.266182 0.000010 0.534436
285.481140 81.898415 0.000005 0.534436
285.055450 83.100975 0.000001 0.567157
295.343628 53.209007 11.918557 0.724387
295.325043 53.262703 10.539883 0.713971
295.300629 53.333210 9.181025 0.224020
295.300629 53.333214 7.854179 0.168873
295.300629 53.333214 6.540159 0.192157
295.325043 53.262703 5.242118 0.714216
295.343628 53.209007 3.945281 0.735907
295.343628 53.209007 2.647964 0.718627
295.325043 53.262707 1.352966 0.732230
295.343628 53.209007 0.054719 0.721569
290.369690 67.578201 0.000019 0.552206
288.077881 74.199120 0.000013 0.546078
286.801422 77.886627 0.000008 0.553309
285.986511 80.240784 0.000002 0.574755
285.420135 81.877029 -0.000001 0.532843
285.002838 83.082565 0.000005 0.561642
295.051819 53.209015 11.894887 0.732966
295.033600 53.262703 10.519505 0.724142
295.009766 53.333206 9.163887 0.229534
295.009796 53.333195 7.840212 0.131495
295.009796 53.333206 6.529326 0.193382
295.033600 53.262707 5.234381 0.719363
295.051788 53.209003 3.940638 0.721691
295.051788 53.209000 2.646417 0.717279
295.033600 53.262703 1.354510 0.730515
295.051788 53.209000 0.059361 0.727451
290.208557 67.523193 0.000030 0.527206
287.963013 74.159904 0.000023 0.541054
286.712341 77.856209 0.000016 0.544240
285.913879 80.215996 0.000012 0.567770
285.358978 81.856125 0.000006 0.544118
284.950073 83.064552 0.000014 0.531985
294.761353 53.209000 11.871811 0.725735
294.743591 53.262711 10.499632 0.718260
294.743591 53.262703 9.160688 0.723529
294.720276 53.333202 7.826589 0.175858
294.720276 53.333206 6.518762 0.192157
294.743591 53.262711 5.226837 0.719975
294.761353 53.209007 3.936112 0.736029
294.761353 53.209007 2.644910 0.728064
294.743591 53.262711 1.356016 0.740196
294.761353 53.209007 0.063887 0.698039
290.047058 67.469147 0.000028 0.530025
287.847900 74.121361 0.000017 0.544730
286.623108 77.826332 0.000013 0.549510
285.841125 80.191620 0.000007 0.572917
285.297638 81.835648 0.000014 0.524755
284.897247 83.046852 0.000009 0.562623
294.472229 53.209011 11.849319 0.684559
294.454865 53.262699 10.480268 0.723407
294.454865 53.262711 9.144374 0.734559
294.432129 53.333202 7.813314 0.160784
294.432129 53.333199 6.508467 0.229902
294.454865 53.262699 5.219485 0.729412
294.472229 53.209003 3.931702 0.739706
294.472229 53.209003 2.643440 0.699142
294.454865 53.262699 1.357483 0.724020
294.472229 53.209003 0.068298 0.729412
289.885223 67.416161 0.000019 0.540319
287.732544 74.083618 0.000012 0.536765
286.533630 77.797058 0.000007 0.537377
285.768188 80.167763 0.000001 0.554902
285.236206 81.815536 0.000006 0.562745
284.844269 83.029518 0.000003 0.540686
294.184387 53.209007 11.827409 0.701838
294.167480 53.262703 10.461403 0.721569
294.167480 53.262711 9.128480 0.733946
294.145264 53.333199 7.800382 0.160784
294.145233 53.333206 6.498436 0.241422
294.167480 53.262711 5.212322 0.730515
294.184387 53.209011 3.927403 0.722794
294.184387 53.209011 2.642008 0.715074
294.167480 53.262711 1.358912 0.722917
294.184387 53.209011 0.072596 0.729412
289.722992 67.364418 0.000019 0.542892
287.616913 74.046738 0.000012 0.540074
286.443939 77.768433 0.000004 0.538725
285.695099 80.144440 0.000001 0.537990
285.174622 81.795891 0.000005 0.527083
284.791138 83.012566 0.000000 0.534681
293.897858 53.209015 11.806068 0.721446
293.881317 53.262703 10.443030 0.725490
293.881317 53.262703 9.113003 0.725368
293.859619 53.333206 7.787786 0.129412
293.859619 53.333210 6.488668 0.279657
293.881317 53.262707 5.205348 0.741544
293.897858 53.209015 3.923219 0.725123
293.897827 53.209015 2.640615 0.716789
293.881317 53.262707 1.360304 0.722549
293.897858 53.209015 0.076781 0.712623
289.560425 67.313766 0.000017 0.527696
287.501068 74.010635 0.000009 0.552696
286.354065 77.740433 0.000002 0.547304
285.621826 80.121658 0.000006 0.531495
285.112885 81.776642 -0.000001 0.560907
284.737946 82.995987 -0.000002 0.538113
293.612518 53.209007 11.785303 0.730515
293.596405 53.262711 10.425149 0.718873
293.596405 53.262707 9.097939 0.723039
293.575256 53.333199 7.775529 0.094118
293.579498 53.319138 6.480854 0.571814
293.596405 53.262711 5.198560 0.732108
293.612518 53.209007 3.919145 0.727451
293.612518 53.209007 2.639258 0.727451
293.596405 53.262711 1.361659 0.733088
293.612518 53.209007 0.080854 0.726471
289.397461 67.264381 0.000025 0.531740
287.384918 73.975403 0.000014 0.536520
286.264008 77.713135 0.000010 0.531373
285.548370 80.099403 0.000014 0.498284
285.051025 81.757904 0.000009 0.550245
284.684570 82.979858 0.000014 0.609191
293.328400 53.209015 11.765094 0.723407
293.312683 53.262707 10.407752 0.724632
293.312683 53.262711 9.083281 0.729412
293.292084 53.333202 7.763603 0.218015
293.328400 53.209015 6.484799 0.726716
293.312683 53.262707 5.191955 0.727819
293.328369 53.209015 3.915183 0.724510
293.328369 53.209000 2.637939 0.733088
293.312683 53.262703 1.362977 0.757353
293.328369 53.209003 0.084817 0.724142
289.234192 67.216042 0.000025 0.552696
287.268524 73.940948 0.000015 0.513480
286.173737 77.686462 0.000019 0.532721
285.474792 80.077599 0.000012 0.575858
284.989014 81.739540 0.000007 0.528431
284.631134 82.964020 0.000013 0.552083
293.045410 53.209007 11.745447 0.742770
293.030121 53.262703 10.390834 0.741176
293.030121 53.262703 9.069027 0.704289
293.010040 53.333202 7.752006 0.133088
293.057495 53.166565 6.480851 0.518995
293.030121 53.262718 5.185532 0.721691
293.045410 53.209011 3.911329 0.724755
293.045380 53.209015 2.636655 0.721569
293.030121 53.262718 1.364259 0.738848
293.045410 53.209007 0.088670 0.723774
289.070587 67.168770 0.000020 0.531005
287.151917 73.907280 0.000012 0.544363
286.083313 77.660355 0.000015 0.529902
285.401093 80.056313 0.000008 0.548039
284.926910 81.721657 0.000014 0.527451
284.577576 82.948555 0.000008 0.582353
292.763550 53.209007 11.726349 0.730147
292.748627 53.262711 10.374390 0.721814
292.748627 53.262711 9.055176 0.734069
292.729126 53.333202 7.740734 0.105515
292.763550 53.209003 6.467004 0.733333
292.748627 53.262711 5.179290 0.721936
292.763550 53.209007 3.907584 0.728064
292.763550 53.209007 2.635407 0.725735
292.748627 53.262711 1.365505 0.750490
292.763519 53.209007 0.092416 0.733333
288.906677 67.122620 0.000013 0.544363
287.035065 73.874458 0.000013 0.529657
285.992706 77.634850 0.000008 0.527083
285.327209 80.035500 -0.000002 0.526348
284.864685 81.704124 0.000005 0.525613
284.523926 82.933434 -0.000003 0.570956
292.482788 53.208996 11.707801 0.731373
292.482788 53.209007 10.370431 0.735662
292.482788 53.209007 9.051840 0.712868
292.449280 53.333202 7.729785 0.105270
292.482758 53.209007 6.458484 0.722549
292.482788 53.209007 5.177786 0.725368
292.482788 53.209007 3.903945 0.710907
292.482788 53.209000 2.634196 0.722304
292.482788 53.209007 1.365805 0.738358
292.482788 53.209007 0.096054 0.722672
288.742401 67.077812 0.000021 0.536029
286.917969 73.842529 0.000023 0.548284
285.901886 77.610062 0.000014 0.547304
285.253204 80.015305 0.000007 0.537745
284.802338 81.687103 0.000013 0.533456
284.470154 82.918762 0.000005 0.563971
292.203064 53.209007 11.689793 0.725858
292.188995 53.262703 10.342914 0.728676
292.188995 53.262703 9.028656 0.730882
292.170502 53.333218 7.719154 0.092770
292.203064 53.209007 6.450214 0.725490
292.188995 53.262703 5.167339 0.741176
292.203064 53.209007 3.900413 0.721569
292.203064 53.209011 2.633019 0.732721
292.188995 53.262703 1.367890 0.728554
292.203064 53.209007 0.099586 0.741176
288.577850 67.033943 0.000013 0.540196
286.800720 73.811256 0.000013 0.538603
285.810944 77.585815 0.000006 0.513235
285.179047 79.995544 -0.000001 0.540196
