# This PCD file was generated using the MATLABÂ® pcwrite function
# from Computer Vision ToolboxÂ®.
# .PCD v.7 - Point Cloud Data file format
VERSION .7
FIELDS x y z intensity
SIZE 4 4 4 4
TYPE F F F F
COUNT 1 1 1 1
WIDTH 1207
HEIGHT 1
VIEWPOINT 0 0 0 1 0 0 0
POINTS 1207
DATA ascii
386.326508 153.839050 7.550704 0.635294
386.327362 153.838287 6.304938 0.659804
386.325073 153.840271 5.068096 0.613603
386.324707 153.840561 3.838202 0.653922
386.327362 153.838303 2.612353 0.652451
386.325684 153.839737 1.387683 0.658578
386.326324 153.839203 0.161693 0.651593
376.390137 162.265854 0.000026 0.523897
371.046692 166.797516 0.000017 0.543260
368.070679 169.321396 0.000005 0.504534
366.170715 170.932739 0.000010 0.541422
364.850128 172.052673 0.000013 0.554167
363.877228 172.877777 0.000005 0.530392
nan nan nan 0.000000
388.555603 151.577103 10.765279 0.632721
386.424866 153.409836 8.873101 0.241054
386.328705 153.492554 7.584335 0.617279
386.327484 153.493622 6.330700 0.667892
386.328339 153.492874 5.086799 0.681740
386.326141 153.494751 3.849290 0.651348
386.325439 153.495361 2.615974 0.672181
386.326691 153.494293 1.383999 0.650980
386.326263 153.494659 0.150702 0.648039
376.279541 162.136383 0.000028 0.525858
370.967804 166.705261 0.000023 0.545098
368.009521 169.249847 0.000009 0.540564
366.120819 170.874405 0.000013 0.540074
364.808136 172.003540 0.000015 0.564951
363.841003 172.835403 0.000008 0.562255
nan nan nan 0.000000
387.973816 151.708618 10.651705 0.561642
386.463196 153.026443 8.924047 0.602819
386.324036 153.147858 7.617290 0.620833
386.327728 153.144638 6.357005 0.625123
386.327148 153.145126 5.105397 0.663603
386.327637 153.144699 3.860605 0.675245
386.325775 153.146332 2.619718 0.695221
386.326508 153.145691 1.380266 0.652819
386.326202 153.145950 0.139488 0.655270
376.168030 162.007660 0.000027 0.538358
370.888367 166.613510 0.000021 0.551716
367.947906 169.178696 0.000010 0.530515
366.070587 170.816406 0.000011 0.525123
364.765839 171.954651 0.000009 0.537745
363.804504 172.793274 0.000009 0.586029
nan nan nan 0.000000
387.608429 151.658508 10.599566 0.633456
386.490570 152.647537 8.973292 0.668382
386.326660 152.792572 7.652367 0.664828
386.328064 152.791290 6.383868 0.646078
386.326050 152.793091 5.124381 0.675858
386.325806 152.793304 3.871931 0.642279
386.326141 152.793030 2.623538 0.643382
386.326355 152.792831 1.376457 0.650000
386.326294 152.792892 0.128038 0.658946
376.055664 161.879730 0.000024 0.544485
370.808319 166.522278 0.000012 0.543015
367.885742 169.107986 0.000013 0.550368
366.019958 170.758759 0.000014 0.539828
364.723175 171.906082 0.000007 0.528309
363.767731 172.751389 0.000005 0.506250
nan nan nan 0.000000
387.654358 151.243835 10.666547 0.619608
386.529663 152.252975 9.026367 0.658701
386.329498 152.432602 7.688202 0.655025
386.328552 152.433426 6.411295 0.673162
386.324982 152.436615 5.143760 0.615074
386.327362 152.434494 3.883715 0.673284
386.326447 152.435303 2.627437 0.682108
386.326141 152.435593 1.372570 0.664216
386.326233 152.435516 0.116360 0.643995
375.942413 161.752563 0.000021 0.541789
370.727600 166.431641 0.000009 0.503064
367.823151 169.037704 0.000010 0.524020
365.968933 170.701447 0.000011 0.496201
364.680176 171.857788 0.000004 0.560907
363.730682 172.709763 0.000004 0.503064
nan nan nan 0.000000
387.701233 150.822418 10.735085 0.637868
386.569122 151.852585 9.080534 0.603799
386.325348 152.074402 7.723371 0.666667
386.323364 152.076233 6.438397 0.693627
386.324005 152.075607 5.163546 0.647549
386.325562 152.074203 3.895516 0.686642
386.326813 152.073074 2.631415 0.661887
386.325958 152.073837 1.368604 0.640196
386.326263 152.073563 0.104436 0.670833
375.828247 161.626236 0.000024 0.529412
370.646240 166.341568 0.000007 0.551225
367.760040 168.967865 0.000012 0.538480
365.917450 170.644531 0.000014 0.551838
364.636810 171.809845 0.000009 0.557353
363.693298 172.668411 0.000008 0.554534
nan nan nan 0.000000
387.749237 150.393936 10.805245 0.194730
386.608917 151.446198 9.135833 0.268137
386.328644 151.704849 7.760765 0.694730
386.324066 151.709045 6.466998 0.691789
386.327728 151.705688 5.184262 0.655515
386.327209 151.706146 3.907792 0.653799
386.327179 151.706177 2.635476 0.679167
386.325775 151.707489 1.364556 0.694975
386.326233 151.707062 0.092274 0.650980
375.713196 161.500687 0.000025 0.539706
370.564209 166.252136 0.000013 0.514828
367.696442 168.898483 0.000013 0.528309
365.865601 170.587967 0.000014 0.540074
364.593140 171.762177 0.000009 0.585417
363.655640 172.627319 0.000011 0.493137
nan nan nan 0.000000
387.800323 149.956299 10.877680 0.529044
386.638641 151.043411 9.189685 0.158088
386.324860 151.337051 7.797495 0.695711
386.324951 151.336960 6.496210 0.646569
386.326904 151.335159 5.204894 0.670343
386.325470 151.336472 3.920092 0.652574
386.325287 151.336655 2.639569 0.659926
386.326752 151.335281 1.360398 0.659191
386.326263 151.335724 0.079855 0.662255
375.597290 161.375931 0.000023 0.531127
370.481628 166.163208 0.000011 0.522549
367.632385 168.829514 0.000009 0.557476
365.813385 170.531738 0.000013 0.538971
364.549164 171.714813 0.000007 0.554289
363.617706 172.586487 0.000008 0.510662
nan nan nan 0.000000
nan nan nan 0.000000
386.679535 150.624313 9.247398 0.670466
386.328644 150.957321 7.836533 0.655882
386.325989 150.959839 6.526052 0.676593
386.326141 150.959671 5.225963 0.653186
386.327209 150.958679 3.932882 0.693260
386.325684 150.960144 2.643800 0.675245
386.326569 150.959274 1.356181 0.672181
386.326263 150.959579 0.067182 0.710294
375.480499 161.252014 0.000023 0.537990
370.398346 166.074875 0.000011 0.551593
367.567841 168.761017 0.000012 0.546324
365.760773 170.475891 0.000012 0.553064
364.504791 171.667770 0.000005 0.559804
363.579468 172.545914 0.000008 0.479657
nan nan nan 0.000000
nan nan nan 0.000000
386.720886 150.198608 9.306355 0.706250
386.325287 150.579315 7.874913 0.662500
386.327179 150.577499 6.556540 0.674632
386.325470 150.579163 5.247479 0.698775
386.325531 150.579086 3.945706 0.652206
386.326050 150.578583 2.648118 0.680882
386.326355 150.578278 1.351875 0.660907
386.326263 150.578384 0.054242 0.664706
375.362885 161.128906 0.000023 0.543995
370.314514 165.987137 0.000010 0.522181
367.502777 168.692963 0.000012 0.544853
365.707733 170.420410 0.000010 0.500245
364.460144 171.621033 0.000005 0.548407
363.540955 172.505615 0.000008 0.561642
nan nan nan 0.000000
nan nan nan 0.000000
386.762756 149.766068 9.366596 0.645098
386.329590 150.188782 7.915684 0.676593
386.328491 150.189835 6.587688 0.643260
386.324860 150.193390 5.269457 0.537745
386.327301 150.190994 3.959039 0.630882
386.326477 150.191849 2.652526 0.654902
386.326172 150.192123 1.347480 0.643873
386.326263 150.192047 0.041035 0.622304
375.244385 161.006607 0.000022 0.527328
370.230042 165.899979 0.000011 0.536642
367.437256 168.625381 0.000013 0.540931
365.654358 170.365311 0.000012 0.557966
364.415131 171.574615 0.000008 0.529412
363.502167 172.465591 0.000008 0.564951
nan nan nan 0.000000
nan nan nan 0.000000
386.805206 149.326416 9.428177 0.576103
386.326691 149.799942 7.955809 0.663358
386.324005 149.802628 6.618539 0.655637
386.324341 149.802292 5.291903 0.651716
386.325714 149.800919 3.972414 0.679167
386.326874 149.799789 2.657028 0.667157
386.325958 149.800674 1.342993 0.661887
386.326263 149.800369 0.027548 0.658824
375.125031 160.885162 0.000022 0.541544
370.144989 165.813416 0.000010 0.557108
367.371277 168.558243 0.000012 0.530147
365.600586 170.310562 0.000007 0.510294
364.369812 171.528519 0.000008 0.535049
363.463074 172.425842 0.000010 0.594608
nan nan nan 0.000000
nan nan nan 0.000000
386.848297 148.879440 9.491138 0.337377
386.324005 149.405518 7.996825 0.659314
386.325653 149.403900 6.651054 0.658946
386.328644 149.400909 5.315385 0.658456
386.327606 149.401932 3.986315 0.666176
386.327271 149.402267 2.661625 0.652819
386.325745 149.403793 1.338411 0.686765
386.326263 149.403290 0.013777 0.657721
375.004822 160.764526 0.000020 0.526103
370.059296 165.727432 0.000010 0.548162
367.304871 168.491562 0.000010 0.523407
365.546417 170.256210 0.000006 0.555025
364.324188 171.482712 0.000007 0.553922
363.423737 172.386337 0.000004 0.535907
332.438568 203.838165 11.059258 0.678431
332.438568 203.838165 9.811232 0.678431
332.462158 203.814163 8.574608 0.781863
332.438568 203.838165 7.364805 0.678431
332.480682 203.795288 6.153717 0.750490
332.438568 203.838165 4.965490 0.678431
332.438568 203.838165 3.776750 0.678431
332.588654 203.685440 2.588324 0.690319
330.484344 205.826828 1.362548 0.729167
330.679352 205.628372 0.099946 0.585907
340.691650 195.439621 -0.000002 0.534314
345.602448 190.442215 -0.000009 0.336887
348.337555 187.658890 -0.000006 0.334804
350.083740 185.881973 -0.000002 0.529289
351.297333 184.646957 -0.000001 0.579902
352.191498 183.737061 -0.000002 0.562132
332.793060 203.835159 10.996701 0.678431
332.846313 203.780228 9.740774 0.801961
332.822388 203.804901 8.527626 0.828676
332.793060 203.835159 7.327761 0.678431
332.834625 203.792297 6.125035 0.734926
332.793060 203.835159 4.945013 0.678431
332.793060 203.835159 3.764482 0.678431
332.937744 203.685837 2.584338 0.697304
330.861938 205.827972 1.366850 0.709559
330.881409 205.807877 0.100567 0.578922
340.813538 195.558533 -0.000002 0.528799
345.689331 190.526993 -0.000009 0.335049
348.404968 187.724625 -0.000006 0.330637
350.138641 185.935562 -0.000001 0.532598
351.343597 184.692108 -0.000002 0.579779
352.231384 183.775970 -0.000001 0.487623
333.142731 203.832184 10.935433 0.678431
333.195190 203.777267 9.688061 0.698407
333.154297 203.820084 8.487741 0.103799
333.142731 203.832199 7.291479 0.678431
333.183655 203.789352 6.096945 0.741789
333.142731 203.832199 4.924958 0.678431
333.156281 203.817993 3.751500 0.837500
333.282196 203.686249 2.580434 0.715809
331.234528 205.829041 1.371065 0.657721
331.239288 205.824066 0.112184 0.649510
340.936218 195.676605 -0.000001 0.532966
345.776794 190.611145 -0.000009 0.336152
348.472778 187.789902 -0.000006 0.328676
350.193939 185.988770 -0.000001 0.513358
351.390198 184.736923 -0.000001 0.524632
352.271545 183.814636 -0.000001 0.534191
333.548706 203.764496 10.853137 0.631495
333.548706 203.764496 9.633509 0.636520
333.548737 203.764450 8.430990 0.644485
333.548615 203.764618 7.242766 0.646936
333.548889 203.764282 6.065930 0.652696
333.548401 203.764816 4.898054 0.662990
333.548248 203.764999 3.736358 0.623039
333.622009 203.686691 2.576612 0.714951
331.602234 205.830093 1.375195 0.601103
331.610840 205.820953 0.124860 0.636397
341.059723 195.793823 -0.000002 0.537623
345.864838 190.694702 -0.000009 0.331863
348.541046 187.854691 -0.000006 0.332353
350.249603 186.041595 -0.000002 0.549265
351.437103 184.781418 -0.000000 0.540686
352.311981 183.853012 -0.000002 0.565931
333.791595 203.865601 10.830054 0.641422
333.791565 203.865601 9.613609 0.636765
333.791595 203.865585 8.414234 0.645956
333.791626 203.865570 7.229067 0.614338
333.791595 203.865585 6.055364 0.654044
333.791595 203.865601 4.890462 0.656618
333.791626 203.865555 3.731795 0.619730
333.791565 203.865631 2.576855 0.641544
333.601410 204.070251 1.418575 0.658211
333.601410 204.070251 0.254478 0.690441
341.184082 195.910172 -0.000002 0.547794
345.953430 190.777618 -0.000009 0.334069
348.609772 187.919006 -0.000005 0.337010
350.305634 186.094025 -0.000001 0.491422
351.484283 184.825607 -0.000002 0.563358
352.352661 183.891083 -0.000001 0.499877
333.794586 204.226593 10.896004 0.637745
333.794556 204.226624 9.670477 0.638235
333.794586 204.226578 8.462139 0.629044
333.794556 204.226608 7.268132 0.652696
333.794556 204.226608 6.085656 0.680025
333.794586 204.226593 4.912049 0.651838
333.794556 204.226624 3.744734 0.628922
333.794525 204.226654 2.581163 0.623775
332.323486 205.832047 1.383205 0.643873
332.339294 205.814804 0.149443 0.630270
341.309204 196.025650 -0.000001 0.527696
346.042664 190.859940 -0.000009 0.335294
348.678955 187.982819 -0.000004 0.341789
350.362030 186.146057 -0.000002 0.562868
351.531830 184.869446 -0.000000 0.500735
352.393646 183.928894 -0.000000 0.524632
333.797516 204.593185 10.963427 0.634069
333.797516 204.593170 9.728601 0.690196
333.797485 204.593201 8.511126 0.667034
333.797546 204.593155 7.308050 0.628922
333.797485 204.593201 6.116622 0.667157
333.797546 204.593140 4.934116 0.637132
333.797546 204.593140 3.757952 0.639951
333.797577 204.593109 2.585564 0.630637
332.696503 205.811737 1.387559 0.667892
332.696503 205.811752 0.161363 0.641544
341.435181 196.140244 -0.000001 0.535049
346.132416 190.941620 -0.000009 0.337010
348.748505 188.046265 -0.000019 0.335907
350.418793 186.197708 -0.000000 0.548529
351.579620 184.912964 -0.000000 0.508946
352.434875 183.966415 -0.000001 0.511642
333.800507 204.965363 11.032314 0.627206
333.800507 204.965363 9.788004 0.646691
333.800476 204.965393 8.561168 0.639951
333.800507 204.965378 7.348854 0.618873
333.800446 204.965424 6.148265 0.620711
333.800446 204.965439 4.956679 0.616544
333.800476 204.965393 3.771468 0.623407
333.800537 204.965332 2.590066 0.652696
333.040039 205.818909 1.391226 0.770956
333.049133 205.808716 0.173044 0.631250
341.561920 196.253983 -0.000001 0.538971
346.222748 191.022675 -0.000009 0.335294
348.818665 188.109009 0.000003 0.328309
350.475891 186.248947 -0.000002 0.512010
351.627747 184.956116 0.000000 0.505392
352.476379 184.003632 0.000000 0.460417
333.803864 205.342987 11.102606 0.630392
333.803864 205.342972 9.848610 0.652083
333.803864 205.342987 8.612223 0.639093
333.803894 205.342957 7.390470 0.619485
333.803894 205.342941 6.180534 0.612132
333.803833 205.343018 4.979683 0.645466
333.803894 205.342941 3.785249 0.658333
333.803864 205.342972 2.594659 0.619608
333.388336 205.815948 1.395039 0.749877
333.397247 205.805801 0.184484 0.641789
341.689453 196.366821 -0.000002 0.539216
346.313660 191.103088 -0.000009 0.332966
348.889130 188.171432 -0.000007 0.335907
350.533386 186.299789 0.000001 0.516912
351.676147 184.998962 -0.000001 0.519853
352.518097 184.040558 -0.000002 0.519853
333.807098 205.726715 11.174504 0.662500
333.807098 205.726700 9.910601 0.630760
333.815704 205.716782 8.662058 0.700123
333.807129 205.726700 7.433051 0.666912
333.807129 205.726685 6.213554 0.624877
333.807098 205.726715 5.003215 0.644730
333.807098 205.726715 3.799353 0.641544
333.807098 205.726730 2.599356 0.633701
333.732330 205.813049 1.398775 0.749755
333.741089 205.802933 0.195694 0.631618
341.817780 196.478745 -0.000002 0.522304
346.405121 191.182877 -0.000010 0.332475
348.960083 188.233292 -0.000005 0.329289
350.591217 186.350235 0.000000 0.543505
351.724884 185.041458 0.000001 0.541176
352.560120 184.077209 -0.000002 0.546691
334.074982 205.806778 11.145950 0.715319
334.053894 205.831467 9.892998 0.737868
334.154602 205.713562 8.621407 0.715809
334.053894 205.831467 7.420962 0.741299
334.053894 205.831467 6.204181 0.742157
334.053894 205.831467 4.996531 0.770711
334.053894 205.831467 3.795348 0.743137
334.053894 205.831467 2.598022 0.728431
334.053894 205.831467 1.401978 0.768260
334.080750 205.800049 0.206681 0.649020
341.946899 196.589767 0.000001 0.525490
346.497131 191.262024 -0.000010 0.333456
349.031433 188.294678 -0.000005 0.326716
350.649384 186.400269 0.000000 0.508456
351.773895 185.083603 0.000001 0.529902
352.602386 184.113556 0.000001 0.539828
334.377808 205.842865 11.103782 0.678431
334.377838 205.842865 9.849625 0.678431
334.488953 205.710892 8.581684 0.719975
334.377808 205.842880 7.391172 0.678431
334.377838 205.842834 6.181074 0.777574
334.377838 205.842865 4.980064 0.678431
334.377838 205.842865 3.785482 0.732353
334.377838 205.842865 2.594735 0.678431
334.377838 205.842865 1.405264 0.678431
334.416321 205.797195 0.217451 0.661887
342.076782 196.699921 0.000000 0.553922
346.589722 191.340530 -0.000010 0.332230
349.103210 188.355560 -0.000007 0.322426
350.707886 186.449921 -0.000004 0.335294
351.823212 185.125427 0.000000 0.539461
352.644897 184.149612 -0.000000 0.484926
334.709930 205.840057 11.049879 0.678431
334.709930 205.840057 9.803147 0.678431
334.819672 205.707901 8.542665 0.691422
334.709930 205.840057 7.359251 0.678431
334.709961 205.840027 6.156319 0.754412
334.709961 205.840057 4.962420 0.678431
334.709930 205.840057 3.774911 0.728309
334.709930 205.840057 2.591214 0.678431
334.709961 205.840057 1.408786 0.678431
334.747894 205.794342 0.228008 0.665686
342.207428 196.809128 0.000002 0.541789
346.682800 191.418381 -0.000010 0.333333
349.175415 188.415939 -0.000007 0.338725
350.766754 186.499146 -0.000004 0.334804
351.872803 185.166885 0.000002 0.525000
352.687653 184.185349 0.000002 0.538358
335.038147 205.837280 10.997048 0.678431
335.038147 205.837265 9.757593 0.678431
335.145996 205.705521 8.504564 0.687132
335.038147 205.837265 7.327964 0.678431
335.038177 205.837250 6.132055 0.736765
335.038147 205.837265 4.945126 0.678431
335.038147 205.837280 3.764549 0.765074
335.038147 205.837280 2.587763 0.678431
335.038147 205.837280 1.412237 0.678431
335.075500 205.791641 0.238347 0.639338
342.338837 196.917435 0.000002 0.532108
346.776489 191.495590 -0.000010 0.330147
349.248077 188.475830 -0.000007 0.339828
350.825989 186.547958 -0.000005 0.333333
351.922668 185.208008 -0.000001 0.510662
352.730652 184.220825 0.000000 0.532353
335.362579 205.834518 10.945260 0.678431
335.362579 205.834518 9.712942 0.678431
335.467285 205.704758 8.467586 0.690319
335.362579 205.834518 7.297299 0.678431
335.362610 205.834488 6.108271 0.756618
335.362579 205.834518 4.928174 0.678431
335.362579 205.834518 3.754392 0.757353
335.362579 205.834518 2.584379 0.678431
335.362579 205.834518 1.415620 0.678431
335.399475 205.788818 0.248493 0.643260
342.470947 197.024841 0.000001 0.531127
346.870667 191.572113 -0.000010 0.335294
349.321106 188.535187 -0.000007 0.332353
350.885529 186.596344 -0.000005 0.335172
351.972839 185.248779 0.000001 0.512377
352.773956 184.255981 0.000000 0.516422
335.683319 205.831802 10.894500 0.678431
335.683319 205.831802 9.669174 0.678431
335.714569 205.792511 8.451918 0.706618
335.683319 205.831802 7.267239 0.678431
335.683350 205.831772 6.084959 0.750980
335.683319 205.831802 4.911558 0.678431
335.683319 205.831802 3.744437 0.747794
335.683319 205.831802 2.581064 0.678431
335.683319 205.831802 1.418936 0.678431
335.719635 205.786148 0.258429 0.644485
342.603882 197.131287 0.000002 0.551961
346.965393 191.648010 -0.000010 0.331985
349.394562 188.594025 -0.000007 0.329167
350.979614 186.601318 0.009996 1.000000
352.023285 185.289200 0.000003 0.517402
352.817444 184.290833 -0.000000 0.575735
336.028351 205.793518 10.833414 0.738480
336.028351 205.793533 9.616504 0.721569
336.028351 205.793518 8.416677 0.760784
336.028351 205.793533 7.231063 0.734559
336.028320 205.793503 6.056905 0.741176
336.028351 205.793533 4.891562 0.750735
336.028351 205.793533 3.732456 0.758088
336.028351 205.793518 2.577073 0.713113
336.028351 205.793518 1.422927 0.749877
336.036224 205.783478 0.268171 0.646324
342.737488 197.236862 0.000000 0.538235
347.060638 191.723236 -0.000010 0.333578
349.468445 188.652374 -0.000007 0.336029
351.039551 186.648621 0.009997 1.000000
352.074036 185.329254 0.000002 0.505637
352.861206 184.325363 0.000003 0.525735
336.349335 205.780792 10.781505 0.647426
336.349335 205.780792 9.571744 0.667034
336.349335 205.780792 8.378969 0.627819
336.349335 205.780792 7.200323 0.650000
336.349335 205.780792 6.033066 0.657598
336.349335 205.780792 4.874569 0.661887
336.349335 205.780792 3.722276 0.659314
336.349365 205.780777 2.573681 0.629167
336.349365 205.780777 1.426318 0.666912
336.349335 205.780807 0.277723 0.628554
342.871857 197.341446 0.000001 0.532843
347.156403 191.797806 -0.000010 0.328922
349.542725 188.710205 -0.000007 0.329779
351.099792 186.695541 0.009998 1.000000
352.125061 185.368973 0.000003 0.517770
352.905151 184.359619 0.000001 0.598652
336.643677 205.798294 10.740097 0.846569
336.612976 205.838562 9.546980 0.707353
336.647491 205.793274 8.347743 0.678431
336.525696 205.953156 7.204680 0.780760
336.651337 205.788223 6.012596 0.749265
336.643677 205.798294 4.861017 0.825980
336.613007 205.838547 3.716641 0.740196
336.647491 205.793274 2.570874 0.678431
336.698242 205.726654 1.430497 0.613848
336.658997 205.778152 0.287089 0.637132
343.006958 197.445099 0.000001 0.540319
347.252716 191.871689 -0.000010 0.331373
349.617401 188.767487 -0.000007 0.337010
351.160339 186.742035 0.009994 1.000000
352.176331 185.408325 0.000002 0.535539
352.949371 184.393539 0.000001 0.524387
336.927551 205.825882 10.702720 0.678431
336.920013 205.835968 9.506533 0.755760
336.954010 205.790649 8.313724 0.678431
337.042450 205.672897 7.125288 0.660907
336.957794 205.785629 5.991091 0.752696
336.927551 205.825882 4.848780 0.678431
336.920013 205.835968 3.707443 0.744608
336.954010 205.790649 2.567814 0.678431
337.022491 205.699417 1.434053 0.615931
336.965393 205.775482 0.296272 0.647917
343.142792 197.547836 0.000001 0.527451
347.349487 191.944885 -0.000010 0.334804
349.692474 188.824265 -0.000007 0.329657
351.221252 186.788086 0.009994 1.000000
352.227905 185.447342 -0.000001 0.532108
352.993835 184.427170 0.000001 0.522672
337.231201 205.823318 10.656749 0.678431
337.223724 205.833405 9.466884 0.717525
337.257263 205.788086 8.280373 0.678431
337.341125 205.674728 7.099024 0.635907
337.260986 205.783066 5.970009 0.759436
337.231201 205.823318 4.833732 0.678431
337.223724 205.833405 3.698423 0.767157
337.257263 205.788086 2.564814 0.678431
337.097168 206.004456 1.430781 0.750613
337.268402 205.773026 0.305265 0.637132
343.279297 197.649597 0.000001 0.540564
347.446808 192.017426 -0.000010 0.333211
349.767944 188.880539 -0.000007 0.335784
351.249786 186.877899 -0.000005 0.336520
352.279755 185.485962 0.000000 0.554289
353.038544 184.460480 -0.000000 0.541299
337.523132 205.832504 10.615311 0.846201
337.524292 205.830841 9.428007 0.731495
337.557373 205.785553 8.247675 0.678431
337.606110 205.718658 7.081007 0.464338
337.631287 205.684128 5.935617 0.726593
337.523376 205.832138 4.820130 0.826103
337.524323 205.830841 3.689580 0.736397
337.557373 205.785553 2.561874 0.678431
337.606079 205.718719 1.439479 0.595588
337.568420 205.770370 0.314096 0.631005
343.416565 197.750397 0.000002 0.543627
347.544617 192.089279 -0.000010 0.334559
349.843811 188.936264 -0.000008 0.334436
351.311646 186.923309 -0.000005 0.344118
352.331848 185.524231 0.000003 0.532108
353.083496 184.493469 0.000006 0.555882
337.858002 205.777878 10.555039 0.734436
337.858002 205.777878 9.376478 0.753431
337.858002 205.777878 8.214463 0.773652
337.858002 205.777878 7.066213 0.756863
337.927063 205.681793 5.915449 0.689951
337.858002 205.777878 4.800439 0.751103
337.858002 205.777878 3.677860 0.753554
337.858002 205.777878 2.558887 0.753676
337.858002 205.777878 1.441113 0.702941
337.865204 205.767914 0.322743 0.629779
343.554474 197.850281 -0.000001 0.534069
347.642944 192.160446 -0.000011 0.331863
349.920074 188.991440 -0.000007 0.337255
351.373810 186.968307 -0.000005 0.337255
352.384216 185.562134 0.000005 0.532108
353.128632 184.526154 0.000005 0.523897
338.123444 205.815643 10.524137 0.678431
338.127228 205.810287 9.348412 0.731005
338.123444 205.815643 8.192016 0.678431
338.123444 205.815643 7.047911 0.678431
338.219879 205.679428 5.895666 0.687623
338.123444 205.815643 4.790321 0.678431
338.116302 205.825714 3.672405 0.728186
338.123444 205.815643 2.556868 0.678431
338.123444 205.815643 1.443132 0.678431
338.158997 205.765457 0.331222 0.643627
343.693115 197.949142 -0.000000 0.532108
347.741760 192.230927 -0.000010 0.334804
349.996674 189.046097 -0.000007 0.337623
351.436249 187.012878 -0.000005 0.334191
352.436829 185.599670 0.000004 0.516299
353.174011 184.558533 0.000002 0.524877
338.414825 205.813171 10.481660 0.678431
338.407806 205.823257 9.315863 0.740564
338.414825 205.813171 8.161161 0.678431
338.414825 205.813171 7.022758 0.678431
338.509827 205.677002 5.876257 0.689093
338.414825 205.813171 4.776417 0.678431
338.407806 205.823227 3.664071 0.777451
338.414825 205.813171 2.554093 0.678431
338.414825 205.813171 1.445907 0.678431
338.449829 205.763000 0.339537 0.636765
343.832428 198.047073 0.000000 0.538971
347.841064 192.300705 -0.000010 0.332230
350.073700 189.100235 -0.000007 0.328676
351.499054 187.056992 -0.000005 0.329167
352.489746 185.636856 0.000002 0.558578
353.219604 184.590576 0.000003 0.547059
338.703339 205.810730 10.440014 0.678431
338.696442 205.820801 9.279938 0.742525
338.703339 205.810730 8.130909 0.678431
338.703339 205.810730 6.998095 0.678431
338.797150 205.674225 5.857178 0.724142
338.703339 205.810730 4.762785 0.678431
338.696442 205.820786 3.655901 0.747549
338.703369 205.810730 2.551372 0.678431
338.703369 205.810730 1.448627 0.678431
338.737823 205.760544 0.347690 0.642524
343.972473 198.143951 0.000005 0.538971
347.940857 192.369812 -0.000011 0.336029
350.151093 189.153809 -0.000008 0.336520
351.562134 187.100693 -0.000005 0.328676
352.542877 185.673645 0.000004 0.488235
353.265442 184.622330 0.000001 0.566667
338.989075 205.808319 10.399182 0.678431
338.982239 205.818375 9.244720 0.755882
338.989075 205.808319 8.101250 0.678431
338.989075 205.808304 6.973916 0.678431
339.081360 205.671967 5.838536 0.709559
338.989075 205.808319 4.749419 0.678431
338.982239 205.818359 3.647890 0.759926
338.989075 205.808304 2.548706 0.678431
338.989075 205.808304 1.451295 0.678431
339.023041 205.758102 0.355685 0.621078
344.113129 198.239914 0.000005 0.537500
348.041107 192.438217 -0.000010 0.336642
350.228851 189.206863 -0.000008 0.334681
351.625519 187.143921 -0.000005 0.331863
352.596283 185.710083 0.000004 0.531005
353.311493 184.653717 0.000004 0.529779
339.272034 205.805908 10.359155 0.678431
339.265320 205.815979 9.210189 0.746201
339.272034 205.805908 8.072169 0.678431
339.272034 205.805908 6.950211 0.678431
339.362946 205.669586 5.820242 0.708456
339.272034 205.805908 4.736315 0.678431
339.265320 205.815979 3.640035 0.760539
339.272034 205.805908 2.546091 0.678431
339.272034 205.805908 1.453909 0.678431
339.305542 205.755661 0.363525 0.627328
344.254486 198.334854 0.000007 0.543137
348.141846 192.505890 -0.000010 0.334191
350.306976 189.259354 -0.000008 0.328309
351.689209 187.186722 -0.000005 0.324142
352.649963 185.746124 0.000007 0.537255
353.357758 184.684799 0.000005 0.564706
339.552338 205.803528 10.319902 0.678431
339.545715 205.813583 9.176334 0.746814
339.552338 205.803528 8.043658 0.678431
339.552307 205.803528 6.926969 0.678431
339.641937 205.667114 5.802291 0.680147
339.552307 205.803528 4.723467 0.678431
339.545715 205.813583 3.632335 0.750000
339.552338 205.803528 2.543525 0.678431
339.552338 205.803528 1.456474 0.678431
339.585297 205.753387 0.371204 0.604167
344.396484 198.428833 0.000008 0.536152
348.243042 192.572891 -0.000011 0.330760
350.385468 189.311310 -0.000008 0.324265
351.753235 187.229080 -0.000005 0.333333
352.703888 185.781815 0.000004 0.530392
353.404236 184.715576 0.000004 0.523407
339.830017 205.801178 10.281424 0.678431
339.823517 205.811249 9.143143 0.738480
339.830017 205.801163 8.015706 0.678431
339.830017 205.801163 6.904178 0.678431
339.918121 205.664993 5.784737 0.687500
339.830017 205.801163 4.710872 0.678431
339.823517 205.811234 3.624785 0.741912
339.830017 205.801163 2.541012 0.678431
339.830017 205.801163 1.458988 0.678431
339.862518 205.750977 0.378740 0.634681
344.539124 198.521851 0.000004 0.550245
348.344757 192.639175 -0.000011 0.335662
350.464325 189.362717 -0.000008 0.337377
351.817505 187.270981 -0.000005 0.329779
352.758026 185.817123 0.000005 0.555392
353.450928 184.746017 0.000005 0.563235
340.137115 205.748688 10.228801 0.632721
340.137115 205.748688 9.095182 0.635049
340.137115 205.748688 7.977479 0.618015
340.137115 205.748688 6.873017 0.639216
340.191986 205.662613 5.767486 0.719118
340.137115 205.748688 4.693645 0.641912
340.137115 205.748688 3.613876 0.666789
340.137115 205.748688 2.537575 0.634681
340.137115 205.748688 1.462426 0.634069
340.137115 205.748688 0.386123 0.649755
344.682434 198.613846 0.000005 0.534191
348.446869 192.704742 -0.000011 0.334069
350.543518 189.413574 -0.000008 0.338358
351.882080 187.312439 -0.000005 0.327696
352.812439 185.852036 0.000006 0.579779
353.497864 184.776123 0.000003 0.582721
340.389923 205.777328 10.201034 0.777574
340.451080 205.679825 9.046378 0.651593
340.403015 205.756424 7.952823 0.725490
340.403015 205.756439 6.852916 0.743627
340.463470 205.660080 5.750554 0.724142
340.389923 205.777328 4.684556 0.779044
340.451080 205.679810 3.602775 0.674387
340.403015 205.756424 2.535357 0.746569
340.403015 205.756424 1.464643 0.738480
340.409302 205.746399 0.393363 0.635417
344.826355 198.704834 0.000005 0.533211
348.549469 192.769577 -0.000010 0.331740
350.623108 189.463867 -0.000008 0.333333
351.946930 187.353439 -0.000005 0.332230
352.867065 185.886597 0.000003 0.520221
353.544952 184.805923 0.000003 0.533211
340.517639 206.005463 10.232639 0.678431
340.517639 206.005463 9.098493 0.678431
340.648041 205.794357 7.935122 0.678431
340.641815 205.804428 6.840241 0.739706
340.732025 205.658356 5.734057 0.724387
340.517639 206.005463 4.694901 0.678431
340.517639 206.005463 3.614629 0.678431
340.648041 205.794357 2.533765 0.678431
340.641815 205.804428 1.466041 0.794730
340.679047 205.744110 0.400461 0.639828
344.970947 198.794830 0.000006 0.529534
348.652496 192.833725 -0.000011 0.331373
350.703003 189.513596 -0.000008 0.330515
352.012085 187.393982 -0.000005 0.335049
352.921967 185.920746 0.000005 0.555392
353.592285 184.835388 0.000001 0.602451
340.787567 206.003189 10.196825 0.678431
340.993011 205.665283 8.982204 0.628186
340.915924 205.792084 7.909300 0.678431
340.909790 205.802155 6.819182 0.739461
340.998718 205.655869 5.717781 0.695956
340.787567 206.003189 4.683179 0.678431
340.993011 205.665283 3.588178 0.651593
340.915924 205.792084 2.531443 0.678431
340.909790 205.802155 1.468364 0.758333
340.946472 205.741852 0.407420 0.647794
345.116119 198.883820 0.000004 0.554412
348.755981 192.897156 -0.000011 0.335172
350.783264 189.562790 -0.000008 0.325490
352.077515 187.434082 -0.000005 0.336152
352.977081 185.954529 0.000005 0.543995
353.639832 184.864471 0.000007 0.549510
341.067322 205.980591 10.155785 0.749632
341.245239 205.683334 8.957403 0.596078
341.181519 205.789841 7.883990 0.678431
341.175476 205.799896 6.798540 0.726838
341.262482 205.654510 5.701975 0.682230
341.067322 205.980591 4.669744 0.731740
341.245239 205.683334 3.582536 0.669485
341.181519 205.789841 2.529166 0.678431
341.175446 205.799911 1.470641 0.724142
341.211548 205.739594 0.414241 0.647059
345.261932 198.971771 0.000004 0.532598
348.859924 192.959839 -0.000011 0.333333
350.863861 189.611404 -0.000008 0.332843
352.143219 187.473709 -0.000005 0.329657
353.032440 185.987900 0.000008 0.550245
353.687561 184.893280 0.000006 0.553064
341.320496 205.998657 10.127300 0.678431
341.320496 205.998657 9.007666 0.678431
341.462555 205.757462 7.852813 0.828799
341.438873 205.797668 6.778307 0.734926
341.522461 205.655792 5.686834 0.712623
341.320496 205.998657 4.660419 0.678431
341.320496 205.998657 3.593969 0.678431
341.462585 205.757446 2.526362 0.824755
341.438873 205.797668 1.472873 0.778064
341.474426 205.737366 0.420928 0.672672
345.408325 199.058716 0.000003 0.539093
348.964294 193.021790 -0.000011 0.334559
350.944824 189.659454 -0.000008 0.334559
352.209198 187.512894 -0.000006 0.328799
353.088013 186.020920 0.000005 0.572059
353.735474 184.921738 0.000005 0.580024
341.729309 205.745071 10.020792 0.770956
341.729309 205.745071 8.915829 0.729167
341.729309 205.745056 7.826379 0.773652
341.729309 205.745056 6.749835 0.747181
341.734375 205.736343 5.682533 0.730147
341.729309 205.745071 4.625555 0.756495
341.729309 205.745071 3.573080 0.747059
341.729309 205.745056 2.523986 0.736642
341.729309 205.745071 1.476015 0.768382
341.735291 205.734756 0.427505 0.723652
345.555359 199.144623 0.000003 0.546691
349.069061 193.083038 -0.000011 0.335907
351.026062 189.706955 -0.000008 0.324510
352.275482 187.551605 -0.000005 0.329167
353.143829 186.053543 0.000005 0.528554
353.783600 184.949860 0.000007 0.531863
341.964966 205.783096 9.999620 0.678431
341.959259 205.793137 8.900071 0.760294
341.964966 205.783096 7.811002 0.678431
341.964966 205.783096 6.737299 0.678431
341.987915 205.742905 5.668648 0.737623
341.964966 205.783096 4.618625 0.678431
341.959259 205.793152 3.569497 0.762623
341.964966 205.783096 2.522603 0.678431
341.964966 205.783096 1.477398 0.678431
341.992035 205.735672 0.433753 0.728922
345.703003 199.229507 0.000003 0.524755
349.174286 193.143539 -0.000012 0.331495
351.107666 189.753876 -0.000008 0.334191
352.341980 187.589859 -0.000006 0.337990
353.199860 186.085770 0.000006 0.499020
353.831940 184.977646 0.000005 0.521814
342.221863 205.780914 9.967461 0.678431
342.216248 205.790955 8.872332 0.744363
342.221863 205.780914 7.787642 0.678431
342.221863 205.780914 6.718254 0.678431
342.244415 205.740707 5.653901 0.751103
342.221863 205.780914 4.608097 0.678431
342.216248 205.790955 3.563187 0.764216
342.221863 205.780914 2.520501 0.678431
342.221863 205.780914 1.479498 0.678431
342.246765 205.736542 0.439879 0.752083
345.851196 199.313339 0.000005 0.537990
349.279907 193.203308 -0.000012 0.337010
351.189606 189.800232 -0.000008 0.337623
352.408783 187.627640 -0.000006 0.331373
353.256165 186.117584 0.000006 0.518137
353.880432 185.005096 0.000005 0.532966
342.476715 205.778763 9.935944 0.678431
342.471130 205.788803 8.845146 0.743015
342.476715 205.778763 7.764746 0.678431
342.476715 205.778763 6.699590 0.678431
342.491180 205.752487 5.641275 0.728799
342.476715 205.778763 4.597780 0.678431
342.471130 205.788803 3.557003 0.777451
342.476715 205.778763 2.518443 0.678431
342.476715 205.778763 1.481557 0.678431
342.499542 205.737366 0.445883 0.725613
346.000000 199.396149 0.000005 0.540931
349.385986 193.262329 -0.000011 0.329779
351.271851 189.845993 -0.000008 0.333701
352.475800 187.664963 -0.000006 0.328799
353.312622 186.149033 0.000005 0.533824
353.929138 185.032196 0.000007 0.547059
342.729553 205.776611 9.905058 0.678431
342.724091 205.786652 8.818506 0.732598
342.729553 205.776611 7.742312 0.678431
342.779144 205.685226 6.665876 0.926348
342.736969 205.762924 5.628753 0.720221
342.729553 205.776611 4.587670 0.678431
342.724060 205.786667 3.550944 0.746569
342.729553 205.776611 2.516425 0.678431
342.729553 205.776611 1.483575 0.678431
342.749512 205.739838 0.451673 0.749142
346.149353 199.477951 0.000003 0.545588
349.492432 193.320618 -0.000011 0.333333
351.354401 189.891205 -0.000008 0.323529
352.543121 187.701813 -0.000006 0.341176
353.369324 186.180099 0.000002 0.487868
353.978058 185.058960 0.000005 0.525123
342.980408 205.774475 9.874794 0.678431
342.975067 205.784515 8.792402 0.776348
342.980408 205.774475 7.720328 0.678431
343.030731 205.680283 6.647538 0.922794
342.980408 205.774475 5.616644 0.678431
342.980408 205.774475 4.577765 0.678431
342.975067 205.784531 3.545006 0.732476
342.980408 205.774475 2.514449 0.678431
342.980408 205.774475 1.485552 0.678431
342.997070 205.743347 0.457287 0.779044
346.299316 199.558624 0.000007 0.537377
349.599304 193.378159 -0.000011 0.332230
351.437317 189.935837 -0.000008 0.334559
352.610687 187.738190 -0.000005 0.341912
353.426270 186.210724 0.000006 0.551471
354.027130 185.085388 0.000011 0.569730
343.229431 205.772369 9.845142 0.678431
343.298615 205.640625 8.732239 0.705882
343.229431 205.772369 7.698789 0.678431
343.273254 205.688889 6.631832 0.921078
343.229431 205.772369 5.603026 0.678431
343.229431 205.772369 4.568058 0.678431
343.224152 205.782425 3.539189 0.719363
343.229401 205.772385 2.512511 0.678431
343.229431 205.772385 1.487489 0.678431
343.242859 205.746765 0.462789 0.752696
346.449799 199.638321 0.000007 0.546691
349.706573 193.434952 -0.000011 0.334926
351.520477 189.979874 -0.000008 0.335662
352.678497 187.774109 -0.000006 0.334191
353.483398 186.240982 0.000007 0.568750
354.076385 185.111496 0.000004 0.571324
343.476563 205.770279 9.816093 0.678431
343.546570 205.634644 8.706362 0.706250
343.476563 205.770279 7.677688 0.678431
343.493011 205.738434 6.623302 0.753554
343.476563 205.770279 5.589684 0.678431
343.476563 205.770279 4.558548 0.678431
343.471375 205.780334 3.533490 0.744853
343.476563 205.770279 2.510612 0.678431
343.476563 205.770279 1.489387 0.678431
343.487000 205.750092 0.468181 0.716789
346.600861 199.716919 0.000009 0.527819
349.814209 193.490982 -0.000011 0.334681
351.603973 190.023331 -0.000008 0.333333
352.746552 187.809540 -0.000006 0.338480
353.540771 186.270828 0.000008 0.549020
354.125824 185.137222 0.000006 0.540441
343.742249 205.728043 9.776360 0.773652
343.790771 205.632416 8.681911 0.717892
343.742249 205.728043 7.648824 0.745833
343.742249 205.728043 6.605085 0.753431
343.742249 205.728027 5.571434 0.756863
343.742249 205.728043 4.545542 0.771569
343.742249 205.728027 3.525141 0.753309
343.742249 205.728027 2.508018 0.713848
343.742249 205.728043 1.491982 0.773775
343.742279 205.728012 0.474860 0.752696
346.752441 199.794495 0.000009 0.535172
349.922272 193.546280 -0.000012 0.333701
351.687744 190.066223 -0.000008 0.331127
352.814880 187.844498 -0.000006 0.323039
353.598297 186.300262 0.000009 0.509191
354.175476 185.162613 0.000008 0.559559
343.940979 205.815201 9.773498 0.666422
343.940979 205.815170 8.702597 0.656005
343.940948 205.815216 7.646749 0.648775
343.940979 205.815170 6.603387 0.619608
343.940979 205.815155 5.570117 0.615564
343.940979 205.815155 4.544601 0.655147
343.940979 205.815155 3.524578 0.656985
343.940948 205.815262 2.507832 0.635172
343.941040 205.815033 1.492173 0.636152
343.941162 205.814789 0.475442 0.652083
346.904572 199.870987 0.000010 0.556250
350.030701 193.600815 -0.000012 0.332843
351.771881 190.108505 -0.000008 0.338358
352.883423 187.878983 -0.000006 0.336275
353.656067 186.329300 0.000009 0.532353
354.225250 185.187653 0.000006 0.563725
343.945282 206.298843 9.881624 0.665809
343.945313 206.298798 8.795822 0.625980
343.945313 206.298874 7.725293 0.638971
343.945313 206.298828 6.667419 0.641299
343.945313 206.298798 5.619775 0.655392
343.945313 206.298798 4.579995 0.625858
343.945313 206.298798 3.545784 0.664828
343.945282 206.298935 2.514895 0.635784
343.945343 206.298767 1.485108 0.677819
343.945465 206.298492 0.454233 0.640809
347.057251 199.946411 0.000011 0.543382
350.177765 193.576492 0.009992 1.000000
351.856262 190.150208 -0.000008 0.332966
352.952209 187.912964 -0.000006 0.336397
353.714020 186.357956 0.000008 0.554167
354.275208 185.212341 0.000007 0.539828
343.949738 206.796188 9.993205 0.606373
343.949768 206.796143 8.892033 0.618505
343.949738 206.796188 7.806343 0.630637
343.949738 206.796173 6.733497 0.647059
343.949768 206.796127 5.671020 0.672917
343.949768 206.796143 4.616522 0.631250
343.949768 206.796143 3.567667 0.658946
343.949738 206.796219 2.522184 0.633333
343.949738 206.796219 1.477816 0.650735
343.949860 206.795944 0.432343 0.654289
347.210388 200.020844 0.000008 0.531495
350.286407 193.629242 0.009994 1.000000
351.940918 190.191330 -0.000008 0.337623
353.021271 187.946487 -0.000006 0.338113
353.772156 186.386215 0.000005 0.551103
354.325378 185.236710 0.000004 0.563235
343.944550 207.328430 10.114096 0.763235
343.944550 207.328415 8.996279 0.793382
343.944550 207.328430 7.894161 0.762990
343.944550 207.328430 6.805091 0.756740
343.980225 207.253021 5.716953 0.680637
343.944550 207.328430 4.656098 0.767402
343.944550 207.328415 3.591379 0.770343
343.944550 207.328430 2.530081 0.758578
343.944550 207.328430 1.469919 0.770343
343.961945 207.291687 0.410617 0.783211
347.364136 200.094116 0.000010 0.541176
350.395416 193.681229 0.009994 1.000000
352.025879 190.231857 -0.000009 0.333211
353.090515 187.979523 -0.000006 0.325613
353.830505 186.414047 0.000006 0.546691
354.375702 185.260681 0.000008 0.564951
343.895508 207.971252 10.265123 0.678431
343.949036 207.855911 9.099040 0.758824
343.895508 207.971252 8.003865 0.678431
343.895508 207.971252 6.894528 0.678431
344.042938 207.653580 5.755619 0.717402
343.895508 207.971237 4.705535 0.678431
343.949036 207.855911 3.614753 0.768995
343.895508 207.971237 2.539947 0.678431
343.895508 207.971237 1.460053 0.678431
343.958893 207.834717 0.386394 0.639338
347.518341 200.166321 0.000012 0.526348
350.504761 193.732452 0.009993 1.000000
352.111115 190.271790 -0.000009 0.334314
353.160034 188.012070 -0.000006 0.333578
353.889038 186.441498 -0.000005 0.334069
354.426178 185.284332 0.000010 0.538480
343.900146 208.516602 10.388747 0.678431
343.900146 208.516602 9.233095 0.678431
343.900146 208.516602 8.093666 0.678431
343.900146 208.516602 6.967736 0.678431
344.047638 208.192886 5.811761 0.696201
343.900146 208.516602 4.746003 0.678431
343.953674 208.399170 3.638906 0.705147
343.900146 208.516586 2.548024 0.678431
343.900146 208.516586 1.451976 0.678431
343.963470 208.377640 0.362256 0.621691
347.673035 200.237473 0.000013 0.547794
350.578430 193.862061 -0.000012 0.333946
352.196655 190.311111 -0.000009 0.336029
353.229736 188.044144 -0.000006 0.336275
353.947754 186.468521 -0.000005 0.331740
354.476807 185.307602 0.000011 0.573775
343.917236 209.050995 10.508988 0.136765
343.917236 209.050995 9.336769 0.111152
343.917236 209.050995 8.181009 0.123039
343.917236 209.050995 7.038940 0.109559
344.052460 208.748642 5.869806 0.693137
343.917236 209.050980 4.785362 0.132721
343.917236 209.050995 3.668828 0.113358
343.917236 209.050995 2.555878 0.117034
343.917236 209.050980 1.444121 0.110539
343.968536 208.936279 0.337345 0.639706
347.828247 200.307541 0.000014 0.539951
350.689026 193.912003 -0.000012 0.337255
352.282440 190.349854 -0.000008 0.337010
353.299683 188.075714 -0.000006 0.326593
354.006683 186.495117 -0.000005 0.337010
354.527618 185.330551 0.000013 0.567892
343.391541 210.838501 10.971690 0.630882
343.993530 209.467163 9.412270 0.638358
343.585724 210.396164 8.429220 0.780882
343.993530 209.467178 7.090798 0.639216
344.056641 209.323334 5.930051 0.712745
343.391541 210.838516 4.936827 0.625735
343.993530 209.467133 3.685999 0.655025
343.391541 210.838516 2.586106 0.622794
343.993500 209.467224 1.438400 0.644240
343.973816 209.512085 0.311589 0.623529
347.983917 200.376556 0.000011 0.547794
350.800079 193.960999 0.000010 0.533824
352.368469 190.387970 -0.000009 0.336152
353.369812 188.106812 -0.000006 0.336275
354.065796 186.521317 -0.000005 0.333333
354.578583 185.353134 0.000009 0.539461
343.664612 210.836624 10.943985 0.632108
344.051208 209.938950 9.500748 0.673529
343.811859 210.494797 8.429276 0.792525
343.664642 210.836609 7.296540 0.617892
343.664642 210.836594 6.107686 0.674510
343.664612 210.836624 4.927757 0.626225
344.051208 209.938950 3.706126 0.675368
343.664612 210.836609 2.584296 0.615564
344.051208 209.938950 1.431698 0.603554
343.977692 210.109695 0.284740 0.629412
348.140106 200.444443 0.000013 0.547181
350.911377 194.009384 0.000011 0.547672
352.454803 190.425522 -0.000009 0.331495
353.440186 188.137405 -0.000006 0.331985
354.125092 186.547073 -0.000005 0.329779
354.629700 185.375366 0.000009 0.523897
343.931152 210.846298 10.920022 0.680392
344.035797 210.598602 9.633105 0.658211
343.997498 210.689209 8.448562 0.694975
343.931122 210.846313 7.282354 0.669976
344.079956 210.494003 6.052690 0.649142
343.931152 210.846298 4.919912 0.628922
344.035797 210.598587 3.736232 0.663235
343.931152 210.846298 2.582731 0.624265
344.035797 210.598587 1.421669 0.608456
343.984039 210.721085 0.257235 0.628676
348.296722 200.511276 0.000010 0.525613
351.023041 194.056992 0.000012 0.542647
352.541382 190.462448 -0.000009 0.331127
353.510803 188.167511 -0.000006 0.335049
354.184540 186.572449 -0.000005 0.339583
354.680939 185.397232 0.000007 0.547917
343.925476 211.509598 11.073848 0.678431
343.925476 211.509598 9.823814 0.678431
344.072906 211.153732 8.521242 0.706863
343.925507 211.509583 7.373444 0.678431
343.978912 211.380646 6.151274 0.790686
343.925476 211.509598 4.970266 0.678431
343.925507 211.509598 3.779611 0.678431
343.925507 211.509598 2.592779 0.678431
343.925507 211.509598 1.407220 0.678431
343.988312 211.357925 0.228453 0.655147
348.453766 200.577042 0.000005 0.538358
351.134979 194.103867 0.000008 0.541544
352.628204 190.498764 -0.000009 0.333333
353.581573 188.197113 -0.000006 0.336152
354.244171 186.597412 -0.000005 0.338480
354.732361 185.418777 0.000001 0.506373
343.984467 212.036575 11.190372 0.773284
343.931061 212.168060 9.954937 0.678431
344.078369 211.805298 8.630556 0.713726
343.931061 212.168060 7.463502 0.678431
343.984467 212.036575 6.220847 0.786887
343.931061 212.168060 5.020046 0.678431
343.931061 212.168045 3.809435 0.678431
343.931061 212.168060 2.602715 0.678431
343.931061 212.168060 1.397285 0.678431
343.994446 212.012024 0.198836 0.632966
348.611328 200.641602 0.000009 0.526103
351.247284 194.149902 0.000011 0.513848
352.715332 190.534485 -0.000009 0.331373
353.652588 188.226242 -0.000006 0.335172
354.321411 186.579025 0.009996 1.000000
354.783936 185.439926 0.000002 0.505882
344.083954 212.479324 11.283977 0.697304
343.936829 212.848999 10.090929 0.678431
343.990204 212.714890 8.790103 0.791054
343.936829 212.848999 7.556904 0.678431
343.990204 212.714874 6.293002 0.795588
343.936829 212.848999 5.071675 0.678431
343.936829 212.848999 3.840370 0.678431
343.936829 212.848999 2.613018 0.678431
343.936829 212.848999 1.386981 0.678431
344.000244 212.689667 0.168054 0.641912
348.769348 200.705109 0.000010 0.540931
351.359924 194.195129 0.000015 0.531373
352.802643 190.569580 -0.000009 0.338358
353.744080 188.203796 0.009993 1.000000
354.381073 186.603027 0.009995 1.000000
354.835693 185.460693 0.000009 0.532475
344.006165 213.391220 11.503647 0.646324
344.006165 213.391235 10.194403 0.647549
344.006165 213.391220 8.903541 0.645711
344.006165 213.391220 7.627968 0.633824
344.006165 213.391220 6.364723 0.627328
344.006165 213.391220 5.110958 0.640809
344.006165 213.391235 3.863905 0.625368
344.006165 213.391266 2.620859 0.633824
344.006104 213.391388 1.379139 0.625613
344.006042 213.391571 0.136076 0.638726
348.927795 200.767502 0.000012 0.537623
351.472839 194.239594 0.000016 0.528676
352.890228 190.604080 -0.000009 0.334069
353.815125 188.231781 0.009993 1.000000
354.440948 186.626602 0.009993 1.000000
354.887543 185.481110 0.000010 0.496691
344.012146 214.118118 11.672977 0.644853
344.012146 214.118118 10.340407 0.621569
344.012146 214.118103 9.026545 0.663235
344.012146 214.118118 7.728245 0.661642
344.012115 214.118118 6.442492 0.653554
344.012146 214.118103 5.166388 0.637255
344.012146 214.118103 3.897115 0.653554
344.012146 214.118103 2.631920 0.638358
344.012115 214.118118 1.368079 0.623652
344.012146 214.118118 0.102883 0.643995
349.086639 200.828827 0.000009 0.532966
351.586060 194.283310 0.000013 0.530637
352.978058 190.637970 -0.000009 0.337255
353.886383 188.259277 0.009993 1.000000
354.500977 186.649750 0.009993 1.000000
354.939545 185.501190 0.000010 0.530882
nan nan nan 0.000000
nan nan nan 0.000000
nan nan nan 0.000000
nan nan nan 0.000000
nan nan nan 0.000000
nan nan nan 0.000000
nan nan nan 0.000000
nan nan nan 0.000000
nan nan nan 0.000000
343.530975 216.174911 0.000006 0.539461
349.245941 200.889008 0.000010 0.536887
351.699615 194.326202 0.000015 0.540441
353.066101 190.671249 -0.000009 0.337623
353.957764 188.286255 0.009993 1.000000
354.561157 186.672470 0.010000 1.000000
354.991699 185.520874 0.000011 0.545833
nan nan nan 0.000000
nan nan nan 0.000000
nan nan nan 0.000000
nan nan nan 0.000000
nan nan nan 0.000000
nan nan nan 0.000000
nan nan nan 0.000000
nan nan nan 0.000000
nan nan nan 0.000000
343.797516 216.273544 0.000004 0.543750
349.405670 200.948090 0.000010 0.549877
351.813446 194.368317 0.000013 0.540319
353.154388 190.703903 -0.000009 0.336397
354.010529 188.364349 -0.000006 0.334926
354.621460 186.694794 0.009998 1.000000
355.043945 185.540222 0.000011 0.581740
nan nan nan 0.000000
nan nan nan 0.000000
nan nan nan 0.000000
nan nan nan 0.000000
nan nan nan 0.000000
nan nan nan 0.000000
nan nan nan 0.000000
nan nan nan 0.000000
nan nan nan 0.000000
344.064758 216.370285 0.000005 0.537623
