# This PCD file was generated using the MATLABÂ® pcwrite function
# from Computer Vision ToolboxÂ®.
# .PCD v.7 - Point Cloud Data file format
VERSION .7
FIELDS x y z intensity
SIZE 4 4 4 4
TYPE F F F F
COUNT 1 1 1 1
WIDTH 1264
HEIGHT 1
VIEWPOINT 0 0 0 1 0 0 0
POINTS 1264
DATA ascii
264.428650 90.220329 -0.000005 0.539093
260.596619 90.958061 0.000017 0.526471
258.150269 91.429024 0.000024 0.546691
256.449982 91.756363 0.000030 0.554779
255.197357 91.997505 0.000016 0.537500
256.729156 91.634666 4.394002 0.537132
256.712311 91.638023 4.060491 0.503554
255.897827 91.800735 3.584774 0.508088
256.063385 91.767662 3.316997 0.505024
256.400360 91.700340 3.060919 0.510907
257.407440 91.499168 2.840379 0.505882
257.354034 91.509834 2.500830 0.505882
259.298767 91.121338 2.199276 0.506250
257.665741 91.447563 1.827974 0.512255
287.279144 85.531799 -0.000004 0.332721
271.276093 88.728668 -0.000011 0.536765
264.405304 90.101227 -0.000007 0.540441
260.578613 90.865669 -0.000002 0.531985
258.135529 91.353722 0.000018 0.552206
256.437622 91.692909 0.000013 0.548774
255.186676 91.942802 -0.000001 0.477819
256.317810 91.651695 4.292183 0.502819
255.811615 91.756485 3.864764 0.509559
255.054993 91.913139 3.430413 0.503676
256.249237 91.665886 3.347020 0.568505
256.378296 91.639160 3.059835 0.518750
257.310669 91.446136 2.833469 0.514706
257.996704 91.304100 2.533783 0.505882
257.588470 91.388618 2.170979 0.512745
nan nan nan 0.000000
287.222473 85.253281 -0.000003 0.332230
271.242157 88.561806 -0.000010 0.538235
264.381134 89.982285 -0.000009 0.545833
260.559814 90.773438 0.000004 0.564706
258.120270 91.278519 0.000013 0.525123
256.424683 91.629562 0.000020 0.570588
255.175461 91.888199 0.000028 0.540686
256.491394 91.549149 4.340024 0.516054
254.990814 91.870766 3.686204 0.509314
255.084854 91.850609 3.438075 0.516912
256.079224 91.637489 3.323215 0.511152
256.201599 91.611267 3.040604 0.508578
256.326141 91.584572 2.752135 0.516544
257.496460 91.333733 2.509435 0.504534
257.109436 91.416687 2.163213 0.517402
nan nan nan 0.000000
287.163910 84.975174 -0.000003 0.332721
271.207062 88.395172 -0.000011 0.534314
264.356110 89.863525 -0.000010 0.531005
260.540497 90.681320 -0.000006 0.547549
258.104370 91.203438 0.000024 0.556127
256.411285 91.566315 0.000033 0.545343
255.163971 91.833656 0.000031 0.589706
256.340027 91.515900 4.304757 0.509804
255.378479 91.729019 3.774531 0.513358
255.609024 91.677917 3.537957 0.513603
256.112762 91.566269 3.330324 0.507353
256.474945 91.485992 3.074399 0.501348
256.361938 91.511040 2.756287 0.509314
257.884949 91.173485 2.529760 0.505882
257.015045 91.366280 2.161880 0.505882
nan nan nan 0.000000
287.103333 84.697487 -0.000002 0.331985
271.170776 88.228798 -0.000010 0.526961
264.330261 89.744934 -0.000009 0.535662
260.520447 90.589348 -0.000006 0.542279
258.088074 91.128464 0.000017 0.499755
256.397552 91.503143 0.000026 0.546324
255.152130 91.779182 0.000020 0.609069
257.201508 91.252747 4.529755 0.512990
255.046478 91.746193 3.703764 0.502574
255.544662 91.632118 3.528366 0.502328
256.078156 91.509964 3.327151 0.525245
255.701981 91.596100 2.984865 0.509314
257.022095 91.293816 2.813009 0.514461
256.972076 91.305275 2.484586 0.507598
nan nan nan 0.000000
nan nan nan 0.000000
287.040863 84.420227 -0.000001 0.332598
271.133362 88.062668 -0.000011 0.538113
264.303589 89.626534 -0.000009 0.531495
260.499756 90.497520 -0.000008 0.533211
258.071167 91.053612 0.000027 0.549265
256.383392 91.440079 0.000021 0.541176
255.139832 91.724815 0.000029 0.526961
256.542938 91.335945 4.364357 0.512377
255.937363 91.479057 3.904245 0.501103
256.558624 91.332230 3.720429 0.500858
256.020203 91.459480 3.320474 0.505392
256.306305 91.391861 3.057904 0.500613
257.490723 91.111938 2.853812 0.505147
265.832733 89.140427 2.932662 0.499877
nan nan nan 0.000000
nan nan nan 0.000000
286.976440 84.143402 -0.000000 0.331495
271.094757 87.896812 -0.000011 0.540809
264.276062 89.508316 -0.000008 0.520466
260.478394 90.405838 -0.000007 0.554902
258.053894 90.978851 0.000007 0.541789
256.368774 91.377098 0.000015 0.511397
255.127228 91.670517 0.000024 0.548774
255.006241 91.642632 3.972139 0.519118
255.101685 91.619370 3.721669 0.505270
255.199295 91.595581 3.468735 0.503309
256.214508 91.348152 3.352359 0.426838
255.396301 91.547569 2.951926 0.518260
257.533203 91.026764 2.858830 0.505882
257.664154 90.994850 2.521183 0.510907
nan nan nan 0.000000
nan nan nan 0.000000
286.712585 83.915176 0.009987 1.000000
271.055054 87.731232 -0.000012 0.531495
264.247772 89.390305 -0.000010 0.531618
260.456451 90.314308 -0.000009 0.514828
258.035950 90.904243 0.000014 0.522181
256.353577 91.314262 0.000033 0.553799
255.114197 91.616318 0.000027 0.520956
255.031830 91.579536 3.982155 0.510049
255.131226 91.554581 3.731222 0.494118
255.228699 91.530098 3.476791 0.517892
255.325851 91.505707 3.218780 0.501961
255.871384 91.368698 3.009922 0.497426
257.579193 90.939819 2.864204 0.506985
257.709778 90.907028 2.524394 0.505882
nan nan nan 0.000000
nan nan nan 0.000000
286.842163 83.591057 -0.000017 0.537377
271.014130 87.565926 -0.000012 0.530515
264.218567 89.272484 -0.000008 0.539338
260.433838 90.222939 -0.000008 0.531618
258.017487 90.829758 0.000018 0.504657
256.338074 91.251503 0.000028 0.546446
255.100845 91.562202 0.000021 0.536887
255.063263 91.514359 3.993814 0.514461
255.556915 91.386703 3.829271 0.509559
255.256699 91.464333 3.484684 0.541299
255.357483 91.438271 3.225799 0.495711
255.458557 91.412140 2.962667 0.511520
259.611908 90.338226 3.037898 0.505270
nan nan nan 0.000000
nan nan nan 0.000000
nan nan nan 0.000000
286.771973 83.315651 -0.000016 0.534191
270.972046 87.400925 -0.000009 0.530637
264.188599 89.154869 -0.000007 0.531127
260.410583 90.131721 -0.000007 0.551716
257.998566 90.755386 0.000011 0.545098
256.322235 91.188828 0.000004 0.570956
255.087112 91.508179 0.000014 0.520588
254.867569 91.508904 3.946748 0.519485
255.188248 91.423599 3.750227 0.500735
255.286301 91.397514 3.492976 0.508211
255.791229 91.263191 3.294621 0.506005
255.786011 91.264580 3.003413 0.505515
257.845520 90.716698 2.889926 0.506863
nan nan nan 0.000000
nan nan nan 0.000000
nan nan nan 0.000000
286.699860 83.040726 -0.000017 0.539828
270.928864 87.236206 -0.000011 0.539951
264.157806 89.037468 -0.000008 0.553186
260.386688 90.040680 -0.000006 0.537255
257.978973 90.681190 0.000031 0.555025
256.305725 91.126320 0.000025 0.521814
255.072891 91.454292 0.000034 0.553309
255.120087 91.383591 4.015995 0.500490
255.219360 91.356430 3.760495 0.546936
255.251343 91.347687 3.489197 0.512010
255.418915 91.301857 3.239807 0.506863
255.523209 91.273323 2.973961 0.507721
259.294952 90.241707 3.014815 0.503554
263.724243 89.030228 2.833609 0.508824
264.439209 88.834686 2.289800 0.493873
nan nan nan 0.000000
286.625854 82.766327 -0.000017 0.533824
270.884521 87.071793 -0.000011 0.528922
264.126221 88.920280 -0.000009 0.546446
260.362213 89.949791 -0.000008 0.528554
257.959167 90.607063 0.000000 0.556250
256.288940 91.063889 0.000012 0.516422
255.058487 91.400436 0.000005 0.530147
255.146988 91.317657 4.026900 0.497672
255.246689 91.289642 3.770036 0.520098
255.208054 91.300499 3.483903 0.515931
255.964264 91.087982 3.326238 0.524142
255.555588 91.202835 2.979717 0.494485
257.550720 90.642143 2.868221 0.518750
264.404297 88.716064 2.869925 0.510662
264.327911 88.737526 2.288470 0.517034
nan nan nan 0.000000
286.549927 82.492432 -0.000018 0.532843
270.839050 86.907692 -0.000012 0.539828
264.093781 88.803322 -0.000010 0.541789
260.337067 89.859085 -0.000009 0.537623
257.938599 90.533127 0.000010 0.543505
256.271637 91.001602 0.000025 0.537377
255.043503 91.346741 0.000026 0.512868
255.178116 91.249886 4.039050 0.506618
255.338623 91.203568 3.794224 0.508824
255.380066 91.191612 3.519429 0.503554
255.484924 91.161339 3.254875 0.518505
255.590042 91.131004 2.985794 0.518505
259.087250 90.121780 3.001081 0.509069
264.287109 88.621223 2.865665 0.443995
264.217529 88.641289 2.287164 0.516544
nan nan nan 0.000000
286.472076 82.219078 -0.000018 0.537010
270.792419 86.743912 -0.000012 0.531740
264.060577 88.686592 -0.000010 0.530515
260.311279 89.768562 -0.000008 0.522917
257.917603 90.459328 0.000009 0.532598
256.253967 90.939423 0.000011 0.525123
255.028259 91.293137 0.000022 0.566667
255.403107 91.123985 4.101991 0.528922
255.308960 91.151871 3.791210 0.506985
255.959030 90.959343 3.632403 0.509314
255.516830 91.090309 3.262372 0.485662
258.941620 90.076027 3.389928 0.516054
258.960968 90.070290 2.992327 0.516667
264.177826 88.525284 2.861835 0.493995
263.650391 88.681488 2.278072 0.505760
nan nan nan 0.000000
286.392303 81.946289 -0.000017 0.539951
270.744598 86.580482 -0.000010 0.531618
264.026489 88.570107 -0.000009 0.518505
260.284851 89.678215 -0.000007 0.559069
257.895996 90.385689 0.000019 0.534926
256.235779 90.877380 0.000023 0.531863
255.012558 91.239647 0.000036 0.549387
255.236359 91.113403 4.062746 0.514461
255.695602 90.973900 3.882239 0.498652
255.075027 91.162407 3.467720 0.494118
255.835739 90.931335 3.314459 0.503676
256.936890 90.596840 3.151811 0.533701
262.363098 88.948532 3.285953 0.507230
264.437775 88.318314 2.876989 0.505760
nan nan nan 0.000000
nan nan nan 0.000000
286.310638 81.674049 -0.000018 0.537623
270.695679 86.417374 -0.000011 0.535907
263.991608 88.453850 -0.000010 0.552451
260.257813 89.588058 -0.000007 0.510539
257.873962 90.312187 0.000018 0.554779
256.217255 90.815437 0.000012 0.532353
254.996658 91.186218 0.000006 0.529044
255.410583 90.998940 4.112886 0.515564
255.368149 91.012154 3.812213 0.506005
255.029602 91.117577 3.462217 0.506740
255.790070 90.880768 3.310190 0.510539
257.166412 90.452156 3.181943 0.582108
262.493744 88.793175 3.299936 0.505637
264.098602 88.293411 2.861423 0.518873
nan nan nan 0.000000
nan nan nan 0.000000
286.227112 81.402397 -0.000018 0.535539
270.645599 86.254616 -0.000011 0.522181
263.955933 88.337845 -0.000009 0.536765
260.230164 89.498085 -0.000009 0.538848
257.851471 90.238831 0.000008 0.544240
256.198273 90.753647 0.000004 0.550368
254.980270 91.132942 0.000006 0.534559
255.618195 90.870880 4.172127 0.518505
255.580017 90.883064 3.864238 0.500123
255.507065 90.906342 3.556631 0.506985
255.176758 91.011742 3.217581 0.525980
255.495560 90.910011 2.982781 0.508333
258.554260 89.934029 2.963736 0.505882
258.749908 89.871605 2.587503 0.498284
264.190491 88.135590 2.289146 0.520711
nan nan nan 0.000000
286.141632 81.131325 -0.000018 0.532475
270.594391 86.092201 -0.000011 0.535784
263.919434 88.222084 -0.000010 0.542770
260.201843 89.408302 -0.000009 0.537990
257.828247 90.165688 0.000037 0.516789
256.178772 90.692009 0.000021 0.495956
254.963440 91.079803 0.000024 0.499387
255.045914 90.994209 4.026223 0.508456
255.876984 90.722618 3.935920 0.503309
254.937073 91.029778 3.451036 0.502696
255.164642 90.955414 3.218438 0.526838
255.449310 90.862381 2.979402 0.500368
259.497070 89.539589 3.047241 0.502451
258.815979 89.762177 2.592244 0.509926
263.674042 88.174599 2.280908 0.506127
nan nan nan 0.000000
286.054321 80.860863 -0.000019 0.538971
270.542084 85.930161 -0.000011 0.533701
263.882141 88.106583 -0.000010 0.550123
260.172913 89.318741 -0.000009 0.550368
257.804718 90.092651 0.000026 0.549877
256.158997 90.630463 0.000000 0.551961
254.946350 91.026749 0.000015 0.559069
255.395691 90.817642 4.123293 0.517279
255.464417 90.794647 3.846438 0.508333
256.079529 90.588875 3.673588 0.504534
255.116959 90.910896 3.213794 0.503554
255.418869 90.809891 2.977973 0.513971
258.666382 89.723465 2.977838 0.526226
258.871460 89.654861 2.596488 0.509926
nan nan nan 0.000000
nan nan nan 0.000000
285.965057 80.591011 -0.000017 0.531863
270.488617 85.768478 -0.000011 0.530515
263.844025 87.991348 -0.000008 0.534681
260.143341 89.229370 -0.000007 0.528799
257.780518 90.019829 0.000046 0.580515
256.138641 90.569107 0.000015 0.536274
254.928772 90.973846 0.000035 0.521936
254.986069 90.895325 4.019866 0.506985
255.787491 90.620979 3.924554 0.502941
255.868286 90.593315 3.636922 0.511275
255.110260 90.852806 3.215617 0.492525
255.370651 90.763664 2.974423 0.517279
259.004944 89.519577 3.009492 0.523897
257.077209 90.179482 2.504730 0.598407
259.144501 89.471802 2.203880 0.521324
nan nan nan 0.000000
285.873962 80.321800 -0.000017 0.535049
256.993958 90.207977 1.164793 0.617402
256.966675 90.217323 0.831508 0.514461
260.113190 89.140205 -0.000008 0.532966
257.756012 89.947121 0.000030 0.544363
256.117950 90.507858 0.000004 0.541422
254.910950 90.921036 0.000021 0.580760
254.948105 90.848969 4.014679 0.529779
255.603119 90.619621 3.887022 0.508456
255.839264 90.536942 3.635285 0.595466
255.073578 90.805031 3.212793 0.494853
255.831924 90.539505 3.033007 0.517034
257.017639 90.124344 2.839285 0.542892
256.993500 90.132797 2.501594 0.608946
256.979614 90.137665 2.166838 0.593382
256.962585 90.143623 1.833457 0.521324
256.940674 90.151291 1.501155 0.531495
256.915558 90.160080 1.169582 0.588971
256.894379 90.167503 0.837492 0.532353
256.911407 90.161537 0.498361 0.590931
256.950500 90.147858 0.150482 0.471324
256.096771 90.446777 0.000011 0.553554
254.892731 90.868355 0.000017 0.557598
254.910614 90.802750 4.009689 0.501838
255.362885 90.640831 3.836585 0.632108
255.484711 90.597229 3.570809 0.499387
255.473312 90.601303 3.278777 0.501716
254.724686 90.869301 2.900270 0.500368
256.970642 90.065269 2.837268 0.617157
256.964722 90.067390 2.501334 0.655025
256.935394 90.077888 2.166483 0.555760
256.908630 90.087463 1.833983 0.536029
256.896332 90.091873 1.502234 0.620343
256.892426 90.093269 1.169543 0.546078
256.869965 90.101311 0.837600 0.475858
256.864807 90.103165 0.501991 0.551348
256.864716 90.103195 0.162484 0.601225
256.075043 90.385887 0.000047 0.568260
254.874146 90.815811 0.000016 0.548652
255.877823 90.389206 4.272758 0.519853
255.241409 90.622070 3.813292 0.495588
255.660507 90.468727 3.608848 0.505515
255.036987 90.696869 3.213092 0.515074
254.696228 90.821541 2.899061 0.506740
255.524551 90.518471 2.713128 0.495833
256.998627 89.979118 2.504377 0.558211
256.937653 90.001427 2.166943 0.610662
256.897430 90.016151 1.833758 0.650368
256.893494 90.017586 1.501123 0.617157
256.913391 90.010307 1.165611 0.537377
256.886047 90.020317 0.832689 0.581250
256.853546 90.032211 0.499978 0.511520
256.831360 90.040321 0.164297 0.639951
256.053070 90.325089 0.000042 0.553554
254.855103 90.763405 0.000028 0.480760
255.352234 90.518066 4.138082 0.518750
255.859909 90.328285 3.960593 0.547549
255.706924 90.385468 3.622024 0.505882
257.176544 89.836098 3.555051 0.573284
254.672501 90.772163 2.898470 0.516054
258.309235 89.412659 2.958735 0.510662
258.863800 89.205345 2.603505 0.507843
nan nan nan 0.000000
nan nan nan 0.000000
285.490784 79.251472 -0.000018 0.534069
270.204468 84.965912 -0.000011 0.540319
263.641479 87.419327 -0.000007 0.530515
256.923340 89.930740 0.485045 0.567647
256.836853 89.963081 0.158485 0.594730
256.030701 90.264435 0.000025 0.533333
254.835815 90.711113 0.000016 0.531863
258.246521 89.349228 4.919757 0.509681
257.932190 89.469246 4.444848 0.503922
254.980759 90.596107 3.484872 0.501348
255.464554 90.411400 3.287327 0.520098
255.283264 90.480606 2.976054 0.515686
258.374817 89.300240 2.967023 0.511520
nan nan nan 0.000000
nan nan nan 0.000000
nan nan nan 0.000000
285.390381 78.985588 -0.000019 0.540564
270.144287 84.806610 -0.000011 0.536397
263.598602 87.305786 -0.000009 0.524387
259.953003 88.697685 -0.000006 0.538358
257.625397 89.586380 0.000040 0.505882
256.007751 90.204002 0.000050 0.555025
254.816055 90.658997 0.000035 0.556250
258.474365 89.173065 4.988884 0.513603
255.857132 90.193336 3.970429 0.496201
255.000549 90.527252 3.492743 0.515441
254.982559 90.534256 3.214063 0.506495
255.279175 90.418640 2.978180 0.497426
259.112701 88.924225 3.034570 0.524265
258.596985 89.125267 2.592661 0.509681
nan nan nan 0.000000
nan nan nan 0.000000
285.288055 78.720428 -0.000019 0.536520
270.082977 84.647743 -0.000011 0.535172
263.554932 87.192551 -0.000009 0.539216
259.919128 88.609863 -0.000006 0.550490
257.597809 89.514771 0.000029 0.525000
255.984558 90.143654 0.000032 0.579044
254.796143 90.606934 -0.000004 0.526838
258.716034 88.987259 5.062261 0.511642
255.046661 90.447258 3.787460 0.505637
255.341843 90.329803 3.563691 0.494240
254.959534 90.481934 3.213731 0.509681
254.618179 90.617752 2.899034 0.495221
258.465973 89.086754 2.980345 0.514706
258.776855 88.963058 2.603804 0.502328
nan nan nan 0.000000
nan nan nan 0.000000
285.183929 78.455971 -0.000020 0.537132
270.020599 84.489296 -0.000012 0.535172
263.510437 87.079613 -0.000010 0.526103
259.884644 88.522285 -0.000007 0.552451
257.569580 89.443413 0.000049 0.541789
255.960770 90.083549 0.000057 0.562010
254.775635 90.555099 0.000015 0.540441
258.043457 89.168213 4.889039 0.504657
254.998749 90.404350 3.781315 0.554289
255.042740 90.386497 3.509345 0.529534
255.225632 90.312248 3.259740 0.510662
254.599213 90.566574 2.899205 0.509804
nan nan nan 0.000000
nan nan nan 0.000000
nan nan nan 0.000000
nan nan nan 0.000000
285.077911 78.192253 -0.000020 0.532843
269.957092 84.331291 -0.000012 0.540686
263.465179 86.966995 -0.000010 0.542647
259.849518 88.434952 -0.000005 0.533578
257.540985 89.372208 0.000044 0.513971
255.936722 90.023537 0.000040 0.558333
254.754745 90.503426 0.000043 0.525245
255.311523 90.212502 4.156643 0.502451
254.944656 90.364433 3.773777 0.511520
255.643387 90.075050 3.631968 0.501838
255.171661 90.270424 3.254689 0.506250
254.405258 90.587830 2.877634 0.519240
258.551880 88.870499 2.993542 0.509559
258.849304 88.747307 2.611089 0.500858
nan nan nan 0.000000
nan nan nan 0.000000
284.970123 77.929291 -0.000019 0.544608
269.892456 84.173744 -0.000011 0.544730
263.419128 86.854706 -0.000009 0.549387
259.813812 88.347862 -0.000005 0.548897
257.511780 89.301254 0.000064 0.538725
255.912109 89.963760 0.000060 0.570343
254.733505 90.451889 0.000070 0.554044
255.447952 90.089622 4.200047 0.507598
nan nan nan 0.000000
255.005005 90.276711 3.510643 0.507353
254.696030 90.407211 3.181769 0.497181
255.233093 90.180374 2.983580 0.513971
254.911285 90.316292 2.672404 0.527819
nan nan nan 0.000000
nan nan nan 0.000000
nan nan nan 0.000000
284.860413 77.667084 -0.000019 0.533333
269.826752 84.016647 -0.000011 0.534681
263.372284 86.742737 -0.000008 0.531005
259.777496 88.261017 -0.000006 0.551716
257.482269 89.230423 0.000046 0.525735
255.887360 89.904037 0.000018 0.547426
254.712067 90.400436 0.000051 0.536887
257.224945 89.257683 4.691232 0.501348
254.488861 90.435860 3.677087 0.501593
254.675613 90.355438 3.449894 0.512255
254.861298 90.275490 3.211983 0.494485
255.078201 90.182091 2.967112 0.504167
258.378387 88.761002 2.983931 0.510784
nan nan nan 0.000000
nan nan nan 0.000000
nan nan nan 0.000000
284.748962 77.405647 -0.000020 0.535662
269.759979 83.860008 -0.000012 0.535539
263.324677 86.631088 -0.000010 0.543750
259.740570 88.174431 -0.000008 0.524020
257.452209 89.159828 0.000043 0.540809
255.861923 89.844604 0.000036 0.575858
254.690216 90.349159 0.000046 0.542279
254.682312 90.291756 4.003871 0.502451
254.791931 90.243645 3.753667 0.507598
254.900314 90.196068 3.498951 0.505882
255.012421 90.146858 3.240150 0.515931
258.404022 88.658272 3.387886 0.499632
258.710968 88.523537 3.016704 0.508578
nan nan nan 0.000000
nan nan nan 0.000000
nan nan nan 0.000000
284.635620 77.144989 -0.000020 0.538603
269.692078 83.703842 -0.000012 0.536029
263.276306 86.519783 -0.000010 0.531863
259.703064 88.088104 -0.000007 0.541912
257.421692 89.089417 0.000023 0.515196
255.836166 89.785324 0.000032 0.521324
254.668045 90.298012 0.000029 0.570466
254.631119 90.253464 3.996032 0.496324
256.933105 89.223877 4.265701 0.505882
255.523560 89.854309 3.627823 0.508824
254.758545 90.196472 3.202737 0.505637
255.068222 90.057968 2.971798 0.511642
258.754669 88.409164 3.023777 0.500368
nan nan nan 0.000000
nan nan nan 0.000000
nan nan nan 0.000000
284.520508 76.885139 -0.000020 0.540931
269.623108 83.548149 -0.000013 0.531985
263.227142 86.408813 -0.000010 0.536152
259.664917 88.002045 -0.000009 0.538480
257.390503 89.019302 0.000045 0.516667
255.809891 89.726250 0.000049 0.545221
254.645370 90.247093 0.000059 0.542034
257.073334 89.079514 4.674587 0.502574
255.681244 89.713829 3.975729 0.511397
254.798828 90.115906 3.488050 0.513603
254.797882 90.116341 3.212948 0.494363
255.017120 90.016441 2.968407 0.506495
258.822998 88.282242 3.033168 0.505882
nan nan nan 0.000000
nan nan nan 0.000000
nan nan nan 0.000000
284.403564 76.626099 -0.000020 0.535049
269.553040 83.392944 -0.000013 0.537623
263.177216 86.298195 -0.000010 0.538971
259.626190 87.916252 -0.000009 0.543873
257.359039 88.949318 0.000025 0.515686
255.783356 89.667290 0.000034 0.523407
254.622498 90.196266 0.000041 0.557966
256.019684 89.486351 4.392222 0.518382
256.872803 89.090393 4.265800 0.508701
254.745178 90.077873 3.482073 0.505882
254.766541 90.067963 3.211721 0.506985
258.269257 88.442276 3.383980 0.513971
255.073746 89.925385 2.697570 0.485294
nan nan nan 0.000000
nan nan nan 0.000000
nan nan nan 0.000000
284.284790 76.367874 -0.000020 0.534681
269.481842 83.238235 -0.000012 0.538113
263.126465 86.187920 -0.000010 0.537990
259.586853 87.830742 -0.000006 0.517034
257.326874 88.879654 0.000046 0.529167
255.756256 89.608604 0.000056 0.527451
254.599106 90.145660 0.000067 0.550245
257.454498 88.734451 4.797586 0.505882
254.593521 90.086655 3.728730 0.503309
255.245804 89.778358 3.587681 0.499877
254.844833 89.967873 3.228537 0.546324
254.466385 90.146751 2.904625 0.496324
255.022125 89.884079 2.695174 0.506005
nan nan nan 0.000000
nan nan nan 0.000000
nan nan nan 0.000000
284.164215 76.110489 -0.000019 0.538725
269.409668 83.084038 -0.000012 0.545098
263.074982 86.078011 -0.000009 0.533946
259.546936 87.745491 -0.000007 0.506127
257.294373 88.810135 0.000033 0.501716
255.728928 89.550018 0.000035 0.532966
254.575546 90.095146 0.000046 0.553554
256.938416 88.896263 4.663458 0.504657
255.446457 89.614204 3.938933 0.525490
257.052124 88.841553 3.957717 0.506005
254.750397 89.949150 3.217087 0.511397
254.400375 90.117584 2.899215 0.513113
254.967880 89.844498 2.692557 0.514583
nan nan nan 0.000000
nan nan nan 0.000000
nan nan nan 0.000000
284.041870 75.853958 -0.000020 0.541789
269.336365 82.930336 -0.000012 0.533088
263.022766 85.968460 -0.000009 0.542770
259.506409 87.660538 -0.000007 0.542647
257.261261 88.740913 0.000050 0.500858
255.701126 89.491653 0.000026 0.537255
254.551483 90.044868 0.000064 0.538971
256.889557 88.837532 4.658874 0.498652
255.926224 89.309402 4.060900 0.505147
254.456696 90.029228 3.438501 0.505147
254.698013 89.911018 3.212569 0.500980
257.529510 88.524063 3.303115 0.509191
nan nan nan 0.000000
nan nan nan 0.000000
nan nan nan 0.000000
nan nan nan 0.000000
283.917755 75.598267 -0.000020 0.533824
269.261963 82.777138 -0.000013 0.536397
262.969757 85.859276 -0.000010 0.538848
259.465302 87.575867 -0.000006 0.530025
257.227814 88.671852 0.000036 0.542402
255.672958 89.433464 0.000011 0.523529
254.527267 89.994659 0.000024 0.550490
255.353271 89.520607 4.238069 0.506127
254.444016 89.973885 3.710319 0.494118
255.252289 89.570946 3.605227 0.512623
254.688400 89.852051 3.215165 0.511887
254.361740 90.014900 2.900422 0.513971
258.444183 87.979736 3.015805 0.506618
nan nan nan 0.000000
nan nan nan 0.000000
nan nan nan 0.000000
283.791840 75.343468 -0.000020 0.532721
269.186523 82.624481 -0.000012 0.532475
262.915955 85.750465 -0.000009 0.531618
259.423584 87.491470 -0.000006 0.495098
257.193817 88.603050 0.000033 0.556495
255.644196 89.375572 0.000041 0.548652
254.502533 89.944710 0.000039 0.521691
255.330292 89.462318 4.239487 0.500368
254.398239 89.935120 3.705248 0.537623
254.497803 89.884605 3.456938 0.502941
254.662064 89.801285 3.215059 0.508578
254.864914 89.698387 2.968496 0.501716
nan nan nan 0.000000
nan nan nan 0.000000
nan nan nan 0.000000
nan nan nan 0.000000
283.664154 75.089554 -0.000021 0.541544
269.110046 82.472343 -0.000013 0.542279
262.861450 85.642036 -0.000009 0.543873
259.381317 87.407379 -0.000008 0.518137
257.159271 88.534538 0.000049 0.552941
255.615067 89.317856 0.000060 0.547794
254.477402 89.894958 0.000063 0.550123
255.307266 89.403961 4.241012 0.494118
254.348236 89.898895 3.699198 0.497181
254.446533 89.848175 3.451649 0.495098
254.548492 89.795540 3.200449 0.507966
255.504120 89.302368 3.054709 0.508333
257.523346 88.260300 2.938060 0.503676
263.185150 85.338394 2.875034 0.533578
nan nan nan 0.000000
nan nan nan 0.000000
283.534668 74.836533 -0.000020 0.531127
269.032440 82.320747 -0.000012 0.536887
262.806152 85.533989 -0.000009 0.540319
259.338440 87.323586 -0.000007 0.541054
257.124451 88.466171 0.000026 0.554289
255.585724 89.260254 0.000037 0.533701
254.452087 89.845299 0.000043 0.541422
255.904434 89.019943 4.418107 0.509069
254.298599 89.862923 3.693274 0.514706
254.799255 89.600098 3.529421 0.538971
255.884735 89.030273 3.428682 0.503309
255.481537 89.241928 3.055617 0.601471
257.536957 88.162949 2.942737 0.520711
262.690186 85.457794 2.850755 0.509681
nan nan nan 0.000000
nan nan nan 0.000000
283.403473 74.584412 -0.000021 0.538235
268.953827 82.169701 -0.000012 0.536765
262.750092 85.426323 -0.000009 0.524020
259.294983 87.240089 -0.000007 0.533578
257.088928 88.398148 0.000043 0.542157
255.555771 89.202972 0.000064 0.509804
254.426239 89.795914 0.000075 0.549510
255.247223 89.294418 4.240450 0.507230
255.072815 89.387527 3.889100 0.509069
254.720367 89.575691 3.518813 0.508824
255.409454 89.207802 3.354053 0.506740
255.458038 89.181854 3.056461 0.504044
257.545227 88.067558 2.946994 0.510417
256.926208 88.398033 2.532911 0.502451
262.484314 85.430634 2.280614 0.515319
nan nan nan 0.000000
283.270508 74.333229 -0.000020 0.534681
268.874146 82.019203 -0.000012 0.541422
262.693329 85.319054 -0.000010 0.518015
259.250916 87.156898 -0.000006 0.559069
257.053070 88.330292 0.000030 0.537623
255.525604 89.145790 0.000042 0.560294
254.400238 89.746605 0.000053 0.516789
255.240646 89.226929 4.247013 0.494240
254.786713 89.473366 3.825904 0.528064
254.456970 89.652390 3.469997 0.536520
254.400574 89.683006 3.188867 0.511152
255.435501 89.121155 3.057487 0.505882
257.044556 88.247620 2.903847 0.505882
262.423737 85.327301 2.842228 0.500368
263.047302 84.988792 2.292152 0.508088
nan nan nan 0.000000
283.135742 74.082985 -0.000020 0.532108
268.793427 81.869270 -0.000011 0.535172
262.635803 85.212189 -0.000010 0.541176
259.206329 87.074020 -0.000007 0.524142
257.016632 88.262772 0.000048 0.503799
255.494904 89.088905 0.000059 0.522426
254.373749 89.697563 0.000070 0.490196
254.857513 89.366882 4.145995 0.502819
254.517868 89.554344 3.766573 0.505392
255.351059 89.094467 3.661447 0.517402
254.349838 89.647095 3.184824 0.495221
254.660141 89.475822 2.959653 0.524387
256.840790 88.272179 2.888227 0.514583
256.804688 88.292107 2.530148 0.504902
256.768188 88.312248 2.175908 0.514951
nan nan nan 0.000000
282.999237 73.833679 -0.000019 0.537868
268.711670 81.719902 -0.000010 0.530882
262.577515 85.105728 -0.000008 0.541054
259.161102 86.991455 -0.000006 0.513113
256.979858 88.195427 0.000031 0.525123
255.463867 89.032188 0.000054 0.553064
254.347137 89.648582 0.000027 0.546324
255.242416 89.082329 4.264905 0.500000
255.685699 88.833595 4.062668 0.505882
255.145676 89.136604 3.625063 0.528676
255.341644 89.026642 3.358134 0.507843
254.674561 89.400948 2.965293 0.532966
256.305878 88.485611 2.841390 0.524877
260.458618 86.155479 2.738044 0.495588
261.998688 85.291344 2.274737 0.507108
nan nan nan 0.000000
282.861053 73.585327 -0.000020 0.535049
268.628876 81.571106 -0.000012 0.534069
262.518463 84.999672 -0.000009 0.541054
259.115356 86.909203 -0.000007 0.545221
256.942444 88.128426 0.000052 0.568382
255.432388 88.975723 0.000064 0.570588
254.319992 89.599899 0.000037 0.522304
255.581482 88.816277 4.371639 0.521691
255.221603 89.021515 3.955441 0.503676
255.270279 88.993759 3.657598 0.463603
254.253235 89.573814 3.177645 0.513480
255.367096 88.938545 3.060829 0.495343
256.524048 88.278717 2.865314 0.522304
260.818848 85.829292 2.761337 0.515196
256.647339 88.208389 2.175014 0.525735
nan nan nan 0.000000
282.721100 73.337959 -0.000019 0.534681
268.545013 81.422890 -0.000012 0.533824
262.458740 84.894028 -0.000009 0.535784
259.068970 86.827278 -0.000006 0.522181
256.904724 88.061592 0.000037 0.531005
255.400635 88.919418 0.000047 0.545588
254.292603 89.551353 0.000021 0.537132
255.150696 88.989571 4.256457 0.505882
255.198288 88.961983 3.957483 0.514093
255.367310 88.864021 3.684667 0.505637
255.391479 88.850006 3.377535 0.507475
255.382278 88.855339 3.067112 0.496078
255.385452 88.853493 2.760886 0.505882
256.619293 88.138351 2.525939 0.503922
nan nan nan 0.000000
nan nan nan 0.000000
282.579437 73.091553 -0.000019 0.541667
268.460144 81.275261 -0.000012 0.535172
262.398224 84.788811 -0.000009 0.536274
259.022064 86.745674 -0.000006 0.531127
256.866394 87.995125 0.000055 0.554779
255.368454 88.863350 0.000036 0.545221
254.264725 89.503090 0.000048 0.532721
255.127548 88.930206 4.258956 0.520833
255.319870 88.816940 3.995962 0.510539
255.709427 88.587502 3.763800 0.497181
255.342957 88.803337 3.374815 0.510907
255.335739 88.807602 3.065260 0.496201
255.300354 88.828430 2.755899 0.505882
256.559387 88.086891 2.524674 0.505882
263.074036 84.249916 2.298488 0.499020
nan nan nan 0.000000
282.436066 72.846146 -0.000021 0.536397
268.374237 81.128235 -0.000012 0.550490
262.337006 84.684021 -0.000009 0.557721
258.974579 86.664398 -0.000007 0.527941
256.827820 87.928802 0.000031 0.544363
255.335938 88.807480 0.000013 0.548407
254.236694 89.454903 0.000024 0.536520
255.316666 88.743668 4.323542 0.510662
255.267395 88.773163 3.991039 0.538603
255.201965 88.812309 3.663519 0.504044
256.218689 88.203880 3.531909 0.500980
255.247787 88.784889 3.057894 0.511152
256.538971 88.012222 2.877394 0.497426
256.499634 88.035767 2.523431 0.514093
nan nan nan 0.000000
nan nan nan 0.000000
282.290985 72.601753 -0.000021 0.536152
268.287292 80.981796 -0.000013 0.543627
262.275055 84.579651 -0.000010 0.526716
258.926544 86.583458 -0.000008 0.547794
256.788666 87.862808 0.000026 0.570956
255.302872 88.751930 0.000029 0.535417
254.208160 89.407021 0.000046 0.534314
255.240860 88.713974 4.311122 0.497181
255.203674 88.736588 3.983335 0.511887
255.160049 88.763092 3.661616 0.505637
256.208984 88.125420 3.536686 0.518750
255.159851 88.763214 3.050520 0.515441
256.472473 87.965225 2.874715 0.507230
256.439972 87.984985 2.522210 0.504902
256.141846 88.166214 2.168237 0.507721
nan nan nan 0.000000
282.144196 72.358376 -0.000020 0.537255
268.199371 80.835991 -0.000012 0.537500
262.212341 84.475723 -0.000009 0.535417
258.877899 86.502853 -0.000007 0.534436
256.749146 87.797020 0.000000 0.522672
255.269577 88.696510 0.000004 0.524020
254.179398 89.359268 0.000037 0.524020
255.234787 88.642021 4.319241 0.504902
255.119995 88.712906 3.970598 0.506985
255.135818 88.703133 3.663555 0.522794
255.118393 88.713905 3.353139 0.495956
256.084808 88.117096 3.180083 0.515686
256.576111 87.813698 2.888452 0.508211
259.985535 85.708229 2.729167 0.506373
261.283112 84.906921 2.267838 0.500980
nan nan nan 0.000000
281.995697 72.116028 -0.000020 0.541054
268.110382 80.690788 -0.000012 0.535539
262.148956 84.372231 -0.000009 0.541422
258.828735 86.422600 -0.000007 0.534314
256.708954 87.731644 0.000019 0.545098
255.235657 88.641479 0.000042 0.500368
254.150223 89.311783 0.000057 0.554902
255.983780 88.095917 4.550808 0.503064
255.004471 88.710182 3.949725 0.506005
255.036179 88.690277 3.649399 0.505637
255.025833 88.696777 3.342824 0.515931
255.037979 88.689163 3.043067 0.502696
256.356110 87.862389 2.871028 0.527574
256.323700 87.882713 2.519990 0.507475
nan nan nan 0.000000
nan nan nan 0.000000
281.845520 71.874725 -0.000021 0.535784
268.020416 80.546219 -0.000013 0.527083
262.084808 84.269188 -0.000009 0.541422
258.778992 86.342682 -0.000007 0.544608
256.668335 87.666565 0.000040 0.508088
255.201401 88.586647 0.000063 0.549387
254.120697 89.264511 0.000078 0.527451
255.235001 88.488609 4.339706 0.506863
255.691940 88.197533 4.134395 0.505760
254.931000 88.682259 3.634000 0.509314
256.032471 87.980606 3.525810 0.502083
255.909042 88.059250 3.166490 0.510294
256.296692 87.812309 2.869103 0.513848
256.259949 87.835716 2.518576 0.516176
256.226776 87.856850 2.172091 0.505515
nan nan nan 0.000000
281.693665 71.634483 -0.000021 0.535294
267.929443 80.402275 -0.000013 0.532475
262.019958 84.166595 -0.000009 0.537500
258.728729 86.263115 -0.000007 0.557843
256.627441 87.601624 0.000014 0.553064
255.166977 88.531937 0.000036 0.553309
254.091110 89.217262 0.000018 0.535907
255.229446 88.414528 4.348562 0.517402
254.844818 88.663338 3.926079 0.513603
254.909103 88.621750 3.636596 0.504167
254.906219 88.623611 3.333694 0.496814
254.863464 88.651276 3.028475 0.521446
256.236725 87.762970 2.867152 0.506373
256.203766 87.784286 2.517619 0.516422
256.170624 87.805725 2.171770 0.517157
nan nan nan 0.000000
281.540100 71.395294 -0.000020 0.535662
267.837433 80.258980 -0.000013 0.539461
261.954407 84.064453 -0.000009 0.549877
258.677856 86.183907 -0.000006 0.530637
256.585846 87.537132 0.000043 0.537010
255.131973 88.477585 0.000056 0.536642
254.060944 89.170395 0.000037 0.545098
255.229233 88.336357 4.359209 0.529902
254.853683 88.583031 3.937154 0.506618
254.799057 88.618904 3.620104 0.497304
255.886780 87.904488 3.513794 0.497181
255.869980 87.915520 3.171699 0.513971
256.177521 87.713531 2.865297 0.508088
262.827698 83.345657 2.909306 0.521201
256.111481 87.756897 2.171396 0.511397
nan nan nan 0.000000
281.384918 71.157196 -0.000021 0.539828
267.744446 80.116310 -0.000013 0.536765
261.888123 83.962784 -0.000009 0.543750
258.626465 86.105049 -0.000007 0.530025
256.544067 87.472778 0.000020 0.522549
255.096725 88.423393 0.000043 0.517770
254.030563 89.123650 0.000015 0.565196
255.223236 88.261330 4.368328 0.500490
255.338684 88.184341 4.072032 0.506863
255.305740 88.206314 3.738420 0.513603
255.136520 88.319160 3.387040 0.509559
254.758133 88.571480 3.023386 0.507230
255.773392 87.894463 2.829477 0.541176
262.951233 83.107986 2.920809 0.509804
256.055756 87.706177 2.171093 0.512132
nan nan nan 0.000000
281.228058 70.920189 -0.000021 0.535294
267.650482 79.974312 -0.000013 0.531373
261.821136 83.861572 -0.000008 0.549265
258.574493 86.026550 -0.000007 0.559314
256.501617 87.408852 0.000040 0.547059
255.060974 88.369537 0.000062 0.551348
253.999725 89.077209 0.000035 0.559191
260.282501 84.756607 5.909832 0.512868
255.600677 87.926102 4.150104 0.506250
255.530807 87.973396 3.796049 0.515196
255.759872 87.818329 3.505223 0.505637
255.828186 87.772087 3.176853 0.510662
259.899475 85.015915 3.241932 0.510417
263.336243 82.689293 2.947982 0.506863
255.996735 87.657982 2.170732 0.508701
306.883240 53.209015 0.823697 0.718137
281.069550 70.684280 -0.000020 0.536029
267.555511 79.832962 -0.000013 0.529044
261.753448 83.760826 -0.000008 0.528922
258.522003 85.948425 -0.000006 0.517892
256.458954 87.345078 0.000013 0.553922
255.025024 88.315804 0.000037 0.520833
253.968704 89.030899 0.000016 0.560417
260.005890 84.814476 5.844423 0.513358
262.058594 83.403839 5.852745 0.510907
255.993240 87.572014 3.906713 0.533946
255.626999 87.823692 3.488490 0.506250
256.248322 87.396713 3.241113 0.517157
256.007019 87.562523 2.860600 0.505882
262.841217 82.866020 2.922999 0.511520
305.816406 53.333244 3.160734 0.377451
305.997162 53.209019 0.835675 0.719853
280.909424 70.449471 -0.000021 0.535294
267.459534 79.692291 -0.000012 0.540686
261.685059 83.660561 -0.000008 0.536029
258.468964 85.870659 -0.000006 0.546569
256.415619 87.281738 0.000033 0.601225
254.988510 88.262459 0.000058 0.561765
253.937241 88.984901 0.000036 0.565196
259.736542 84.871727 5.780788 0.510784
255.193893 88.040382 4.063715 0.505882
255.946854 87.515160 3.905663 0.520343
255.844040 87.586884 3.534956 0.513971
256.131836 87.386139 3.230788 0.505024
256.247253 87.305611 2.888786 0.517034
262.548798 82.910088 2.909955 0.514093
304.950806 53.333237 3.149090 0.152328
305.128937 53.209015 0.847357 0.730882
280.747620 70.215797 -0.000021 0.535784
267.362610 79.552284 -0.000013 0.532230
261.615997 83.560760 -0.000010 0.542279
258.415375 85.793266 -0.000006 0.534436
256.371765 87.218765 0.000068 0.557966
254.951767 88.209274 0.000045 0.524387
253.905426 88.939117 0.000059 0.554657
261.606598 83.418686 6.373315 0.505882
255.144165 87.993858 4.060705 0.502696
255.906128 87.454407 3.905956 0.500980
255.417191 87.800560 3.464926 0.504902
259.355072 85.012695 3.691164 0.505882
259.592407 84.844673 3.229222 0.501225
261.282135 83.648392 2.838189 0.549755
261.251099 83.670372 2.278574 0.626961
304.277893 53.209015 0.858752 0.728676
261.185974 83.716499 1.167602 0.592402
261.200134 83.706451 0.609258 0.579044
261.240417 83.677925 0.043089 0.586642
258.361298 85.716255 -0.000007 0.537010
256.327820 87.155869 0.000033 0.559681
254.914719 88.156288 0.000010 0.520711
253.873505 88.893440 0.000025 0.572426
260.965454 83.729256 6.197391 0.578186
255.101685 87.942352 4.059697 0.507721
260.017487 84.410370 4.836631 0.487132
259.196564 85.000198 4.162559 0.502328
259.724548 84.620842 3.751947 0.516299
259.678802 84.653717 3.244081 0.514461
261.163147 83.587219 2.835174 0.611887
261.140015 83.603851 2.277726 0.589706
261.105957 83.628304 1.722960 0.596691
261.091858 83.638428 1.169138 0.598529
261.070465 83.653801 0.615406 0.648407
261.098206 83.633888 0.053468 0.540319
258.306610 85.639626 -0.000007 0.539461
256.283142 87.093491 0.000062 0.548162
254.877075 88.103729 0.000038 0.486765
253.841019 88.848145 0.000063 0.529779
261.565460 83.146996 6.404657 0.506495
255.048187 87.898964 4.055830 0.514216
259.889008 84.369347 4.822070 0.505882
255.716858 87.411415 3.534712 0.534559
259.530731 84.630585 3.733228 0.506618
258.988342 85.026062 3.180319 0.511029
262.755463 82.279312 2.936216 0.506740
302.454742 53.333237 3.115833 0.106373
261.082489 83.499153 1.722032 0.508456
280.252502 69.521622 -0.000021 0.536274
261.057770 83.517159 0.609681 0.547304
261.014679 83.548592 0.055498 0.555637
258.251404 85.563370 -0.000007 0.547917
256.238251 87.031235 0.000033 0.613113
254.839294 88.051277 0.000008 0.561765
253.808411 88.802933 0.000036 0.484436
259.889862 84.234039 5.905190 0.515319
254.998749 87.852875 4.053118 0.523162
259.764496 84.326790 4.808393 0.551838
259.757446 84.331993 4.288187 0.508824
259.623291 84.431259 3.755385 0.524020
258.959412 84.922447 3.183436 0.507966
301.749664 53.262726 5.324028 0.737377
301.654388 53.333233 3.105277 0.067279
301.822235 53.209023 0.891304 0.719363
280.084290 69.292557 -0.000021 0.533333
266.965179 78.999138 -0.000013 0.545833
261.332703 83.166504 -0.000009 0.534926
258.195709 85.487511 -0.000006 0.531740
256.192780 86.969437 0.000046 0.541176
254.800964 87.999214 0.000022 0.536642
253.775360 88.758034 0.000051 0.518873
260.057556 83.972046 5.978089 0.525368
255.252228 87.579597 4.132282 0.497304
259.486481 84.400764 4.759790 0.513848
261.464355 82.915909 4.616726 0.523897
259.854370 84.124588 3.797782 0.461275
259.663879 84.267609 3.261836 0.504779
262.391022 82.220215 2.923550 0.518505
300.868958 53.333241 3.094972 0.091667
301.034424 53.209015 0.901642 0.728431
279.914459 69.064651 -0.000021 0.538358
266.863434 78.862595 -0.000013 0.544853
261.260162 83.069191 -0.000009 0.537377
258.139465 85.412033 -0.000007 0.545343
256.146820 86.907982 0.000069 0.543382
254.762161 87.947502 0.000066 0.564216
253.741974 88.713402 0.000075 0.519730
nan nan nan 0.000000
255.207184 87.527260 4.131343 0.492157
259.513519 84.247047 4.780585 0.512255
255.588730 87.236641 3.534964 0.509926
259.460236 84.287659 3.750300 0.512623
259.336884 84.381599 3.234815 0.517034
300.190582 53.262730 5.262771 0.711397
300.098083 53.333199 3.084910 0.069730
300.261078 53.209015 0.911735 0.729167
279.743011 68.837952 -0.000022 0.537010
266.760712 78.726768 -0.000013 0.537010
261.186951 82.972382 -0.000009 0.533824
258.082672 85.336952 -0.000007 0.547917
256.100830 86.846565 0.000004 0.550858
254.723282 87.895859 0.000038 0.566667
253.708542 88.668800 0.000016 0.561520
259.697510 83.970055 5.906644 0.505637
259.107605 84.425926 5.207441 0.498529
259.391937 84.206192 4.767557 0.508578
259.727570 83.946808 4.319118 0.503064
259.497894 84.124298 3.765179 0.509681
259.291504 84.283813 3.236742 0.514093
259.617554 84.031845 2.761228 0.505882
299.341156 53.333199 3.075085 0.068873
299.501831 53.209007 0.921592 0.734069
279.569977 68.612465 -0.000021 0.533088
266.657043 78.591667 -0.000013 0.527696
261.113068 82.876091 -0.000009 0.549265
258.025391 85.262276 -0.000006 0.538113
256.054016 86.785759 0.000027 0.544240
254.683853 87.844643 0.000061 0.552206
253.674545 88.624634 0.000038 0.535172
259.472656 84.007980 5.856366 0.505760
258.985748 84.389725 5.191474 0.490686
260.091492 83.522781 4.944387 0.509804
259.563660 83.936646 4.300853 0.499510
259.315979 84.130829 3.748201 0.509926
259.641174 83.875870 3.279913 0.517770
298.687653 53.262722 5.204350 0.713480
298.597778 53.333195 3.065484 0.070833
298.756165 53.209007 0.931221 0.730025
279.395416 68.388184 -0.000022 0.538113
266.552460 78.457298 -0.000013 0.528799
261.038544 82.780312 -0.000009 0.531250
257.967560 85.187996 -0.000007 0.529657
256.007050 86.725082 -0.000010 0.539828
254.644287 87.793510 0.000022 0.523284
253.640411 88.580559 0.000002 0.517402
259.596008 83.772545 5.917161 0.563235
260.154419 83.328392 5.531632 0.558578
259.151978 84.125717 4.742229 0.505882
259.439026 83.897400 4.289954 0.508333
259.547272 83.811310 3.791865 0.523529
259.215576 84.075119 3.242401 0.508824
297.956146 53.262714 5.176147 0.721814
297.867493 53.333229 3.056106 0.096814
298.023682 53.209011 0.940629 0.737377
279.219269 68.165131 -0.000021 0.531985
266.446899 78.323654 -0.000012 0.524510
260.963318 82.685059 -0.000009 0.544976
257.909210 85.114128 -0.000006 0.523162
255.959351 86.664955 0.000020 0.521691
254.604095 87.742867 0.000054 0.557108
253.605774 88.536880 0.000031 0.525858
259.542389 83.675552 5.921865 0.505882
259.861755 83.417870 5.470212 0.518505
259.029083 84.089684 4.728876 0.514461
259.917267 83.373077 4.393943 0.510907
259.227722 83.929398 3.754682 0.505882
259.171326 83.974899 3.244708 0.504657
258.675934 84.374611 2.714485 0.506863
297.149933 53.333218 3.046943 0.099755
297.303925 53.209019 0.949821 0.704902
279.041595 67.943306 -0.000022 0.544118
266.340454 78.190750 -0.000012 0.543137
260.887421 82.590332 -0.000009 0.547059
257.850403 85.040665 -0.000007 0.523407
255.911514 86.604958 -0.000013 0.515931
254.563797 87.692322 0.000023 0.540564
253.571030 88.493301 0.000003 0.544976
259.395294 83.654663 5.896574 0.506250
259.652496 83.444160 5.431561 0.505024
260.812714 82.494637 5.163781 0.506127
261.553406 81.888474 4.721178 0.505515
259.133240 83.869118 3.750620 0.517647
258.891846 84.066689 3.222176 0.507721
261.737793 81.737556 2.912922 0.508333
296.530853 53.262733 3.039806 0.724142
296.596497 53.209015 0.958806 0.716667
278.862366 67.722733 -0.000021 0.536887
266.233063 78.058601 -0.000012 0.541912
260.810883 82.496147 -0.000008 0.551838
257.791016 84.967606 -0.000007 0.550123
255.863068 86.545456 0.000002 0.540564
254.522980 87.642204 0.000039 0.546936
253.535828 88.450081 0.000017 0.558946
259.225403 83.654549 5.863755 0.503186
259.451477 83.466873 5.394938 0.508456
258.794281 84.012459 4.704712 0.516789
259.069427 83.784035 4.258008 0.505882
259.388916 83.518814 3.798947 0.513971
258.939911 83.891548 3.234351 0.501838
261.756653 81.553291 2.919395 0.517524
295.836334 53.262737 3.031036 0.735172
295.901031 53.209023 0.967587 0.728676
278.681580 67.503403 -0.000022 0.536642
266.124756 77.927193 -0.000013 0.534804
260.733673 82.402489 -0.000008 0.547426
257.731140 84.894974 -0.000007 0.566422
255.814163 86.486320 0.000025 0.509681
254.481720 87.592422 0.000076 0.520343
253.500275 88.407158 0.000053 0.538235
259.074188 83.641098 5.836859 0.505270
259.437317 83.335350 5.410808 0.507108
258.942566 83.751915 4.755823 0.512990
259.688660 83.123741 4.391300 0.510172
258.846313 83.832954 3.727880 0.520466
258.568909 84.066544 3.201809 0.511642
259.271027 83.475372 2.765146 0.506005
261.104431 81.931664 2.294086 0.505882
295.217194 53.209015 0.976173 0.716789
278.499268 67.285355 -0.000021 0.538113
266.015533 77.796547 -0.000013 0.533701
260.655823 82.309372 -0.000008 0.539951
257.670776 84.822762 -0.000006 0.547181
255.765060 86.427345 -0.000005 0.559559
254.440369 87.542740 0.000046 0.565074
253.464600 88.364319 0.000023 0.574265
259.636536 83.020226 6.044877 0.507230
259.980194 82.726761 5.585247 0.503922
259.620453 83.033966 4.934388 0.510784
259.198975 83.393921 4.309979 0.510662
259.618835 83.035347 3.855006 0.517524
259.028473 83.539520 3.258498 0.495343
259.184265 83.406487 2.764082 0.505515
261.005981 81.850731 2.293715 0.506740
294.544586 53.209023 0.984567 0.723284
278.315460 67.068573 -0.000022 0.534191
265.905396 77.666672 -0.000012 0.534436
260.577362 82.216797 -0.000008 0.531005
257.609894 84.750969 -0.000006 0.538603
255.715225 86.368996 0.000044 0.573897
254.398468 87.493515 0.000071 0.542770
253.428482 88.321869 0.000048 0.571446
259.277802 83.181786 5.950361 0.518382
259.696442 82.819199 5.525768 0.517647
260.477783 82.142479 5.158428 0.511887
260.052734 82.510628 4.491432 0.506863
258.787628 83.606361 3.739673 0.505515
258.939697 83.474648 3.256448 0.505882
261.136993 81.571495 2.895598 0.514583
293.820892 53.262730 3.005880 0.718260
293.882935 53.209019 0.992776 0.718382
278.130127 66.853096 -0.000022 0.540441
265.794373 77.537567 -0.000012 0.529289
260.498199 82.124779 -0.000009 0.544730
257.548523 84.679604 -0.000007 0.541667
255.665375 86.310661 0.000003 0.523284
254.356445 87.444389 0.000033 0.536397
253.392242 88.279503 0.000010 0.551103
259.222015 83.084274 5.955882 0.501716
259.573944 82.775108 5.512088 0.505882
259.915100 82.475449 5.041450 0.506495
259.963409 82.432991 4.489021 0.507966
259.481018 82.856758 3.856472 0.517524
259.167084 83.132530 3.288938 0.521936
261.081390 81.450935 2.897432 0.515196
293.170654 53.262733 2.997861 0.731740
293.231812 53.209019 1.000805 0.730515
277.943298 66.638908 -0.000022 0.537377
265.682434 77.409241 -0.000013 0.525613
260.418396 82.033310 -0.000008 0.545711
257.486664 84.608665 -0.000006 0.526838
255.614822 86.252937 0.000028 0.545833
254.313858 87.395737 0.000058 0.516054
253.355530 88.237564 0.000032 0.522672
259.328217 82.841988 6.016022 0.517647
259.477081 82.709358 5.505826 0.509681
259.760681 82.456741 5.022658 0.491912
259.829071 82.395790 4.477750 0.506005
259.490540 82.697380 3.869441 0.506740
258.762848 83.345688 3.252531 0.513113
260.767822 81.559479 2.882361 0.506005
292.590942 53.209007 2.991340 0.732598
292.590942 53.209007 1.008660 0.730882
277.754974 66.426033 -0.000022 0.536887
265.569580 77.281693 -0.000012 0.528922
260.338013 81.942406 -0.000009 0.531127
257.424286 84.538162 -0.000007 0.533578
255.563873 86.195549 0.000053 0.543627
254.270935 87.347397 0.000083 0.478799
253.318527 88.195877 0.000057 0.555392
259.536377 82.503090 6.111522 0.507230
nan nan nan 0.000000
291.960083 53.209038 12.937606 0.728554
259.717834 82.339142 4.471079 0.528922
258.527679 83.414406 3.731906 0.510294
259.525024 82.513313 3.344629 0.532108
260.672363 81.476730 2.881586 0.509804
291.900665 53.262707 2.982344 0.709804
291.960083 53.209019 1.016344 0.719118
277.565186 66.214478 -0.000022 0.540319
265.455902 77.154945 -0.000012 0.539951
260.256958 81.852066 -0.000008 0.542525
257.361420 84.468102 -0.000006 0.520221
255.512756 86.138313 0.000022 0.543015
254.227875 87.299179 0.000051 0.515441
253.281403 88.154305 0.000025 0.502696
nan nan nan 0.000000
259.284332 82.578598 5.493867 0.505882
259.877136 82.035454 5.089773 0.504167
259.194489 82.660896 4.381540 0.506127
258.441437 83.350906 3.729481 0.505637
258.582245 83.221886 3.248348 0.505024
259.521301 82.361473 2.810508 0.517524
260.528931 81.438271 2.292339 0.537500
291.338898 53.209015 1.023863 0.735907
277.373932 66.004242 -0.000022 0.531495
265.341278 77.028992 -0.000012 0.333578
