# This PCD file was generated using the MATLABÂ® pcwrite function
# from Computer Vision ToolboxÂ®.
# .PCD v.7 - Point Cloud Data file format
VERSION .7
FIELDS x y z intensity
SIZE 4 4 4 4
TYPE F F F F
COUNT 1 1 1 1
WIDTH 1366
HEIGHT 1
VIEWPOINT 0 0 0 1 0 0 0
POINTS 1366
DATA ascii
306.641083 93.573402 -0.000006 -0.000006
308.224091 92.871895 -0.000015 -0.000015
309.390411 92.355042 -0.000012 -0.000012
nan nan nan nan
nan nan nan nan
nan nan nan nan
nan nan nan nan
nan nan nan nan
nan nan nan nan
nan nan nan nan
nan nan nan nan
nan nan nan nan
279.586609 105.873482 0.000016 0.000016
294.459717 99.157845 -0.000001 -0.000001
300.845428 96.274506 0.000000 0.000000
304.401794 94.668716 -0.000024 -0.000024
306.672394 93.643463 -0.000010 -0.000010
308.250519 92.930901 -0.000010 -0.000010
309.413177 92.405930 -0.000015 -0.000015
nan nan nan nan
nan nan nan nan
nan nan nan nan
nan nan nan nan
nan nan nan nan
nan nan nan nan
nan nan nan nan
nan nan nan nan
nan nan nan nan
279.704620 106.132050 0.000023 0.000023
294.530426 99.312759 0.000007 0.000007
300.895599 96.385040 -0.000023 -0.000023
304.440918 94.754318 -0.000008 -0.000008
306.704224 93.713303 -0.000015 -0.000015
308.277374 92.989716 -0.000003 -0.000003
309.436279 92.456657 -0.000019 -0.000019
nan nan nan nan
nan nan nan nan
nan nan nan nan
nan nan nan nan
nan nan nan nan
nan nan nan nan
nan nan nan nan
nan nan nan nan
nan nan nan nan
279.824188 106.389877 0.000018 0.000018
294.602081 99.467239 0.000002 0.000002
300.946655 96.495132 -0.000026 -0.000026
304.480530 94.839714 -0.000013 -0.000013
306.736511 93.782921 -0.000019 -0.000019
308.304504 93.048386 -0.000018 -0.000018
309.459747 92.507233 -0.000025 -0.000025
nan nan nan nan
nan nan nan nan
nan nan nan nan
nan nan nan nan
nan nan nan nan
nan nan nan nan
nan nan nan nan
nan nan nan nan
nan nan nan nan
279.945892 106.646713 0.000031 0.000031
294.674988 99.621117 0.000014 0.000014
300.998627 96.604820 -0.000013 -0.000013
304.520844 94.924774 -0.000000 -0.000000
306.769379 93.852249 -0.000001 -0.000001
308.332184 93.106812 -0.000007 -0.000007
309.483673 92.557556 0.000013 0.000013
nan nan nan nan
nan nan nan nan
nan nan nan nan
nan nan nan nan
nan nan nan nan
nan nan nan nan
nan nan nan nan
nan nan nan nan
nan nan nan nan
280.069061 106.902855 0.000026 0.000026
294.748779 99.774590 0.000009 0.000009
301.051239 96.714195 -0.000016 -0.000016
304.561554 95.009636 -0.000016 -0.000016
306.802643 93.921402 -0.000004 -0.000004
308.360229 93.165054 -0.000005 -0.000005
309.507843 92.607796 0.000007 0.000007
nan nan nan nan
nan nan nan nan
nan nan nan nan
nan nan nan nan
nan nan nan nan
nan nan nan nan
nan nan nan nan
nan nan nan nan
nan nan nan nan
280.193817 107.158234 0.000009 0.000009
294.823700 99.927498 0.000011 0.000011
301.104675 96.823181 -0.000014 -0.000014
304.602936 95.094185 -0.000020 -0.000020
306.836365 93.990326 -0.000009 -0.000009
308.388672 93.223122 -0.000008 -0.000008
309.532318 92.657883 -0.000009 -0.000009
nan nan nan nan
nan nan nan nan
nan nan nan nan
nan nan nan nan
nan nan nan nan
nan nan nan nan
nan nan nan nan
nan nan nan nan
235.500702 129.955200 0.512842 0.512842
280.320526 107.412628 0.000005 0.000005
294.899628 100.079926 0.000006 0.000006
301.158783 96.931824 -0.000019 -0.000019
304.644897 95.178436 -0.000024 -0.000024
306.870636 94.058990 -0.000007 -0.000007
308.417480 93.280983 -0.000013 -0.000013
309.557159 92.707764 -0.000007 -0.000007
nan nan nan nan
nan nan nan nan
nan nan nan nan
nan nan nan nan
nan nan nan nan
nan nan nan nan
nan nan nan nan
236.513733 130.149506 3.473816 3.473816
236.893433 129.955185 0.533166 0.533166
280.449371 107.665962 0.000018 0.000018
294.976807 100.231697 0.000020 0.000020
301.213776 97.040001 -0.000005 -0.000005
304.687714 95.262260 0.000013 0.000013
306.905426 94.127396 0.000006 0.000006
308.446808 93.338600 0.000006 0.000006
309.582458 92.757454 0.000005 0.000005
nan nan nan nan
nan nan nan nan
nan nan nan nan
nan nan nan nan
nan nan nan nan
nan nan nan nan
nan nan nan nan
238.651474 129.745499 3.439697 3.439697
238.651474 129.745499 0.560303 0.560303
280.579651 107.918564 0.000014 0.000014
295.054840 100.383057 0.000014 0.000014
301.269440 97.147881 -0.000010 -0.000010
304.730865 95.345917 0.000008 0.000008
306.940613 94.195580 0.000006 0.000006
308.476440 93.396057 0.000000 0.000000
309.607941 92.807014 -0.000008 -0.000008
nan nan nan nan
nan nan nan nan
nan nan nan nan
nan nan nan nan
nan nan nan nan
nan nan nan nan
239.964050 129.745514 6.265085 6.265085
239.964035 129.745529 3.420678 3.420678
239.964081 129.745514 0.579321 0.579321
280.711670 108.170258 0.000008 0.000008
295.133972 100.533852 0.000009 0.000009
301.325867 97.255325 -0.000006 -0.000006
304.774628 95.429276 0.000004 0.000004
306.976257 94.263527 0.000003 0.000003
308.506409 93.453323 -0.000013 -0.000013
309.633850 92.856369 -0.000013 -0.000013
nan nan nan nan
nan nan nan nan
nan nan nan nan
nan nan nan nan
nan nan nan nan
nan nan nan nan
241.242462 129.745514 6.209683 6.209683
241.242432 129.745529 3.402227 3.402227
241.242477 129.745514 0.597774 0.597774
280.845428 108.421005 0.000004 0.000004
295.214111 100.684090 0.000004 0.000004
301.383026 97.362396 -0.000010 -0.000010
304.818848 95.512352 -0.000011 -0.000011
307.012390 94.331238 -0.000002 -0.000002
308.536865 93.510361 -0.000017 -0.000017
309.660095 92.905540 -0.000013 -0.000013
nan nan nan nan
nan nan nan nan
nan nan nan nan
nan nan nan nan
nan nan nan nan
nan nan nan nan
242.488174 129.745499 6.155903 6.155903
242.367706 129.811462 3.386560 3.386560
242.488190 129.745499 0.615689 0.615689
280.981323 108.670624 0.000018 0.000018
295.295441 100.833694 0.000011 0.000011
301.441040 97.469009 0.000003 0.000003
304.863831 95.595032 0.000003 0.000003
307.049042 94.398659 0.000002 0.000002
308.567780 93.567139 -0.000001 -0.000001
309.686798 92.954491 0.000008 0.000008
nan nan nan nan
nan nan nan nan
nan nan nan nan
nan nan nan nan
nan nan nan nan
nan nan nan nan
243.702484 129.745499 6.103674 6.103674
243.702469 129.745514 3.366915 3.366915
243.702484 129.745499 0.633085 0.633085
281.118652 108.919456 0.000018 0.000018
295.377747 100.982765 0.000011 0.000011
301.499756 97.575241 0.000009 0.000009
304.909332 95.677444 0.000002 0.000002
307.086090 94.465843 0.000001 0.000001
308.598999 93.623756 -0.000011 -0.000011
309.713715 93.003296 0.000007 0.000007
nan nan nan nan
nan nan nan nan
nan nan nan nan
nan nan nan nan
nan nan nan nan
nan nan nan nan
244.886749 129.745514 6.052938 6.052938
244.886719 129.745514 3.350016 3.350016
244.886749 129.745514 0.649985 0.649985
281.258087 109.167130 0.000036 0.000036
295.461029 101.131294 0.000006 0.000006
301.559113 97.681107 0.000004 0.000004
304.955414 95.759521 0.000002 0.000002
307.123657 94.532761 0.000001 0.000001
308.630615 93.680145 -0.000016 -0.000016
309.740997 93.051903 0.000005 0.000005
nan nan nan nan
nan nan nan nan
nan nan nan nan
nan nan nan nan
nan nan nan nan
nan nan nan nan
246.276016 129.611023 5.990381 5.990381
246.042145 129.745514 3.333590 3.333590
246.042145 129.745514 0.666408 0.666408
281.399139 109.413872 0.000049 0.000049
295.545563 101.279129 0.000021 0.000021
301.619354 97.786469 0.000018 0.000018
305.002136 95.841240 0.000016 0.000016
307.161713 94.599380 0.000014 0.000014
308.662781 93.736214 0.000022 0.000022
309.768677 93.100288 0.000021 0.000021
nan nan nan nan
nan nan nan nan
nan nan nan nan
nan nan nan nan
nan nan nan nan
nan nan nan nan
246.185028 130.320969 6.011741 6.011741
246.256424 130.279236 3.334939 3.334939
246.256409 130.279236 0.665062 0.665062
281.541595 109.659790 0.000045 0.000045
295.630951 101.426453 0.000020 0.000020
301.680176 97.891495 0.000013 0.000013
305.049316 95.922691 0.000012 0.000012
307.200165 94.665802 -0.000000 -0.000000
308.695190 93.792160 0.000016 0.000016
309.796570 93.148544 0.000005 0.000005
nan nan nan nan
nan nan nan nan
nan nan nan nan
245.923584 131.139221 14.208264 14.208264
245.923599 131.139221 11.468015 11.468015
245.923599 131.139221 8.748332 8.748332
246.161057 130.998215 6.029643 6.029643
246.256439 130.941589 3.340440 3.340440
246.256439 130.941589 0.659561 0.659561
281.685913 109.904633 0.000049 0.000049
295.717438 101.573143 0.000025 0.000025
301.741730 97.996094 0.000008 0.000008
305.097046 96.003815 0.000006 0.000006
307.239105 94.731911 0.000003 0.000003
308.727966 93.847878 0.000011 0.000011
309.824860 93.196564 0.000012 0.000012
nan nan nan nan
nan nan nan nan
246.592514 131.406708 16.895809 16.895809
247.075775 131.115173 14.059779 14.059779
247.035919 131.139221 11.358216 11.358216
247.035904 131.139221 8.670069 8.670069
247.035919 131.139206 5.996319 5.996319
247.035934 131.139206 3.331154 3.331154
247.035919 131.139206 0.668844 0.668844
281.831757 110.148560 0.000043 0.000043
295.804840 101.719284 0.000020 0.000020
301.804047 98.100243 0.000004 0.000004
305.145355 96.084595 0.000002 0.000002
307.278595 94.797699 0.000021 0.000021
308.761169 93.903351 0.000006 0.000006
309.853516 93.244400 0.000008 0.000008
nan nan nan nan
nan nan nan nan
247.765289 131.358322 16.708899 16.708899
248.263153 131.053223 13.904509 13.904509
248.122787 131.139236 11.251380 11.251380
248.235199 131.070343 8.583115 8.583115
248.122818 131.139221 5.950694 5.950694
248.122818 131.139221 3.315958 3.315958
248.122818 131.139221 0.684043 0.684043
281.979401 110.391426 0.000041 0.000041
295.893280 101.864799 0.000018 0.000018
301.867065 98.203964 0.000002 0.000002
305.194275 96.165016 0.000002 0.000002
307.318481 94.863281 0.000018 0.000018
308.794769 93.958588 0.000007 0.000007
309.882416 93.292053 -0.000003 -0.000003
nan nan nan nan
247.645233 132.097794 19.565233 19.565233
248.908722 131.311310 16.527386 16.527386
249.323364 131.053223 13.770703 13.770703
249.185196 131.139221 11.147393 11.147393
249.185196 131.139221 8.519807 8.519807
249.185196 131.139221 5.906290 5.906290
249.185196 131.139221 3.301168 3.301168
249.185181 131.139236 0.698834 0.698834
282.128998 110.633072 0.000055 0.000055
295.982910 102.009583 0.000033 0.000033
301.931000 98.307144 0.000020 0.000020
305.243805 96.245056 0.000017 0.000017
307.358826 94.928551 0.000025 0.000025
308.828735 94.013580 0.000013 0.000013
309.911743 93.339455 0.000009 0.000009
247.504837 132.858261 22.502701 22.502701
248.796707 132.041565 19.348103 19.348103
250.024017 131.265671 16.351063 16.351063
250.224014 131.139236 13.664309 13.664309
250.224045 131.139221 11.046152 11.046152
250.224030 131.139221 8.447649 8.447649
250.224030 131.139221 5.863057 5.863057
250.224045 131.139221 3.286767 3.286767
250.224045 131.139221 0.713233 0.713233
282.279755 110.873993 0.000041 0.000041
296.073151 102.153984 0.000009 0.000009
301.995392 98.410034 0.000005 0.000005
305.293793 96.324814 0.000012 0.000012
307.399506 94.993599 0.000010 0.000010
308.863037 94.068375 -0.000002 -0.000002
309.941345 93.386688 0.000005 0.000005
248.664932 132.792526 22.248772 22.248772
249.869034 132.019501 19.150211 19.150211
250.609940 131.543823 16.288343 16.288343
250.720200 131.473038 13.628838 13.628838
250.720200 131.473038 11.018649 11.018649
250.720215 131.473022 8.428041 8.428041
250.720200 131.473038 5.851311 5.851311
250.720200 131.473038 3.282854 3.282854
250.720200 131.473038 0.717146 0.717146
282.431976 111.114029 0.000011 0.000011
296.164612 102.297630 0.000005 0.000005
302.060547 98.512421 0.000001 0.000001
305.344360 96.404205 0.000008 0.000008
307.440735 95.058327 0.000007 0.000007
308.897766 94.122917 -0.000005 -0.000005
309.971283 93.433701 0.000002 0.000002
249.074844 133.198990 22.217867 22.217867
249.847473 132.695297 19.233404 19.233404
250.592194 132.209808 16.356878 16.356878
250.789902 132.080933 13.669138 13.669138
250.720200 132.126358 11.059474 11.059474
250.720200 132.126373 8.457140 8.457140
250.720200 132.126373 5.868745 5.868745
250.720200 132.126358 3.288661 3.288661
250.720200 132.126358 0.711340 0.711340
282.586639 111.352448 0.000028 0.000028
296.257263 102.440491 0.000021 0.000021
302.126556 98.614288 0.000008 0.000008
305.395569 96.483170 0.000026 0.000026
307.482483 95.122696 0.000024 0.000024
308.932892 94.177170 0.000003 0.000003
310.001617 93.480461 0.000019 0.000019
249.048752 133.891998 22.318634 22.318634
249.825500 133.377853 19.318308 19.318308
250.574081 132.882370 16.426819 16.426819
250.789886 132.739532 13.722775 13.722775
250.720200 132.785660 11.101115 11.101115
250.720215 132.785645 8.486822 8.486822
250.720215 132.785645 5.886527 5.886527
250.720215 132.785645 3.294584 3.294584
250.720215 132.785645 0.705416 0.705416
282.742615 111.590050 0.000024 0.000024
296.350708 102.582848 0.000017 0.000017
302.193146 98.715744 0.000004 0.000004
305.447235 96.561859 0.000022 0.000022
307.524567 95.186882 0.000010 0.000010
308.968384 94.231216 -0.000002 -0.000002
310.032196 93.527077 0.000008 0.000008
249.022141 134.592163 22.421492 22.421492
249.803070 134.067383 19.404970 19.404970
250.555618 133.561691 16.498196 16.498196
250.789902 133.404236 13.777485 13.777485
250.720200 133.451080 11.143589 11.143589
250.738800 133.438599 8.515257 8.515257
250.720200 133.451080 5.904666 5.904666
250.720200 133.451080 3.300624 3.300624
250.720200 133.451080 0.699374 0.699374
282.900391 111.826439 0.000030 0.000030
296.445160 102.724533 0.000015 0.000015
302.260529 98.816689 0.000010 0.000010
305.499512 96.640144 0.000028 0.000028
307.567169 95.250702 0.000016 0.000016
309.004364 94.284927 0.000025 0.000025
310.063141 93.573441 0.000013 0.000013
nan nan nan nan
249.780197 134.764023 19.493418 19.493418
250.536743 134.247925 16.571047 16.571047
250.789886 134.075241 13.833288 13.833288
250.720215 134.122772 11.186913 11.186913
250.807510 134.063202 8.539305 8.539305
250.720215 134.122772 5.923165 5.923165
250.720215 134.122772 3.306789 3.306789
250.720215 134.122772 0.693211 0.693211
283.059692 112.061813 0.000026 0.000026
296.540588 102.865555 0.000011 0.000011
302.328705 98.917107 0.000028 0.000028
305.552216 96.718132 0.000016 0.000016
307.610199 95.314247 0.000013 0.000013
309.040558 94.338493 0.000011 0.000011
310.094360 93.619606 0.000008 0.000008
nan nan nan nan
nan nan nan nan
250.517502 134.941254 16.645390 16.645390
250.789917 134.752625 13.890201 13.890201
250.720200 134.800888 11.231098 11.231098
250.720200 134.800888 8.579468 8.579468
250.720200 134.800888 5.942036 5.942036
250.720215 134.800888 3.313074 3.313074
250.720215 134.800888 0.686926 0.686926
283.220764 112.295959 0.000033 0.000033
296.637146 103.005844 0.000018 0.000018
302.397491 99.017097 0.000035 0.000035
305.605530 96.795685 0.000022 0.000022
307.653625 95.377502 0.000010 0.000010
309.077179 94.391754 0.000018 0.000018
310.125946 93.665550 0.000007 0.000007
nan nan nan nan
nan nan nan nan
250.497849 135.641876 16.721264 16.721264
250.720200 135.485596 13.960890 13.960890
250.720200 135.485596 11.276166 11.276166
250.720200 135.485596 8.611589 8.611589
250.720184 135.485611 5.961283 5.961283
250.720200 135.485596 3.319483 3.319483
250.720215 135.485596 0.680516 0.680516
283.383331 112.529099 0.000030 0.000030
296.734528 103.145531 0.000014 0.000014
302.466827 99.116699 0.000022 0.000022
305.659393 96.872894 0.000018 0.000018
307.697510 95.440453 0.000005 0.000005
309.114166 94.444786 0.000014 0.000014
310.157867 93.711227 0.000022 0.000022
nan nan nan nan
nan nan nan nan
nan nan nan nan
250.720215 136.177063 14.020160 14.020160
250.720215 136.177063 11.322135 11.322135
250.720215 136.177063 8.644356 8.644356
250.720215 136.177048 5.980910 5.980910
250.720215 136.177063 3.326022 3.326022
250.720215 136.177063 0.673978 0.673978
283.547699 112.760971 0.000036 0.000036
296.833008 103.284454 0.000021 0.000021
302.537048 99.215714 0.000029 0.000029
305.713806 96.949692 0.000024 0.000024
307.741974 95.502983 0.000033 0.000033
309.151550 94.497551 0.000015 0.000015
310.190094 93.756721 0.000022 0.000022
nan nan nan nan
nan nan nan nan
nan nan nan nan
nan nan nan nan
nan nan nan nan
243.002090 142.462555 9.459032 9.459032
247.274429 139.369827 6.209913 6.209913
250.011780 137.388275 3.347003 3.347003
250.011795 137.388275 0.652997 0.652997
283.713470 112.991829 0.000032 0.000032
296.932312 103.422775 0.000016 0.000016
302.607819 99.314308 0.000023 0.000023
305.768677 97.026184 0.000011 0.000011
307.786713 95.565346 0.000020 0.000020
309.189240 94.550064 0.000009 0.000009
310.222626 93.802002 0.000017 0.000017
nan nan nan nan
nan nan nan nan
nan nan nan nan
nan nan nan nan
nan nan nan nan
242.943039 143.293945 9.503113 9.503113
247.274429 140.112152 6.231399 6.231399
250.011780 138.101318 3.353878 3.353878
250.011795 138.101318 0.646122 0.646122
283.881012 113.221382 0.000039 0.000039
297.032715 103.560310 0.000024 0.000024
302.679382 99.412323 0.000032 0.000032
305.824158 97.102211 0.000019 0.000019
307.831940 95.627327 0.000027 0.000027
309.227356 94.602280 0.000016 0.000016
310.255463 93.847038 0.000017 0.000017
nan nan nan nan
nan nan nan nan
nan nan nan nan
nan nan nan nan
nan nan nan nan
242.882706 144.135696 9.548142 9.548142
247.274414 140.862122 6.253314 6.253314
250.011780 138.821732 3.360891 3.360891
250.011780 138.821732 0.639109 0.639109
284.050018 113.449921 0.000033 0.000033
297.134094 103.697128 0.000032 0.000032
302.751526 99.509926 0.000026 0.000026
305.880219 97.177811 0.000033 0.000033
307.877563 95.689026 0.000020 0.000020
309.265839 94.654228 0.000023 0.000023
310.288574 93.891861 0.000011 0.000011
nan nan nan nan
nan nan nan nan
nan nan nan nan
nan nan nan nan
nan nan nan nan
242.821060 144.988083 9.594152 9.594152
247.274429 141.619949 6.275669 6.275669
250.011780 139.549683 3.368042 3.368042
250.011780 139.549683 0.631956 0.631956
284.220795 113.677086 0.000041 0.000041
297.236389 103.833237 0.000040 0.000040
302.824402 99.606979 0.000026 0.000026
305.936798 97.253052 0.000041 0.000041
307.923645 95.750381 0.000022 0.000022
309.304657 94.705894 0.000031 0.000031
310.322113 93.936386 0.000031 0.000031
nan nan nan nan
nan nan nan nan
nan nan nan nan
nan nan nan nan
nan nan nan nan
242.758072 145.851425 9.641157 9.641157
247.274429 142.385834 6.298470 6.298470
250.099854 140.217773 3.373523 3.373523
250.011795 140.285339 0.624662 0.624662
284.392792 113.903328 0.000028 0.000028
297.339539 103.968735 0.000033 0.000033
302.897919 99.703552 0.000020 0.000020
305.993774 97.327980 0.000027 0.000027
307.970093 95.811447 0.000016 0.000016
309.343781 94.757355 0.000017 0.000017
310.355896 93.980743 0.000025 0.000025
nan nan nan nan
nan nan nan nan
nan nan nan nan
nan nan nan nan
nan nan nan nan
242.693710 146.725998 9.689188 9.689188
247.274429 143.159943 6.321725 6.321725
248.979050 141.832901 3.404197 3.404197
249.808914 141.186859 0.613014 0.613014
284.566620 114.128197 0.000029 0.000029
297.443665 104.103470 0.000033 0.000033
302.972137 99.799576 0.000020 0.000020
306.051331 97.402466 0.000026 0.000026
308.017029 95.872162 0.000015 0.000015
309.383331 94.808510 0.000016 0.000016
310.389923 94.024857 0.000017 0.000017
nan nan nan nan
nan nan nan nan
nan nan nan nan
nan nan nan nan
nan nan nan nan
242.627945 147.612167 9.738266 9.738266
247.274429 143.942535 6.345451 6.345451
250.099838 141.711105 3.388533 3.388533
250.011780 141.780655 0.609630 0.609630
284.741882 114.351929 0.000022 0.000022
297.548676 104.237518 0.000027 0.000027
303.046997 99.895126 0.000012 0.000012
306.109375 97.476563 0.000019 0.000019
308.064423 95.932518 0.000023 0.000023
309.423187 94.859406 0.000009 0.000009
310.424316 94.068741 0.000012 0.000012
nan nan nan nan
nan nan nan nan
nan nan nan nan
nan nan nan nan
nan nan nan nan
242.560760 148.510223 9.788416 9.788416
247.274429 144.733795 6.369648 6.369648
250.011780 142.540695 3.398113 3.398113
250.011780 142.540710 0.601887 0.601887
284.918915 114.574280 0.000028 0.000028
297.654724 104.370743 0.000033 0.000033
303.122559 99.990089 0.000018 0.000018
306.167969 97.550232 0.000018 0.000018
308.112213 95.992561 0.000029 0.000029
309.463440 94.910004 0.000008 0.000008
310.459015 94.112358 0.000015 0.000015
nan nan nan nan
nan nan nan nan
nan nan nan nan
nan nan nan nan
nan nan nan nan
242.492065 149.420547 9.839674 9.839674
247.274414 145.533951 6.394334 6.394334
250.011795 143.309326 3.406010 3.406010
250.011795 143.309326 0.593990 0.593990
285.097534 114.795349 0.000038 0.000038
297.761688 104.503242 0.000036 0.000036
303.198944 100.084412 0.000042 0.000042
306.227112 97.623451 0.000027 0.000027
308.160431 96.052246 0.000037 0.000037
309.504120 94.960236 0.000037 0.000037
310.494110 94.155685 0.000037 0.000037
nan nan nan nan
nan nan nan nan
nan nan nan nan
nan nan nan nan
nan nan nan nan
242.421906 150.343414 9.892056 9.892056
247.056213 146.523117 6.433409 6.433409
250.011795 144.086685 3.414067 3.414067
250.011795 144.086670 0.585932 0.585932
285.277252 115.015488 0.000021 0.000021
297.869415 104.635124 0.000021 0.000021
303.275726 100.178406 0.000027 0.000027
306.286652 97.696358 0.000010 0.000010
308.208954 96.111710 0.000014 0.000014
309.545013 95.010315 0.000016 0.000016
310.529327 94.198875 0.000014 0.000014
nan nan nan nan
nan nan nan nan
nan nan nan nan
nan nan nan nan
nan nan nan nan
nan nan nan nan
247.018417 147.375961 6.461600 6.461600
250.011780 144.873077 3.422289 3.422289
250.011780 144.873077 0.577712 0.577712
285.458893 115.234077 0.000027 0.000027
297.978241 104.766090 0.000027 0.000027
303.353302 100.271774 0.000031 0.000031
306.346771 97.768761 0.000014 0.000014
308.257965 96.170731 0.000019 0.000019
309.586334 95.060051 0.000020 0.000020
310.564972 94.241753 0.000018 0.000018
nan nan nan nan
nan nan nan nan
nan nan nan nan
nan nan nan nan
nan nan nan nan
nan nan nan nan
246.979828 148.240005 6.490393 6.490393
249.263046 146.303680 3.446739 3.446739
250.075302 145.614792 0.570690 0.570690
285.642151 115.451340 0.000038 0.000038
298.088013 104.896278 0.000035 0.000035
303.431519 100.364555 0.000041 0.000041
306.407471 97.840714 0.000024 0.000024
308.307434 96.229385 0.000029 0.000029
309.627960 95.109482 0.000023 0.000023
310.600891 94.284355 0.000029 0.000029
nan nan nan nan
nan nan nan nan
nan nan nan nan
nan nan nan nan
nan nan nan nan
nan nan nan nan
246.940445 149.115601 6.519800 6.519800
249.373611 147.022705 3.453004 3.453004
250.054672 146.436890 0.561695 0.561695
285.826477 115.667671 0.000022 0.000022
298.198456 105.025879 0.000020 0.000020
303.510223 100.456963 0.000020 0.000020
306.468628 97.912277 0.000028 0.000028
308.357208 96.287811 0.000008 0.000008
309.669891 95.158699 0.000006 0.000006
310.637054 94.326797 0.000011 0.000011
nan nan nan nan
nan nan nan nan
nan nan nan nan
nan nan nan nan
nan nan nan nan
nan nan nan nan
246.900192 150.003082 6.549841 6.549841
250.099854 147.211777 3.446047 3.446047
250.011810 147.288574 0.552039 0.552039
286.012054 115.882950 -0.000013 -0.000013
298.310028 105.154541 0.000026 0.000026
303.589722 100.548660 0.000026 0.000026
306.530243 97.983414 0.000028 0.000028
308.407532 96.345734 0.000029 0.000029
309.712280 95.207497 0.000027 0.000027
310.673553 94.368927 0.000011 0.000011
nan nan nan nan
nan nan nan nan
nan nan nan nan
nan nan nan nan
nan nan nan nan
nan nan nan nan
246.859055 150.902740 6.580530 6.580530
250.011780 148.113403 3.456868 3.456868
250.011780 148.113388 0.543131 0.543131
286.200592 116.095604 0.000051 0.000051
298.422424 105.282455 0.000027 0.000027
303.669830 100.639832 0.000028 0.000028
306.592438 98.054108 0.000035 0.000035
308.458191 96.403366 0.000033 0.000033
309.754974 95.256042 0.000031 0.000031
310.710419 94.410744 0.000035 0.000035
nan nan nan nan
nan nan nan nan
nan nan nan nan
nan nan nan nan
nan nan nan nan
nan nan nan nan
246.817062 151.814987 6.611886 6.611886
250.011795 148.948456 3.465960 3.465960
250.011795 148.948456 0.534040 0.534040
286.388672 116.308693 -0.000014 -0.000014
298.535767 105.409546 0.000033 0.000033
303.750610 100.730400 0.000035 0.000035
306.655060 98.124367 0.000038 0.000038
308.509216 96.460655 0.000034 0.000034
309.797974 95.304314 0.000031 0.000031
310.747498 94.452354 0.000036 0.000036
nan nan nan nan
nan nan nan nan
nan nan nan nan
nan nan nan nan
nan nan nan nan
nan nan nan nan
246.774124 152.740158 6.643921 6.643921
250.011795 149.794037 3.475236 3.475236
250.011795 149.794037 0.524764 0.524764
286.580078 116.518799 0.000042 0.000042
298.649902 105.535866 0.000036 0.000036
303.831848 100.820587 0.000013 0.000013
306.718048 98.194305 0.000016 0.000016
308.560608 96.517670 0.000014 0.000014
309.841248 95.352341 0.000012 0.000012
310.784790 94.493759 0.000018 0.000018
nan nan nan nan
nan nan nan nan
nan nan nan nan
nan nan nan nan
nan nan nan nan
nan nan nan nan
246.730240 153.678619 6.676661 6.676661
250.099854 150.569183 3.482745 3.482745
250.011780 150.650452 0.515296 0.515296
286.771271 116.729111 -0.000014 -0.000014
298.764984 105.661407 0.000036 0.000036
303.913818 100.910095 0.000010 0.000010
306.781647 98.263702 0.000016 0.000016
308.612427 96.574265 0.000008 0.000008
309.884888 95.400024 0.000006 0.000006
310.822418 94.534889 0.000007 0.000007
nan nan nan nan
nan nan nan nan
nan nan nan nan
nan nan nan nan
nan nan nan nan
nan nan nan nan
246.685410 154.630768 6.710114 6.710114
249.324982 152.160660 3.509760 3.509760
250.031555 151.499435 0.506075 0.506075
286.965576 116.936501 0.000045 0.000045
298.880951 105.786102 0.000042 0.000042
303.996460 100.998962 0.000016 0.000016
306.845734 98.332642 0.000019 0.000019
308.664703 96.630447 0.000015 0.000015
309.928955 95.447350 0.000017 0.000017
310.860443 94.575653 0.000030 0.000030
nan nan nan nan
nan nan nan nan
nan nan nan nan
nan nan nan nan
nan nan nan nan
nan nan nan nan
246.639603 155.597015 6.744306 6.744306
250.099854 152.313293 3.502246 3.502246
250.011795 152.396851 0.495769 0.495769
287.159637 117.144157 -0.000013 -0.000013
298.997681 105.910080 0.000037 0.000037
304.079834 101.087189 0.000032 0.000032
306.910339 98.401077 0.000035 0.000035
308.717377 96.686226 0.000033 0.000033
309.973358 95.494347 0.000032 0.000032
310.898651 94.616234 0.000026 0.000026
nan nan nan nan
nan nan nan nan
nan nan nan nan
nan nan nan nan
nan nan nan nan
nan nan nan nan
246.829803 156.349640 6.763098 6.763098
250.011795 153.287491 3.514300 3.514300
250.011795 153.287476 0.485700 0.485700
287.356964 117.348724 0.000051 0.000051
299.115356 106.033127 0.000043 0.000043
304.163727 101.174896 0.000039 0.000039
306.975403 98.469101 0.000038 0.000038
308.770416 96.741707 0.000034 0.000034
310.018036 95.541077 0.000035 0.000035
310.937134 94.656540 0.000022 0.000022
nan nan nan nan
nan nan nan nan
nan nan nan nan
nan nan nan nan
nan nan nan nan
nan nan nan nan
nan nan nan nan
250.011795 154.190170 3.524579 3.524579
250.011795 154.190155 0.475420 0.475420
287.553833 117.553711 -0.000013 -0.000013
299.233826 106.155449 0.000039 0.000039
304.248199 101.262039 0.000041 0.000041
307.040894 98.536697 0.000037 0.000037
308.823761 96.796822 0.000029 0.000029
310.062988 95.587509 0.000031 0.000031
310.975922 94.696587 0.000017 0.000017
nan nan nan nan
nan nan nan nan
nan nan nan nan
nan nan nan nan
nan nan nan nan
nan nan nan nan
nan nan nan nan
250.011780 155.105255 3.535077 3.535077
250.011780 155.105255 0.464924 0.464924
287.753876 117.755585 0.000047 0.000047
299.353180 106.276894 0.000039 0.000039
304.333252 101.348633 0.000037 0.000037
307.106842 98.603851 0.000033 0.000033
308.877563 96.851570 0.000025 0.000025
310.108276 95.633652 0.000022 0.000022
311.015045 94.736290 0.000036 0.000036
nan nan nan nan
nan nan nan nan
nan nan nan nan
nan nan nan nan
nan nan nan nan
nan nan nan nan
nan nan nan nan
nan nan nan nan
250.099838 155.944702 0.456248 0.456248
287.953644 117.957756 -0.000013 -0.000013
299.473389 106.397507 0.000040 0.000040
304.418915 101.434601 0.000037 0.000037
307.173279 98.670547 0.000029 0.000029
308.931702 96.905937 0.000020 0.000020
310.153961 95.679390 0.000038 0.000038
311.054382 94.775803 0.000025 0.000025
355.735413 49.386715 15.953869 0.678431
355.619934 49.504227 13.995968 0.394853
355.619934 49.504227 12.106247 0.391789
355.619934 49.504230 10.238909 0.413971
355.735413 49.386719 8.408570 0.673284
355.619934 49.504227 6.554202 0.409191
355.619934 49.504227 4.728613 0.428799
355.619934 49.504230 2.908889 0.418750
355.619934 49.504230 1.091112 0.398162
345.224762 60.082638 -0.000007 0.526348
333.786041 71.722984 0.000043 0.535294
328.875366 76.720207 0.000029 0.537132
326.140289 79.503510 0.000037 0.550000
324.394135 81.280411 0.000045 0.540686
323.180573 82.515396 0.000043 0.589706
322.286469 83.425240 0.000031 0.534436
355.191833 49.388786 15.858407 0.678431
355.079956 49.504230 13.914521 0.418382
355.079956 49.504234 12.037632 0.411642
355.079956 49.504230 10.182972 0.387990
355.191833 49.388794 8.364727 0.678431
355.079956 49.504227 6.523281 0.398897
355.079956 49.504238 4.710088 0.407721
355.079956 49.504230 2.902718 0.410172
355.079956 49.504230 1.097283 0.392770
345.021332 59.884129 -0.000008 0.538358
333.664246 71.603943 0.000030 0.540074
328.788574 76.635376 0.000016 0.526838
326.072968 79.437691 0.000019 0.533333
324.339294 81.226753 0.000028 0.573652
323.134369 82.470184 0.000027 0.542525
322.246552 83.386314 0.000033 0.533824
354.655640 49.390831 15.764909 0.676961
354.547302 49.504227 13.834747 0.438358
354.547302 49.504230 11.970423 0.389216
354.547272 49.504234 10.128180 0.416912
354.655609 49.390842 8.321785 0.678431
354.547272 49.504230 6.492994 0.391544
354.547272 49.504230 4.691941 0.336887
354.547272 49.504234 2.896672 0.403799
354.547272 49.504234 1.103327 0.380270
344.816528 59.687069 -0.000007 0.531863
333.541473 71.485962 0.000041 0.529902
328.701080 76.551247 0.000021 0.517034
326.005157 79.372444 0.000024 0.536887
324.283997 81.173561 0.000033 0.530760
323.087769 82.425354 0.000024 0.538358
322.206421 83.347679 0.000036 0.535907
354.126648 49.392799 15.673342 0.678431
354.126648 49.392803 13.789669 0.678431
354.021637 49.504234 11.904586 0.393627
354.021637 49.504230 10.074509 0.441912
354.126648 49.392803 8.279732 0.678431
354.126648 49.392799 6.475880 0.522426
354.021637 49.504230 4.674167 0.407843
354.021637 49.504230 2.890752 0.378186
354.021637 49.504238 1.109248 0.376103
344.610352 59.491425 -0.000007 0.536029
333.417908 71.368813 0.000047 0.534314
328.612885 76.467880 0.000050 0.550980
325.936829 79.307701 0.000034 0.526471
324.228302 81.120766 0.000039 0.546569
323.040863 82.380867 0.000029 0.559069
322.165955 83.309326 0.000044 0.554044
353.604614 49.394753 15.583635 0.678431
353.604614 49.394756 13.712323 0.678431
353.502899 49.504223 11.840095 0.378922
353.502899 49.504230 10.021930 0.404289
353.604614 49.394760 8.238533 0.678431
353.604614 49.394756 6.446517 0.678431
353.502899 49.504227 4.656754 0.379534
353.502899 49.504227 2.884953 0.396324
353.502899 49.504227 1.115048 0.388235
344.402863 59.297230 -0.000008 0.543137
333.293762 71.252258 0.000024 0.531373
328.524414 76.384811 0.000027 0.531005
325.868134 79.243370 0.000030 0.543382
324.172302 81.068321 0.000033 0.556250
322.993683 82.336685 0.000025 0.548897
322.125366 83.271149 0.000011 0.510172
352.990814 49.504230 15.459215 0.425490
353.089355 49.396698 13.636544 0.678431
352.990814 49.504230 11.776905 0.419608
352.990814 49.504227 9.970421 0.396201
353.089355 49.396698 8.198170 0.678431
353.089355 49.396698 6.417747 0.678431
352.990814 49.504230 4.639693 0.406985
352.990814 49.504227 2.879270 0.408946
352.990814 49.504230 1.120731 0.399877
344.193939 59.104488 -0.000007 0.538235
333.168396 71.137039 0.000053 0.561642
328.435028 76.302681 0.000054 0.526348
325.798920 79.179565 0.000036 0.517647
324.115875 81.016304 0.000039 0.557966
322.946136 82.292862 0.000029 0.529902
322.084290 83.233429 0.000040 0.500858
352.485260 49.504227 15.373990 0.435049
352.580688 49.398624 13.562299 0.678431
352.485260 49.504227 11.714996 0.401716
352.485260 49.504234 9.919948 0.427819
352.485260 49.504230 8.142250 0.370956
352.580688 49.398628 6.389560 0.678431
352.485260 49.504227 4.622977 0.409314
352.485260 49.504230 2.873701 0.400123
352.485260 49.504234 1.126299 0.420833
343.983734 58.913204 -0.000008 0.534804
333.042419 71.022446 0.000054 0.538848
328.345245 76.221008 0.000056 0.513358
325.729309 79.116188 0.000030 0.559436
324.059113 80.964668 0.000042 0.557353
322.898376 82.249344 0.000026 0.539461
322.043091 83.195900 0.000034 0.536274
351.986023 49.504230 15.290475 0.409069
352.078430 49.400536 13.489547 0.678431
351.986023 49.504230 11.654331 0.417770
351.986023 49.504230 9.870492 0.419363
351.986023 49.504227 8.103895 0.392157
352.078430 49.400543 6.361941 0.678431
351.986023 49.504230 4.606599 0.416912
351.986023 49.504238 2.868246 0.395711
351.986023 49.504234 1.131754 0.397917
343.772217 58.723396 -0.000008 0.537745
332.915588 70.908821 0.000064 0.540196
328.254883 76.139984 0.000060 0.542770
325.659210 79.053375 0.000039 0.534436
324.001984 80.913429 0.000044 0.514583
322.850220 82.206184 0.000029 0.529534
322.001587 83.158676 0.000035 0.512500
351.492981 49.504234 15.208638 0.366667
351.582428 49.402378 13.418270 0.678431
351.492981 49.504230 11.594885 0.425368
351.492981 49.504227 9.822031 0.432353
351.492981 49.504227 8.066312 0.419485
351.582428 49.402382 6.334879 0.678431
351.492981 49.504227 4.590549 0.403431
351.492981 49.504227 2.862900 0.394975
351.492981 49.504230 1.137101 0.410784
343.559326 58.535065 -0.000008 0.539583
332.788116 70.795959 0.000060 0.532721
328.164032 76.059525 0.000054 0.537623
325.588745 78.990982 0.000036 0.503676
323.944519 80.862579 0.000041 0.519363
322.801758 82.163406 0.000048 0.547304
321.959869 83.121719 0.000028 0.525858
351.005920 49.504227 15.128445 0.389583
351.092560 49.404217 13.348417 0.678431
351.005920 49.504227 11.536629 0.367279
351.005920 49.504227 9.774540 0.400000
351.005920 49.504230 8.029479 0.450245
351.092560 49.404221 6.308361 0.678431
351.005920 49.504230 4.574820 0.393137
351.005920 49.504234 2.857660 0.407476
351.005920 49.504230 1.142339 0.383088
343.345154 58.348240 -0.000008 0.537500
332.659760 70.684029 0.000061 0.538848
328.072571 75.979752 0.000055 0.507108
325.517822 78.929077 0.000029 0.530392
323.886719 80.812103 0.000034 0.522672
322.753052 82.120888 0.000041 0.553431
321.917786 83.085136 0.000047 0.502206
350.524750 49.504230 15.049845 0.397426
350.608612 49.406029 13.279962 0.677941
350.524750 49.504227 11.479535 0.431005
350.524750 49.504230 9.727993 0.397059
350.524750 49.504227 7.993380 0.418627
350.608612 49.406036 6.282372 0.678431
350.524750 49.504223 4.559406 0.405024
350.524750 49.504230 2.852525 0.398039
350.524750 49.504230 1.147474 0.406863
343.129700 58.162910 -0.000008 0.527941
332.530731 70.572922 0.000054 0.540319
327.980560 75.900597 0.000054 0.557230
325.446472 78.867706 0.000030 0.534314
323.828491 80.762161 0.000056 0.524020
322.703979 82.078804 0.000062 0.576961
321.875549 83.048775 0.000043 0.609069
350.049286 49.504219 14.972815 0.400980
350.130432 49.407837 13.212867 0.678431
350.049255 49.504230 11.423576 0.411520
350.049286 49.504227 9.682373 0.373407
350.049255 49.504234 7.958002 0.401593
350.130432 49.407833 6.256900 0.678431
350.049286 49.504230 4.544297 0.404412
350.049255 49.504227 2.847493 0.397059
350.049286 49.504227 1.152506 0.431495
342.912903 57.979092 -0.000007 0.537868
332.400848 70.462814 0.000057 0.536887
327.887970 75.822105 0.000055 0.530147
325.374573 78.806931 0.000051 0.551593
323.769958 80.712502 0.000050 0.555515
322.654694 82.036980 0.000057 0.549265
321.833069 83.012711 0.000039 0.598407
349.579346 49.504227 14.897310 0.398407
349.657867 49.409626 13.147101 0.678431
349.584473 49.498035 11.370195 0.493137
349.579346 49.504234 9.637661 0.407108
349.579346 49.504230 7.923325 0.416912
349.657867 49.409630 6.231933 0.678431
349.579346 49.504230 4.529490 0.391789
349.579346 49.504234 2.842560 0.407843
349.579346 49.504234 1.157440 0.404657
342.694855 57.796772 -0.000007 0.537868
332.270203 70.353592 0.000058 0.543382
327.794922 75.744202 0.000047 0.540931
325.302399 78.746521 0.000045 0.546446
323.711121 80.663269 0.000046 0.584069
322.605103 81.995506 0.000054 0.560907
321.790314 82.976936 0.000034 0.570221
349.114838 49.504227 14.823300 0.438603
349.114838 49.504227 13.056733 0.389338
349.190857 49.411366 11.336805 0.678431
349.114838 49.504227 9.593834 0.393015
349.114838 49.504230 7.889335 0.370221
349.190857 49.411366 6.207465 0.678431
349.114838 49.504227 4.514974 0.414461
349.114838 49.504227 2.837727 0.419363
349.114838 49.504230 1.162274 0.429902
342.475586 57.615978 -0.000009 0.537623
332.138947 70.245148 0.000042 0.549510
327.701324 75.666939 0.000037 0.548039
325.229797 78.686592 0.000033 0.537255
323.651917 80.614426 0.000038 0.550368
322.555298 81.954315 0.000035 0.533088
321.747345 82.941444 0.000019 0.534191
348.655609 49.504223 14.750751 0.424387
348.655579 49.504234 12.994179 0.416176
348.729126 49.413120 11.283572 0.678431
348.655579 49.504230 9.550875 0.389216
348.655579 49.504234 7.856016 0.399632
348.729126 49.413124 6.183476 0.678431
348.655579 49.504234 4.500745 0.406005
348.655579 49.504230 2.832986 0.423897
348.655579 49.504230 1.167013 0.403309
342.255005 57.436729 -0.000008 0.533578
332.006775 70.137772 0.000044 0.536152
327.606995 75.590553 0.000061 0.511397
325.156769 78.627228 0.000032 0.532230
323.592407 80.565994 0.000029 0.519608
322.505127 81.913536 0.000032 0.547304
321.704071 82.906273 0.000015 0.570221
348.201538 49.504219 14.679639 0.408578
348.201508 49.504227 12.932860 0.428676
348.272644 49.414833 11.231395 0.678431
348.201508 49.504230 9.508760 0.411887
348.201508 49.504234 7.823355 0.393750
348.272644 49.414837 6.159965 0.678431
348.201508 49.504230 4.486798 0.435784
348.201508 49.504234 2.828340 0.407843
348.201508 49.504234 1.171660 0.395466
342.033203 57.259003 -0.000010 0.540931
331.873871 70.031319 0.000046 0.546201
327.512268 75.514687 0.000064 0.540319
325.083252 78.568466 0.000050 0.557353
323.532562 80.518005 0.000026 0.509314
322.454620 81.873184 0.000051 0.559926
321.660461 82.871552 0.000057 0.535539
347.752472 49.504230 14.609921 0.395221
347.752472 49.504230 12.872748 0.393750
347.780975 49.467831 11.168386 0.503922
347.752472 49.504230 9.467473 0.376471
347.752472 49.504234 7.791337 0.412868
347.780975 49.467834 6.131569 0.482843
347.752472 49.504230 4.473124 0.400858
347.752441 49.504234 2.823786 0.396201
347.752441 49.504234 1.176214 0.341667
341.810181 57.082867 -0.000010 0.533333
331.740387 69.925575 0.000025 0.531618
327.417145 75.439323 0.000043 0.545833
325.009430 78.510078 0.000039 0.545833
323.472290 80.470467 0.000031 0.544976
322.403931 81.833061 0.000038 0.553554
321.616791 82.836937 0.000035 0.536765
347.308258 49.504223 14.541576 0.401103
347.308258 49.504230 12.813817 0.443015
347.374756 49.418198 11.130105 0.678431
347.308258 49.504227 9.427000 0.429657
347.308258 49.504227 7.759948 0.423529
347.374756 49.418209 6.114319 0.678431
347.308258 49.504230 4.459722 0.400000
347.308258 49.504238 2.819321 0.389461
347.308258 49.504234 1.180678 0.387132
341.585876 56.908287 -0.000009 0.541054
331.605988 69.820992 0.000026 0.533088
327.321350 75.364784 0.000045 0.537868
324.935150 78.452248 0.000037 0.540564
323.411743 80.423340 0.000034 0.541176
322.352936 81.793320 0.000029 0.547672
321.572815 82.802689 0.000033 0.536520
346.868866 49.504227 14.474570 0.394118
346.868866 49.504227 12.756046 0.400368
346.933105 49.419872 11.080946 0.678431
346.868866 49.504234 9.387321 0.409314
346.868866 49.504238 7.729175 0.395343
346.933105 49.419872 6.092167 0.678431
346.868866 49.504242 4.446578 0.436765
346.868866 49.504230 2.814945 0.414951
346.868866 49.504230 1.185056 0.408946
341.360413 56.735260 -0.000009 0.536029
331.470795 69.717491 0.000042 0.541667
327.225006 75.290993 0.000057 0.533333
324.860413 78.395035 0.000053 0.535539
323.350830 80.376686 0.000047 0.537868
322.301605 81.754028 0.000045 0.553186
321.528564 82.768822 0.000050 0.539951
346.434082 49.504230 14.408879 0.405392
346.434082 49.504230 12.699402 0.403554
346.496185 49.421516 11.032752 0.678431
346.434082 49.504230 9.348420 0.357353
346.434082 49.504230 7.699005 0.408701
346.496185 49.421516 6.070449 0.678431
346.434082 49.504230 4.433696 0.410294
346.434082 49.504227 2.810653 0.393873
346.434082 49.504230 1.189348 0.418260
341.133698 56.563831 -0.000009 0.538480
331.334808 69.615028 0.000068 0.542034
327.128204 75.217789 0.000059 0.519118
324.785370 78.338211 0.000045 0.543382
323.289642 80.330368 0.000039 0.520221
322.250031 81.715027 0.000043 0.494853
321.484131 82.735161 0.000041 0.544976
346.003876 49.504230 14.344476 0.409314
346.003876 49.504230 12.643873 0.414951
346.063873 49.423141 10.985501 0.678431
346.003876 49.504234 9.310280 0.406005
346.003876 49.504227 7.669426 0.403922
346.063873 49.423138 6.049158 0.678431
346.003876 49.504230 4.421064 0.401103
346.003876 49.504234 2.806444 0.414828
346.003876 49.504230 1.193555 0.400000
340.905853 56.393951 -0.000011 0.536397
331.198334 69.513153 0.000057 0.526471
327.030945 75.145180 0.000047 0.538235
324.709839 78.282028 0.000058 0.545466
323.228149 80.284447 0.000026 0.545956
322.198242 81.676315 0.000023 0.526348
321.439392 82.701897 0.000054 0.512132
345.694977 49.343884 14.331040 0.388725
345.694977 49.343887 12.632289 0.364706
345.774963 49.234184 10.982092 0.678431
345.694977 49.343880 9.302325 0.355760
345.694977 49.343887 7.663257 0.435417
345.774963 49.234188 6.047620 0.678431
345.694977 49.343891 4.418429 0.395098
345.694977 49.343884 2.805568 0.362132
345.694977 49.343884 1.194432 0.380025
340.676758 56.225685 -0.000010 0.534191
331.060974 69.412506 0.000073 0.528676
326.933105 75.073380 0.000054 0.532721
324.633942 78.226402 0.000076 0.523529
323.166260 80.239082 0.000039 0.507598
322.146057 81.638191 0.000062 0.591544
321.394440 82.668915 0.000061 0.524142
345.694977 48.754936 14.450541 0.417770
345.694977 48.754929 12.735330 0.398407
345.774963 48.643616 11.069138 0.678431
345.694977 48.754932 9.373094 0.412623
345.694977 48.754929 7.718142 0.433701
345.774994 48.643608 6.086848 0.678431
345.694977 48.754932 4.441867 0.387990
345.694977 48.754932 2.813374 0.408333
345.694977 48.754932 1.186626 0.424387
340.446564 56.059036 -0.000010 0.538235
330.923218 69.312431 0.000050 0.526593
326.834839 75.002121 0.000042 0.547549
324.557770 78.171089 0.000053 0.545588
323.104187 80.193985 0.000017 0.531005
322.093719 81.600204 0.000040 0.536520
321.349335 82.636185 0.000047 0.565931
345.694977 48.154423 14.573004 0.434559
345.694977 48.154419 12.840919 0.433456
345.774963 48.041439 11.158342 0.678431
345.694977 48.154419 9.445614 0.413358
345.694977 48.154415 7.774384 0.435294
345.774963 48.041443 6.127044 0.678431
345.694977 48.154427 4.465885 0.427819
345.694977 48.154419 2.821374 0.425123
345.694977 48.154419 1.178626 0.390074
340.215179 55.893990 -0.000010 0.534926
330.784668 69.213440 0.000038 0.528186
326.736115 74.931541 0.000027 0.545588
324.481201 78.116364 0.000041 0.560539
323.041748 80.149376 0.000005 0.555270
322.041138 81.562622 0.000028 0.519853
321.303986 82.603745 0.000026 0.534314
345.694977 47.541950 14.698524 0.403186
345.694977 47.541950 12.949147 0.406250
345.732666 47.487934 11.236317 0.216054
345.694977 47.541950 9.519945 0.445098
345.694977 47.541946 7.832032 0.429779
345.732666 47.487938 6.162180 0.210662
345.694977 47.541954 4.490502 0.407353
345.694977 47.541946 2.829574 0.398897
345.694977 47.541946 1.170426 0.407476
339.982635 55.730568 -0.000010 0.535662
330.645233 69.115685 0.000055 0.547672
326.636719 74.861877 0.000045 0.551838
324.404114 78.062317 0.000055 0.563603
322.978821 80.105453 0.000050 0.559804
321.988190 81.525505 0.000044 0.532598
321.258392 82.571739 0.000038 0.559559
345.694977 46.917091 14.827205 0.406985
345.774963 46.800701 13.090603 0.678431
345.774963 46.800694 11.343506 0.678431
345.694977 46.917095 9.596148 0.428186
345.694977 46.917099 7.891129 0.385907
345.774963 46.800701 6.210484 0.678431
345.694977 46.917088 4.515740 0.406863
345.694977 46.917095 2.837980 0.375245
345.694977 46.917095 1.162019 0.411275
339.748962 55.568771 -0.000011 0.535417
330.505341 69.018608 0.000040 0.528064
326.536987 74.792694 0.000032 0.534436
324.326782 78.008659 0.000042 0.539828
322.915741 80.061790 0.000054 0.547304
321.935120 81.488609 0.000020 0.544976
321.212524 82.540016 0.000042 0.526961
345.694977 46.279411 14.959159 0.399265
345.774963 46.161255 13.204697 0.678431
345.694946 46.279415 11.413660 0.403309
345.694977 46.279411 9.674292 0.438480
345.694977 46.279408 7.951733 0.424755
345.774963 46.161263 6.253798 0.678431
345.694946 46.279419 4.541619 0.415931
345.694977 46.279411 2.846602 0.405392
345.694977 46.279411 1.153398 0.428922
339.514160 55.408611 -0.000011 0.537255
330.364563 68.922813 0.000057 0.528431
326.436554 74.724556 0.000067 0.517770
324.248993 77.955658 0.000049 0.526716
322.852295 80.018631 0.000072 0.558088
321.881683 81.452232 0.000034 0.516176
321.166443 82.508667 0.000058 0.558701
345.694977 45.628433 15.094506 0.399632
345.774963 45.508484 13.321715 0.678431
345.694977 45.628437 11.511975 0.380270
345.694977 45.628437 9.754442 0.396814
345.694977 45.628441 8.013891 0.397059
345.774963 45.508503 6.298223 0.678431
345.694977 45.628445 4.568163 0.441912
345.694946 45.628445 2.855443 0.400000
345.694946 45.628445 1.144556 0.408578
339.278290 55.250080 -0.000011 0.542279
330.223297 68.827728 0.000045 0.537868
326.335907 74.656769 0.000054 0.544485
324.170929 77.903084 0.000036 0.539093
322.788666 79.975761 0.000057 0.525490
321.828033 81.416130 0.000021 0.567770
321.120239 82.477486 0.000031 0.535172
345.694977 44.963696 15.233356 0.393995
345.774963 44.841892 13.441773 0.678431
345.694977 44.963696 11.612839 0.424020
345.694977 44.963696 9.836670 0.367525
345.694977 44.963699 8.077662 0.393627
345.774963 44.841908 6.343801 0.678431
345.694977 44.963699 4.595397 0.404044
345.694977 44.963699 2.864513 0.397917
345.694977 44.963699 1.135486 0.393995
339.041260 55.093220 -0.000010 0.536642
330.081390 68.733604 0.000032 0.535662
326.234772 74.589676 0.000039 0.511642
324.092499 77.851044 0.000019 0.530760
322.724731 79.933289 0.000031 0.551103
321.774139 81.380478 0.000027 0.557598
321.073792 82.446693 0.000023 0.530025
345.695007 44.284672 15.375842 0.429412
345.774963 44.161015 13.564965 0.674387
345.695007 44.284679 11.716341 0.411152
345.695007 44.284672 9.921045 0.406985
345.774963 44.161022 8.160044 0.670956
345.774963 44.161015 6.390574 0.678431
345.695007 44.284676 4.623342 0.403922
345.695007 44.284672 2.873823 0.398529
345.695007 44.284672 1.126177 0.387010
338.803162 54.938004 -0.000011 0.537990
329.938721 68.640648 0.000035 0.532108
326.133026 74.523529 0.000057 0.536152
324.013580 77.799744 0.000038 0.538235
322.660400 79.891479 0.000051 0.541667
321.719940 81.345215 0.000039 0.551716
321.027069 82.416298 0.000037 0.547549
345.759857 43.489021 15.552335 0.261029
345.759857 43.489025 13.685333 0.258088
345.694977 43.590832 11.822583 0.405024
345.694977 43.590836 10.007656 0.397549
345.759857 43.489021 8.224157 0.250735
345.759827 43.489033 6.436269 0.248529
345.694977 43.590839 4.652026 0.406495
345.694977 43.590832 2.883378 0.403064
345.694977 43.590832 1.116623 0.395221
338.563995 54.784485 -0.000010 0.534436
329.795410 68.548683 0.000037 0.546446
326.030853 74.457977 0.000059 0.563971
323.934296 77.749008 0.000058 0.531005
322.595825 79.850029 0.000051 0.509926
321.665527 81.310310 0.000044 0.551103
320.980164 82.386139 0.000024 0.526471
345.774963 42.754074 15.709971 0.678431
345.774963 42.754078 13.821253 0.534069
345.694977 42.881622 11.931662 0.414216
345.694977 42.881607 10.096582 0.395956
345.774963 42.754082 8.296556 0.678431
345.774963 42.754082 6.487871 0.628186
345.694977 42.881622 4.681476 0.426961
345.694977 42.881615 2.893188 0.404044
345.694977 42.881618 1.106812 0.374877
338.323792 54.632595 -0.000011 0.538603
329.651581 68.457558 0.000024 0.538235
325.928406 74.392929 0.000033 0.560784
323.854767 77.698631 0.000044 0.502328
322.531006 79.808960 0.000037 0.543995
321.610870 81.275803 0.000051 0.505270
320.933014 82.356415 0.000042 0.565931
345.774994 42.026897 15.864611 0.678431
345.695007 42.156422 13.921713 0.401348
345.695007 42.156425 12.043688 0.377328
