# This PCD file was generated using the MATLABÂ® pcwrite function
# from Computer Vision ToolboxÂ®.
# .PCD v.7 - Point Cloud Data file format
VERSION .7
FIELDS x y z intensity
SIZE 4 4 4 4
TYPE F F F F
COUNT 1 1 1 1
WIDTH 1286
HEIGHT 1
VIEWPOINT 0 0 0 1 0 0 0
POINTS 1286
DATA ascii
355.754944 80.764427 0.000007 0.538971
352.952362 83.479691 0.000002 0.518137
351.163147 85.213142 -0.000003 0.505760
349.919556 86.417992 -0.000000 0.522059
349.003326 87.305672 0.000005 0.539216
nan nan nan 0.000000
nan nan nan 0.000000
nan nan nan 0.000000
nan nan nan 0.000000
nan nan nan 0.000000
nan nan nan 0.000000
nan nan nan 0.000000
nan nan nan 0.000000
nan nan nan 0.000000
372.308533 64.330940 0.000052 0.540564
360.668213 75.767159 -0.000004 0.534436
355.670288 80.677452 -0.000010 0.554534
352.886658 83.412262 -0.000009 0.528676
351.109589 85.158173 -0.000014 0.512990
349.874420 86.371681 -0.000010 0.493750
348.964417 87.265732 -0.000013 0.575123
nan nan nan 0.000000
nan nan nan 0.000000
nan nan nan 0.000000
nan nan nan 0.000000
nan nan nan 0.000000
nan nan nan 0.000000
nan nan nan 0.000000
nan nan nan 0.000000
nan nan nan 0.000000
372.108765 64.128761 0.000041 0.539093
360.548523 75.646019 -0.000014 0.539706
355.584991 80.591110 -0.000020 0.530147
352.820557 83.345268 -0.000026 0.492647
351.055664 85.103592 -0.000023 0.553064
349.829010 86.325676 -0.000026 0.527574
348.925232 87.226074 -0.000023 0.567402
nan nan nan 0.000000
nan nan nan 0.000000
nan nan nan 0.000000
nan nan nan 0.000000
nan nan nan 0.000000
nan nan nan 0.000000
nan nan nan 0.000000
nan nan nan 0.000000
nan nan nan 0.000000
371.907257 63.928364 0.000059 0.538725
360.427795 75.525963 0.000004 0.545098
355.498932 80.505531 -0.000004 0.536029
352.753815 83.278893 -0.000009 0.528554
351.001282 85.049461 -0.000013 0.567157
349.783173 86.280090 -0.000010 0.506863
348.885681 87.186829 0.000014 0.526593
nan nan nan 0.000000
nan nan nan 0.000000
nan nan nan 0.000000
nan nan nan 0.000000
nan nan nan 0.000000
nan nan nan 0.000000
nan nan nan 0.000000
nan nan nan 0.000000
nan nan nan 0.000000
371.704712 63.728981 0.000048 0.533456
360.306427 75.406494 -0.000006 0.534681
355.412445 80.420372 -0.000015 0.534681
352.686737 83.212860 -0.000020 0.536765
350.946594 84.995628 -0.000023 0.552206
349.737030 86.234810 0.000001 0.558578
348.845947 87.147720 0.000004 0.523039
nan nan nan 0.000000
nan nan nan 0.000000
nan nan nan 0.000000
nan nan nan 0.000000
nan nan nan 0.000000
nan nan nan 0.000000
nan nan nan 0.000000
nan nan nan 0.000000
nan nan nan 0.000000
371.500458 63.531372 0.000062 0.540564
360.184021 75.288109 0.000007 0.540074
355.325226 80.335953 -0.000007 0.529657
352.619080 83.147392 -0.000011 0.550980
350.891357 84.942360 0.000013 0.544608
349.690552 86.189857 0.000015 0.543260
348.805908 87.108948 0.000011 0.540074
nan nan nan 0.000000
nan nan nan 0.000000
nan nan nan 0.000000
nan nan nan 0.000000
nan nan nan 0.000000
nan nan nan 0.000000
nan nan nan 0.000000
nan nan nan 0.000000
nan nan nan 0.000000
371.295135 63.334850 0.000052 0.538113
360.061035 75.170341 -0.000003 0.530025
355.237579 80.252014 -0.000018 0.548774
352.551086 83.082298 -0.000021 0.537500
350.835938 84.889290 0.000002 0.536152
349.643890 86.145142 -0.000002 0.535294
348.765625 87.070404 0.000001 0.536765
nan nan nan 0.000000
nan nan nan 0.000000
nan nan nan 0.000000
nan nan nan 0.000000
nan nan nan 0.000000
nan nan nan 0.000000
nan nan nan 0.000000
nan nan nan 0.000000
nan nan nan 0.000000
371.088501 63.139736 0.000040 0.533824
359.936951 75.053688 0.000013 0.544608
355.149292 80.168709 -0.000028 0.525000
352.482666 83.017670 -0.000033 0.536274
350.780121 84.836617 -0.000010 0.511029
349.596893 86.100754 -0.000013 0.540319
348.725128 87.032120 -0.000016 0.529534
nan nan nan 0.000000
nan nan nan 0.000000
nan nan nan 0.000000
nan nan nan 0.000000
nan nan nan 0.000000
nan nan nan 0.000000
nan nan nan 0.000000
nan nan nan 0.000000
nan nan nan 0.000000
370.880066 62.946518 0.000058 0.536274
359.812103 74.937912 0.000030 0.536152
355.060303 80.086189 -0.000010 0.534069
352.413635 82.953674 -0.000016 0.541176
350.723846 84.784416 0.000002 0.548897
349.549469 86.056808 0.000005 0.544363
348.684235 86.994217 0.000000 0.574755
nan nan nan 0.000000
nan nan nan 0.000000
nan nan nan 0.000000
nan nan nan 0.000000
nan nan nan 0.000000
nan nan nan 0.000000
nan nan nan 0.000000
nan nan nan 0.000000
nan nan nan 0.000000
370.670715 62.754272 0.000044 0.535172
359.686707 74.822723 0.000015 0.544730
354.970917 80.004089 -0.000025 0.562010
352.344208 82.890106 -0.000009 0.523284
350.667358 84.732521 -0.000012 0.515931
349.501862 86.013054 -0.000015 0.553309
348.643188 86.956520 -0.000012 0.525858
nan nan nan 0.000000
nan nan nan 0.000000
nan nan nan 0.000000
nan nan nan 0.000000
nan nan nan 0.000000
nan nan nan 0.000000
nan nan nan 0.000000
nan nan nan 0.000000
nan nan nan 0.000000
370.459656 62.563953 0.000061 0.534804
359.560211 74.708710 0.000033 0.534926
354.880646 79.922958 0.000015 0.549510
352.274292 82.827087 0.000009 0.540319
350.610382 84.681129 0.000003 0.534681
349.453857 85.969757 0.000000 0.535172
348.601807 86.919174 -0.000002 0.550000
nan nan nan 0.000000
nan nan nan 0.000000
nan nan nan 0.000000
nan nan nan 0.000000
nan nan nan 0.000000
nan nan nan 0.000000
nan nan nan 0.000000
nan nan nan 0.000000
nan nan nan 0.000000
370.247620 62.374718 0.000051 0.535662
359.433167 74.595322 0.000023 0.540686
354.790100 79.842148 0.000005 0.538603
352.204071 82.764404 -0.000002 0.523529
350.553131 84.630013 -0.000010 0.537990
349.405670 85.926689 -0.000016 0.503431
348.560242 86.882057 -0.000011 0.570466
nan nan nan 0.000000
nan nan nan 0.000000
nan nan nan 0.000000
nan nan nan 0.000000
nan nan nan 0.000000
nan nan nan 0.000000
nan nan nan 0.000000
nan nan nan 0.000000
nan nan nan 0.000000
370.034027 62.187206 0.000056 0.535784
359.305176 74.483047 0.000036 0.535172
354.698853 79.762115 0.000017 0.544608
352.133331 82.702316 0.000006 0.549510
350.495422 84.579407 0.000003 0.548652
349.357056 85.884056 -0.000004 0.503431
348.518311 86.845276 -0.000006 0.534559
nan nan nan 0.000000
nan nan nan 0.000000
nan nan nan 0.000000
nan nan nan 0.000000
nan nan nan 0.000000
nan nan nan 0.000000
nan nan nan 0.000000
nan nan nan 0.000000
nan nan nan 0.000000
369.819397 62.000938 0.000046 0.538235
359.176544 74.371445 0.000026 0.538848
354.607178 79.682564 0.000007 0.528309
352.062225 82.640625 -0.000004 0.538480
350.437500 84.529121 -0.000007 0.533211
349.308228 85.841690 -0.000014 0.563480
348.476227 86.808746 -0.000014 0.536765
nan nan nan 0.000000
nan nan nan 0.000000
nan nan nan 0.000000
nan nan nan 0.000000
nan nan nan 0.000000
nan nan nan 0.000000
nan nan nan 0.000000
nan nan nan 0.000000
nan nan nan 0.000000
369.603119 61.816525 0.000059 0.534436
359.046997 74.260918 0.000034 0.524632
354.514801 79.603821 0.000021 0.550980
351.990601 82.579552 0.000010 0.537745
350.379089 84.479332 0.000006 0.546446
349.259033 85.799728 -0.000005 0.542157
348.433746 86.772644 0.000018 0.485049
nan nan nan 0.000000
nan nan nan 0.000000
nan nan nan 0.000000
nan nan nan 0.000000
nan nan nan 0.000000
nan nan nan 0.000000
nan nan nan 0.000000
nan nan nan 0.000000
nan nan nan 0.000000
369.385864 61.633278 0.000049 0.539093
358.916840 74.151123 0.000024 0.548407
354.421906 79.525726 0.000034 0.550980
351.918640 82.518860 -0.000000 0.511029
350.320465 84.429832 -0.000011 0.557966
349.209625 85.758049 -0.000014 0.554167
348.391144 86.736702 0.000009 0.487010
nan nan nan 0.000000
nan nan nan 0.000000
nan nan nan 0.000000
nan nan nan 0.000000
nan nan nan 0.000000
nan nan nan 0.000000
nan nan nan 0.000000
nan nan nan 0.000000
nan nan nan 0.000000
369.167389 61.451500 0.000035 0.536887
358.785950 74.042206 0.000010 0.539583
354.328613 79.448090 0.000020 0.531495
351.846283 82.458664 -0.000013 0.527328
350.261444 84.380753 -0.000024 0.533578
349.159912 85.716698 -0.000027 0.549755
348.348297 86.701050 -0.000005 0.522549
nan nan nan 0.000000
nan nan nan 0.000000
nan nan nan 0.000000
nan nan nan 0.000000
nan nan nan 0.000000
nan nan nan 0.000000
nan nan nan 0.000000
nan nan nan 0.000000
nan nan nan 0.000000
368.947296 61.271725 0.000051 0.533578
358.654053 73.934494 0.000027 0.543750
354.234619 79.371315 0.000036 0.524020
351.773315 82.399223 0.000022 0.550858
350.202026 84.332207 -0.000008 0.543505
349.109802 85.675888 0.000009 0.540196
348.305145 86.665771 0.000005 0.534804
nan nan nan 0.000000
378.012878 49.504242 13.999976 0.431250
378.012878 49.504242 12.109624 0.406005
378.012878 49.504238 10.241660 0.423162
nan nan nan 0.000000
378.012878 49.504242 6.555723 0.405147
378.012878 49.504242 4.729523 0.392402
378.012878 49.504246 2.909192 0.397059
378.012878 49.504238 1.090809 0.386520
368.726288 61.093010 0.000038 0.538358
358.521637 73.827415 0.000014 0.531373
354.140259 79.294998 0.000022 0.520588
351.700104 82.340027 0.000009 0.542770
350.142395 84.283936 -0.000026 0.555392
349.059509 85.635231 -0.000004 0.517402
348.261810 86.630722 -0.000007 0.593750
377.584015 49.421429 15.866591 0.678431
377.518555 49.504230 13.933506 0.402451
377.518555 49.504230 12.053625 0.404657
377.518555 49.504234 10.196011 0.402941
377.583984 49.421440 8.368484 0.678431
377.518555 49.504227 6.530488 0.406373
377.518555 49.504238 4.714404 0.397549
377.518555 49.504246 2.904156 0.411397
377.518555 49.504242 1.095845 0.404167
368.503662 60.916336 0.000055 0.536887
358.388275 73.721558 0.000030 0.537255
354.045166 79.219543 0.000039 0.523775
351.626404 82.281517 0.000025 0.548529
350.082275 84.236221 -0.000010 0.513235
349.008911 85.595032 0.000011 0.518995
348.218140 86.596069 0.000008 0.519608
377.096954 49.417870 15.792000 0.678676
377.029694 49.504234 13.868342 0.400000
377.029694 49.504234 11.998730 0.384926
377.029694 49.504234 10.151254 0.403064
377.096954 49.417877 8.334229 0.678431
377.029694 49.504227 6.505750 0.402574
377.029694 49.504246 4.699584 0.412255
377.029694 49.504234 2.899218 0.403676
377.029694 49.504238 1.100781 0.398652
368.280212 60.740726 0.000042 0.536765
358.254395 73.616341 0.000017 0.530025
353.949738 79.144547 0.000025 0.507966
351.552399 82.223358 0.000012 0.543382
350.021942 84.188812 -0.000024 0.530515
348.958099 85.555069 -0.000007 0.550245
348.174316 86.561600 -0.000011 0.530025
376.615082 49.414333 15.718880 0.678431
376.546112 49.504227 13.804464 0.407108
376.546112 49.504227 11.944911 0.436029
376.546082 49.504234 10.107381 0.390931
376.615082 49.414345 8.300648 0.678431
376.546082 49.504238 6.481496 0.401225
376.546082 49.504238 4.685054 0.397549
376.546082 49.504242 2.894379 0.406618
376.546112 49.504234 1.105622 0.449755
368.055145 60.567162 0.000058 0.536765
358.119537 73.512352 0.000033 0.541912
353.853668 79.070389 0.000035 0.548162
351.477875 82.165833 0.000021 0.531740
349.961182 84.141953 -0.000008 0.555392
348.906860 85.515587 0.000008 0.500613
348.130188 86.527565 0.000005 0.485417
376.138306 49.410828 15.647197 0.678431
376.138306 49.410831 13.767125 0.678431
376.067627 49.504234 11.892147 0.403309
376.067688 49.504230 10.064367 0.403309
376.138306 49.410835 8.267725 0.678431
376.138306 49.410835 6.467321 0.677819
376.067627 49.504238 4.670807 0.396569
376.067627 49.504234 2.889633 0.414706
376.067627 49.504238 1.110367 0.417770
367.829254 60.394688 0.000044 0.536887
357.984222 73.408951 0.000013 0.536029
353.757233 78.996735 0.000021 0.544363
351.403046 82.108711 0.000007 0.541544
349.900024 84.095589 0.000026 0.538358
348.855499 85.476357 -0.000005 0.516789
348.085876 86.493744 -0.000007 0.535417
375.666473 49.407349 15.576919 0.678431
375.666473 49.407360 13.706530 0.678431
375.594238 49.504234 11.840418 0.426471
375.594238 49.504234 10.022196 0.395711
375.666473 49.407356 8.235449 0.678431
375.666473 49.407360 6.444317 0.678431
375.594238 49.504238 4.656841 0.400245
375.594238 49.504242 2.884982 0.418137
375.594238 49.504242 1.115019 0.410784
367.602112 60.223854 0.000035 0.536887
357.848145 73.306602 0.000004 0.528922
353.660187 78.923782 0.000012 0.524755
351.327820 82.052147 -0.000001 0.530025
349.838715 84.049461 0.000017 0.532230
348.803833 85.437508 -0.000015 0.558701
348.041351 86.460228 -0.000019 0.519363
375.125732 49.504230 15.476830 0.405147
375.199402 49.403976 13.647100 0.678431
375.125732 49.504234 11.789701 0.418505
375.125732 49.504234 9.980848 0.445343
375.199402 49.403984 8.203793 0.678431
375.199402 49.403988 6.421754 0.678431
375.125732 49.504234 4.643147 0.408824
375.125732 49.504238 2.880420 0.409681
375.125732 49.504238 1.119580 0.407721
367.373535 60.054974 0.000047 0.536397
357.711182 73.205421 0.000017 0.534436
353.562592 78.851662 0.000024 0.542279
351.252136 81.996208 0.000010 0.520833
349.777008 84.003868 0.000028 0.523897
348.751862 85.399071 -0.000005 0.545221
347.996521 86.427109 -0.000008 0.543260
374.662018 49.504227 15.408378 0.397549
374.737061 49.400566 13.588855 0.678431
374.662018 49.504230 11.739978 0.417647
374.661987 49.504234 9.940311 0.391299
374.661987 49.504242 8.158043 0.392034
374.737061 49.400570 6.399641 0.678431
374.661987 49.504242 4.629723 0.433211
374.661987 49.504238 2.875949 0.425613
374.661987 49.504238 1.124052 0.403922
367.143768 59.887684 0.000059 0.538235
357.573547 73.105186 0.000028 0.537868
353.464478 78.780228 0.000036 0.535049
351.176025 81.940804 0.000022 0.559191
349.714966 83.958694 0.000040 0.540074
348.699585 85.361023 0.000006 0.532108
347.951447 86.394295 0.000004 0.526103
374.202942 49.504230 15.341267 0.378554
374.279327 49.397175 13.531748 0.678431
374.202942 49.504230 11.691226 0.384069
374.202942 49.504234 9.900570 0.352819
374.202942 49.504234 8.127222 0.388358
374.279327 49.397171 6.377962 0.678431
374.202942 49.504234 4.616560 0.388725
374.202911 49.504242 2.871564 0.385662
374.202911 49.504238 1.128436 0.370833
366.913147 59.721626 0.000047 0.537010
357.435303 73.005722 0.000020 0.542525
353.365967 78.709320 0.000027 0.530515
351.099640 81.885818 0.000013 0.547672
349.652679 83.913872 0.000030 0.533578
348.647095 85.323257 -0.000002 0.574510
347.906219 86.361710 -0.000011 0.524265
373.748413 49.504230 15.275466 0.413358
373.825989 49.393917 13.475731 0.678431
373.748413 49.504230 11.643428 0.403799
373.748413 49.504230 9.861604 0.379534
373.748413 49.504234 8.097000 0.392892
373.825958 49.393921 6.356696 0.678431
373.748413 49.504230 4.603655 0.385049
373.748413 49.504227 2.867265 0.387990
373.748413 49.504227 1.132735 0.394485
366.681335 59.557144 0.000034 0.532353
357.296417 72.907181 0.000008 0.532598
353.266968 78.639091 0.000014 0.537132
351.022888 81.831329 -0.000002 0.534681
349.590118 83.869431 0.000011 0.532108
348.594391 85.285851 -0.000015 0.550858
347.860748 86.329453 -0.000023 0.530025
373.298340 49.504230 15.210950 0.405637
373.377075 49.390575 13.420842 0.678431
373.298340 49.504227 11.596565 0.407843
373.298340 49.504230 9.823401 0.398897
373.298340 49.504230 8.067373 0.399755
373.377045 49.390579 6.335856 0.678431
373.298340 49.504227 4.591003 0.425735
373.298340 49.504230 2.863051 0.416789
373.298340 49.504230 1.136949 0.403186
366.448151 59.394707 0.000046 0.541912
357.156738 72.809853 0.000019 0.540196
353.167419 78.569664 0.000018 0.556250
350.945648 81.777534 0.000010 0.530515
349.527161 83.825577 0.000022 0.527941
348.541321 85.248947 0.000010 0.564583
347.815002 86.297600 -0.000011 0.557598
372.852600 49.504227 15.147701 0.405882
372.877441 49.467827 13.345961 0.435784
372.852600 49.504230 11.550615 0.415686
372.852600 49.504238 9.785942 0.393015
372.852600 49.504227 8.038322 0.426961
372.877441 49.467827 6.307431 0.397059
372.852600 49.504234 4.578597 0.414828
372.852600 49.504230 2.858918 0.353064
372.852600 49.504230 1.141082 0.406250
366.214081 59.233498 0.000034 0.535417
357.016479 72.713264 0.000006 0.537990
353.067474 78.500816 0.000006 0.540931
350.868103 81.724136 -0.000002 0.523652
349.463928 83.782051 0.000010 0.514583
348.488068 85.212280 -0.000002 0.526961
347.769104 86.265976 -0.000023 0.521078
372.411102 49.504227 15.085686 0.415564
372.491852 49.384087 13.314236 0.674632
372.411102 49.504230 11.505570 0.409069
372.411102 49.504234 9.749218 0.400123
372.411102 49.504223 8.009844 0.369975
372.491852 49.384094 6.295385 0.678431
372.411102 49.504227 4.566434 0.407230
372.411102 49.504227 2.854867 0.404044
372.411102 49.504230 1.145133 0.415931
365.978577 59.074390 0.000049 0.534436
356.875366 72.617928 0.000022 0.537377
352.966888 78.432877 0.000021 0.540074
350.790131 81.671440 0.000013 0.544976
349.400391 83.739090 0.000024 0.520343
348.434479 85.176086 0.000013 0.552206
347.722931 86.234741 -0.000016 0.552819
371.973694 49.504230 15.024882 0.443382
371.997772 49.467823 13.239976 0.429779
371.973694 49.504223 11.461404 0.397917
371.973694 49.504223 9.713211 0.411029
371.973694 49.504223 7.981916 0.412623
371.997772 49.467831 6.267193 0.411642
371.973694 49.504227 4.554510 0.375980
371.973694 49.504234 2.850894 0.381250
371.973694 49.504234 1.149104 0.389583
365.742279 58.916458 0.000036 0.539951
356.733795 72.523308 0.000009 0.534314
352.865997 78.365433 0.000009 0.532966
350.711853 81.619133 0.000000 0.530515
349.336578 83.696442 0.000012 0.530147
348.380737 85.140167 0.000001 0.554167
347.676575 86.203773 -0.000027 0.523529
371.540314 49.504227 14.965276 0.405637
371.622803 49.377705 13.211771 0.678431
371.540314 49.504219 11.418103 0.407230
371.540314 49.504230 9.677912 0.399265
371.540314 49.504230 7.954539 0.444118
371.622803 49.377708 6.256484 0.678431
371.540314 49.504227 4.542820 0.409191
371.540314 49.504223 2.847001 0.399387
371.540314 49.504227 1.152999 0.402819
365.504639 58.760582 0.000048 0.535539
356.591431 72.429924 0.000021 0.539583
352.764526 78.298843 0.000018 0.506005
350.633148 81.567513 0.000011 0.547672
349.272430 83.654327 0.000016 0.538725
348.326721 85.104675 0.000004 0.521936
347.629974 86.173203 -0.000016 0.521201
371.110870 49.504227 14.906836 0.391054
371.194092 49.374634 13.162024 0.678431
371.110870 49.504234 11.375649 0.401225
371.110870 49.504230 9.643304 0.383701
371.110870 49.504234 7.927701 0.431373
371.194092 49.374641 6.237599 0.678431
371.110870 49.504230 4.531358 0.411029
371.110870 49.504227 2.843184 0.379412
371.110870 49.504227 1.156817 0.394118
365.266174 58.605972 0.000036 0.539093
356.448425 72.337433 0.000023 0.529289
352.662659 78.232819 0.000005 0.525245
350.554199 81.516266 -0.000007 0.549877
349.208038 83.612579 0.000003 0.558456
348.272461 85.069511 -0.000008 0.537868
347.583191 86.142876 -0.000028 0.583211
370.685272 49.504219 14.849545 0.410294
370.769257 49.371410 13.113300 0.678431
370.791443 49.336334 11.370178 0.450245
370.685242 49.504227 9.609378 0.373897
370.685242 49.504227 7.901390 0.373774
370.769257 49.371426 6.219100 0.678431
370.685242 49.504230 4.520122 0.407843
370.685242 49.504230 2.839439 0.392279
370.685242 49.504230 1.160560 0.388358
365.026306 58.453487 0.000050 0.538480
356.304718 72.246071 0.000038 0.539583
352.560242 78.167702 0.000021 0.539461
350.474762 81.465767 0.000007 0.533333
349.143280 83.571411 0.000018 0.517892
348.217926 85.034828 0.000007 0.533946
347.536072 86.113106 0.000025 0.519853
370.263397 49.504223 14.793378 0.407966
370.263397 49.504219 13.030936 0.395833
370.347961 49.368401 11.322348 0.678431
370.263397 49.504227 9.576117 0.417647
370.263397 49.504223 7.875596 0.404289
370.347961 49.368401 6.200950 0.678431
370.263397 49.504234 4.509105 0.397426
370.263397 49.504230 2.835771 0.416422
370.263397 49.504227 1.164229 0.406127
364.785706 58.302227 0.000038 0.534191
356.160553 72.155449 0.000026 0.533701
352.457520 78.103111 0.000008 0.544608
350.395081 81.415672 -0.000005 0.542770
349.078339 83.530563 0.000006 0.552574
348.163208 85.000420 -0.000006 0.515319
347.488892 86.083435 0.000013 0.472304
369.845184 49.504215 14.738322 0.397304
369.845184 49.504223 12.983462 0.404412
369.867493 49.467831 11.261007 0.463603
369.845184 49.504227 9.543513 0.423284
369.845184 49.504223 7.850308 0.406250
369.867493 49.467831 6.173307 0.429167
369.845184 49.504230 4.498308 0.409191
369.845184 49.504227 2.832174 0.402696
369.845184 49.504227 1.167825 0.403309
364.543793 58.153038 0.000049 0.536274
356.015656 72.066048 0.000036 0.544240
352.354218 78.039391 0.000018 0.522426
350.314941 81.366257 0.000006 0.507721
349.013000 83.490288 0.000015 0.536274
348.108185 84.966476 0.000004 0.551838
347.441437 86.054169 0.000023 0.531005
369.430542 49.504223 14.684350 0.404902
369.430542 49.504227 12.936926 0.410049
369.516235 49.362232 11.244212 0.678431
369.430542 49.504230 9.511551 0.442892
369.430542 49.504223 7.825521 0.389216
369.516235 49.362240 6.165740 0.678431
369.430542 49.504227 4.487722 0.396569
369.430542 49.504223 2.828648 0.417770
369.430542 49.504223 1.171352 0.382598
364.301117 58.005138 0.000037 0.539216
355.870239 71.977440 0.000024 0.535662
352.250549 77.976234 0.000007 0.547672
350.234589 81.317276 -0.000007 0.519118
348.947479 83.450348 0.000003 0.545098
348.052948 84.932838 -0.000007 0.511152
347.393860 86.025169 0.000011 0.539338
369.019379 49.504227 14.631449 0.404779
369.019379 49.504227 12.891313 0.391912
369.105438 49.359295 11.206279 0.678431
369.019379 49.504227 9.480222 0.429779
369.019379 49.504230 7.801223 0.420221
369.105438 49.359287 6.148646 0.678431
369.019379 49.504227 4.477346 0.409926
369.019379 49.504234 2.825192 0.407966
369.019379 49.504234 1.174807 0.414828
364.057129 57.859352 0.000047 0.537255
355.724060 71.890076 0.000033 0.531127
352.146393 77.913986 0.000017 0.551471
350.153778 81.268990 0.000004 0.523652
348.881622 83.410988 0.000014 0.539706
347.997467 84.899681 0.000003 0.507475
347.346008 85.996544 0.000014 0.539338
368.611603 49.504219 14.579599 0.401593
368.611603 49.504227 12.846603 0.392402
368.698029 49.356365 11.169106 0.678431
368.611603 49.504223 9.449518 0.401716
368.611603 49.504227 7.777412 0.408456
368.697998 49.356373 6.131894 0.678431
368.611603 49.504230 4.467177 0.402574
368.611603 49.504227 2.821806 0.403922
368.611603 49.504227 1.178194 0.408824
363.812286 57.715008 0.000043 0.534926
355.577362 71.803589 0.000029 0.532843
352.041809 77.852333 0.000012 0.545221
350.072693 81.221184 0.000000 0.544363
348.815521 83.372017 0.000010 0.542770
347.941772 84.866844 -0.000000 0.516054
347.298004 85.968239 0.000010 0.489338
368.207123 49.504215 14.528781 0.406495
368.207123 49.504219 12.802787 0.382966
368.293823 49.353466 11.132671 0.678431
368.207123 49.504219 9.419424 0.386397
368.207123 49.504219 7.754071 0.390196
368.293854 49.353462 6.115476 0.678431
368.207123 49.504227 4.457211 0.398529
368.207123 49.504223 2.818484 0.414093
368.207123 49.504223 1.181515 0.382230
363.566986 57.571449 -0.000013 0.532966
355.429993 71.718292 0.000040 0.539951
351.936768 77.791527 0.000023 0.540809
349.991241 81.174026 0.000010 0.549877
348.749115 83.333572 0.000020 0.516912
347.885834 84.834450 0.000008 0.510172
347.249756 85.940308 0.000019 0.512500
367.805908 49.504219 14.478971 0.408088
367.805908 49.504219 12.759842 0.410417
367.852905 49.421162 11.082214 0.338235
367.805908 49.504223 9.389928 0.367525
367.805908 49.504219 7.731197 0.399020
367.852905 49.421165 6.092738 0.340441
367.805908 49.504223 4.447442 0.423162
367.805908 49.504219 2.815231 0.410294
367.805908 49.504219 1.184769 0.401961
363.320129 57.430580 -0.000014 0.536765
355.282166 71.633736 0.000024 0.532230
351.831421 77.731270 0.000008 0.541054
349.909515 81.127289 -0.000006 0.527819
348.682495 83.295471 0.000004 0.523407
347.829712 84.802353 -0.000006 0.550368
347.201355 85.912636 0.000005 0.578799
367.407837 49.504219 14.430164 0.407108
367.407837 49.504219 12.717759 0.416789
367.495087 49.347481 11.062035 0.678431
367.407837 49.504219 9.361025 0.425123
367.407837 49.504227 7.708781 0.450123
367.495087 49.347488 6.083645 0.678431
367.407837 49.504223 4.437870 0.395833
367.407837 49.504219 2.812044 0.423162
367.407837 49.504223 1.187956 0.394240
363.072296 57.291466 -0.000014 0.533946
355.133575 71.550583 0.000042 0.534926
351.725494 77.671997 0.000026 0.537623
349.827332 81.081398 0.000026 0.520098
348.615540 83.257996 0.000022 0.550735
347.773315 84.770775 0.000011 0.522304
347.152740 85.885414 0.000022 0.545588
367.012848 49.504227 14.382338 0.426225
367.012848 49.504223 12.676523 0.399877
367.100220 49.344643 11.027759 0.678431
367.012848 49.504223 9.332703 0.400735
367.012848 49.504234 7.686816 0.413848
367.100220 49.344643 6.068197 0.678431
367.012848 49.504227 4.428489 0.410049
367.012848 49.504227 2.808918 0.427941
367.012848 49.504227 1.191082 0.384804
362.823486 57.154076 -0.000014 0.534559
354.984589 71.468140 0.000031 0.532475
351.619324 77.613235 0.000014 0.546078
349.744965 81.035835 0.000014 0.548284
348.548401 83.220856 0.000011 0.530515
347.716736 84.739487 -0.000000 0.542647
347.103973 85.858421 0.000010 0.530637
366.620880 49.504219 14.335481 0.432108
366.620880 49.504215 12.636118 0.426716
366.706390 49.345428 10.993428 0.678431
366.620880 49.504227 9.304953 0.422549
366.620880 49.504223 7.665294 0.400123
366.706390 49.345432 6.052729 0.678431
366.620880 49.504230 4.419299 0.408211
366.620880 49.504223 2.805857 0.398652
366.620880 49.504223 1.194142 0.412500
362.573761 57.018433 -0.000014 0.537623
354.834900 71.386971 0.000040 0.543627
351.512634 77.555382 0.000023 0.539706
349.662262 80.990959 0.000023 0.532353
348.480927 83.184265 0.000020 0.546078
347.659882 84.708717 0.000021 0.548529
347.054962 85.831825 0.000012 0.584559
366.231812 49.504219 14.289570 0.439828
366.231842 49.504223 12.596531 0.413848
366.315186 49.346863 10.959663 0.678431
366.231812 49.504227 9.277765 0.406495
366.231812 49.504223 7.644210 0.404289
366.315155 49.346867 6.037513 0.678431
366.231812 49.504223 4.410296 0.419730
366.231812 49.504227 2.802858 0.394240
366.231812 49.504230 1.197142 0.401348
362.323059 56.884529 -0.000014 0.537010
354.684784 71.306618 0.000028 0.534804
351.405609 77.498123 0.000012 0.524755
349.579224 80.946548 0.000013 0.539951
348.413269 83.148064 0.000009 0.555147
347.602875 84.678223 0.000011 0.504289
347.005829 85.805527 0.000001 0.504289
365.845642 49.504219 14.244595 0.407966
365.845642 49.504227 12.557751 0.448897
365.864594 49.467815 10.902061 0.442402
365.845642 49.504234 9.251130 0.395956
365.845642 49.504227 7.623555 0.389216
365.864594 49.467823 6.011555 0.406495
365.845642 49.504227 4.401475 0.432843
365.845642 49.504227 2.799921 0.416544
365.845642 49.504227 1.200080 0.442157
362.071411 56.752384 -0.000014 0.538725
354.533966 71.227554 0.000037 0.545343
351.298126 77.441757 0.000022 0.533333
349.495880 80.902840 0.000021 0.540319
348.345337 83.112396 0.000011 0.537623
347.545624 84.648201 0.000020 0.549020
346.956451 85.779640 0.000010 0.571936
365.462280 49.504223 14.200540 0.398162
365.462280 49.504223 12.519767 0.440686
365.541229 49.349957 10.894123 0.678431
365.462280 49.504223 9.225040 0.374387
365.462280 49.504223 7.603321 0.413725
365.541229 49.349957 6.007978 0.678431
365.462280 49.504223 4.392836 0.422059
365.462280 49.504223 2.797041 0.403676
365.462280 49.504219 1.202958 0.382721
361.818878 56.621990 -0.000014 0.536397
354.382721 71.149307 0.000026 0.541299
351.190338 77.385994 0.000010 0.544240
349.412262 80.859589 0.000010 0.539706
348.277191 83.077141 0.000001 0.506127
347.488190 84.618492 0.000009 0.531985
346.906921 85.754036 0.000000 0.531127
365.081635 49.504223 14.157392 0.414338
365.081635 49.504223 12.482561 0.415564
365.158539 49.351364 10.862385 0.674387
365.081635 49.504230 9.199490 0.412255
365.081635 49.504219 7.583506 0.401838
365.158539 49.351360 5.993676 0.678431
365.081635 49.504223 4.384372 0.446201
365.081635 49.504223 2.794222 0.430637
365.081635 49.504223 1.205777 0.406863
361.565430 56.493385 -0.000014 0.534191
354.230835 71.072350 0.000035 0.539338
351.082062 77.331139 0.000019 0.542647
349.328339 80.817047 0.000018 0.559069
348.208740 83.042458 0.000009 0.542892
347.430511 84.589279 0.000018 0.528554
346.857208 85.728836 0.000008 0.540686
364.703644 49.504223 14.115135 0.394853
364.703644 49.504223 12.446125 0.401348
364.778534 49.352760 10.831295 0.674877
364.703644 49.504230 9.174465 0.373407
364.703644 49.504219 7.564098 0.432108
364.778534 49.352764 5.979667 0.678431
364.703644 49.504215 4.376085 0.398284
364.703644 49.504230 2.791463 0.390686
364.703644 49.504230 1.208537 0.378064
361.311096 56.366535 -0.000014 0.534191
354.078522 70.996223 0.000023 0.542279
350.973480 77.276894 0.000009 0.530637
349.244110 80.774963 0.000007 0.533088
348.140076 83.008156 -0.000001 0.532230
347.372711 84.560371 0.000006 0.541422
346.807373 85.703918 -0.000002 0.538971
364.328278 49.504230 14.073756 0.403676
364.328278 49.504223 12.410448 0.380392
364.401154 49.354160 10.800850 0.678431
364.328278 49.504230 9.149965 0.417892
364.328278 49.504227 7.545094 0.409191
364.401154 49.354164 5.965946 0.674387
364.328278 49.504227 4.367969 0.395711
364.328278 49.504227 2.788759 0.402206
364.328278 49.504230 1.211241 0.410049
361.055878 56.241470 -0.000014 0.538113
353.925568 70.921387 0.000032 0.537377
350.864471 77.223541 0.000018 0.537623
349.159576 80.733604 0.000016 0.533701
348.071167 82.974442 0.000007 0.559926
347.314606 84.531967 0.000014 0.564583
346.757294 85.679420 0.000005 0.573162
363.955414 49.504223 14.033247 0.404657
363.955414 49.504227 12.375518 0.412010
364.026337 49.355553 10.771041 0.678431
363.955414 49.504230 9.125973 0.388358
363.955414 49.504223 7.526490 0.414093
364.026337 49.355553 5.952514 0.678431
363.955414 49.504230 4.360023 0.407966
363.955414 49.504234 2.786112 0.354044
363.955414 49.504234 1.213887 0.402451
360.799805 56.118168 -0.000014 0.536887
353.772156 70.847443 0.000024 0.535784
350.755157 77.170822 0.000006 0.533701
349.074799 80.692703 0.000004 0.523039
348.002045 82.941093 -0.000004 0.552941
347.256409 84.503883 0.000004 0.519608
346.707092 85.655205 -0.000005 0.535907
363.585052 49.504215 13.993590 0.397794
363.585052 49.504219 12.341326 0.405392
363.654083 49.356941 10.741856 0.678431
363.585052 49.504223 9.102489 0.432475
363.585052 49.504219 7.508277 0.433946
363.654083 49.356945 5.939362 0.678431
363.585052 49.504227 4.352245 0.404412
363.585052 49.504219 2.783522 0.415196
363.585052 49.504223 1.216478 0.403554
360.542847 55.996689 -0.000014 0.535662
353.618134 70.774849 0.000043 0.533456
350.645386 77.119026 0.000017 0.555760
348.989624 80.652580 0.000023 0.544976
347.932617 82.908386 0.000015 0.547181
347.197937 84.476318 0.000022 0.522426
346.656677 85.631447 0.000015 0.507966
363.217133 49.504219 13.954773 0.387623
363.217133 49.504219 12.307859 0.389706
363.284241 49.358318 10.713287 0.678431
363.217102 49.504227 9.079503 0.412255
363.217102 49.504223 7.490451 0.439951
363.284241 49.358322 5.926488 0.678431
363.217102 49.504223 4.344635 0.380392
363.217102 49.504230 2.780986 0.378799
363.217102 49.504230 1.219014 0.359681
360.285034 55.876991 -0.000014 0.540319
353.463715 70.703026 0.000032 0.534559
350.535339 77.067833 0.000008 0.539216
348.904297 80.612877 0.000012 0.540319
347.863068 82.876022 0.000004 0.545466
347.139313 84.449051 0.000012 0.520588
346.606110 85.607941 0.000005 0.541299
362.851532 49.504219 13.916788 0.393260
362.851532 49.504227 12.275105 0.411275
362.867950 49.467827 10.663736 0.511152
362.851532 49.504219 9.057009 0.411520
362.851532 49.504227 7.473002 0.435907
362.867950 49.467831 5.904159 0.499632
362.851532 49.504230 4.337184 0.383333
362.851532 49.504227 2.778505 0.413358
362.851532 49.504227 1.221495 0.388358
360.026428 55.759113 -0.000013 0.534191
353.308746 70.632484 0.000040 0.543750
350.424866 77.017548 0.000016 0.535907
348.818604 80.573875 0.000020 0.538848
347.793213 82.844231 0.000012 0.537010
347.080475 84.422234 0.000013 0.520956
346.555389 85.584854 0.000013 0.532843
362.488220 49.504223 13.879620 0.393995
362.488220 49.504223 12.243056 0.410172
362.551666 49.361061 10.657965 0.678431
362.488220 49.504227 9.034996 0.409681
362.488220 49.504227 7.455933 0.442525
362.551666 49.361061 5.901558 0.678431
362.488220 49.504223 4.329895 0.401593
362.488220 49.504219 2.776078 0.397794
362.488220 49.504219 1.223923 0.413235
359.767029 55.643024 -0.000013 0.533333
353.153381 70.562813 0.000030 0.534681
350.314117 76.967896 0.000006 0.533211
348.732727 80.535370 0.000010 0.549632
347.723175 82.812843 0.000003 0.537745
347.021484 84.395790 0.000003 0.545711
346.504517 85.562050 0.000004 0.549877
362.127167 49.504227 13.843255 0.370956
362.127167 49.504223 12.211703 0.375368
362.188843 49.362411 10.631195 0.678431
362.127167 49.504230 9.013462 0.389828
362.127167 49.504230 7.439233 0.367525
362.188843 49.362415 5.889493 0.678431
362.127167 49.504234 4.322762 0.434559
362.127167 49.504230 2.773700 0.422917
362.127167 49.504230 1.226299 0.396324
359.506775 55.528751 -0.000013 0.540809
352.997437 70.494438 0.000038 0.540809
350.202972 76.919167 0.000013 0.534069
348.646515 80.497597 0.000022 0.539461
347.652893 82.782013 0.000010 0.539338
346.962280 84.369827 0.000010 0.516299
346.453461 85.539658 0.000011 0.563971
361.768311 49.504219 13.807691 0.430760
361.768311 49.504227 12.181038 0.379167
361.768311 49.504223 10.577221 0.394608
361.768311 49.504227 8.992403 0.368015
361.768311 49.504223 7.422900 0.384314
361.814087 49.396835 5.874745 0.318382
361.768311 49.504223 4.315786 0.404534
361.768311 49.504227 2.771378 0.397426
361.768311 49.504227 1.228622 0.397672
359.245758 55.416313 -0.000013 0.536887
352.841095 70.426964 0.000028 0.538971
350.091522 76.871063 0.000003 0.542157
348.560120 80.460297 0.000012 0.528431
347.582458 82.751617 0.000001 0.548652
346.902924 84.344208 0.000000 0.535907
346.402283 85.517570 0.000002 0.524510
361.472351 49.358871 13.812379 0.487990
361.411530 49.504223 12.151048 0.389338
361.411530 49.504223 10.551954 0.398897
361.411530 49.504223 8.971805 0.405760
361.411530 49.504223 7.406924 0.436029
361.469757 49.365120 5.866151 0.678431
361.411530 49.504223 4.308966 0.382108
361.411530 49.504230 2.769105 0.422794
361.411530 49.504230 1.230895 0.401103
358.983948 55.305683 -0.000013 0.538725
352.684174 70.360756 0.000035 0.534926
349.979736 76.823875 0.000010 0.543505
348.473358 80.423706 0.000019 0.551225
347.511749 82.721779 0.000008 0.518750
346.843353 84.319077 0.000007 0.565196
346.350922 85.495903 0.000009 0.568995
361.113403 49.366447 13.776205 0.678431
361.056885 49.504223 12.121724 0.395956
361.056885 49.504223 10.527252 0.449020
361.056885 49.504227 8.951664 0.407843
361.056885 49.504223 7.391306 0.406005
361.113403 49.366455 5.854865 0.678431
361.056885 49.504227 4.302296 0.388235
361.056885 49.504227 2.766883 0.405882
361.056885 49.504230 1.233117 0.414093
358.721375 55.196873 -0.000013 0.531985
352.526917 70.295471 0.000026 0.532598
349.867615 76.777344 0.000001 0.546936
348.386444 80.387611 0.000010 0.544976
347.440857 82.692352 -0.000002 0.539216
346.783661 84.294289 -0.000003 0.523284
346.299438 85.474533 -0.000000 0.485784
360.759094 49.367783 13.742497 0.678431
360.704224 49.504223 12.093062 0.381127
360.704224 49.504223 10.503106 0.409681
360.694214 49.529099 8.928001 0.350980
360.704224 49.504219 7.376040 0.401103
360.759094 49.367786 5.843831 0.678431
360.704224 49.504227 4.295776 0.413603
360.704224 49.504227 2.764712 0.405760
360.704224 49.504223 1.235287 0.391912
358.458069 55.089909 -0.000013 0.536887
352.369110 70.231468 0.000033 0.538971
349.755127 76.731728 0.000008 0.538725
348.299194 80.352234 0.000017 0.532108
347.369781 82.663521 0.000006 0.538480
346.723755 84.269989 0.000004 0.514461
346.247772 85.453575 0.000006 0.521201
360.406830 49.369114 13.709550 0.678431
360.353577 49.504219 12.065053 0.406863
360.353577 49.504219 10.479508 0.408456
360.391266 49.408527 8.927999 0.398897
360.353577 49.504227 7.361120 0.405147
360.406830 49.369122 5.833047 0.678431
360.353577 49.504227 4.289404 0.404167
360.353577 49.504230 2.762589 0.405760
360.353577 49.504230 1.237410 0.436029
358.193970 54.984795 -0.000013 0.536029
352.210968 70.168365 0.000023 0.545956
349.642426 76.686760 -0.000001 0.541544
348.211792 80.317360 0.000007 0.542402
347.298492 82.635086 -0.000004 0.551838
346.663696 84.246040 -0.000005 0.540931
346.196014 85.432922 -0.000003 0.499387
360.056488 49.370434 13.677355 0.678431
360.004822 49.504223 12.037683 0.395833
360.004852 49.504215 10.456450 0.413113
360.056488 49.370434 8.915218 0.660539
360.004822 49.504223 7.346541 0.440686
360.056488 49.370430 5.822508 0.678431
360.004822 49.504227 4.283180 0.417402
360.004822 49.504223 2.760517 0.400735
360.004822 49.504223 1.239484 0.421078
357.929199 54.881516 -0.000014 0.538235
352.052216 70.106728 0.000042 0.529902
349.529266 76.642815 0.000018 0.524877
348.124054 80.283272 0.000026 0.537500
347.226959 82.607300 0.000015 0.535172
346.603455 84.222626 0.000013 0.567892
346.144073 85.412735 0.000016 0.509926
359.708069 49.371742 13.645905 0.678431
359.657990 49.504215 12.010951 0.399755
359.657990 49.504227 10.433926 0.389706
359.708069 49.371742 8.896593 0.678431
359.657990 49.504223 7.332303 0.399632
359.708069 49.371742 5.812213 0.678431
359.657990 49.504227 4.277099 0.415564
359.657990 49.504223 2.758490 0.403554
359.657990 49.504227 1.241509 0.399020
357.663696 54.780094 -0.000014 0.536029
351.893188 70.045845 0.000033 0.533946
349.415924 76.599434 0.000009 0.543995
348.036133 80.249626 0.000017 0.552451
347.155304 82.579872 0.000006 0.504412
346.543060 84.199516 0.000003 0.506250
346.092010 85.392815 0.000007 0.549387
359.361511 49.373039 13.615189 0.678431
359.312958 49.504223 11.984843 0.403922
359.312958 49.504230 10.411933 0.370711
359.361511 49.373051 8.878403 0.678431
359.312958 49.504230 7.318395 0.384681
359.361511 49.373051 5.802158 0.678431
359.312958 49.504227 4.271159 0.393873
359.312958 49.504227 2.756513 0.404412
359.312958 49.504227 1.243487 0.400368
357.397491 54.680519 -0.000014 0.533946
351.733673 69.986275 0.000040 0.533211
349.302216 76.556969 0.000016 0.535172
347.947968 80.216705 0.000024 0.550000
347.083405 82.553032 0.000013 0.553431
346.482513 84.176895 0.000010 0.463725
346.039764 85.373322 0.000013 0.507843
359.016663 49.374489 13.585155 0.678431
358.969696 49.504227 11.959354 0.372426
358.969696 49.504227 10.390463 0.388358
359.016663 49.374493 8.860619 0.678431
358.969696 49.504227 7.304821 0.405024
359.016663 49.374493 5.792327 0.678431
358.969696 49.504230 4.265363 0.405882
358.969696 49.504215 2.754582 0.405760
358.969696 49.504223 1.245418 0.409314
357.130585 54.582829 -0.000014 0.534191
351.573792 69.927689 0.000036 0.531495
349.188263 76.515205 0.000011 0.537377
347.859589 80.184311 0.000019 0.556373
347.011353 82.526627 0.000008 0.516299
346.421814 84.154655 0.000006 0.541667
345.987427 85.354141 0.000010 0.541789
358.673676 49.375782 13.555878 0.678431
358.628174 49.504219 11.934484 0.405392
358.628174 49.504227 10.369507 0.413725
358.673676 49.375786 8.843281 0.678431
358.628174 49.504223 7.291572 0.398162
358.673676 49.375782 5.782743 0.678431
358.628143 49.504230 4.259704 0.410662
358.628174 49.504223 2.752697 0.432721
358.628174 49.504227 1.247303 0.400735
356.863007 54.486988 -0.000014 0.538848
351.413452 69.870346 0.000042 0.542770
349.074005 76.474327 0.000018 0.534804
347.770966 80.152611 0.000025 0.558824
346.939117 82.500778 0.000015 0.547917
346.360931 84.132881 0.000012 0.566667
345.934967 85.335365 0.000016 0.513848
358.332367 49.377064 13.527309 0.678431
358.288330 49.504223 11.910216 0.417034
358.288300 49.504227 10.349062 0.438480
358.332367 49.377068 8.826363 0.678431
358.288300 49.504230 7.278647 0.395711
358.332367 49.377064 5.773392 0.678431
358.288300 49.504227 4.254186 0.403554
358.288330 49.504223 2.750858 0.432598
358.288330 49.504223 1.249141 0.391054
356.594788 54.393002 -0.000014 0.534926
351.252777 69.813934 0.000033 0.554412
348.959442 76.434135 0.000010 0.542034
347.682129 80.121437 0.000017 0.545588
346.866730 82.475372 0.000007 0.546691
346.299957 84.111465 0.000003 0.534436
345.882355 85.316910 0.000007 0.503922
357.992737 49.378334 13.499443 0.678431
357.950134 49.504223 11.886549 0.403799
357.950134 49.504230 10.329123 0.359436
357.992737 49.378345 8.809858 0.678431
357.950134 49.504227 7.266039 0.381127
357.992737 49.378342 5.764269 0.678431
357.950134 49.504223 4.248803 0.396446
357.950134 49.504223 2.749066 0.394363
357.950134 49.504223 1.250935 0.426716
356.325928 54.300911 -0.000014 0.538848
351.091675 69.758835 0.000039 0.545711
348.844604 76.394852 0.000015 0.535907
347.593048 80.090981 0.000024 0.530515
346.794098 82.450531 0.000012 0.503922
346.238770 84.090546 0.000008 0.536397
345.829620 85.298859 0.000013 0.542157
357.654755 49.379604 13.472267 0.678431
357.613525 49.504219 11.863473 0.404044
357.613525 49.504223 10.309682 0.417525
357.654755 49.379608 8.793766 0.678431
357.613525 49.504227 7.253748 0.406250
357.654755 49.379608 5.755374 0.678431
357.613525 49.504230 4.243552 0.413848
357.613525 49.504219 2.747316 0.413235
357.613525 49.504223 1.252683 0.404779
356.056366 54.210697 -0.000014 0.535294
350.930237 69.704681 0.000031 0.539216
348.729553 76.356262 0.000007 0.531250
347.503815 80.061043 0.000015 0.527083
346.721344 82.426125 0.000004 0.528922
346.177490 84.069992 0.000000 0.563603
345.776764 85.281143 0.000005 0.501471
357.318329 49.380871 13.445775 0.678431
357.278473 49.504223 11.840981 0.393260
357.278473 49.504223 10.290734 0.385294
357.318329 49.380871 8.778078 0.678431
357.278473 49.504223 7.241770 0.400490
357.318329 49.380871 5.746701 0.678431
357.278473 49.504223 4.238438 0.435907
357.278473 49.504223 2.745613 0.446569
357.278473 49.504227 1.254387 0.406250
355.786255 54.122360 -0.000014 0.535907
350.768341 69.651833 0.000036 0.535662
348.614197 76.318581 0.000012 0.539828
347.414368 80.031822 0.000020 0.553554
346.648407 82.402306 0.000009 0.535172
346.116028 84.049919 0.000005 0.544485
345.723785 85.263840 0.000010 0.506985
356.983429 49.382122 13.419963 0.678431
356.944916 49.504223 11.819070 0.407108
356.944916 49.504223 10.272275 0.375123
356.983429 49.382126 8.762791 0.678431
356.944916 49.504223 7.230098 0.405882
356.983429 49.382133 5.738251 0.658578
356.944916 49.504227 4.233454 0.400245
356.944916 49.504223 2.743953 0.441176
356.944916 49.504223 1.256047 0.397304
355.515503 54.035912 -0.000014 0.535784
350.606171 69.599945 0.000028 0.539093
348.498596 76.281609 0.000004 0.531740
347.324707 80.003151 0.000012 0.527941
346.575317 82.378922 0.000001 0.525123
346.054474 84.030228 -0.000002 0.564216
345.670715 85.246849 0.000002 0.540564
356.650055 49.383366 13.394822 0.678431
356.612854 49.504219 11.797735 0.418627
356.612854 49.504215 10.254300 0.408824
356.650055 49.383373 8.747904 0.678431
356.612854 49.504215 7.218733 0.408211
356.612823 49.504223 5.719653 0.410539
356.612854 49.504219 4.228601 0.419240
356.612823 49.504227 2.742336 0.410907
356.612823 49.504227 1.257664 0.363235
355.244141 53.951382 -0.000014 0.537010
350.443573 69.549347 0.000033 0.543260
348.382690 76.245544 0.000009 0.537132
347.234833 79.975174 0.000017 0.517157
346.502045 82.356125 0.000006 0.553676
345.992737 84.011009 0.000001 0.549142
345.617462 85.230286 0.000007 0.525490
356.318085 49.384609 13.370339 0.678431
356.282166 49.504227 11.776967 0.425000
356.282166 49.504230 10.236802 0.444118
356.318054 49.384617 8.733408 0.678431
356.282166 49.504230 7.207672 0.395466
356.282166 49.504223 5.711768 0.419853
356.282166 49.504230 4.223876 0.418137
356.282166 49.504223 2.740763 0.404289
356.282166 49.504227 1.259237 0.426103
354.972198 53.868725 -0.000014 0.537868
350.280670 69.499733 0.000025 0.526103
348.266602 76.210182 0.000002 0.539583
347.144775 79.947754 0.000009 0.543750
346.428650 82.333771 -0.000002 0.535294
345.930878 83.992180 -0.000006 0.543137
345.564148 85.214050 -0.000000 0.511887
355.987549 49.385849 13.346518 0.678431
355.952911 49.504219 11.756760 0.390564
355.952911 49.504211 10.219781 0.396569
355.987549 49.385845 8.719300 0.678431
355.952881 49.504227 7.196908 0.411275
355.952911 49.504219 5.704097 0.405392
355.952881 49.504223 4.219280 0.407353
355.952881 49.504223 2.739231 0.402328
355.952881 49.504227 1.260768 0.414828
354.699707 53.787956 -0.000014 0.534314
350.117401 69.451401 0.000030 0.541544
348.150208 76.175735 0.000006 0.540809
347.054504 79.921036 0.000013 0.555392
346.355072 82.311996 0.000003 0.536152
345.868866 83.973831 -0.000001 0.548162
345.510681 85.198235 0.000004 0.540074
355.658356 49.387081 13.323347 0.678431
355.624969 49.504223 11.737110 0.418995
355.624969 49.504215 10.203227 0.390319
355.658356 49.387085 8.705577 0.678431
355.624969 49.504219 7.186442 0.413358
355.624969 49.504227 5.696638 0.401716
355.624969 49.504227 4.214812 0.378309
355.624969 49.504227 2.737744 0.417034
355.624969 49.504223 1.262257 0.407108
354.426636 53.709110 -0.000014 0.537990
349.953766 69.404259 0.000037 0.536152
348.033569 76.142120 0.000013 0.536642
346.964111 79.894920 0.000013 0.530270
346.281342 82.290749 0.000010 0.547426
345.806763 83.955925 0.000005 0.580515
345.457123 85.182785 0.000011 0.537010
355.330505 49.388313 13.300818 0.673774
355.298340 49.504230 11.718012 0.398775
355.298340 49.504227 10.187136 0.406250
355.330505 49.388309 8.692238 0.678431
355.298340 49.504230 7.176268 0.398407
355.298340 49.504227 5.689387 0.360662
355.298340 49.504230 4.210467 0.373162
355.298340 49.504227 2.736296 0.375613
355.298340 49.504234 1.263704 0.395221
354.153046 53.632164 -0.000014 0.534926
349.789825 69.358208 0.000042 0.543873
347.916748 76.109314 0.000018 0.537990
346.873474 79.869469 0.000017 0.527328
346.207458 82.269989 0.000015 0.534191
345.744537 83.938446 0.000010 0.507230
345.403473 85.167717 0.000015 0.550735
355.003937 49.389538 13.278925 0.678431
354.972992 49.504215 11.699463 0.389828
354.972992 49.504215 10.171509 0.415196
355.003906 49.389542 8.679273 0.678431
354.972992 49.504230 7.166389 0.413603
354.972992 49.504227 5.682345 0.409314
354.972992 49.504230 4.206248 0.399877
354.972992 49.504227 2.734890 0.400858
354.972992 49.504227 1.265110 0.393750
353.878906 53.557125 -0.000015 0.533456
349.625641 69.313179 0.000035 0.531618
347.799683 76.077209 0.000011 0.541789
346.782715 79.844566 0.000010 0.521201
346.133423 82.249695 0.000008 0.522549
345.682159 83.921371 0.000009 0.539216
345.349701 85.152977 0.000008 0.533824
354.678619 49.390743 13.257672 0.678431
354.648804 49.504223 11.681450 0.381740
354.648804 49.504219 10.156336 0.391912
354.678619 49.390747 8.666685 0.678431
354.648804 49.504223 7.156796 0.397181
354.648804 49.504223 5.675508 0.406127
354.648804 49.504227 4.202150 0.402206
354.648804 49.504227 2.733526 0.417770
354.648804 49.504227 1.266474 0.386520
353.604248 53.484020 -0.000015 0.530147
349.461029 69.269417 0.000039 0.528799
347.682373 76.046021 0.000015 0.553064
346.691742 79.820374 0.000014 0.531495
346.059265 82.229980 0.000012 0.522059
345.619690 83.904762 0.000013 0.526348
345.295837 85.138657 0.000013 0.524142
354.354492 49.391953 13.237043 0.678431
354.325897 49.504219 11.663978 0.382966
354.325897 49.504219 10.141616 0.395833
354.354492 49.391960 8.654469 0.678431
354.325897 49.504223 7.147489 0.438235
354.325897 49.504219 5.668874 0.407230
354.325867 49.504227 4.198176 0.374755
354.325897 49.504219 2.732202 0.384069
354.325897 49.504219 1.267797 0.370711
353.329102 53.412807 -0.000015 0.541544
349.296234 69.226677 0.000032 0.537868
347.564880 76.015625 0.000016 0.534191
346.600616 79.796753 0.000007 0.527083
345.984985 82.210716 0.000005 0.553064
345.557129 83.888535 0.000006 0.543505
345.241882 85.124634 -0.000002 0.569853
354.031555 49.393173 13.217031 0.678431
354.004059 49.504215 11.647038 0.400858
354.004059 49.504230 10.127342 0.440319
354.031555 49.393173 8.642620 0.678431
354.004059 49.504223 7.138465 0.405270
354.004059 49.504227 5.662443 0.393382
354.004059 49.504223 4.194323 0.375490
354.004059 49.504227 2.730918 0.381250
354.004059 49.504223 1.269081 0.403431
353.053436 53.343536 -0.000015 0.536397
349.131073 69.185112 0.000027 0.538480
347.447174 75.986076 0.000020 0.544485
346.509308 79.773842 0.000011 0.540931
345.910583 82.192039 0.000009 0.512745
345.494446 83.872795 0.000010 0.528676
345.187836 85.111061 0.000002 0.581740
353.709747 49.394367 13.197639 0.678431
