# This PCD file was generated using the MATLABÂ® pcwrite function
# from Computer Vision ToolboxÂ®.
# .PCD v.7 - Point Cloud Data file format
VERSION .7
FIELDS x y z intensity
SIZE 4 4 4 4
TYPE F F F F
COUNT 1 1 1 1
WIDTH 1215
HEIGHT 1
VIEWPOINT 0 0 0 1 0 0 0
POINTS 1215
DATA ascii
342.679474 78.407791 0.000020 0.568873
339.703461 80.931885 0.000029 0.558456
337.803558 82.543297 0.000035 0.541667
336.483093 83.663239 0.000024 0.511765
335.510223 84.488380 0.000024 0.535784
376.093292 49.504223 17.421154 0.410294
376.093292 49.504227 15.296700 0.395466
376.201324 49.411312 13.228000 0.678431
376.201324 49.411312 11.153394 0.678431
376.093292 49.504227 9.082448 0.431740
376.093292 49.504230 7.048015 0.375858
376.093292 49.504227 5.024479 0.407230
376.093292 49.504227 3.007439 0.428431
376.093292 49.504227 0.992561 0.410049
360.283264 63.104450 0.000053 0.532353
347.912048 73.746483 0.000037 0.527819
342.600464 78.315636 0.000044 0.526471
339.642334 80.860321 0.000030 0.542034
337.753693 82.484970 0.000041 0.527819
336.441101 83.614105 0.000033 0.530025
335.473999 84.446022 0.000031 0.532353
375.439514 49.504219 17.297379 0.406985
375.439514 49.504219 15.189979 0.412623
375.551483 49.406563 13.139197 0.678431
375.551483 49.406555 11.080999 0.678431
375.439514 49.504227 9.025601 0.396078
375.439514 49.504227 7.007499 0.401838
375.439514 49.504219 5.000204 0.402819
375.439514 49.504227 2.999355 0.410049
375.439514 49.504227 1.000646 0.402941
360.097168 62.889610 0.000050 0.540809
347.800568 73.617767 0.000034 0.540319
342.521027 78.223885 0.000041 0.537377
339.580658 80.789200 0.000035 0.534191
337.703491 82.426918 0.000027 0.485662
336.398804 83.565193 0.000016 0.513113
335.437531 84.403862 0.000021 0.562255
374.796143 49.504227 17.176310 0.405882
374.796143 49.504227 15.085587 0.410907
374.796143 49.504227 13.024218 0.423162
374.898163 49.413956 11.007474 0.272794
374.796143 49.504223 8.969997 0.407843
374.796143 49.504230 6.967868 0.409191
374.796143 49.504227 4.976459 0.405270
374.796143 49.504223 2.991445 0.415441
374.796143 49.504223 1.008555 0.395466
359.909302 62.676365 0.000069 0.535907
347.687927 73.490059 0.000061 0.539338
342.440735 78.132866 0.000067 0.541299
339.518524 80.718513 0.000040 0.520221
337.652740 82.369377 0.000054 0.568505
336.356079 83.516708 0.000043 0.513971
335.400665 84.362068 0.000049 0.560539
374.162811 49.504223 17.057869 0.342157
374.162811 49.504227 14.983463 0.384314
374.162811 49.504219 12.938184 0.397917
374.282043 49.397240 10.940888 0.678431
374.162811 49.504223 8.915604 0.346569
374.162811 49.504223 6.929097 0.392525
374.162811 49.504223 4.953229 0.369608
374.162811 49.504230 2.983706 0.381127
374.162811 49.504234 1.016294 0.380392
359.720459 62.463982 0.000055 0.541912
347.574646 73.362930 0.000061 0.538971
342.360016 78.042259 0.000069 0.519853
339.455841 80.648277 0.000048 0.535172
337.601715 82.312088 0.000054 0.527451
336.312988 83.468513 0.000066 0.547672
335.363586 84.320457 0.000054 0.456005
373.539276 49.504230 16.941982 0.403186
373.539307 49.504223 14.883546 0.408824
373.539276 49.504223 12.854004 0.397794
373.661865 49.392662 10.873088 0.678431
373.661865 49.392658 8.881451 0.678431
373.539276 49.504230 6.891164 0.393627
373.539276 49.504227 4.930501 0.418260
373.539276 49.504230 2.976136 0.420221
373.539276 49.504230 1.023864 0.404044
359.529938 62.253078 0.000052 0.538971
347.460480 73.236580 0.000059 0.525613
342.278717 77.952110 0.000052 0.540441
339.392761 80.578423 0.000046 0.578676
337.550232 82.255165 0.000057 0.546936
336.269684 83.420502 0.000048 0.486887
335.326202 84.279083 0.000045 0.562990
372.925201 49.504230 16.828587 0.401348
372.925232 49.504230 14.785769 0.400858
372.925232 49.504227 12.771631 0.401838
372.964661 49.467823 10.789310 0.511275
372.964661 49.467819 8.816477 0.466299
372.925201 49.504230 6.854043 0.412500
372.925201 49.504238 4.908261 0.409069
372.925201 49.504234 2.968729 0.379167
372.925201 49.504238 1.031272 0.378064
359.337952 62.043522 0.000051 0.531005
347.345428 73.111061 0.000062 0.540686
342.196686 77.862671 0.000059 0.553186
339.329254 80.508949 0.000027 0.537623
337.498444 82.198532 0.000040 0.533456
336.225983 83.372864 0.000056 0.522059
335.288574 84.237946 0.000029 0.538848
372.320404 49.504230 16.717613 0.401961
372.320404 49.504230 14.690081 0.420098
372.320404 49.504234 12.691015 0.403799
372.449036 49.383839 10.741764 0.678431
372.449036 49.383835 8.779603 0.678431
372.320404 49.504234 6.817715 0.406127
372.320404 49.504238 4.886496 0.404534
372.320404 49.504230 2.961478 0.392647
372.320404 49.504230 1.038521 0.408211
359.144470 61.835323 0.000049 0.546691
347.229523 72.986328 0.000062 0.537745
342.114075 77.773773 0.000058 0.554902
339.265137 80.440025 0.000034 0.532843
337.446198 82.142349 0.000047 0.518382
336.182007 83.325462 0.000041 0.565809
335.250641 84.197121 0.000034 0.541544
371.724548 49.504227 16.608990 0.423529
371.724548 49.504227 14.596424 0.397426
371.724548 49.504230 12.612113 0.379412
371.855957 49.379505 10.678182 0.678431
371.855957 49.379498 8.730291 0.678431
371.724548 49.504230 6.782159 0.440809
371.724548 49.504230 4.865193 0.376226
371.724548 49.504227 2.954382 0.367402
371.724548 49.504230 1.045617 0.410784
358.949463 61.628574 0.000055 0.541544
347.112885 72.862251 0.000044 0.530882
342.030945 77.685333 0.000040 0.536274
339.200592 80.371513 0.000031 0.534191
337.393646 82.086441 0.000029 0.549632
336.137665 83.278427 0.000044 0.556985
335.212372 84.156578 0.000041 0.582843
371.137360 49.504227 16.502663 0.431618
371.137360 49.504230 14.504745 0.368995
371.137360 49.504227 12.534876 0.425613
371.137360 49.504230 10.588336 0.386765
371.271423 49.375202 8.682020 0.678431
371.137360 49.504227 6.747355 0.410294
371.137360 49.504234 4.844339 0.411152
371.137360 49.504234 2.947435 0.400858
371.137360 49.504234 1.052564 0.395466
358.753143 61.423092 0.000054 0.533333
346.995239 72.739151 0.000044 0.546936
341.947113 77.597588 0.000039 0.553676
339.135529 80.303505 0.000038 0.513113
337.340576 82.030991 0.000037 0.528922
336.092987 83.231712 0.000051 0.484314
335.173920 84.116241 0.000024 0.561275
370.558655 49.504230 16.398571 0.410784
370.558655 49.504227 14.414989 0.408211
370.558655 49.504230 12.459261 0.401348
370.558655 49.504230 10.526694 0.411642
370.695251 49.370941 8.634761 0.678431
370.558655 49.504238 6.713278 0.444363
370.558655 49.504230 4.823925 0.429534
370.558655 49.504230 2.940635 0.407353
370.558655 49.504230 1.059365 0.412132
358.555389 61.218975 0.000051 0.539093
346.876740 72.616859 0.000042 0.540074
341.862579 77.510475 0.000044 0.543873
339.070099 80.235832 0.000020 0.520221
337.287140 81.975906 0.000041 0.490196
336.048035 83.185242 0.000035 0.574387
335.135101 84.076225 0.000029 0.508701
369.988190 49.504227 16.296654 0.424265
369.988159 49.504230 14.327112 0.399387
369.988190 49.504223 12.385229 0.408088
369.988159 49.504230 10.466338 0.389338
370.126953 49.366863 8.588465 0.678431
369.988159 49.504234 6.679918 0.398284
369.988159 49.504230 4.803936 0.339951
369.988159 49.504230 2.933978 0.402819
369.988159 49.504234 1.066023 0.405760
358.356201 61.016247 0.000049 0.534436
346.757324 72.495468 0.000048 0.524632
341.777527 77.423904 0.000043 0.529657
339.004120 80.168686 0.000018 0.539216
337.233368 81.921173 0.000041 0.515809
336.002747 83.139153 0.000040 0.563235
335.095978 84.036545 0.000054 0.489828
369.588043 49.341274 16.254471 0.483211
369.425659 49.504230 14.241062 0.417157
369.425659 49.504223 12.312733 0.412500
369.425659 49.504234 10.407240 0.420833
369.566742 49.362663 8.543156 0.678431
369.425659 49.504234 6.647248 0.417647
369.425659 49.504234 4.784362 0.415564
369.425659 49.504234 2.927457 0.412868
369.425659 49.504234 1.072542 0.364216
358.155609 60.814903 0.000047 0.540564
346.637146 72.374840 0.000046 0.533824
341.691803 77.337975 0.000049 0.552574
338.937561 80.102150 0.000046 0.557598
337.179291 81.866760 0.000023 0.540074
335.957062 83.093384 0.000046 0.496078
335.056671 83.997009 0.000038 0.505882
368.906738 49.467827 16.111904 0.500613
368.870941 49.504227 14.156793 0.409804
368.870941 49.504234 12.241735 0.407108
368.870941 49.504230 10.349365 0.402819
368.906738 49.467838 8.481149 0.502206
368.870941 49.504238 6.615256 0.409926
368.870941 49.504230 4.765195 0.417402
368.870941 49.504234 2.921073 0.407843
368.870941 49.504238 1.078927 0.396446
357.953125 60.615463 0.000079 0.536274
346.515930 72.255264 0.000069 0.519608
341.605377 77.252754 0.000073 0.533824
338.870483 80.036087 0.000077 0.549632
337.124634 81.812897 0.000052 0.530515
335.911072 83.047928 0.000052 0.531863
335.016968 83.957878 0.000065 0.559681
368.468689 49.354683 16.055561 0.678431
368.323792 49.504227 14.074261 0.408578
368.323792 49.504238 12.172205 0.407230
368.323792 49.504238 10.292678 0.403309
368.468689 49.354683 8.455275 0.678431
368.323792 49.504234 6.583923 0.400980
368.323792 49.504238 4.746420 0.396936
368.323792 49.504230 2.914821 0.400980
368.323792 49.504234 1.085180 0.367770
357.749756 60.416954 0.000076 0.540319
346.394196 72.136185 0.000050 0.542892
341.518646 77.167870 0.000053 0.541299
338.803131 79.970352 0.000077 0.522794
337.069672 81.759331 0.000058 0.545098
335.864807 83.002800 0.000058 0.549877
334.977081 83.918938 0.000057 0.554289
367.852905 49.432098 15.934637 0.272794
367.783966 49.504230 13.993422 0.386397
367.783966 49.504230 12.104101 0.396324
367.783966 49.504234 10.237159 0.400490
367.852905 49.432102 8.399736 0.281740
367.783966 49.504230 6.553234 0.420221
367.783966 49.504234 4.728035 0.431618
367.783966 49.504230 2.908695 0.399020
367.783966 49.504230 1.091304 0.427941
357.544922 60.219894 0.000076 0.533088
346.271484 72.018097 0.000048 0.533088
341.431213 77.083702 0.000052 0.527696
338.735413 79.904999 0.000057 0.548039
337.014404 81.706123 0.000058 0.521324
335.818298 82.957916 0.000040 0.552083
334.936920 83.880302 0.000063 0.560907
367.399658 49.346802 15.871989 0.678431
367.251312 49.504227 13.914236 0.413113
367.251312 49.504238 12.037389 0.399142
367.251312 49.504238 10.182773 0.411275
367.399658 49.346806 8.370966 0.678431
367.251312 49.504234 6.523171 0.430270
367.251312 49.504234 4.710022 0.416667
367.251312 49.504238 2.902696 0.418750
367.251312 49.504238 1.097305 0.444975
357.338806 60.024246 0.000075 0.528676
346.147980 71.900879 0.000047 0.531127
341.343109 77.000229 0.000060 0.545343
338.667145 79.840210 0.000058 0.532353
336.958801 81.653236 0.000040 0.539706
335.771362 82.913422 0.000041 0.559314
334.896484 83.841934 0.000063 0.562132
366.846405 49.374218 15.772293 0.312868
366.725647 49.504234 13.836657 0.380760
366.725647 49.504234 11.972034 0.400858
366.725647 49.504238 10.129494 0.417157
366.846436 49.374214 8.325178 0.315686
366.725647 49.504242 6.493720 0.409436
366.725647 49.504238 4.692377 0.442647
366.725647 49.504230 2.896819 0.412010
366.725647 49.504234 1.103182 0.420711
357.131317 59.830029 0.000072 0.544853
346.023590 71.784592 0.000053 0.533211
341.254517 76.917290 0.000058 0.544976
338.598389 79.775917 0.000062 0.515196
336.902740 81.600830 0.000045 0.534069
335.724152 82.869270 0.000045 0.573897
334.855835 83.803795 0.000044 0.506495
366.350952 49.346802 15.693178 0.678431
366.350952 49.346802 13.806775 0.662255
366.206696 49.504238 11.908004 0.408578
366.206696 49.504238 10.077296 0.405024
366.350952 49.346794 8.288843 0.678431
366.350952 49.346794 6.482376 0.672672
366.206696 49.504242 4.675089 0.403064
366.206696 49.504234 2.891059 0.411642
366.206696 49.504242 1.108940 0.402083
356.923615 59.636017 -0.000014 0.537623
345.898438 71.669121 0.000053 0.537255
341.165314 76.834984 0.000057 0.541176
338.529175 79.712143 0.000072 0.520098
336.846375 81.548790 0.000043 0.543995
335.676636 82.825455 0.000053 0.578922
334.814850 83.766014 0.000052 0.566054
365.834747 49.348869 15.605776 0.678431
365.834747 49.348858 13.731417 0.678431
365.694397 49.504238 11.845270 0.438971
365.694397 49.504246 10.026150 0.414338
365.834747 49.348866 8.248703 0.678431
365.834747 49.348866 6.453765 0.678431
365.694397 49.504238 4.658151 0.447426
365.694397 49.504238 2.885418 0.407230
365.694397 49.504238 1.114582 0.391054
356.713409 59.444721 -0.000015 0.533456
345.772522 71.554504 0.000051 0.531740
341.075500 76.753334 0.000063 0.527206
338.459534 79.648788 0.000070 0.525490
336.789581 81.497169 0.000048 0.531740
335.628876 82.781883 0.000031 0.476961
334.773621 83.728523 0.000057 0.521814
365.188477 49.504234 15.468705 0.383701
365.325226 49.350723 13.657631 0.678431
365.188477 49.504242 11.783796 0.394853
365.188477 49.504238 9.976039 0.420098
365.325226 49.350727 8.209402 0.678431
365.325226 49.350716 6.425755 0.678431
365.188477 49.504230 4.641555 0.440686
365.188477 49.504234 2.879889 0.423162
365.188477 49.504242 1.120111 0.402819
356.501831 59.254936 -0.000014 0.539338
345.645752 71.440834 0.000056 0.527819
340.985199 76.672272 0.000060 0.538113
338.389557 79.585823 0.000048 0.540074
336.732452 81.445961 0.000056 0.508456
335.580719 82.738731 0.000039 0.533578
334.732147 83.691238 0.000038 0.527574
364.688843 49.504238 15.385778 0.398529
364.822052 49.352577 13.585322 0.678431
364.688843 49.504242 11.723560 0.413848
364.688843 49.504234 9.926931 0.405637
364.688843 49.504238 8.147665 0.437868
364.822052 49.352577 6.398302 0.678431
364.688843 49.504238 4.625291 0.407476
364.688843 49.504234 2.874472 0.407353
364.688843 49.504238 1.125528 0.384436
356.288971 59.066628 -0.000014 0.536152
345.518188 71.328018 0.000056 0.544608
340.894379 76.591743 0.000042 0.549632
338.319092 79.523460 0.000049 0.559069
336.674957 81.395119 0.000057 0.534681
335.532288 82.695900 0.000039 0.540319
334.690399 83.654335 0.000046 0.549755
364.195251 49.504234 15.304511 0.405147
364.325012 49.354446 13.514453 0.678431
364.195251 49.504238 11.664528 0.415196
364.195251 49.504238 9.878805 0.384559
364.195251 49.504234 8.110342 0.384804
364.325012 49.354446 6.371395 0.678431
364.195251 49.504234 4.609352 0.402083
364.195251 49.504238 2.869162 0.402328
364.195251 49.504238 1.130838 0.434069
356.074768 58.879803 -0.000013 0.541299
345.389923 71.216049 0.000052 0.545221
340.802948 76.511940 0.000039 0.548407
338.248108 79.461617 0.000055 0.528922
336.617096 81.344711 0.000063 0.557966
335.483582 82.653419 0.000044 0.564093
334.648376 83.617722 0.000053 0.536274
363.707672 49.504234 15.224867 0.411397
363.827026 49.364452 13.442680 0.338113
363.707672 49.504223 11.606676 0.387990
363.707672 49.504234 9.831640 0.400858
363.707642 49.504242 8.073763 0.416422
363.827026 49.364452 6.344148 0.341912
363.707672 49.504234 4.593732 0.393627
363.707642 49.504242 2.863959 0.415564
363.707642 49.504242 1.136040 0.384926
355.859253 58.694481 -0.000013 0.532721
345.260712 71.105095 0.000061 0.540564
340.710754 76.432991 0.000068 0.530515
338.176636 79.400383 0.000082 0.541422
336.558899 81.294708 0.000071 0.532475
335.434540 82.611305 0.000053 0.567524
334.606079 83.581398 0.000062 0.576226
363.225800 49.504238 15.146806 0.427574
363.348816 49.358162 13.376916 0.678431
363.225800 49.504234 11.549970 0.383211
363.225800 49.504238 9.785414 0.410784
363.225800 49.504238 8.037912 0.440319
363.348816 49.358166 6.319181 0.678431
363.225800 49.504246 4.578422 0.365441
363.225800 49.504234 2.858860 0.393015
363.225800 49.504238 1.141140 0.375368
355.642487 58.510677 -0.000012 0.537377
345.130890 70.994949 0.000059 0.541667
340.618164 76.354523 0.000072 0.548039
338.104919 79.339394 0.000060 0.551593
336.500397 81.245064 0.000069 0.512132
335.385223 82.569511 0.000058 0.526226
334.563568 83.545364 0.000068 0.528309
362.749634 49.504234 15.070297 0.404534
362.820557 49.418747 13.293699 0.304902
362.749634 49.504230 11.494391 0.415686
362.749603 49.504238 9.740105 0.426103
362.749603 49.504238 8.002773 0.438726
362.820557 49.418755 6.287588 0.310294
362.749634 49.504234 4.563416 0.406740
362.749603 49.504238 2.853862 0.363848
362.749603 49.504238 1.146138 0.403186
355.424438 58.328365 -0.000013 0.538358
345.000275 70.885696 0.000055 0.521078
340.525085 76.276649 0.000069 0.530025
338.032745 79.279007 0.000057 0.533456
336.441498 81.195862 0.000072 0.516667
335.335632 82.528038 0.000055 0.560662
334.520844 83.509537 0.000042 0.527941
362.278900 49.504234 14.995301 0.430270
362.395538 49.361694 13.244822 0.678431
362.278900 49.504230 11.439915 0.401103
362.278900 49.504230 9.695696 0.426225
362.278900 49.504246 7.968329 0.399632
362.395538 49.361706 6.269031 0.678431
362.278900 49.504242 4.548708 0.399510
362.278900 49.504238 2.848962 0.398529
362.278900 49.504238 1.151037 0.386520
355.205139 58.147591 -0.000013 0.535294
344.868835 70.777397 0.000056 0.530270
340.431488 76.199379 0.000056 0.513113
337.960052 79.219208 0.000070 0.540441
336.382263 81.147110 0.000085 0.540564
335.285706 82.486977 0.000070 0.550858
334.477844 83.474091 0.000045 0.558333
361.813507 49.504234 14.921788 0.441176
361.842896 49.467846 13.151752 0.462990
361.813507 49.504242 11.386512 0.386887
361.813507 49.504242 9.652157 0.389461
361.813507 49.504238 7.934569 0.388971
361.842896 49.467842 6.233701 0.436397
361.813507 49.504238 4.534290 0.413113
361.813507 49.504242 2.844160 0.407598
361.813507 49.504238 1.155840 0.392525
354.984528 57.968376 -0.000012 0.537623
344.736633 70.670097 0.000065 0.536152
340.337311 76.122810 0.000052 0.518995
337.887024 79.159836 0.000068 0.521936
336.322693 81.098717 0.000085 0.524877
335.235535 82.446213 0.000073 0.478554
334.434570 83.438965 0.000056 0.489828
361.353363 49.504230 14.849727 0.402451
361.463898 49.365227 13.117879 0.678431
361.463898 49.365227 11.366483 0.635539
361.353363 49.504238 9.609484 0.436397
361.353363 49.504238 7.901472 0.430147
361.463898 49.365227 6.220839 0.678431
361.353363 49.504238 4.520157 0.399755
361.353363 49.504242 2.839453 0.400490
361.353363 49.504242 1.160548 0.401225
354.762726 57.790680 -0.000012 0.539216
344.603760 70.563622 0.000063 0.538971
340.242615 76.046913 0.000049 0.542770
337.813538 79.101013 0.000073 0.519363
336.262878 81.050644 0.000062 0.538848
335.185059 82.405792 0.000072 0.545833
334.391022 83.404137 0.000060 0.555515
360.898285 49.504238 14.779077 0.410784
360.898285 49.504234 13.018603 0.429167
360.926819 49.467831 11.291266 0.477941
360.898285 49.504234 9.567650 0.440931
360.898285 49.504238 7.869028 0.425980
360.926819 49.467834 6.186943 0.466667
360.898285 49.504242 4.506301 0.421078
360.898285 49.504242 2.834837 0.396936
360.898285 49.504242 1.165163 0.392647
354.539673 57.614532 -0.000012 0.538725
344.470154 70.458046 0.000058 0.533824
340.147339 75.971718 0.000052 0.502941
337.739685 79.042664 0.000068 0.539583
336.202698 81.003067 0.000056 0.541544
335.134308 82.365746 0.000077 0.514706
334.347351 83.369507 0.000034 0.561642
360.448181 49.504234 14.709824 0.392892
360.448181 49.504234 12.958890 0.410784
360.552979 49.368584 11.263734 0.678431
360.448181 49.504234 9.526636 0.447794
360.448151 49.504238 7.837219 0.405760
360.552979 49.368584 6.174536 0.678431
360.448181 49.504234 4.492719 0.413358
360.448151 49.504238 2.830313 0.436887
360.448151 49.504242 1.169688 0.442892
354.315430 57.439922 -0.000015 0.539828
344.335754 70.353508 0.000064 0.559314
340.051544 75.897202 0.000057 0.550368
337.665405 78.984863 0.000073 0.533578
336.142090 80.955994 0.000070 0.571201
335.083374 82.325974 0.000058 0.526103
334.303375 83.335281 0.000038 0.536520
360.002869 49.504230 14.641926 0.378431
360.002869 49.504230 12.900348 0.402696
360.104919 49.370255 11.213862 0.678431
360.002869 49.504234 9.486427 0.400735
360.002869 49.504234 7.806036 0.408946
360.104889 49.370255 6.152065 0.678431
360.002869 49.504238 4.479402 0.408946
360.002869 49.504242 2.825878 0.414093
360.002869 49.504242 1.174123 0.419363
354.089935 57.266903 -0.000015 0.532475
344.200623 70.249878 0.000067 0.539706
339.955261 75.823288 0.000052 0.527206
337.590820 78.927429 0.000047 0.539706
336.081207 80.909256 0.000064 0.525613
335.032104 82.286613 0.000056 0.553922
334.259125 83.301361 0.000043 0.568015
359.562256 49.504242 14.575359 0.390319
359.562286 49.504234 12.842952 0.434681
359.661621 49.371929 11.164968 0.678431
359.562256 49.504242 9.447008 0.406005
359.562286 49.504238 7.775466 0.413235
359.661621 49.371937 6.130029 0.678431
359.562256 49.504242 4.466346 0.438113
359.562256 49.504242 2.821528 0.400245
359.562256 49.504242 1.178472 0.409191
353.863220 57.095482 -0.000015 0.537623
344.064850 70.147148 0.000064 0.542647
339.858459 75.750122 0.000057 0.544730
337.515747 78.870644 0.000044 0.554044
336.020081 80.862900 0.000046 0.556863
334.980499 82.247658 0.000065 0.523284
334.214569 83.267876 0.000084 0.541422
359.126312 49.504234 14.510098 0.404412
359.126312 49.504234 12.786680 0.404044
359.222961 49.373592 11.117028 0.678431
359.126312 49.504234 9.408361 0.381985
359.126282 49.504246 7.745492 0.400123
359.222961 49.373600 6.108425 0.678431
359.126312 49.504234 4.453547 0.404534
359.126282 49.504246 2.817264 0.415196
359.126282 49.504250 1.182735 0.386029
353.635376 56.925613 -0.000016 0.534436
343.928314 70.045349 0.000059 0.525613
339.761139 75.677567 0.000054 0.527328
337.440277 78.814415 0.000047 0.532230
335.958557 80.817032 0.000044 0.579534
334.928650 82.209045 0.000071 0.582966
334.169952 83.234482 0.000057 0.517770
358.694763 49.504223 14.446116 0.378922
358.694763 49.504230 12.731510 0.396201
358.794678 49.367233 11.071829 0.344363
358.694763 49.504234 9.370470 0.396201
358.694763 49.504238 7.716107 0.366667
358.794678 49.367233 6.088058 0.346936
358.694763 49.504234 4.440997 0.416299
358.694763 49.504238 2.813086 0.394608
358.694763 49.504238 1.186915 0.406250
353.406281 56.757385 -0.000015 0.536029
343.791046 69.944595 0.000065 0.536274
339.663300 75.605751 0.000058 0.543260
337.364380 78.758728 0.000053 0.503676
335.896667 80.771667 0.000058 0.560294
334.876526 82.170799 0.000076 0.530637
334.125000 83.201508 0.000064 0.569608
358.267639 49.504234 14.383383 0.422917
358.267639 49.504234 12.677420 0.409314
358.359131 49.376915 11.023936 0.678431
358.267639 49.504230 9.333321 0.399755
358.267639 49.504238 7.687295 0.404044
358.359131 49.376911 6.066477 0.678431
358.267639 49.504238 4.428696 0.401838
358.267639 49.504234 2.808988 0.424510
358.267639 49.504234 1.191013 0.404412
353.176025 56.590736 -0.000015 0.534804
343.652893 69.845016 0.000091 0.535539
339.565002 75.534607 0.000060 0.533578
337.287964 78.703766 0.000095 0.539828
335.834412 80.726791 0.000082 0.557476
334.824158 82.132896 0.000077 0.518505
334.079773 83.168922 0.000095 0.458701
357.844788 49.504230 14.321877 0.408578
357.844788 49.504230 12.624386 0.434681
357.870544 49.467819 10.958848 0.500613
357.844788 49.504238 9.296896 0.415686
357.844788 49.504242 7.659047 0.370711
357.870544 49.467823 6.037145 0.475490
357.844788 49.504234 4.416633 0.421814
357.844788 49.504238 2.804968 0.416422
357.844788 49.504242 1.195031 0.414706
352.944672 56.425690 -0.000016 0.540319
343.514496 69.745880 0.000064 0.524142
339.466187 75.464111 0.000056 0.534314
337.211334 78.649094 0.000093 0.537377
335.771942 80.682251 0.000087 0.552819
334.771545 82.095352 0.000074 0.542892
334.034454 83.136490 0.000072 0.536397
357.426086 49.504234 14.261573 0.435417
357.426086 49.504238 12.572391 0.402819
357.512695 49.380077 10.934467 0.678431
357.426086 49.504234 9.261187 0.404779
357.426086 49.504242 7.631351 0.396936
357.512695 49.380081 6.026159 0.678431
357.426086 49.504238 4.404805 0.399755
357.426086 49.504238 2.801030 0.411152
357.426086 49.504238 1.198970 0.399510
352.712128 56.262287 -0.000015 0.538113
343.375183 69.647942 0.000061 0.537868
339.366913 75.394310 0.000054 0.540686
337.134338 78.594963 0.000089 0.514216
335.709167 80.638123 0.000084 0.556250
334.718628 82.058197 0.000078 0.548284
333.988861 83.104431 0.000069 0.538725
357.011414 49.504227 14.202451 0.424755
357.011414 49.504238 12.521411 0.433824
357.095703 49.381596 10.891054 0.678431
357.011414 49.504238 9.226173 0.364461
357.011414 49.504238 7.604199 0.389461
357.095703 49.381596 6.006595 0.678431
357.011414 49.504234 4.393209 0.430392
357.011414 49.504242 2.797167 0.420343
357.011414 49.504242 1.202833 0.412500
352.478455 56.100494 -0.000015 0.537500
343.235199 69.550980 0.000058 0.548774
339.267120 75.325188 0.000050 0.535172
337.057068 78.541222 0.000061 0.555882
335.646149 80.594330 0.000059 0.537132
334.665497 82.021393 0.000078 0.547059
333.942993 83.072739 0.000082 0.522059
356.600708 49.504230 14.144480 0.407108
356.600708 49.504230 12.471430 0.447672
356.682617 49.383217 10.848459 0.673897
356.600708 49.504230 9.191847 0.374632
356.600708 49.504238 7.577575 0.406005
356.682617 49.383217 5.987402 0.678431
356.600708 49.504230 4.381840 0.402819
356.600708 49.504246 2.793380 0.417279
356.600708 49.504242 1.206620 0.377696
352.243622 55.940346 -0.000015 0.533456
343.094482 69.455078 0.000063 0.537868
339.166779 75.256966 0.000073 0.546078
336.979309 78.488228 0.000067 0.544853
335.582764 80.551102 0.000062 0.519730
334.612030 81.985046 0.000099 0.530760
333.896942 83.041351 0.000088 0.522304
356.193878 49.504238 14.087646 0.403309
356.193878 49.504238 12.422424 0.429902
356.273560 49.384724 10.806722 0.678431
356.193878 49.504238 9.158188 0.405515
356.193878 49.504238 7.551474 0.418873
356.273560 49.384727 5.968593 0.675368
356.193878 49.504242 4.370693 0.433456
356.193878 49.504242 2.789667 0.408333
356.193878 49.504242 1.210333 0.434069
352.007721 55.781834 -0.000015 0.537010
342.952820 69.360611 0.000112 0.539338
339.066040 75.189270 0.000070 0.533456
336.901154 78.435707 0.000064 0.532721
335.519012 80.508385 0.000078 0.554779
334.558441 81.948891 0.000072 0.548529
333.850677 83.010284 0.000092 0.542647
355.790833 49.504230 14.031927 0.405392
355.790833 49.504227 12.374382 0.381250
355.814728 49.467831 10.748033 0.495956
355.790833 49.504234 9.125192 0.391667
355.790833 49.504242 7.525883 0.392770
355.814728 49.467831 5.942144 0.488603
355.790833 49.504227 4.359766 0.371446
355.790833 49.504242 2.786026 0.417525
355.790833 49.504242 1.213973 0.408701
351.770691 55.624969 -0.000016 0.532721
342.810852 69.266602 0.000109 0.527083
338.964844 75.122261 0.000067 0.532966
336.822662 78.383789 0.000069 0.544608
335.455048 80.466019 0.000074 0.523407
334.504547 81.913208 0.000070 0.523284
333.804260 82.979424 0.000064 0.571691
355.391449 49.504238 13.977298 0.417647
355.391449 49.504234 12.327281 0.394853
355.466766 49.387814 10.725656 0.678431
355.391449 49.504238 9.092841 0.414828
355.391449 49.504242 7.500793 0.419485
355.466766 49.387825 5.932061 0.678431
355.391449 49.504234 4.349052 0.425368
355.391449 49.504242 2.782458 0.401961
355.391449 49.504242 1.217542 0.386887
351.532623 55.469772 -0.000015 0.539461
342.668243 69.173592 0.000106 0.539216
338.863159 75.056007 0.000071 0.536152
336.743805 78.332367 0.000064 0.511397
335.390778 80.424103 0.000071 0.532721
334.450378 81.877922 0.000074 0.526226
333.757538 82.948982 0.000064 0.598652
354.995667 49.504238 13.923743 0.413971
354.995667 49.504238 12.281102 0.401471
355.068878 49.389309 10.686317 0.678431
354.995667 49.504238 9.061126 0.417892
354.995667 49.504242 7.476198 0.431005
355.068878 49.389313 5.914333 0.678431
354.995667 49.504234 4.338549 0.408578
354.995667 49.504234 2.778960 0.407843
354.995667 49.504238 1.221041 0.390564
351.293457 55.316238 -0.000016 0.536274
342.524933 69.081581 0.000103 0.541667
338.761047 74.990425 0.000067 0.548529
336.664612 78.281509 0.000062 0.539216
335.326172 80.382675 0.000076 0.529657
334.395966 81.842987 0.000071 0.536397
333.710602 82.918892 0.000068 0.564951
354.603363 49.504234 13.871242 0.398775
354.603363 49.504238 12.235831 0.406985
354.674530 49.390793 10.647751 0.678431
354.603363 49.504234 9.030036 0.400735
354.603363 49.504234 7.452085 0.375000
354.674530 49.390793 5.896955 0.678431
354.603363 49.504242 4.328251 0.418750
354.603363 49.504238 2.775529 0.368750
354.603363 49.504242 1.224471 0.339583
351.053162 55.164379 -0.000015 0.537500
342.381012 68.990570 0.000100 0.535539
338.658447 74.925560 0.000065 0.550735
336.585175 78.231049 0.000032 0.526961
335.261353 80.341660 0.000072 0.576961
334.341400 81.808334 0.000042 0.559804
333.663544 82.889099 0.000064 0.521691
354.214508 49.504238 13.819770 0.401225
354.214508 49.504227 12.191455 0.403922
354.214508 49.504238 10.585997 0.407843
354.214508 49.504227 8.999557 0.416176
354.214508 49.504234 7.428446 0.428922
354.283630 49.392262 5.879919 0.678431
354.214508 49.504234 4.318156 0.378799
354.214508 49.504242 2.772166 0.393873
354.214508 49.504242 1.227833 0.399510
350.811890 55.014187 -0.000016 0.532353
342.236481 68.900566 0.000097 0.541176
338.555450 74.861404 0.000061 0.547917
336.505249 78.181290 0.000028 0.536029
335.196289 80.300964 0.000042 0.549142
334.286530 81.774162 0.000037 0.548529
333.616150 82.859695 0.000080 0.542034
353.851105 49.467831 13.779992 0.487500
353.828979 49.504234 12.147951 0.395588
353.828979 49.504234 10.549349 0.399020
353.828979 49.504234 8.969679 0.401593
353.828979 49.504234 7.405276 0.431863
353.851105 49.467834 5.856105 0.478309
353.828979 49.504242 4.308261 0.404412
353.828979 49.504242 2.768870 0.370098
353.828979 49.504246 1.231129 0.409436
350.569550 54.865707 -0.000015 0.533701
342.091309 68.811562 0.000092 0.531005
338.452026 74.797874 0.000044 0.534681
336.424957 78.132172 0.000039 0.543873
335.130829 80.260925 0.000051 0.539706
334.231384 81.740425 0.000047 0.566667
333.568695 82.830521 0.000063 0.545098
353.512024 49.395107 13.751719 0.678431
353.446716 49.504238 12.105309 0.375490
353.446716 49.504234 10.513423 0.403554
353.446716 49.504242 8.940392 0.420956
353.446716 49.504234 7.382562 0.435784
353.512024 49.395115 5.846849 0.678431
353.446716 49.504238 4.298561 0.390441
353.446716 49.504234 2.765640 0.378186
353.446716 49.504234 1.234360 0.365931
350.326172 54.718933 -0.000015 0.535417
341.945343 68.723946 0.000124 0.528799
338.347961 74.735405 0.000075 0.518627
336.344208 78.083839 0.000088 0.515809
335.065033 80.221436 0.000082 0.533701
334.175903 81.707230 0.000097 0.548897
333.520874 82.801834 0.000093 0.531863
353.131042 49.396561 13.702690 0.678431
353.067627 49.504238 12.063512 0.400858
353.067627 49.504234 10.478209 0.412500
353.131042 49.396568 8.930220 0.635417
353.067627 49.504238 7.360300 0.393260
353.131042 49.396568 5.830800 0.678431
353.067627 49.504230 4.289056 0.407108
353.067627 49.504234 2.762474 0.377941
353.067627 49.504234 1.237526 0.390441
350.081757 54.573818 -0.000015 0.535539
341.798920 68.636978 0.000121 0.549510
338.243622 74.673431 0.000071 0.554902
336.263275 78.035774 0.000085 0.544730
334.999023 80.182274 0.000085 0.539828
334.120300 81.674217 0.000094 0.535539
333.472961 82.773384 0.000094 0.551716
352.753235 49.398003 13.654634 0.678431
352.691650 49.504242 12.022544 0.391422
352.691650 49.504238 10.443696 0.406495
352.753235 49.398003 8.901762 0.671078
352.691650 49.504238 7.338479 0.430270
352.753235 49.398006 5.815069 0.678431
352.691650 49.504234 4.279737 0.394608
352.691650 49.504234 2.759369 0.402941
352.691650 49.504234 1.240630 0.439093
349.836365 54.430450 -0.000015 0.535417
341.651947 68.551048 0.000118 0.531127
338.138855 74.612160 0.000066 0.540441
336.182037 77.988266 0.000080 0.533824
334.932800 80.143562 0.000083 0.539828
334.064514 81.641617 0.000096 0.558578
333.424805 82.745255 0.000093 0.532475
352.378510 49.399372 13.607550 0.678431
352.318726 49.504230 11.982396 0.401961
352.318726 49.504234 10.409871 0.407230
352.378510 49.399372 8.873880 0.678431
352.318726 49.504234 7.317092 0.402083
352.378510 49.399372 5.799657 0.678431
352.318726 49.504230 4.270605 0.396936
352.318726 49.504234 2.756327 0.396691
352.318726 49.504234 1.243673 0.406495
349.589966 54.288792 -0.000015 0.536274
341.504303 68.466202 0.000120 0.537500
338.033386 74.552078 0.000121 0.516912
336.100403 77.941391 0.000088 0.532843
334.866333 80.105240 0.000069 0.544608
334.008453 81.609398 0.000098 0.534926
333.376526 82.717430 0.000080 0.575735
352.006775 49.400803 13.561387 0.678431
351.948700 49.504223 11.943051 0.416299
351.948700 49.504223 10.376724 0.373652
352.006775 49.400799 8.846544 0.678431
351.948700 49.504219 7.296136 0.405392
352.006744 49.400803 5.784547 0.678431
351.948700 49.504234 4.261654 0.416789
351.948700 49.504238 2.753346 0.416789
351.948700 49.504238 1.246654 0.383701
349.342590 54.148838 -0.000015 0.535907
341.356110 68.382324 0.000116 0.537132
337.927795 74.492287 0.000116 0.535049
336.018494 77.895020 0.000084 0.545588
334.799530 80.067444 0.000064 0.549755
333.952271 81.577438 0.000066 0.544240
333.328033 82.689987 0.000079 0.545098
351.637939 49.402157 13.516168 0.678431
351.581604 49.504234 11.904492 0.415441
351.581604 49.504238 10.344241 0.402083
351.637939 49.402161 8.819764 0.678431
351.581604 49.504234 7.275599 0.398652
351.637939 49.402161 5.769743 0.678431
351.581604 49.504238 4.252884 0.394975
351.581604 49.504234 2.750426 0.445833
351.581604 49.504234 1.249575 0.437990
349.094238 54.010620 -0.000015 0.542770
341.207306 68.299538 0.000118 0.537623
337.821747 74.433243 0.000113 0.526471
335.936249 77.849228 0.000080 0.529779
334.732513 80.030106 0.000060 0.550490
333.895782 81.545998 0.000063 0.505760
333.279327 82.662872 0.000078 0.547181
351.271973 49.403564 13.471839 0.678431
351.217316 49.504238 11.866712 0.388971
351.217316 49.504234 10.312413 0.408701
351.271942 49.403572 8.793510 0.678431
351.217316 49.504238 7.255474 0.389706
351.271973 49.403564 5.755234 0.678431
351.217316 49.504238 4.244291 0.425858
351.217316 49.504230 2.747562 0.398529
351.217316 49.504234 1.252437 0.427451
348.844940 53.874153 -0.000015 0.534191
341.057983 68.217743 0.000115 0.531863
337.715302 74.374939 0.000109 0.544363
335.853699 77.804008 0.000076 0.544730
334.665161 79.993279 0.000064 0.586152
333.839081 81.514938 0.000059 0.543627
333.230438 82.636093 0.000074 0.511642
350.908813 49.404911 13.428420 0.678431
350.855774 49.504230 11.829700 0.404779
350.855774 49.504234 10.281228 0.415074
350.908813 49.404907 8.767801 0.678431
350.855774 49.504234 7.235759 0.404289
350.908813 49.404919 5.741019 0.678431
350.855774 49.504234 4.235870 0.417402
350.855774 49.504238 2.744758 0.407966
350.855774 49.504234 1.255242 0.392525
348.594696 53.739433 -0.000015 0.532721
340.908020 68.137032 0.000115 0.530025
337.608459 74.317398 0.000109 0.510907
335.770905 77.759209 0.000047 0.532721
334.597626 79.956902 0.000064 0.546814
333.782166 81.484314 0.000064 0.535539
333.181335 82.609673 0.000074 0.495098
350.548370 49.406254 13.385879 0.678431
350.496918 49.504238 11.793433 0.407353
350.496918 49.504230 10.250679 0.406495
350.548370 49.406258 8.742609 0.678431
350.496918 49.504238 7.216443 0.373897
350.496918 49.504242 5.718021 0.403309
350.496918 49.504238 4.227623 0.390074
350.496918 49.504234 2.742010 0.406740
350.496918 49.504234 1.257989 0.384804
348.343475 53.606445 -0.000014 0.539216
340.757568 68.057320 0.000112 0.540196
337.501099 74.260765 0.000129 0.532230
335.687744 77.715157 0.000043 0.544240
334.529785 79.920975 0.000058 0.541912
333.725006 81.454048 0.000060 0.528186
333.132080 82.583595 0.000077 0.518873
350.190552 49.407627 13.344193 0.678431
350.140686 49.504230 11.757913 0.390931
350.140686 49.504238 10.220750 0.409436
350.190552 49.407631 8.717922 0.678431
350.140686 49.504238 7.197521 0.405147
350.140686 49.504238 5.704536 0.414216
350.140686 49.504238 4.219542 0.414828
350.140686 49.504238 2.739319 0.404044
350.140686 49.504242 1.260681 0.405024
348.091400 53.475197 -0.000016 0.533701
340.606567 67.978668 0.000108 0.548774
337.393463 74.204704 0.000125 0.517892
335.604279 77.671677 0.000039 0.528064
334.461731 79.885567 0.000062 0.542034
333.667633 81.424278 0.000078 0.529534
333.082642 82.557861 0.000076 0.527206
349.805511 49.467823 13.286833 0.507353
349.787018 49.504234 11.723117 0.411275
349.787018 49.504234 10.191437 0.405392
349.805511 49.467819 8.683956 0.480515
349.787018 49.504230 7.178988 0.410294
349.787018 49.504230 5.691326 0.431005
349.787018 49.504230 4.211628 0.401838
349.787018 49.504230 2.736682 0.422794
349.787018 49.504230 1.263317 0.412745
347.838379 53.345753 -0.000016 0.532966
340.454987 67.901108 0.000108 0.538235
337.285431 74.149429 0.000125 0.531373
335.520264 77.629227 0.000111 0.518995
334.393433 79.850616 0.000063 0.565809
333.610107 81.394836 0.000079 0.559436
333.033081 82.532349 0.000043 0.578676
349.482697 49.410275 13.263387 0.678431
349.435852 49.504238 11.689042 0.414828
349.435852 49.504238 10.162728 0.410784
349.482697 49.410278 8.670069 0.678431
349.435852 49.504230 7.160839 0.448529
349.435852 49.504234 5.678389 0.423039
349.435852 49.504234 4.203878 0.418873
349.435852 49.504234 2.734102 0.421569
349.435852 49.504234 1.265899 0.400000
347.584442 53.218060 -0.000015 0.537990
340.302856 67.824562 0.000104 0.542034
337.177032 74.094879 0.000122 0.528922
335.436188 77.586922 0.000108 0.532108
334.324890 79.816116 0.000057 0.524510
333.552338 81.365776 0.000075 0.510294
332.983276 82.507309 0.000043 0.533333
349.132507 49.411587 13.224228 0.678431
349.087097 49.504234 11.655671 0.393750
349.087128 49.504227 10.134618 0.386765
349.132507 49.411591 8.646879 0.678431
349.087097 49.504227 7.143065 0.408088
349.087097 49.504234 5.665721 0.398039
349.087097 49.504234 4.196287 0.405882
349.087097 49.504230 2.731573 0.418995
349.087097 49.504230 1.268427 0.418015
347.329620 53.092144 -0.000015 0.540931
340.150177 67.749207 0.000111 0.533211
337.068207 74.041115 0.000123 0.546569
335.351776 77.545219 0.000108 0.537745
334.256073 79.782120 0.000057 0.553309
333.494476 81.337013 0.000046 0.566176
332.933258 82.482697 0.000064 0.586642
348.758270 49.467831 13.170615 0.497304
348.740753 49.504234 11.623000 0.425980
348.740753 49.504234 10.107093 0.415564
348.758270 49.467834 8.615130 0.485294
348.740753 49.504242 7.125660 0.425735
348.740753 49.504234 5.653317 0.414828
348.740753 49.504230 4.188855 0.407353
348.740753 49.504238 2.729098 0.407721
348.740753 49.504242 1.270903 0.382598
347.073975 52.967995 -0.000016 0.538235
339.997040 67.674782 0.000106 0.541054
336.959167 73.987846 0.000089 0.533824
335.267120 77.504082 0.000103 0.543750
334.187134 79.748428 0.000022 0.545711
333.436310 81.308762 0.000042 0.510662
332.883148 82.458336 0.000059 0.507108
348.439270 49.414188 13.148343 0.678431
348.396698 49.504234 11.591015 0.427451
348.396698 49.504227 10.080145 0.419853
348.439240 49.414196 8.601942 0.678431
348.396698 49.504234 7.108624 0.397794
348.396698 49.504238 5.641174 0.416054
348.396698 49.504238 4.181580 0.431618
348.396698 49.504234 2.726674 0.420221
348.396698 49.504234 1.273326 0.436642
346.817444 52.845661 -0.000015 0.538113
339.843323 67.601479 0.000106 0.535294
336.849640 73.935600 0.000089 0.534314
335.182159 77.463577 0.000104 0.519240
334.117889 79.715393 0.000021 0.565809
333.377960 81.280922 0.000040 0.560294
332.832825 82.434341 0.000060 0.540196
348.096100 49.415485 13.111591 0.678431
348.054932 49.504238 11.559702 0.440441
348.054932 49.504238 10.053764 0.402574
348.096100 49.415485 8.580179 0.678431
348.054932 49.504234 7.091947 0.392402
348.054932 49.504238 5.629288 0.435907
348.054932 49.504238 4.174458 0.405637
348.054932 49.504238 2.724302 0.400490
348.054932 49.504238 1.275698 0.387132
346.560059 52.725136 -0.000015 0.536274
339.688965 67.529633 0.000139 0.542647
336.739594 73.884384 0.000122 0.551838
335.096832 77.423889 0.000143 0.550735
334.048309 79.683006 0.000052 0.495833
333.319336 81.253670 0.000080 0.503676
332.782288 82.410828 0.000098 0.500858
347.715363 49.504230 13.051547 0.430025
347.715363 49.504227 11.529061 0.400368
347.715363 49.504230 10.027951 0.418750
347.731934 49.467834 8.550552 0.496936
347.715363 49.504230 7.075626 0.401716
347.715363 49.504234 5.617654 0.397059
347.715363 49.504238 4.167487 0.383088
347.715363 49.504238 2.721981 0.375980
347.715363 49.504238 1.278020 0.371078
346.301819 52.606384 -0.000014 0.538603
339.534241 67.458504 0.000141 0.539828
336.629303 73.833687 0.000122 0.529289
335.011292 77.384575 0.000145 0.531985
333.978424 79.651337 0.000131 0.531863
333.260590 81.226662 0.000079 0.519730
332.731628 82.387558 0.000100 0.530147
347.377930 49.504230 13.016771 0.427083
347.377930 49.504238 11.499072 0.425980
347.377930 49.504234 10.002687 0.396446
347.416504 49.418053 8.538031 0.678431
347.377930 49.504238 7.059653 0.392034
347.377930 49.504230 5.606269 0.405637
347.377930 49.504230 4.160666 0.395588
347.377930 49.504234 2.719709 0.406127
347.377930 49.504234 1.280292 0.433456
346.042786 52.489407 -0.000016 0.538480
339.379089 67.388382 0.000136 0.534804
336.518707 73.783707 0.000118 0.538358
334.925537 77.345825 0.000141 0.520588
333.908508 79.619736 0.000126 0.541912
333.201721 81.200043 0.000074 0.548897
332.680847 82.364594 0.000094 0.542034
347.042633 49.504230 12.982742 0.431250
347.042633 49.504242 11.469733 0.403064
347.042633 49.504230 9.977973 0.398407
347.079895 49.419315 8.517632 0.678431
347.042633 49.504230 7.044027 0.416544
347.042633 49.504234 5.595131 0.407230
347.042633 49.504234 4.153995 0.392402
347.042633 49.504234 2.717484 0.415074
347.042633 49.504234 1.282514 0.375368
345.782959 52.374271 -0.000016 0.540441
339.223419 67.319397 0.000136 0.559804
336.407776 73.734550 0.000119 0.526838
334.839478 77.307701 0.000142 0.511887
333.838348 79.588661 0.000127 0.520466
333.142578 81.173927 0.000093 0.572181
332.629944 82.341904 0.000062 0.555760
346.709351 49.504230 12.949459 0.421936
346.709351 49.504234 11.441039 0.413358
346.709351 49.504234 9.953794 0.415809
346.725006 49.467827 8.490046 0.460784
346.709351 49.504238 7.028740 0.406618
346.709351 49.504234 5.584236 0.394853
346.709351 49.504234 4.147467 0.369240
346.709351 49.504238 2.715312 0.382475
346.709351 49.504238 1.284689 0.410049
345.522278 52.260952 -0.000016 0.536397
339.067169 67.251724 0.000154 0.528922
336.296387 73.686340 0.000140 0.525735
334.753204 77.270073 0.000126 0.532966
333.767944 79.558151 0.000144 0.515686
333.083252 81.148224 0.000109 0.542157
332.578766 82.319740 0.000080 0.489583
346.378052 49.504230 12.916908 0.365686
346.378052 49.504230 11.412969 0.367647
346.378052 49.504230 9.930149 0.438480
346.412872 49.421833 8.478157 0.678431
346.378052 49.504238 7.013791 0.402451
346.378052 49.504227 5.573581 0.416422
346.378052 49.504234 4.141082 0.390809
346.378052 49.504234 2.713184 0.373774
346.378052 49.504234 1.286816 0.395588
345.260864 52.149456 -0.000016 0.531127
338.910797 67.184303 0.000098 0.541789
336.184814 73.638565 0.000120 0.543015
334.666687 77.233017 0.000104 0.551348
333.697418 79.527985 0.000130 0.540074
333.023834 81.122772 0.000087 0.543015
332.527557 82.297798 0.000060 0.528676
346.048767 49.504230 12.885078 0.403676
346.048767 49.504234 11.385525 0.391299
346.048737 49.504238 9.907026 0.408211
346.082367 49.423084 8.459068 0.678431
346.048767 49.504234 6.999172 0.407966
346.048767 49.504230 5.563161 0.394240
346.048737 49.504234 4.134840 0.402819
346.048737 49.504234 2.711106 0.415686
346.048737 49.504234 1.288895 0.393873
344.998657 52.039776 -0.000016 0.537255
338.753632 67.118813 0.000118 0.530637
336.072784 73.591873 0.000137 0.540931
334.579803 77.196808 0.000121 0.550490
333.626556 79.498459 0.000147 0.561765
332.964142 81.097900 0.000104 0.531863
332.476074 82.276367 0.000079 0.551961
345.721313 49.504234 12.853959 0.404412
345.736115 49.467815 11.367183 0.489338
345.721313 49.504234 9.884422 0.398897
345.736115 49.467823 8.433440 0.481250
345.721313 49.504238 6.984880 0.375490
345.721313 49.504242 5.552974 0.346201
345.721313 49.504238 4.128736 0.360784
345.721313 49.504238 2.709073 0.409191
345.721313 49.504238 1.290928 0.393505
344.735687 51.931938 -0.000016 0.535294
338.596191 67.053947 0.000095 0.536152
335.960602 73.545647 0.000115 0.547181
334.492767 77.160957 0.000100 0.534069
333.555634 79.469238 0.000125 0.563480
332.904327 81.073402 0.000111 0.567892
332.424530 82.255150 0.000060 0.594730
345.695007 48.752140 13.026298 0.400000
345.695007 48.752144 11.507292 0.393505
345.695007 48.752136 10.009613 0.401716
345.774994 48.551132 8.561758 0.678431
345.695007 48.752144 7.064030 0.405392
345.695007 48.752140 5.609389 0.393137
345.695007 48.752144 4.162537 0.409436
345.695007 48.752140 2.720331 0.410907
345.695007 48.752144 1.279670 0.407966
344.471954 51.825951 -0.000016 0.535907
338.438202 66.990456 0.000095 0.543995
335.847961 73.500404 0.000117 0.534191
334.405426 77.125854 0.000100 0.551838
333.484436 79.440620 0.000125 0.541912
332.844360 81.049309 0.000113 0.521446
332.372833 82.234360 0.000060 0.528676
345.774994 47.700859 13.278657 0.678431
345.695007 47.906036 11.677321 0.381373
345.695007 47.906029 10.152858 0.391789
345.774994 47.700867 8.679112 0.678309
345.695007 47.906036 7.154597 0.443873
345.695007 47.906029 5.673940 0.398652
345.695007 47.906036 4.201212 0.425000
345.695007 47.906033 2.733213 0.400000
345.695007 47.906033 1.266787 0.439338
344.207520 51.721821 -0.000015 0.534069
338.279785 66.927979 0.000089 0.552328
335.735046 73.455894 0.000112 0.528309
334.317871 77.091339 0.000095 0.525858
333.413055 79.412483 0.000121 0.524510
332.784210 81.025589 0.000108 0.545833
332.320923 82.214066 0.000096 0.499632
345.774963 46.819572 13.484613 0.678799
345.694977 47.029060 11.854034 0.407598
345.694977 47.029045 10.301736 0.399265
345.774963 46.819584 8.801077 0.678431
345.694977 47.029053 7.248724 0.440319
345.774963 46.819584 5.759415 0.669240
345.694977 47.029064 4.241407 0.399877
345.694977 47.029057 2.746602 0.399510
345.694977 47.029060 1.253398 0.414216
343.942352 51.619511 -0.000015 0.534069
338.120911 66.866707 0.000090 0.543750
335.621826 73.412201 0.000112 0.515686
334.230042 77.057495 0.000102 0.562623
333.341492 79.384682 0.000087 0.556250
332.723907 81.002319 0.000108 0.553186
332.268921 82.194008 0.000096 0.526593
345.774994 45.905457 13.698809 0.678431
345.695007 46.119415 12.037822 0.413480
345.695007 46.119415 10.456568 0.402451
345.775146 45.905003 8.927998 0.453064
345.695007 46.119419 7.346615 0.418382
345.774994 45.905468 5.829529 0.678431
345.695007 46.119415 4.283212 0.389093
345.695007 46.119415 2.760527 0.400000
345.695007 46.119415 1.239473 0.382475
343.676453 51.519081 -0.000014 0.536152
337.961639 66.806534 0.000091 0.539093
335.508392 73.369034 0.000078 0.536887
334.141998 77.024223 0.000101 0.539706
333.269745 79.357574 0.000088 0.542279
332.663422 80.979507 0.000114 0.552083
332.216766 82.174301 0.000097 0.575490
345.695007 45.175144 13.863437 0.412990
345.695007 45.175140 12.229103 0.403799
345.695007 45.175140 10.617716 0.400490
345.695007 45.175148 9.025414 0.395343
345.695007 45.175144 7.448501 0.412132
345.774963 44.956551 5.902507 0.678431
345.695007 45.175144 4.326720 0.407230
345.695007 45.175148 2.775019 0.406005
345.695007 45.175148 1.224981 0.408824
343.409882 51.420494 -0.000015 0.534559
337.801910 66.747467 0.000091 0.534069
335.394562 73.326935 0.000079 0.519363
334.053711 76.991592 0.000103 0.536765
333.197754 79.330963 0.000089 0.574020
332.602814 80.957077 0.000113 0.523775
332.164490 82.154984 0.000100 0.547794
345.695007 44.194149 14.094496 0.406985
345.695007 44.194141 12.428332 0.401225
345.774963 43.970737 10.828738 0.678431
345.695007 44.194149 9.162246 0.387990
345.695007 44.194145 7.554621 0.409314
345.774963 43.970730 5.978515 0.678431
345.695007 44.194145 4.372037 0.401103
345.695007 44.194145 2.790115 0.401838
345.695007 44.194149 1.209885 0.395833
343.142639 51.323719 -0.000017 0.538480
337.641815 66.689461 0.000086 0.536765
335.280487 73.285576 0.000072 0.523775
333.965210 76.959526 0.000098 0.525123
333.125610 79.304817 0.000084 0.551225
332.541992 80.935066 0.000110 0.549632
332.112061 82.136002 0.000098 0.554534
345.695007 43.174114 14.335350 0.419485
345.695007 43.174118 12.636003 0.436520
345.774994 42.945698 11.004556 0.678431
345.695007 43.174118 9.304876 0.399755
345.695007 43.174114 7.665236 0.371078
345.774994 42.945690 6.057745 0.678431
345.695007 43.174114 4.419275 0.437745
345.695007 43.174110 2.805849 0.420221
345.695007 43.174114 1.194150 0.408578
342.874756 51.228859 -0.000017 0.535539
