# This PCD file was generated using the MATLABÂ® pcwrite function
# from Computer Vision ToolboxÂ®.
# .PCD v.7 - Point Cloud Data file format
VERSION .7
FIELDS x y z intensity
SIZE 4 4 4 4
TYPE F F F F
COUNT 1 1 1 1
WIDTH 1190
HEIGHT 1
VIEWPOINT 0 0 0 1 0 0 0
POINTS 1190
DATA ascii
332.973938 203.833633 5.307032 0.678431
332.973938 203.833633 4.786077 0.678431
332.973938 203.833633 4.271290 0.678431
332.973938 203.833633 3.761481 0.678431
332.971954 203.791138 3.252008 0.750123
332.966858 203.683548 2.744839 0.715441
333.070160 205.873138 2.283972 0.678431
333.070160 205.873138 1.716028 0.678431
333.067078 205.808609 1.150647 0.630147
333.067078 205.808609 0.582385 0.677574
333.030518 205.032822 0.100410 0.634926
332.887756 202.006470 0.000044 0.545956
332.770386 199.518158 0.000024 0.542157
332.688782 197.788528 0.000037 0.528554
332.628693 196.514297 0.000031 0.513726
333.072815 203.682617 5.798884 0.693137
333.080963 203.832718 5.308006 0.678431
333.080963 203.832718 4.786896 0.678431
333.080963 203.832718 4.271960 0.678431
333.080963 203.832733 3.761999 0.678431
333.078644 203.790237 3.252377 0.760662
333.072815 203.682632 2.745058 0.676471
333.191406 205.872101 2.284056 0.678431
333.191406 205.872101 1.715944 0.678431
333.187897 205.807587 1.150397 0.632966
333.187897 205.807587 0.581967 0.677451
333.145630 205.026993 0.100410 0.648407
332.981781 202.001831 0.000026 0.552574
332.847015 199.514359 0.000006 0.551838
332.753357 197.785324 0.000020 0.537010
332.684387 196.511551 0.000010 0.554167
333.178833 203.681732 5.800188 0.695466
333.188019 203.831818 5.309142 0.678431
333.188019 203.831818 4.787854 0.678431
333.188019 203.831818 4.272740 0.678431
333.188019 203.831818 3.762605 0.678431
333.185394 203.789337 3.252807 0.735049
333.178833 203.681747 2.745313 0.715686
333.312744 205.871078 2.284154 0.678431
333.312744 205.871078 1.715846 0.678431
333.308807 205.806549 1.150105 0.641789
333.308807 205.806549 0.581480 0.652574
333.260712 205.020355 0.100410 0.631495
333.075745 201.996521 0.000009 0.536029
332.923645 199.510056 -0.000013 0.555270
332.817902 197.781693 0.000001 0.540319
332.740021 196.508408 -0.000004 0.494240
333.284943 203.680832 5.801679 0.726716
333.293945 203.813004 5.306565 0.867647
333.293945 203.813004 4.785683 0.842279
333.293945 203.813004 4.270970 0.838848
333.293945 203.813004 3.761232 0.841789
333.292267 203.788422 3.253298 0.763480
333.284943 203.680832 2.745606 0.712990
333.312012 204.077957 2.254871 0.654412
333.312012 204.077957 1.745129 0.692524
333.312012 204.077957 1.234839 0.684559
333.312012 204.077957 0.722906 0.631495
333.312012 204.077957 0.208217 0.641422
333.169647 201.990265 0.000036 0.536765
333.000214 199.504959 0.000015 0.553554
332.882416 197.777390 0.000030 0.546569
332.795654 196.504700 0.000023 0.539706
333.391144 203.679947 5.803359 0.731863
333.398315 203.775558 5.300107 0.693627
333.398315 203.775558 4.780242 0.707843
333.398315 203.775558 4.266535 0.730637
333.398315 203.775558 3.757792 0.737132
333.398315 203.775558 3.252867 0.711642
333.391144 203.679947 2.745935 0.742892
333.411163 203.946213 2.252837 0.651961
333.411163 203.946213 1.747163 0.697059
333.411163 203.946213 1.240947 0.705270
333.411163 203.946213 0.733099 0.730147
333.411163 203.946213 0.222519 0.662010
333.263550 201.983459 0.000049 0.533333
333.076752 199.499481 0.000009 0.522304
332.946899 197.772797 0.000025 0.561887
332.851227 196.500748 0.000014 0.536397
333.497406 203.679031 5.805223 0.696078
333.504395 203.764008 5.299419 0.632230
333.504395 203.764145 4.779689 0.637010
333.504517 203.765228 4.266245 0.653799
333.504395 203.763992 3.757425 0.638113
333.504395 203.763962 3.252602 0.645343
333.497406 203.679031 2.746301 0.697549
333.519897 203.952606 2.253081 0.671324
333.519897 203.952606 1.746919 0.692647
333.519897 203.952606 1.240215 0.715441
333.519897 203.952606 0.731877 0.544853
333.519897 203.952606 0.220804 0.695588
333.357361 201.975861 0.000078 0.513971
333.153229 199.493317 0.000037 0.513726
333.011322 197.767609 0.000051 0.567157
332.906799 196.496246 0.000043 0.566299
333.603821 203.678146 5.807276 0.706863
333.611420 203.763489 5.301283 0.648529
333.611389 203.763092 4.781160 0.679657
333.611420 203.763504 4.267344 0.655025
333.611359 203.762985 3.758361 0.645588
333.611359 203.762955 3.253270 0.655882
333.603821 203.678116 2.746702 0.706127
333.794617 205.815857 2.283844 0.714951
333.794617 205.815857 1.716156 0.731250
333.793427 205.802444 1.148521 0.605025
333.793427 205.802444 0.578836 0.613725
333.720551 204.985779 0.100410 0.606373
333.451172 201.967941 0.000060 0.544485
333.229706 199.486862 0.000018 0.515441
333.075745 197.762054 0.000055 0.520833
332.962341 196.491562 0.000024 0.548162
333.710785 203.682114 5.810743 0.697917
333.718689 203.763840 5.303500 0.655882
333.718628 203.763794 4.783092 0.676103
333.718689 203.763840 4.268865 0.670956
333.718628 203.763794 3.759594 0.654779
333.718628 203.763794 3.254151 0.644240
333.710754 203.682007 2.747377 0.698652
333.917877 205.832626 2.284303 0.761152
333.917877 205.832626 1.715697 0.769608
333.917877 205.832626 1.146480 0.790441
333.917877 205.832626 0.575431 0.728186
333.914886 205.801376 0.004917 0.655025
333.544891 201.959366 0.000042 0.531005
333.306122 199.479874 -0.000000 0.547426
333.140106 197.756165 0.000037 0.568015
333.017853 196.486481 0.000006 0.570711
334.039703 205.831589 6.354682 0.736152
334.027649 205.714920 5.729435 0.712500
334.039703 205.831604 5.163285 0.763603
334.039703 205.831604 4.578802 0.722672
334.039703 205.831589 3.999968 0.705024
334.039703 205.831589 3.425477 0.697794
334.037537 205.810394 2.853017 0.745588
334.039703 205.831604 2.284484 0.736397
334.039703 205.831604 1.715515 0.758824
334.039703 205.831589 1.145936 0.746201
334.039703 205.831589 0.574522 0.724020
334.039734 205.832016 -0.000016 0.547426
333.638550 201.949844 0.000070 0.521201
333.382446 199.472092 0.000028 0.544118
333.204437 197.749603 0.000066 0.553309
333.073303 196.480804 0.000044 0.546324
334.160614 205.820694 6.355187 0.745343
334.148804 205.713791 5.731975 0.714338
334.160614 205.820709 5.163654 0.729779
334.160614 205.820709 4.579104 0.754167
334.160614 205.820724 4.000202 0.735049
334.160614 205.820694 3.425642 0.705147
334.160614 205.820724 2.854163 0.717892
334.160614 205.820724 2.284518 0.758701
334.160614 205.820709 1.715482 0.766912
334.158173 205.798553 1.146932 0.927083
334.160614 205.820679 0.574358 0.755392
334.160431 205.819092 -0.000014 0.551103
333.732147 201.939941 0.000052 0.545466
333.458771 199.464035 0.000011 0.506373
333.268738 197.742828 0.000047 0.533701
333.128754 196.474945 0.000026 0.520588
334.285553 205.843643 6.364440 0.731005
334.270142 205.712631 5.734696 0.720098
334.285553 205.843658 5.170375 0.678431
334.285553 205.843658 4.584581 0.678431
334.285553 205.843658 4.004451 0.678431
334.285553 205.843628 3.428671 0.762623
334.283997 205.830811 2.855342 0.118627
334.285553 205.843643 2.285122 0.678431
334.285553 205.843643 1.714878 0.678431
334.275787 205.760696 1.148125 0.918750
334.285553 205.843628 0.571329 0.759069
334.281036 205.805359 -0.000013 0.537010
333.825653 201.929413 0.000034 0.523407
333.535034 199.455460 -0.000009 0.529289
333.332977 197.735596 0.000030 0.545588
333.184143 196.468704 0.000008 0.550368
334.407959 205.842590 6.367867 0.781005
334.391663 205.711502 5.737604 0.710784
334.407959 205.842621 5.172864 0.678431
334.407959 205.842621 4.586611 0.678431
334.407959 205.842621 4.006025 0.678431
334.407959 205.842590 3.429793 0.760049
334.406311 205.829315 2.855991 0.106495
334.407959 205.842621 2.285346 0.678431
334.407959 205.842621 1.714654 0.678431
334.397614 205.759430 1.147468 0.918260
334.407959 205.842590 0.570207 0.759804
334.401550 205.790771 -0.000014 0.522304
333.919067 201.917908 0.000063 0.544608
333.611176 199.446075 0.000021 0.497917
333.397156 197.727692 0.000058 0.522304
333.239471 196.461899 0.000037 0.537868
334.530609 205.841568 6.371514 0.758824
334.513428 205.710892 5.740816 0.720343
334.530609 205.841583 5.175512 0.678431
334.530609 205.841583 4.588770 0.678431
334.530609 205.841583 4.007699 0.678431
334.530609 205.841553 3.430986 0.738971
334.528809 205.827789 2.856682 0.127819
334.530609 205.841583 2.285584 0.678431
334.530609 205.841583 1.714416 0.678431
334.519653 205.758102 1.146771 0.883824
334.530609 205.841553 0.569013 0.746446
334.521912 205.775345 -0.000013 0.539828
334.012451 201.906067 0.000045 0.549632
333.687317 199.436417 0.000003 0.530515
333.461243 197.719559 0.000040 0.532843
333.294769 196.454895 0.000017 0.538480
334.653473 205.840530 6.375378 0.753922
334.635345 205.709747 5.744098 0.717770
334.653473 205.840546 5.178319 0.678431
334.653473 205.840530 4.591059 0.678431
334.653473 205.840546 4.009474 0.678431
334.653473 205.840515 3.432251 0.717892
334.651520 205.826233 2.857414 0.135294
334.653473 205.840530 2.285837 0.678431
334.653473 205.840530 1.714163 0.678431
334.641876 205.756775 1.146032 0.909804
334.653473 205.840515 0.567748 0.722426
334.642181 205.759064 -0.000012 0.538603
334.105743 201.893585 0.000027 0.548897
333.763367 199.426239 -0.000015 0.541299
333.525330 197.710999 0.000019 0.506618
333.349976 196.447495 -0.000001 0.543260
334.776550 205.839478 6.379465 0.784314
334.757477 205.708603 5.747572 0.696201
334.776581 205.839493 5.181287 0.678431
334.776581 205.839493 4.593479 0.678431
334.776581 205.839493 4.011351 0.678431
334.776550 205.839462 3.433589 0.733456
334.774414 205.824646 2.858187 0.144608
334.776581 205.839493 2.286103 0.678431
334.776581 205.839493 1.713897 0.678431
334.764313 205.755417 1.145249 0.912010
334.776550 205.839462 0.566410 0.762255
334.762329 205.741959 -0.000011 0.527696
334.198914 201.880035 0.000070 0.546446
333.839294 199.415115 0.000044 0.557721
333.589294 197.701691 0.000062 0.551348
333.405151 196.439484 0.000039 0.535417
334.899902 205.838440 6.383773 0.761397
334.879852 205.707443 5.751230 0.693137
334.899902 205.838455 5.184417 0.678431
334.899902 205.838455 4.596029 0.678431
334.899902 205.838455 4.013329 0.678431
334.899872 205.838425 3.434999 0.743750
334.897552 205.823029 2.859003 0.136642
334.899902 205.838440 2.286385 0.678431
334.899902 205.838455 1.713615 0.678431
334.886993 205.754013 1.144427 0.925735
334.899872 205.838425 0.565001 0.754289
334.882385 205.724014 -0.000010 0.529657
334.292023 201.866241 0.000051 0.545956
333.915192 199.403870 0.000025 0.531863
333.653259 197.692215 0.000043 0.543873
333.460297 196.431305 0.000023 0.542157
335.023468 205.837402 6.388301 0.760294
335.002533 205.706726 5.755177 0.690809
335.023468 205.837418 5.187708 0.678431
335.023468 205.837402 4.598711 0.678431
335.023468 205.837402 4.015409 0.678431
335.023468 205.837387 3.436481 0.777083
335.020874 205.821365 2.859860 0.111029
335.023468 205.837402 2.286681 0.678431
335.023468 205.837402 1.713319 0.678431
335.009888 205.752594 1.143562 0.931250
335.023468 205.837387 0.563518 0.762990
335.002289 205.705200 -0.000006 0.545098
334.385010 201.851822 0.000031 0.547917
333.991028 199.392090 0.000008 0.521569
333.717163 197.682495 -0.000016 0.550123
333.515350 196.422684 0.000025 0.507966
335.147278 205.836334 6.393055 0.744118
335.125427 205.705551 5.759220 0.701226
335.147278 205.836349 5.191160 0.678431
335.147278 205.836349 4.601527 0.678431
335.147278 205.836349 4.017592 0.678431
335.147278 205.836334 3.438038 0.692034
335.144501 205.819687 2.860760 0.103676
335.147278 205.836349 2.286992 0.678431
335.147278 205.836349 1.713008 0.678431
335.133026 205.751144 1.142654 0.913848
335.147278 205.836319 0.561962 0.733333
335.122070 205.685577 -0.000007 0.535907
334.477905 201.836395 0.000063 0.532966
334.066711 199.379532 0.000037 0.545588
333.780945 197.671906 0.000013 0.527451
333.570374 196.413544 0.000055 0.466544
335.271393 205.835281 6.398035 0.784314
335.248535 205.704391 5.763453 0.702819
335.271393 205.835297 5.194777 0.678431
335.271393 205.835297 4.604475 0.678431
335.271393 205.835297 4.019879 0.678431
335.271393 205.835281 3.439667 0.768750
335.268372 205.817978 2.861702 0.105760
335.271393 205.835297 2.287317 0.678431
335.271393 205.835297 1.712683 0.678431
335.256439 205.749649 1.141704 0.907721
335.271393 205.835266 0.560332 0.755760
335.241730 205.665176 -0.000012 0.534804
334.570740 201.820938 0.000003 0.529534
334.142365 199.366699 0.000020 0.552451
333.844696 197.661087 -0.000003 0.514338
333.625305 196.404236 0.000035 0.502328
335.395782 205.834244 6.403240 0.709926
335.371979 205.703232 5.767883 0.711152
335.395782 205.834259 5.198557 0.678431
335.395782 205.834259 4.607558 0.678431
335.395782 205.834244 4.022269 0.678431
335.395782 205.834244 3.441371 0.743873
335.392517 205.816238 2.862688 0.112010
335.395782 205.834244 2.287656 0.678431
335.395782 205.834244 1.712343 0.678431
335.380127 205.748138 1.140712 0.923774
335.395782 205.834229 0.558628 0.743137
335.361206 205.643875 -0.000011 0.545588
334.663452 201.804535 -0.000014 0.519608
334.217957 199.353317 0.000004 0.536274
333.908356 197.649826 -0.000021 0.500123
333.680206 196.394516 0.000020 0.568505
335.520477 205.833191 6.408672 0.717647
335.495758 205.702438 5.772586 0.682721
335.520477 205.833191 5.202503 0.678431
335.520477 205.833191 4.610775 0.678431
335.520477 205.833191 4.024765 0.678431
335.520477 205.833176 3.443149 0.754044
335.516968 205.814453 2.863716 0.111642
335.520477 205.833191 2.288012 0.678431
335.520477 205.833191 1.711988 0.678431
335.504120 205.746597 1.139677 0.926593
335.520477 205.833160 0.556851 0.726471
335.480530 205.621750 -0.000010 0.536274
334.755951 201.787155 0.000018 0.539461
334.293335 199.339172 0.000035 0.538235
333.971893 197.637894 0.000012 0.518750
333.734985 196.384232 0.000050 0.563358
335.645508 205.832123 6.414332 0.764338
335.619812 205.701279 5.777407 0.707475
335.645508 205.832138 5.206615 0.678431
335.645508 205.832138 4.614126 0.678431
335.645508 205.832138 4.027364 0.678431
335.645508 205.832108 3.445003 0.764951
335.641663 205.812637 2.864788 0.108824
335.645508 205.832138 2.288381 0.678431
335.645508 205.832138 1.711618 0.678431
335.628418 205.745010 1.138598 0.918260
335.645508 205.832108 0.554997 0.746324
335.599731 205.598801 -0.000010 0.520956
334.848389 201.769424 0.000009 0.524632
334.368713 199.324692 0.000027 0.551225
334.035370 197.625702 0.000004 0.545833
333.789734 196.373734 0.000042 0.575858
335.770844 205.831070 6.420223 0.752328
335.744171 205.700134 5.782425 0.726593
335.770844 205.831070 5.210895 0.678431
335.770844 205.831070 4.617615 0.678431
335.770844 205.831070 4.030069 0.678431
335.770844 205.831055 3.446931 0.762623
335.766693 205.810806 2.865902 0.125123
335.770844 205.831070 2.288766 0.678431
335.770844 205.831070 1.711234 0.678431
335.753021 205.743439 1.137475 0.875490
335.770844 205.831055 0.553069 0.741176
335.718750 205.574997 -0.000008 0.539461
334.940643 201.750793 0.000039 0.545833
334.443909 199.309448 0.000065 0.545466
334.098755 197.612915 0.000032 0.525980
333.844360 196.362656 0.000082 0.494853
335.896515 205.829987 6.426347 0.714338
335.868958 205.699265 5.787706 0.709436
335.896515 205.830002 5.215343 0.678431
335.896515 205.830002 4.621242 0.678431
335.896515 205.830002 4.032882 0.678431
335.896515 205.829987 3.448936 0.743260
335.892059 205.808929 2.867061 0.757721
335.896515 205.830002 2.289166 0.678431
335.896515 205.830002 1.710834 0.678431
335.878387 205.743942 1.136201 0.924265
335.896515 205.829971 0.551065 0.765196
335.837585 205.550385 -0.000009 0.543627
335.032837 201.731827 0.000019 0.530270
334.519073 199.293976 0.000049 0.524510
334.162048 197.599823 0.000030 0.549632
333.898926 196.351425 0.000064 0.526961
336.015869 205.798325 6.424860 0.678064
335.994019 205.698120 5.793127 0.734314
336.015869 205.798370 5.214270 0.784681
336.015869 205.798386 4.620368 0.735907
336.015869 205.798386 4.032204 0.726225
336.015839 205.798325 3.448448 0.740931
336.015869 205.798370 2.867829 0.759681
336.015869 205.798386 2.289070 0.761275
336.015869 205.798386 1.710930 0.734926
336.003784 205.742844 1.134963 0.934804
336.015839 205.798309 0.551551 0.702941
335.956238 205.524948 -0.000008 0.530637
335.124908 201.712204 0.000001 0.539828
334.594116 199.278000 0.000028 0.562990
334.225281 197.586349 0.000011 0.537500
333.953491 196.339798 0.000046 0.507108
336.138733 205.782578 6.427668 0.632598
336.119476 205.697128 5.798785 0.700368
336.138733 205.782578 5.216301 0.669118
336.138733 205.782578 4.622023 0.676593
336.138733 205.782578 4.033488 0.699877
336.138733 205.782578 3.449368 0.678431
336.138733 205.782578 2.868378 0.631495
336.138733 205.782578 2.289252 0.635294
336.138733 205.782578 1.710747 0.672672
336.138733 205.782578 1.131622 0.631127
336.138733 205.782578 0.550631 0.662255
336.074768 205.498718 -0.000015 0.536765
335.216766 201.691635 0.000032 0.543137
334.669006 199.261246 0.000060 0.530882
334.288361 197.572189 0.000048 0.534926
334.007843 196.327637 0.000074 0.549755
336.265198 205.781509 6.434477 0.615931
336.245300 205.696014 5.804619 0.698652
336.265198 205.781509 5.221248 0.630024
336.265198 205.781509 4.626055 0.675123
336.265198 205.781509 4.036615 0.703309
336.265198 205.781509 3.451598 0.641054
336.265198 205.781509 2.869714 0.639216
336.265198 205.781509 2.289698 0.614583
336.265198 205.781509 1.710302 0.666422
336.265198 205.781509 1.130286 0.636765
336.265198 205.781509 0.548402 0.662010
336.193054 205.471619 -0.000013 0.548652
335.308533 201.670731 0.000016 0.548407
334.743805 199.244171 0.000047 0.523162
334.351379 197.557831 0.000033 0.526471
334.062225 196.315353 0.000033 0.525858
336.392029 205.780426 6.441526 0.632966
336.371490 205.694901 5.810655 0.692770
336.392029 205.780426 5.226367 0.625000
336.392029 205.780426 4.630229 0.673652
336.392029 205.780426 4.039852 0.642157
336.392029 205.780426 3.453905 0.675613
336.392029 205.780426 2.871096 0.629657
336.392029 205.780426 2.290158 0.615564
336.392029 205.780426 1.709842 0.630882
336.392029 205.780426 1.128904 0.644118
336.392029 205.780426 0.546095 0.668627
336.311188 205.443695 -0.000013 0.532598
335.400177 201.649124 0.000007 0.542279
334.818542 199.226624 0.000025 0.540441
334.414337 197.543030 0.000014 0.551348
334.116486 196.302612 0.000011 0.546078
336.494171 205.677917 6.422635 0.628431
336.498138 205.693893 5.816920 0.699387
336.521759 205.789322 5.233532 0.800368
336.521759 205.789322 4.636070 0.739828
336.521759 205.789322 4.044382 0.727451
336.521759 205.789322 3.457134 0.715564
336.521759 205.789322 2.873030 0.777328
336.576080 206.008881 2.294503 0.747426
336.576080 206.008881 1.705497 0.748407
336.494202 205.678040 1.132603 0.627696
336.494293 205.678406 0.552236 0.647059
336.429108 205.414917 -0.000009 0.538113
335.491547 201.626541 0.000051 0.543015
334.893036 199.208389 0.000037 0.534191
334.477051 197.527496 0.000064 0.509314
334.170624 196.289246 0.000053 0.542279
336.713104 206.037720 6.523409 0.678431
336.625183 205.692810 5.823375 0.689583
336.652069 205.798233 5.240879 0.845588
336.652069 205.798233 4.642059 0.827083
336.662231 205.838165 4.053768 0.754289
336.662231 205.838150 3.463822 0.725000
336.649506 205.788239 2.874507 0.763235
336.713104 206.037720 2.295507 0.678431
336.713104 206.037720 1.704493 0.678431
336.713104 206.037720 1.112845 0.678431
336.621155 205.677017 0.549812 0.637377
336.546814 205.385345 -0.000009 0.562745
335.582855 201.603760 0.000030 0.512990
334.967499 199.189804 0.000017 0.531250
334.539795 197.511841 0.000043 0.543873
334.224701 196.275742 0.000034 0.572672
336.843140 206.036621 6.531299 0.678431
336.752686 205.691711 5.830041 0.686397
336.788177 205.827087 5.252161 0.678431
336.788177 205.827072 4.651257 0.678431
336.790802 205.837082 4.057350 0.761765
336.790802 205.837067 3.466375 0.759681
336.777710 205.787155 2.876033 0.764216
336.843140 206.036606 2.296022 0.678431
336.843140 206.036606 1.703978 0.678431
336.843140 206.036606 1.111297 0.678431
336.748596 205.676208 0.547259 0.641176
336.664337 205.355011 -0.000014 0.535907
335.674011 201.580261 0.000017 0.536029
335.041809 199.170654 0.000004 0.557966
334.602386 197.495712 0.000030 0.538358
334.278656 196.261795 0.000030 0.518505
336.884979 205.706940 6.454193 0.670343
336.880615 205.690643 5.836926 0.693505
336.917114 205.825974 5.258002 0.678431
336.917114 205.825974 4.656019 0.678431
336.919830 205.835983 4.061045 0.756250
336.919830 205.835968 3.469009 0.727574
336.906342 205.786072 2.877606 0.757108
336.973663 206.035507 2.296554 0.678431
336.973663 206.035507 1.703446 0.678431
336.884949 205.706818 1.126426 0.647181
336.876343 205.674820 0.544676 0.647059
336.781586 205.323776 -0.000013 0.539461
335.765015 201.556198 -0.000004 0.530760
335.116028 199.151047 -0.000018 0.539828
334.664886 197.479172 0.000012 0.504902
334.332550 196.247528 0.000013 0.516789
337.011963 205.700211 6.460953 0.660662
337.008972 205.689499 5.844002 0.696936
337.046539 205.824890 5.264025 0.678431
337.046539 205.824890 4.660928 0.678431
337.049316 205.834885 4.064854 0.735172
337.049316 205.834869 3.471724 0.785417
337.035461 205.784988 2.879228 0.757721
337.096344 206.004471 2.296594 0.776716
337.096344 206.004471 1.703406 0.771936
337.011963 205.700211 1.125094 0.655147
337.004669 205.673889 0.541974 0.647059
336.898682 205.291779 -0.000016 0.529534
335.855743 201.531143 0.000030 0.539828
335.189972 199.130615 0.000016 0.559436
334.727173 197.461899 0.000058 0.499020
334.386292 196.232697 0.000042 0.551103
337.140930 205.699142 6.469443 0.668015
337.137878 205.688461 5.851325 0.723774
337.176453 205.823792 5.270227 0.678431
337.176453 205.823776 4.665985 0.678431
337.179260 205.833786 4.068779 0.728554
337.179260 205.833755 3.474521 0.739216
337.165070 205.783875 2.880899 0.763358
337.236115 206.033279 2.297667 0.678431
337.236115 206.033279 1.702333 0.678431
337.140930 205.699142 1.123429 0.658946
337.133423 205.672714 0.539209 0.647059
337.015503 205.258926 -0.000015 0.538725
335.946350 201.505661 0.000029 0.546569
335.263855 199.109894 0.000008 0.533088
334.789429 197.444489 0.000042 0.526961
334.439972 196.217697 0.000023 0.535049
337.368103 206.032181 6.565370 0.678431
337.267242 205.687271 5.858823 0.718627
337.306854 205.822678 5.276615 0.678431
337.306854 205.822678 4.671191 0.678431
337.309753 205.832687 4.072819 0.717770
337.309753 205.832672 3.477401 0.718505
337.295166 205.782776 2.882620 0.773529
337.368103 206.032181 2.298249 0.678431
337.368103 206.032181 1.701752 0.678431
337.368103 206.032181 1.104615 0.678431
337.262695 205.671661 0.536352 0.653309
337.132141 205.225250 -0.000014 0.554657
336.036804 201.479599 0.000023 0.529412
335.337585 199.088638 0.000000 0.559804
334.851563 197.426559 0.000038 0.556373
334.493500 196.202179 0.000037 0.474142
337.500610 206.031052 6.574527 0.678431
337.397156 205.686295 5.866592 0.722181
337.437775 205.821564 5.283188 0.678431
337.437775 205.821564 4.676550 0.678431
337.440765 205.831558 4.076976 0.748529
337.440735 205.831543 3.480364 0.727941
337.425812 205.781677 2.884390 0.772794
337.500610 206.031036 2.298847 0.678431
337.500610 206.031052 1.701153 0.678431
337.500610 206.031036 1.102819 0.678431
337.392456 205.670532 0.533420 0.660539
337.248505 205.190765 -0.000012 0.559069
336.126953 201.452667 0.000056 0.534436
335.411133 199.066681 0.000034 0.525980
334.913483 197.408066 0.000071 0.548897
334.546936 196.186234 0.000069 0.525368
337.633667 206.029938 6.583945 0.678431
337.527557 205.685043 5.874519 0.724142
337.561035 205.793839 5.284880 0.861274
337.561035 205.793839 4.677930 0.818750
337.572296 205.830444 4.081253 0.740441
337.572266 205.830429 3.483412 0.747181
337.556946 205.780548 2.886211 0.773407
337.633667 206.029922 2.299462 0.678431
337.633667 206.029922 1.700538 0.678431
337.633667 206.029922 1.100972 0.678431
337.522888 205.669876 0.530361 0.659191
337.364655 205.155518 -0.000017 0.553309
336.217072 201.425415 0.000037 0.542770
335.484589 199.044479 0.000015 0.552574
334.975433 197.389542 0.000010 0.517279
334.600281 196.170105 0.000049 0.520588
337.745087 205.958481 6.575161 0.791667
337.658569 205.684128 5.882746 0.725368
337.690125 205.784195 5.290188 0.756863
337.690125 205.784195 4.682258 0.775123
337.690155 205.784332 4.080220 0.704167
337.690155 205.784332 3.482677 0.728554
337.688660 205.779434 2.888083 0.772672
337.745087 205.958481 2.298888 0.788480
337.745087 205.958481 1.701112 0.790686
337.745087 205.958481 1.102695 0.778064
337.653748 205.668732 0.527261 0.656740
337.480530 205.119431 -0.000017 0.540686
336.306976 201.397522 0.000023 0.524510
335.557861 199.021744 -0.000001 0.531985
335.037201 197.370392 -0.000004 0.517770
334.653503 196.153534 0.000046 0.492892
337.785126 205.667633 6.508804 0.647304
337.790070 205.682846 5.891116 0.722181
337.819427 205.773727 5.295527 0.750735
337.819427 205.773712 4.686609 0.774387
337.819427 205.773727 4.083578 0.704657
337.819427 205.773712 3.485070 0.780025
337.820709 205.777756 2.889977 0.714216
337.820709 205.777771 2.296447 0.725368
337.820709 205.777771 1.703553 0.727206
337.785004 205.667221 1.115730 0.647059
337.784882 205.666885 0.524135 0.647059
337.596161 205.082520 -0.000015 0.547672
336.396576 201.368683 0.000056 0.544485
335.630890 198.998123 0.000051 0.516054
335.098694 197.350571 0.000029 0.520833
334.706543 196.136459 0.000080 0.526716
337.953705 205.777100 6.547988 0.734191
337.922241 205.681992 5.899810 0.684559
337.953705 205.777100 5.303701 0.771936
337.953705 205.777100 4.693274 0.733333
337.953705 205.777100 4.088746 0.783701
337.953705 205.777084 3.488754 0.694975
337.953705 205.777084 2.891975 0.763971
337.953705 205.777100 2.297112 0.762868
337.953705 205.777100 1.702887 0.752574
337.953705 205.777100 1.108024 0.715319
337.953674 205.777084 0.511246 0.761520
337.711487 205.044708 -0.000003 0.548039
336.486023 201.339417 0.000061 0.544240
335.703827 198.974304 0.000047 0.504044
335.160187 197.330505 0.000026 0.499632
334.759521 196.119171 0.000076 0.582475
338.102295 205.820679 6.570149 0.770221
338.054901 205.680679 5.908634 0.701838
338.100647 205.815857 5.318871 0.678431
338.100647 205.815857 4.705642 0.678431
338.100647 205.815857 4.098338 0.678431
338.104034 205.825821 3.496454 0.753186
338.087128 205.775955 2.894003 0.735907
338.100647 205.815857 2.298477 0.678431
338.100647 205.815857 1.701523 0.678431
338.070099 205.725571 1.108610 0.912255
338.104004 205.825790 0.503547 0.728309
337.826599 205.006226 -0.000008 0.549387
336.575317 201.309677 0.000041 0.525613
335.776642 198.950058 0.000027 0.537132
335.221466 197.310013 0.000022 0.549265
334.812439 196.101669 0.000026 0.576471
338.233795 205.811157 6.578562 0.746569
338.188110 205.679306 5.917673 0.692770
338.235016 205.814697 5.326595 0.678431
338.235016 205.814697 4.711938 0.678431
338.235016 205.814697 4.103221 0.678431
338.238464 205.824677 3.499937 0.733946
338.221283 205.775131 2.896099 0.758211
338.235016 205.814697 2.299172 0.678431
338.235016 205.814697 1.700828 0.678431
338.229401 205.798584 1.102681 0.697426
338.238464 205.824661 0.500064 0.706005
337.941406 204.966904 -0.000006 0.540319
336.664429 201.279266 0.000027 0.543382
335.849274 198.925293 0.000012 0.525980
335.282654 197.289108 0.000013 0.517524
334.865204 196.083664 0.000008 0.537990
338.365692 205.801407 6.587181 0.740319
338.322205 205.678574 5.927094 0.699020
338.369995 205.813568 5.334517 0.678431
338.369995 205.813568 4.718396 0.678431
338.369995 205.813568 4.108230 0.678431
338.373535 205.823532 3.503509 0.798529
338.355621 205.772980 2.898180 0.771446
338.369995 205.813568 2.299884 0.678431
338.369995 205.813568 1.700116 0.678431
338.363586 205.795410 1.100650 0.712255
338.372955 205.821976 0.496627 0.768260
338.055969 204.926773 -0.000005 0.534191
336.753204 201.247971 0.000059 0.496324
335.921600 198.899689 0.000056 0.547304
335.343628 197.267609 0.000043 0.547181
334.917786 196.065140 0.000038 0.539828
338.498047 205.791473 6.596011 0.707475
338.456696 205.677200 5.936607 0.693260
338.505646 205.812408 5.342642 0.678431
338.505646 205.812408 4.725019 0.678431
338.505646 205.812408 4.113366 0.678431
338.509277 205.822388 3.507172 0.753799
338.490601 205.770782 2.900314 0.746324
338.505646 205.812408 2.300615 0.678431
338.505646 205.812408 1.699385 0.678431
338.498322 205.792191 1.098568 0.751471
338.507477 205.817474 0.493257 0.733333
338.170227 204.885864 -0.000005 0.533456
336.841888 201.216461 0.000022 0.534069
335.993866 198.873856 0.000049 0.502451
335.404480 197.245804 0.000048 0.529167
334.970276 196.046310 0.000045 0.568260
338.630890 205.781296 6.605054 0.735662
338.592285 205.676971 5.946626 0.705637
338.641968 205.811249 5.350968 0.678431
338.641968 205.811249 4.731808 0.678431
338.641968 205.811249 4.118630 0.678431
338.645660 205.821228 3.510926 0.711152
338.626190 205.768570 2.902500 0.665074
338.641968 205.811249 2.301364 0.678431
338.641968 205.811249 1.698637 0.678431
338.633698 205.788895 1.096433 0.777696
338.642548 205.812866 0.489805 0.737132
338.284210 204.844193 -0.000009 0.532843
336.930328 201.184250 0.000003 0.526961
336.065948 198.847595 0.000031 0.541054
335.465210 197.223663 0.000030 0.510907
335.022644 196.027222 0.000030 0.523529
338.764160 205.770905 6.614310 0.733824
338.729889 205.680267 5.957704 0.708088
338.778961 205.810089 5.359501 0.678431
338.778961 205.810089 4.738763 0.678431
338.778961 205.810089 4.124025 0.678431
338.782745 205.820068 3.514773 0.690074
338.762421 205.766312 2.904741 0.699877
338.778961 205.810089 2.302131 0.678431
338.778961 205.810089 1.697869 0.678431
338.769714 205.785553 1.094247 0.726225
338.778229 205.808182 0.486268 0.741544
338.397888 204.801682 -0.000009 0.520343
337.018402 201.151031 0.000040 0.543873
336.137726 198.820419 0.000088 0.558824
335.525726 197.200867 0.000065 0.587868
335.074768 196.007584 0.000062 0.525000
338.907135 205.784271 6.630214 0.738235
338.903564 205.774918 5.990180 0.740319
338.916687 205.808929 5.368240 0.678431
338.916687 205.808929 4.745889 0.678431
338.916687 205.808929 4.129551 0.678431
338.920502 205.818893 3.518714 0.727941
338.899353 205.764023 2.907036 0.699142
338.916687 205.808929 2.302917 0.678431
338.916687 205.808929 1.697083 0.678431
338.906342 205.782181 1.092008 0.738725
338.914551 205.803406 0.482647 0.745098
338.511292 204.758362 -0.000007 0.541667
337.106384 201.117584 0.000020 0.545466
336.209412 198.793152 0.000069 0.533946
335.586090 197.177795 0.000064 0.518015
335.126862 195.987671 0.000065 0.548897
339.034485 205.755341 6.635048 0.922794
339.047119 205.787491 6.003975 0.722426
339.055115 205.807755 5.377192 0.678431
339.055115 205.807739 4.753185 0.678431
339.055115 205.807755 4.135210 0.678431
339.059021 205.817719 3.522750 0.752819
339.036987 205.761703 2.909385 0.722426
339.055115 205.807755 2.303722 0.678431
339.055115 205.807755 1.696278 0.678431
338.928131 205.485443 1.105200 0.917892
339.051483 205.798538 0.478941 0.711152
338.624359 204.714264 -0.000006 0.534069
337.194092 201.083435 0.000015 0.556495
336.280945 198.765274 0.000066 0.535294
335.646332 197.154343 0.000061 0.549142
335.178802 195.967453 0.000059 0.537500
339.159271 205.719391 6.638237 0.893260
339.191833 205.800415 6.018124 0.746324
339.194305 205.806580 5.386358 0.678431
339.194305 205.806580 4.760658 0.678431
339.194305 205.806580 4.141005 0.678431
339.198303 205.816544 3.526883 0.760907
339.193420 205.804413 2.914177 0.693505
339.194305 205.806580 2.304546 0.678431
339.194305 205.806580 1.695454 0.678431
339.181671 205.775192 1.087369 0.751225
339.189056 205.793564 0.475147 0.736887
338.737152 204.669388 -0.000005 0.529044
337.281586 201.048676 0.000006 0.554779
336.352264 198.737030 0.000044 0.539951
335.706451 197.130524 0.000040 0.721446
335.230591 195.946869 0.000051 0.509069
339.297119 205.714859 6.650177 0.931863
339.337646 205.813690 6.032629 0.732966
339.334259 205.805389 5.395739 0.678431
339.334259 205.805389 4.768305 0.678431
339.334259 205.805389 4.146935 0.678431
339.338318 205.815353 3.531112 0.708824
339.322723 205.777283 2.915332 0.700368
339.334259 205.805389 2.305390 0.678431
339.334259 205.805389 1.694610 0.678431
339.320404 205.771622 1.084969 0.724877
339.327332 205.788513 0.471266 0.746936
338.849609 204.623749 -0.000010 0.548039
337.368683 201.013016 0.000046 0.553922
336.423370 198.708160 0.000041 0.548529
335.766266 197.105988 0.000088 0.527574
335.282196 195.925751 0.000092 0.523529
339.436859 205.713074 6.663158 0.936275
339.479126 205.814163 6.044416 0.761397
339.474945 205.804199 5.405337 0.678431
339.474945 205.804199 4.776131 0.678431
339.474945 205.804199 4.153005 0.678431
339.479126 205.814163 3.535440 0.778799
339.451843 205.748932 2.916474 0.687010
339.474945 205.804199 2.306253 0.678431
339.474945 205.804199 1.693747 0.678431
339.459808 205.767975 1.082512 0.766299
339.466248 205.783371 0.467296 0.742402
338.961731 204.577286 -0.000009 0.553922
337.455658 200.977036 0.000040 0.516299
336.494263 198.678818 0.000039 0.545098
335.825989 197.081268 0.000085 0.522426
335.333740 195.904572 0.000051 0.513848
339.616486 205.802994 6.701420 0.678431
339.620728 205.812958 6.056078 0.751961
339.616486 205.802994 5.415158 0.678431
339.616486 205.802994 4.784136 0.678431
339.616486 205.802994 4.159213 0.678431
339.620758 205.812958 3.539868 0.746691
339.580841 205.719421 2.917604 0.675490
339.616486 205.802994 2.307136 0.678431
339.616486 205.802994 1.692864 0.678431
339.600006 205.764282 1.080000 0.724142
339.605896 205.778122 0.463237 0.728676
339.073517 204.530060 -0.000008 0.543260
337.542389 200.940399 0.000040 0.544240
336.565002 198.649063 0.000018 0.542402
335.885620 197.056335 0.000033 0.545711
335.385101 195.882935 0.000034 0.523897
339.758850 205.801788 6.715249 0.678431
339.763184 205.811752 6.068008 0.764583
339.758850 205.801788 5.425202 0.678431
339.758850 205.801788 4.792325 0.678431
339.758850 205.801788 4.165564 0.678431
339.763184 205.811752 3.544397 0.772794
339.709656 205.688629 2.918718 0.692524
339.758850 205.801788 2.308040 0.678431
339.758850 205.801788 1.691960 0.678431
339.740906 205.760529 1.077432 0.753676
339.746246 205.772797 0.459087 0.752328
339.184998 204.482025 -0.000006 0.532966
337.628845 200.903259 0.000025 0.551716
336.635468 198.618683 0.000021 0.507843
335.945038 197.030838 0.000018 0.518995
335.436340 195.860962 0.000019 0.502696
339.885345 205.762848 6.719051 0.737010
339.885345 205.762833 6.068939 0.727206
339.885406 205.762985 5.427991 0.722917
339.885406 205.762985 4.794599 0.727083
339.885406 205.762985 4.167328 0.745588
339.885406 205.762985 3.544763 0.746446
339.838257 205.656616 2.919817 0.682966
339.885345 205.762848 2.308288 0.782966
339.885345 205.762848 1.691712 0.762745
339.882629 205.756683 1.074805 0.761765
339.887329 205.767349 0.454844 0.776716
339.296143 204.433243 -0.000006 0.523162
337.714905 200.865112 0.000075 0.534559
336.705627 198.587601 0.000070 0.533211
336.004150 197.004623 0.000068 0.523407
335.487305 195.838333 0.000076 0.541789
340.023712 205.749649 6.730185 0.638358
340.023712 205.749649 6.078545 0.658088
340.023712 205.749649 5.436053 0.653064
340.023712 205.749649 4.801170 0.616422
340.023712 205.749649 4.172425 0.634191
340.023712 205.749649 3.548396 0.656250
339.987061 205.668472 2.923333 0.711642
340.023712 205.749649 2.309015 0.619608
340.023712 205.749649 1.690985 0.680637
340.023712 205.749649 1.072291 0.637010
340.023712 205.749649 0.451604 0.635907
339.406921 204.383713 -0.000010 0.532966
337.800873 200.826782 0.000059 0.515564
336.775696 198.556335 0.000057 0.552696
336.063141 196.978241 0.000065 0.558088
335.538208 195.815643 0.000061 0.557230
340.168243 205.748428 6.744921 0.623775
340.168243 205.748428 6.091249 0.650613
340.168243 205.748444 5.446757 0.623897
340.168243 205.748444 4.809897 0.638235
340.168243 205.748444 4.179193 0.634191
340.168243 205.748444 3.553220 0.645221
340.130554 205.666473 2.926168 0.693995
340.168243 205.748444 2.309978 0.628799
340.168243 205.748444 1.690022 0.696446
340.168243 205.748444 1.069401 0.655882
340.168243 205.748444 0.446780 0.642157
339.517395 204.333389 -0.000010 0.537377
337.886566 200.787796 0.000050 0.540686
336.845551 198.524567 0.000048 0.526103
336.122040 196.951523 0.000044 0.536152
335.588928 195.792542 0.000054 0.536887
340.317047 205.754288 6.761945 0.782721
340.317047 205.754288 6.105929 0.754534
340.318359 205.757156 5.459699 0.761397
340.318359 205.757156 4.820447 0.764093
340.302704 205.723740 4.183130 0.639583
340.302673 205.723648 3.556018 0.649510
340.274933 205.664444 2.929064 0.721691
340.316986 205.754166 2.311088 0.745221
340.316986 205.754166 1.688912 0.736520
340.316986 205.754166 1.066068 0.730760
340.316742 205.753647 0.441267 0.761152
339.627472 204.282272 -0.000008 0.532966
337.971954 200.748260 0.000037 0.529167
336.915161 198.492325 0.000035 0.543995
336.180634 196.924301 0.000046 0.523162
335.639496 195.769119 0.000042 0.515441
340.488617 205.805756 6.791964 0.743137
340.488617 205.805725 6.131808 0.720098
340.467224 205.760895 5.471890 0.678431
340.583618 206.004913 4.870490 0.678431
340.424469 205.671326 4.183666 0.632108
340.424469 205.671326 3.556408 0.664951
340.420227 205.662384 2.932022 0.716667
340.469604 205.765869 2.312329 0.855515
340.469299 205.765259 1.687683 0.808333
340.488617 205.805740 1.060174 0.767402
340.462036 205.750000 0.436445 0.665564
339.737183 204.230377 -0.000005 0.535784
338.056915 200.707718 0.000085 0.537990
336.984406 198.459198 0.000099 0.547794
336.238983 196.896469 0.000098 0.524142
335.689911 195.745316 0.000035 0.518137
340.636475 205.804489 6.807744 0.729779
340.636475 205.804474 6.145412 0.800368
340.614716 205.759644 5.483322 0.678431
340.733185 206.003662 4.879941 0.678431
340.733185 206.003662 4.233515 0.678431
340.733185 206.003662 3.591938 0.678431
340.566437 205.660278 2.935044 0.689951
340.631622 205.794495 2.313900 0.678431
340.617340 205.765045 1.686635 0.839216
340.636475 205.804489 1.057080 0.772549
340.608246 205.746307 0.431519 0.736029
339.846558 204.177750 -0.000008 0.555515
338.141876 200.667191 0.000039 0.540074
337.053589 198.425995 0.000086 0.525245
336.297272 196.868439 0.000093 0.495221
335.740173 195.721191 0.000023 0.531863
340.785309 205.803238 6.823862 0.730270
340.785278 205.803207 6.159310 0.722181
340.763153 205.758392 5.495000 0.678431
340.883759 206.002380 4.889598 0.678431
340.883759 206.002380 4.241003 0.678431
340.883759 206.002380 3.597276 0.678431
340.713715 205.658386 2.938145 0.725368
340.780396 205.793243 2.314953 0.678431
340.766357 205.764862 1.685565 0.821324
340.785309 205.803223 1.053918 0.709681
340.755768 205.743454 0.426406 0.642524
339.955536 204.124329 -0.000004 0.527819
338.226410 200.625824 0.000032 0.523407
337.122498 198.392242 0.000082 0.533456
336.355316 196.840012 0.000089 0.543260
335.790222 195.696655 0.000028 0.555025
340.935150 205.801956 6.840326 0.720711
340.935150 205.801941 6.173507 0.735539
340.912628 205.757126 5.506928 0.678431
341.020325 205.971207 4.894499 0.744240
340.864624 205.661697 4.204947 0.601103
340.864624 205.661697 3.571576 0.656495
340.862244 205.656982 2.941338 0.725368
340.930176 205.791977 2.316028 0.678431
340.916412 205.764679 1.684472 0.852941
340.935150 205.801956 1.050690 0.677206
340.905090 205.742188 0.421035 0.629412
340.064178 204.070206 -0.000008 0.537868
338.310699 200.583923 0.000016 0.533211
337.191284 198.358292 0.000027 0.567402
336.413208 196.811234 0.000073 0.558088
335.840149 195.671921 -0.000017 0.516912
341.086060 205.800674 6.857141 0.750368
341.086029 205.800659 6.188006 0.758701
341.063141 205.755844 5.519112 0.678431
341.187958 205.999786 4.909533 0.678431
341.017548 205.666779 4.213429 0.596936
341.017548 205.666779 3.577622 0.677206
341.011780 205.655548 2.944600 0.699387
341.080963 205.790695 2.317126 0.678431
341.067566 205.764511 1.683355 0.829167
341.086060 205.800659 1.047392 0.747794
341.055481 205.740921 0.415550 0.646446
340.172394 204.015274 -0.000005 0.534926
338.394653 200.541351 0.000013 0.550735
337.259766 198.323639 0.000013 0.577574
336.470947 196.782181 0.000028 0.537623
335.889893 195.646759 -0.000031 0.557721
341.238007 205.799393 6.874311 0.733946
341.237976 205.799377 6.202812 0.766789
341.214661 205.754562 5.531552 0.678431
341.341675 205.998505 4.919818 0.678431
341.341675 205.998505 4.264441 0.678431
341.341675 205.998505 3.613981 0.678431
341.162384 205.654114 2.947930 0.690074
341.232788 205.789413 2.318247 0.678431
341.219757 205.764374 1.682215 0.846201
341.238007 205.799393 1.044024 0.705760
341.206909 205.739639 0.409948 0.646446
340.280243 203.959579 -0.000002 0.523284
338.478149 200.497894 0.000060 0.518015
337.327759 198.288132 0.000078 0.517402
336.528290 196.752335 0.000076 0.543260
335.939331 195.620987 0.000029 0.581250
341.391022 205.798080 6.891841 0.748897
341.391022 205.798065 6.217927 0.792279
341.367279 205.753265 5.544253 0.678431
341.496429 205.997177 4.930320 0.678431
341.320068 205.664063 4.229223 0.599387
341.320068 205.664063 3.588879 0.651348
341.314392 205.653320 2.951367 0.706127
341.385742 205.788116 2.319391 0.678431
341.373108 205.764236 1.681050 0.820833
341.391022 205.798080 1.040586 0.691299
341.359406 205.738327 0.404231 0.679044
340.387695 203.903214 -0.000009 0.526961
338.561523 200.454193 0.000049 0.522059
337.395752 198.252518 0.000064 0.521691
336.585693 196.722595 -0.000001 0.537868
335.988708 195.595123 0.000014 0.512255
341.532990 205.774170 6.903311 0.683946
341.532990 205.774170 6.227819 0.721691
341.521027 205.751968 5.557221 0.678431
341.610443 205.917984 4.927921 0.793137
341.610443 205.917984 4.270724 0.804902
341.610443 205.917984 3.618460 0.780147
341.467163 205.651901 2.954840 0.703431
341.523712 205.756943 2.320005 0.827451
341.527557 205.764114 1.679861 0.814583
341.533081 205.774307 1.038329 0.734926
341.513000 205.737015 0.398392 0.647304
340.494781 203.846024 -0.000007 0.524632
338.644531 200.409851 0.000053 0.543750
337.463470 198.216431 0.000053 0.544485
336.642761 196.692169 -0.000010 0.582475
336.037872 195.568848 0.000020 0.536152
341.673187 205.745667 6.913792 0.759069
341.673187 205.745667 6.236856 0.764216
341.673187 205.745682 5.569428 0.773529
341.673187 205.745667 4.909901 0.773284
341.622284 205.652679 4.244551 0.631005
341.622253 205.652649 3.599802 0.654167
341.621063 205.650436 2.958385 0.706127
341.673187 205.745667 2.321011 0.731863
341.673187 205.745667 1.678990 0.782966
341.673187 205.745667 1.036281 0.741912
341.667755 205.735733 0.392431 0.653922
340.601440 203.788071 -0.000002 0.533211
338.727295 200.364960 0.000049 0.541544
337.530914 198.179810 0.000055 0.561152
336.699524 196.661316 -0.000005 0.532598
336.086823 195.542221 0.000026 0.537623
341.829132 205.744263 6.932359 0.729044
341.829132 205.744263 6.252865 0.733824
341.829132 205.744263 5.582914 0.727083
341.829132 205.744263 4.920896 0.777819
341.829132 205.744263 4.265277 0.725123
341.829132 205.744263 3.614576 0.730882
341.776123 205.648972 2.962003 0.714706
341.829132 205.744263 2.322223 0.759436
341.829132 205.744263 1.677777 0.764216
341.829132 205.744263 1.032639 0.715074
341.823669 205.734375 0.386350 0.655882
340.707703 203.729462 -0.000010 0.521814
338.809692 200.319534 0.000039 0.532108
337.598114 198.142761 0.000049 0.540809
336.756104 196.630020 0.000005 0.499020
336.135681 195.515335 0.000016 0.562010
342.008850 205.782730 6.962792 0.678431
342.014496 205.792679 6.281577 0.763603
342.008850 205.782730 5.605021 0.678431
342.008850 205.782730 4.938918 0.678431
342.008850 205.782730 4.279253 0.678431
342.014496 205.792679 3.625476 0.746569
341.932678 205.648071 2.965729 0.722181
342.008850 205.782730 2.324212 0.678431
342.008850 205.782730 1.675788 0.678431
342.014496 205.792694 1.026108 0.760662
341.980743 205.733063 0.380139 0.643505
340.813538 203.670044 -0.000005 0.553309
338.891602 200.273132 0.000097 0.533333
337.664825 198.104874 0.000114 0.542525
336.812408 196.598206 0.000051 0.536274
336.184235 195.487991 0.000032 0.585662
342.167633 205.781372 6.982206 0.678431
342.173370 205.791336 6.298326 0.723897
342.167633 205.781372 5.619123 0.678431
342.167633 205.781372 4.950415 0.678431
342.167633 205.781372 4.288170 0.678431
342.173370 205.791336 3.631835 0.741299
342.090149 205.646606 2.969499 0.698162
342.167633 205.781372 2.325479 0.678431
342.167633 205.781372 1.674520 0.678431
342.173370 205.791351 1.022298 0.751225
342.139069 205.731689 0.373806 0.664951
340.918976 203.609940 -0.000009 0.539461
338.973389 200.226547 0.000086 0.511275
337.731537 198.066910 0.000103 0.538358
336.868652 196.566391 -0.000004 0.542034
336.232666 195.460419 0.000018 0.532230
342.327667 205.780014 7.002017 0.678431
342.333496 205.789978 6.315418 0.740319
342.318817 205.764893 5.630326 0.117770
342.327698 205.780029 4.962147 0.678431
342.327667 205.780014 4.297268 0.678431
342.333496 205.789978 3.638324 0.714216
342.248871 205.645126 2.973347 0.725490
342.327667 205.780014 2.326774 0.678431
342.327667 205.780014 1.673226 0.678431
342.333527 205.789993 1.018410 0.694975
342.298676 205.730392 0.367335 0.625123
341.023956 203.549042 -0.000006 0.540196
339.054840 200.179382 0.000079 0.552941
337.798096 198.028763 0.000037 0.545221
336.924591 196.533966 -0.000003 0.551716
336.280914 195.432434 0.000025 0.505760
342.489014 205.778656 7.022233 0.678431
342.494904 205.788620 6.332859 0.739706
342.472870 205.751465 5.642446 0.769975
342.489014 205.778656 4.974118 0.678431
342.489014 205.778656 4.306552 0.678431
342.494904 205.788620 3.644946 0.713726
342.408813 205.643616 2.977272 0.706985
342.489014 205.778656 2.328095 0.678431
342.489014 205.778656 1.671906 0.678431
342.494904 205.788620 1.014443 0.756495
342.459503 205.729004 0.360739 0.615319
341.128571 203.487488 -0.000013 0.536029
339.135925 200.131546 0.000088 0.524632
337.864227 197.989853 0.000028 0.560907
336.980286 196.501114 0.000006 0.521201
336.328918 195.404114 0.000038 0.537990
342.651642 205.777283 7.042857 0.678431
342.657623 205.787231 6.350651 0.793627
342.627625 205.737488 5.654725 0.734804
342.651642 205.777283 4.986332 0.678431
342.651642 205.777283 4.316025 0.678431
342.657623 205.787231 3.651700 0.737745
342.570374 205.642609 2.981305 0.702083
342.651642 205.777283 2.329442 0.678431
342.651642 205.777283 1.670558 0.678431
342.657623 205.787247 1.010396 0.729167
342.621674 205.727600 0.354009 0.613358
341.232697 203.425125 -0.000008 0.531373
339.216705 200.083252 0.000084 0.512010
337.930206 197.950653 -0.000017 0.527941
337.035736 196.467941 0.000003 0.516544
336.376740 195.375504 0.000029 0.578799
342.815643 205.775879 7.063899 0.678431
342.821716 205.785828 6.368806 0.783946
342.789856 205.733826 5.669492 0.748529
342.815643 205.775879 4.998793 0.678431
342.815643 205.775879 4.325689 0.678431
342.821716 205.785843 3.658593 0.740074
342.733002 205.641098 2.985392 0.693137
342.815643 205.775879 2.330817 0.678431
342.815643 205.775879 1.669183 0.678431
342.821716 205.785843 1.006266 0.758701
342.785187 205.726196 0.347143 0.624877
341.336426 203.362106 -0.000012 0.539338
339.297272 200.034622 0.000036 0.545221
337.995789 197.910812 -0.000026 0.529657
337.091003 196.434341 0.000004 0.516789
336.424347 195.346527 0.000035 0.559191
342.980988 205.774490 7.085370 0.678431
342.987183 205.784439 6.387328 0.746569
342.950531 205.725540 5.683570 0.720956
342.980988 205.774490 5.011507 0.678431
342.980988 205.774490 4.335549 0.678431
342.987183 205.784454 3.665625 0.778799
342.897003 205.639572 2.989563 0.731985
342.980988 205.774490 2.332219 0.678431
342.980988 205.774490 1.667781 0.678431
342.987183 205.784454 1.002054 0.754167
342.950073 205.724808 0.340135 0.647181
341.439667 203.298309 -0.000010 0.526961
339.377380 199.985184 0.000032 0.511887
338.061035 197.870438 -0.000013 0.533701
337.145966 196.400314 0.000018 0.530025
336.471863 195.317368 -0.000000 0.537500
343.147766 205.773071 7.107271 0.678431
343.154083 205.783020 6.406224 0.777083
343.074707 205.657501 5.685093 0.689461
343.147766 205.773071 5.024477 0.678431
343.147766 205.773071 4.345607 0.678431
343.154083 205.783020 3.672798 0.740074
343.062439 205.638046 2.993818 0.694363
