# This PCD file was generated using the MATLABÂ® pcwrite function
# from Computer Vision ToolboxÂ®.
# .PCD v.7 - Point Cloud Data file format
VERSION .7
FIELDS x y z intensity
SIZE 4 4 4 4
TYPE F F F F
COUNT 1 1 1 1
WIDTH 1244
HEIGHT 1
VIEWPOINT 0 0 0 1 0 0 0
POINTS 1244
DATA ascii
266.078339 95.277184 0.000002 0.543505
265.620483 96.467850 -0.000009 0.535907
nan nan nan 0.000000
281.849243 53.209000 13.703289 0.727941
267.168243 92.199074 4.278937 0.513848
281.849243 53.209007 10.037890 0.696569
281.849243 53.209007 8.233720 0.728064
281.849243 53.209003 6.443086 0.731005
281.849243 53.209003 4.662040 0.717892
281.829010 53.262714 2.885775 0.703922
281.829010 53.262714 1.114227 0.732476
277.100677 65.820374 -0.000019 0.540074
271.350006 81.093132 -0.000013 0.542279
268.881042 87.650291 -0.000007 0.543137
267.505920 91.302284 -0.000000 0.540809
266.628052 93.633713 -0.000005 0.522917
266.017914 95.254189 0.000001 0.526348
265.568451 96.447906 -0.000038 0.537010
nan nan nan 0.000000
281.446075 53.209003 13.672888 0.731127
267.082642 92.178459 4.277015 0.509559
267.154877 91.982567 3.887259 0.508088
281.446075 53.209011 8.217528 0.733088
281.446075 53.209015 6.431543 0.732230
281.446075 53.209007 4.655125 0.718995
281.426270 53.262711 2.883473 0.705637
281.426270 53.262711 1.116527 0.725735
276.834381 65.721031 -0.000026 0.531985
271.190430 81.033684 -0.000012 0.539583
268.767273 87.607910 -0.000007 0.530515
267.417725 91.269417 -0.000000 0.524510
266.556152 93.606918 -0.000005 0.565074
265.957306 95.231613 0.000000 0.531618
265.516144 96.428596 0.000000 0.505637
nan nan nan 0.000000
281.044983 53.209000 13.643210 0.727941
266.847443 92.573120 4.194889 0.508456
267.078979 91.931175 3.890564 0.496936
281.044952 53.209003 8.201721 0.740196
266.998535 92.154205 3.025602 0.562132
281.044952 53.209003 4.648375 0.728431
281.025635 53.262714 2.881226 0.727574
281.025635 53.262718 1.118773 0.722549
276.567352 65.623726 -0.000022 0.535294
271.030426 80.975380 -0.000010 0.524142
268.653229 87.566360 -0.000004 0.532966
267.329285 91.237152 -0.000004 0.524877
266.484039 93.580666 0.000001 0.534681
265.896606 95.209473 0.000002 0.516544
265.463837 96.409378 -0.000033 0.560417
267.164734 91.420685 5.320149 0.507843
280.645905 53.208996 13.614252 0.715686
266.766327 92.549995 4.193892 0.506740
266.846832 92.321815 3.824416 0.506863
280.645905 53.209003 8.186296 0.729289
280.645905 53.209015 6.409281 0.729289
280.645905 53.209003 4.641788 0.717892
280.626923 53.262714 2.879035 0.719485
280.626923 53.262718 1.120965 0.726225
276.299683 65.528175 -0.000026 0.537623
270.870056 80.918129 -0.000013 0.534681
268.538971 87.525513 -0.000013 0.549755
267.240662 91.205513 -0.000006 0.549877
266.411804 93.554863 -0.000003 0.535172
265.835693 95.187752 0.000001 0.556250
265.411285 96.390831 0.000015 0.519485
267.047821 91.475853 5.297455 0.513726
266.896271 91.915161 4.742821 0.506495
266.828979 92.110199 4.273205 0.502451
266.762543 92.302818 3.822958 0.522917
267.226440 90.958054 3.577429 0.491912
280.248749 53.209003 6.398558 0.737745
266.805969 92.176880 2.610283 0.502941
280.230255 53.262707 2.876896 0.721691
280.230255 53.262707 1.123104 0.735907
276.031281 65.434639 -0.000021 0.532353
270.709259 80.862076 -0.000009 0.534314
268.424347 87.485558 -0.000009 0.539338
267.151764 91.174530 -0.000003 0.534436
266.339325 93.529610 0.000000 0.558578
265.774658 95.166466 0.000002 0.543382
265.358673 96.372360 -0.000012 0.545466
266.937073 91.516632 5.278831 0.506740
266.810852 91.890991 4.741807 0.501103
266.612579 92.479065 4.196969 0.510662
266.833069 91.825073 3.893409 0.507475
266.839111 91.807152 3.470594 0.505515
267.423370 90.074387 3.198104 0.499755
266.880676 91.683952 2.634387 0.513113
266.902130 91.620270 2.212411 0.512377
279.835449 53.262711 1.125189 0.732966
275.762299 65.342873 -0.000022 0.536642
270.548096 80.807106 -0.000010 0.532843
268.309479 87.446358 -0.000011 0.524755
267.062683 91.144142 -0.000004 0.538725
266.266693 93.504829 0.000001 0.528799
265.713470 95.145592 0.000003 0.699510
265.305969 96.354202 -0.000057 0.530270
266.775024 91.716484 5.218505 0.512868
266.735077 91.837830 4.747522 0.507598
267.168701 90.521370 4.566906 0.503799
266.747467 91.800148 3.892901 0.505882
266.782013 91.695313 3.480721 0.505882
266.774231 91.718880 3.053350 0.503554
279.460205 53.209000 4.622983 0.732966
279.442505 53.262707 2.872777 0.718015
279.442505 53.262711 1.127222 0.721691
275.492645 65.252937 -0.000026 0.535294
270.386566 80.753235 -0.000012 0.529534
268.194336 87.407974 -0.000013 0.528186
266.973389 91.114357 -0.000006 0.524877
266.193909 93.480545 -0.000003 0.554167
265.652161 95.125153 0.000002 0.520098
265.252991 96.336784 -0.000003 0.577083
266.690247 91.687195 5.218904 0.505515
266.651428 91.807709 4.748119 0.507230
266.458679 92.406967 4.200667 0.511029
266.662964 91.771950 3.892998 0.497917
266.975250 90.801262 3.585404 0.502941
266.715973 91.607094 3.060587 0.511397
266.615631 91.919006 2.619346 0.511029
266.770477 91.437737 2.214574 0.503431
279.051361 53.262711 1.129204 0.729412
275.222412 65.165016 -0.000022 0.539706
270.224609 80.700562 -0.000009 0.533088
268.078918 87.370438 -0.000008 0.531127
266.883881 91.085236 -0.000004 0.527328
266.120911 93.456810 0.000000 0.553064
265.590698 95.105125 -0.000000 0.536397
265.200043 96.319405 -0.000034 0.490564
266.603027 91.665428 5.217484 0.506005
266.552856 91.825142 4.738080 0.502819
266.376831 92.385780 4.199829 0.503922
266.431885 92.210503 3.820616 0.528554
266.663269 91.473579 3.500822 0.520711
266.609131 91.646057 3.054888 0.517157
266.547638 91.841782 2.621950 0.507108
278.661957 53.262711 2.868867 0.720466
278.661957 53.262711 1.131134 0.729779
274.951538 65.078842 -0.000026 0.536520
270.062347 80.648926 -0.000013 0.535539
267.963257 87.333626 -0.000015 0.533333
266.794159 91.056694 -0.000008 0.530882
266.047791 93.433556 -0.000002 0.505147
265.529053 95.085533 -0.000003 0.539706
265.146851 96.302704 0.000014 0.539951
266.520111 91.629951 5.219818 0.518260
266.481689 91.755302 4.747933 0.514828
266.406464 92.000900 4.268315 0.516789
266.348999 92.188431 3.820103 0.514093
266.713654 90.998123 3.554781 0.523162
266.562714 91.490898 3.065912 0.502206
266.484924 91.744820 2.625586 0.511887
266.424530 91.941887 2.205007 0.505882
278.274261 53.262714 1.133013 0.728922
274.680084 64.994652 -0.000026 0.540809
269.899719 80.598495 -0.000012 0.534191
267.847351 87.297684 -0.000012 0.535294
266.704254 91.028809 -0.000007 0.555515
265.974518 93.410820 -0.000001 0.515319
265.467346 95.066376 -0.000004 0.527819
265.093597 96.286263 0.000033 0.558333
266.388306 91.757637 5.179644 0.511887
266.502197 91.376312 4.827564 0.499755
266.425537 91.632996 4.333395 0.512990
266.265320 92.169327 3.819219 0.508456
266.542725 91.240768 3.522367 0.525980
266.366394 91.831009 3.034558 0.506127
266.394592 91.736526 2.624691 0.515441
266.329865 91.953293 2.204380 0.505147
277.888245 53.262714 1.134843 0.722304
274.408020 64.912430 -0.000021 0.532353
269.736694 80.549225 -0.000008 0.529289
267.731171 87.262566 -0.000010 0.529657
266.614166 91.001572 -0.000004 0.537377
265.901062 93.388603 -0.000000 0.539951
265.405457 95.047668 -0.000001 0.518137
265.040283 96.269997 0.000002 0.522304
266.612183 90.671722 5.456406 0.527328
266.313721 91.696777 4.749661 0.509069
266.140900 92.290390 4.204011 0.521691
266.181671 92.150307 3.818418 0.503676
266.481934 91.118980 3.533828 0.539216
266.122925 92.352135 2.987925 0.505882
266.712708 90.326385 2.695559 0.503186
266.235657 91.964981 2.203760 0.504044
277.503845 53.262714 1.136622 0.715564
274.135437 64.831917 -0.000026 0.540564
269.573364 80.500984 -0.000013 0.521936
267.614746 87.228180 -0.000014 0.526961
266.523895 90.974937 -0.000006 0.544608
265.827484 93.366875 -0.000005 0.530270
265.343445 95.029350 -0.000007 0.538603
264.986786 96.254433 0.000054 0.529902
266.178497 91.847839 5.143258 0.515074
266.230255 91.665428 4.751187 0.521446
266.060730 92.263115 4.204752 0.502206
266.251251 91.591324 3.900959 0.508701
266.377472 91.146332 3.527484 0.512500
266.058685 92.270332 2.992918 0.509436
266.206726 91.748283 2.621556 0.563235
266.144226 91.968719 2.203288 0.508578
277.120972 53.262714 1.138353 0.728799
273.862244 64.753471 -0.000023 0.537623
269.409698 80.454002 -0.000009 0.545466
267.498077 87.194801 0.000003 0.543260
266.433411 90.948952 -0.000003 0.549510
265.753723 93.345711 -0.000001 0.544485
265.281281 95.011566 0.000009 0.551716
264.933228 96.238930 0.000026 0.509314
266.080383 91.873978 5.130334 0.514951
266.145386 91.638565 4.751837 0.506863
265.894867 92.546120 4.147028 0.514828
266.364410 90.845230 4.012061 0.507108
266.278625 91.155998 3.523349 0.506863
265.989868 92.201958 2.996796 0.505024
266.090363 91.837860 2.615778 0.521814
276.739594 53.262722 2.859965 0.729534
276.739594 53.262722 1.140034 0.732598
273.588562 64.676826 -0.000027 0.535294
269.245728 80.408073 -0.000012 0.539828
267.381195 87.162086 0.000001 0.540319
266.342773 90.923561 -0.000007 0.541299
265.679810 93.325043 0.000002 0.553431
265.219025 94.994133 0.000007 0.544118
264.879517 96.223999 0.000050 0.528922
266.094238 91.486084 5.224993 0.513480
265.804138 92.566238 4.539151 0.505882
266.161041 91.237366 4.389524 0.512745
266.083832 91.524757 3.903869 0.511765
266.180267 91.165817 3.519287 0.504289
265.920593 92.132660 3.000786 0.463848
266.017334 91.772430 2.617937 0.511397
266.391571 90.378998 2.229442 0.508456
276.359711 53.262718 1.141667 0.738235
273.314301 64.602242 -0.000023 0.535539
269.081421 80.363388 -0.000008 0.531127
267.264069 87.130226 0.000004 0.532598
266.251953 90.898857 -0.000004 0.538603
265.605774 93.304909 0.000007 0.537990
265.156647 94.977165 0.000010 0.517647
264.825684 96.209541 0.000098 0.485784
nan nan nan 0.000000
266.023651 91.400597 4.794657 0.514583
266.077759 91.193443 4.393372 0.509191
265.725342 92.543198 3.744218 0.510294
265.852112 92.057587 3.410451 0.501593
265.851929 92.058289 3.005240 0.518382
265.849518 92.067528 2.601812 0.501471
275.981262 53.262722 2.856746 0.731250
275.981262 53.262722 1.143253 0.729412
273.039612 64.529381 -0.000028 0.532475
268.916809 80.319740 -0.000013 0.531740
267.146759 87.099113 0.000000 0.535417
266.160980 90.874725 -0.000009 0.534804
265.531586 93.285225 0.000000 0.547917
265.094177 94.960602 0.000007 0.531005
264.771820 96.195183 0.000075 0.531373
265.506012 93.074036 4.802898 0.509191
265.651520 92.500290 4.544606 0.505392
265.737152 92.162674 4.207133 0.508824
265.917908 91.450218 3.908348 0.511029
265.785828 91.970917 3.418206 0.504657
265.785583 91.971756 3.010756 0.507475
265.731384 92.185486 2.594753 0.485662
265.783844 91.978630 2.201602 0.525980
275.604187 53.262714 1.144791 0.713971
272.764343 64.458549 -0.000027 0.534436
268.751923 80.277306 -0.000012 0.532966
267.029236 87.068855 -0.000001 0.542034
266.069794 90.851273 -0.000007 0.540686
265.457306 93.266113 0.000003 0.545833
265.031555 94.944489 0.000008 0.568995
264.717865 96.181221 0.000056 0.509559
265.441711 93.008308 4.814969 0.510662
265.574951 92.467209 4.547528 0.503799
265.361145 93.335609 3.983486 0.525490
265.601501 92.359428 3.766124 0.527206
265.714966 91.898666 3.424293 0.509314
266.071625 90.450218 3.137479 0.510907
265.713867 91.903084 2.608005 0.506618
266.337219 89.371582 2.245186 0.505147
275.228424 53.262714 1.146281 0.727451
272.488586 64.389717 -0.000023 0.535539
268.586670 80.236053 -0.000009 0.545833
266.911469 87.039474 0.000005 0.552328
265.978485 90.828522 0.000004 0.547672
265.382843 93.247536 0.000008 0.544608
264.968842 94.928825 0.000010 0.524387
264.663757 96.167877 0.000102 0.526593
265.376892 92.942070 4.827263 0.514461
265.408295 92.810593 4.466970 0.521569
265.299835 93.264679 3.993401 0.504289
265.679291 91.675888 3.867383 0.514093
265.644196 91.822983 3.430835 0.502451
265.643311 91.826546 3.019527 0.512377
266.166534 89.635948 2.721486 0.500000
274.853943 53.262722 2.852273 0.725245
274.853943 53.262722 1.147727 0.721569
272.212372 64.322632 -0.000028 0.539338
268.421234 80.195854 -0.000014 0.534559
266.793518 87.010818 -0.000001 0.540809
265.887024 90.806290 -0.000003 0.530025
265.308289 93.229416 0.000002 0.530760
264.906036 94.913567 0.000005 0.526961
264.609589 96.154633 0.000073 0.532598
266.069183 89.601883 5.681423 0.525000
265.357391 92.676926 4.492557 0.506740
265.237885 93.193245 4.003472 0.494853
265.446198 92.293198 3.770329 0.517279
265.327209 92.807327 3.312254 0.500858
265.571350 91.752525 3.024085 0.532598
266.018707 89.819809 2.711031 0.519118
274.480743 53.262718 2.850875 0.735539
274.480743 53.262718 1.149124 0.712500
271.935730 64.257645 -0.000024 0.537010
268.255432 80.156921 -0.000010 0.540441
266.675354 86.983070 0.000004 0.551716
265.795380 90.784782 0.000003 0.537990
265.233551 93.211876 0.000008 0.562377
264.843079 94.898758 0.000004 0.547672
264.555389 96.141617 0.000007 0.560417
265.245117 92.809502 4.852172 0.505882
265.294769 92.587860 4.508309 0.503799
265.175201 93.121277 4.013709 0.507108
265.505615 91.647247 3.865711 0.504289
265.477600 91.772041 3.432224 0.507353
265.375824 92.226242 2.982651 0.507843
265.498047 91.680893 2.616204 0.504167
274.108734 53.262718 2.849523 0.719608
274.108734 53.262722 1.150477 0.723774
271.658600 64.194427 -0.000028 0.534069
268.089447 80.119049 -0.000014 0.541299
266.557037 86.956085 0.000000 0.524510
265.703613 90.763840 -0.000002 0.548039
265.158752 93.194801 0.000002 0.521691
264.780060 94.884384 0.000000 0.550245
264.500977 96.129456 0.000065 0.588358
265.178741 92.740463 4.865481 0.515319
265.232361 92.493118 4.525388 0.503186
265.111938 93.048470 4.024167 0.521201
265.142303 92.908470 3.671410 0.510172
265.353119 91.936058 3.410714 0.504167
265.404236 91.700325 3.025265 0.508824
265.308380 92.142380 2.592058 0.505882
265.299316 92.184219 2.196512 0.515564
273.737885 53.262722 1.151783 0.729167
271.381042 64.133339 -0.000023 0.533824
267.923096 80.082458 -0.000008 0.537010
266.438507 86.929993 0.000005 0.547549
265.611664 90.743614 0.000003 0.526103
265.083801 93.178307 0.000007 0.528676
264.716919 94.870483 0.000004 0.533456
264.446594 96.117340 0.000034 0.556373
265.111176 92.673363 4.878392 0.507475
265.168182 92.401352 4.541882 0.521201
265.048004 92.974945 4.034825 0.505392
265.074310 92.849464 3.677867 0.536887
265.242035 92.048820 3.395361 0.501348
265.240173 92.057732 2.993798 0.506005
265.231262 92.100342 2.593288 0.497181
265.222443 92.142464 2.196917 0.505270
273.368164 53.262718 1.153044 0.722181
271.103088 64.073982 -0.000029 0.536642
267.756592 80.046890 -0.000014 0.544976
266.319794 86.904640 -0.000001 0.531250
265.519592 90.723953 -0.000002 0.532966
265.008759 93.162308 0.000006 0.549265
264.653717 94.856911 -0.000018 0.542525
264.392090 96.105598 0.000004 0.543750
265.163391 92.010521 5.043654 0.513358
265.111328 92.268013 4.567613 0.502083
264.983337 92.900795 4.045669 0.524020
265.015350 92.742523 3.691642 0.504779
265.065247 92.495903 3.340884 0.506005
265.144501 92.104004 2.988500 0.505147
265.118225 92.233902 2.585741 0.515931
273.007355 53.223900 2.846386 0.723407
273.007355 53.223904 1.153613 0.735417
270.824677 64.016762 -0.000024 0.534804
267.589783 80.012611 -0.000010 0.530515
266.200897 86.880211 0.000004 0.541667
265.427429 90.704994 0.000001 0.535294
264.933594 93.146851 0.000008 0.524387
264.590332 94.844101 0.000032 0.521814
264.337463 96.094551 0.000053 0.548284
265.101929 91.882477 5.072113 0.506863
264.879364 93.023926 4.397720 0.506495
264.907684 92.878860 4.046901 0.503799
264.955414 92.633919 3.705710 0.513726
264.997833 92.416496 3.348334 0.505147
265.110229 91.839943 3.009190 0.506127
265.213867 91.308311 2.631257 0.505515
265.120575 91.786774 2.202292 0.510907
273.007355 51.337070 1.123328 0.721569
270.545898 63.961296 -0.000029 0.533701
267.422760 79.979378 -0.000014 0.536152
266.081879 86.856529 -0.000000 0.539093
265.335083 90.686638 -0.000001 0.543505
264.858337 93.131859 0.000001 0.508578
264.526947 94.831375 0.000003 0.512868
264.282806 96.083565 0.000021 0.561642
264.905670 92.463806 4.919852 0.518873
264.814301 92.950562 4.410641 0.508333
264.874329 92.630692 4.090113 0.506005
264.960663 92.170967 3.773306 0.516299
264.841888 92.803612 3.301220 0.510172
265.005920 91.929863 3.000341 0.523039
264.997711 91.973564 2.597162 0.505882
273.007355 49.310116 2.909249 0.730637
273.007355 49.310116 1.090750 0.730025
270.266754 63.907970 -0.000025 0.542770
267.255493 79.947426 -0.000010 0.528431
265.962677 86.833748 0.000003 0.551961
265.242645 90.668983 0.000003 0.532108
264.782959 93.117470 0.000006 0.559681
264.463409 94.819481 0.000060 0.524510
264.228027 96.073303 0.000075 0.571691
265.153625 90.632240 5.382299 0.569363
264.825562 92.449417 4.517529 0.511520
264.802307 92.578423 4.097092 0.515441
264.822327 92.467354 3.726353 0.503922
264.860657 92.255165 3.363663 0.523529
264.787720 92.659088 2.938296 0.502328
273.007355 47.126572 4.835196 0.731250
273.007355 47.126579 2.944390 0.733578
273.007355 47.126579 1.055609 0.734681
269.987274 63.856396 -0.000029 0.534436
267.088013 79.916611 -0.000008 0.534926
265.843292 86.811737 -0.000001 0.540686
265.150055 90.651901 -0.000002 0.522059
264.707489 93.103554 0.000003 0.521201
264.399872 94.807625 0.000026 0.547426
264.173218 96.063087 0.000043 0.571691
264.792450 92.164040 4.988709 0.529044
264.797699 92.133812 4.583603 0.528922
264.740631 92.463165 4.115788 0.505637
264.661285 92.920792 3.655958 0.508211
264.939270 91.317062 3.471509 0.509314
264.846436 91.852692 3.004245 0.518505
264.840240 91.888329 2.599908 0.510784
273.007355 44.767437 2.982405 0.709804
273.065460 44.432079 1.012026 0.712132
269.707367 63.806980 -0.000025 0.532843
266.920349 79.886993 -0.000004 0.539828
265.723785 86.790634 0.000004 0.537132
265.057373 90.635536 0.000003 0.546324
264.631927 93.090195 0.000004 0.550980
264.336212 94.796211 -0.000005 0.582598
264.118378 96.053131 -0.000017 0.585049
264.691742 92.262123 4.960265 0.512745
264.755859 91.876038 4.636980 0.511765
264.648834 92.520241 4.102755 0.501593
264.710754 92.147491 3.770277 0.509804
265.277832 88.734268 3.770967 0.507598
264.729889 92.032364 2.988121 0.501838
264.661224 92.445595 2.571446 0.526961
273.007324 42.210194 3.023662 0.728064
273.065460 41.860298 0.970534 0.728186
269.427155 63.759323 -0.000030 0.532598
266.752441 79.858459 -0.000008 0.539951
265.604156 86.770279 -0.000001 0.537255
264.964600 90.619751 -0.000001 0.528309
264.556274 93.077339 0.000002 0.541422
264.272461 94.785637 0.000047 0.546936
264.063385 96.044014 0.000037 0.484559
264.589447 92.379845 4.927047 0.513235
264.690491 91.744347 4.662790 0.504289
264.582367 92.424545 4.118001 0.505882
264.589874 92.377266 3.733757 0.519975
264.411041 93.502098 3.213574 0.507721
264.539459 92.694366 2.932037 0.508211
264.681061 91.803734 2.602726 0.513726
264.674225 91.846634 2.200055 0.524632
273.065460 39.062912 0.925350 0.727451
269.146606 63.713787 -0.000026 0.542892
266.584381 79.831169 -0.000005 0.529534
265.484314 86.750854 0.000004 0.540564
264.871674 90.604668 0.000000 0.547304
264.480530 93.065041 0.000004 0.541667
264.208679 94.775002 -0.000011 0.544363
264.008392 96.034966 0.000008 0.498774
264.455078 92.721611 4.837286 0.505515
264.540070 92.161736 4.568722 0.541912
264.509644 92.362167 4.127185 0.505637
264.572632 91.947136 3.796413 0.504044
264.487823 92.505775 3.328189 0.507230
264.443939 92.794838 2.922694 0.514951
264.600983 91.760490 2.604222 0.504412
264.594421 91.803680 2.200549 0.525490
273.065460 36.008549 0.875962 0.746691
268.865814 63.670052 -0.000031 0.532108
266.416107 79.804977 -0.000009 0.533211
265.364410 86.732162 -0.000001 0.550858
264.778656 90.590187 -0.000003 0.541176
264.404694 93.053246 0.000003 0.526471
264.144836 94.764923 -0.000044 0.529657
263.953339 96.026283 -0.000024 0.483088
264.477478 92.014565 5.013300 0.520711
264.547943 91.527390 4.704495 0.508456
264.414490 92.449837 4.108866 0.511642
264.495361 91.891006 3.802967 0.515809
264.312439 93.155083 3.251342 0.542279
264.334290 93.004074 2.904404 0.505270
264.690247 90.544060 2.663978 0.578922
264.514221 91.760521 2.201055 0.510662
273.065491 32.659687 0.821753 0.714951
268.584625 63.628464 -0.000026 0.538480
266.247650 79.780060 -0.000004 0.537623
265.244324 86.714409 0.000003 0.536642
264.685547 90.576424 0.000003 0.532966
264.328827 93.042000 0.000004 0.553431
264.080872 94.755692 0.000010 0.538603
263.898163 96.018303 0.000027 0.548162
264.381866 92.093048 4.990490 0.505882
264.503113 91.211952 4.770603 0.525000
264.358215 92.265251 4.140692 0.507843
264.229431 93.201233 3.605006 0.518627
264.260864 92.972801 3.271276 0.507843
264.258453 92.990166 2.904665 0.506127
264.439636 91.673363 2.607322 0.512255
264.590271 90.578407 2.220383 0.594730
264.591553 90.568855 1.779459 0.599265
264.585266 90.614555 1.340171 0.493750
264.582489 90.634895 0.900395 0.573897
264.589172 90.586304 0.451594 0.596569
264.589600 90.583092 0.002971 0.538480
264.252838 93.031273 0.000003 0.649877
264.016846 94.746506 -0.000023 0.536642
263.842987 96.010391 -0.000005 0.518750
264.287750 92.170410 4.968150 0.507353
264.301239 92.067131 4.581747 0.504534
264.276093 92.259804 4.139690 0.507353
264.174683 93.037132 3.628055 0.513235
264.274536 92.271629 3.351434 0.503186
264.222443 92.670898 2.930219 0.512377
264.506958 90.490074 2.665379 0.499142
264.500366 90.540550 2.220801 0.612377
264.497375 90.563507 1.779577 0.583088
264.493225 90.595505 1.339844 0.627819
264.489258 90.625694 0.900662 0.598407
264.492523 90.600670 0.454709 0.601593
264.498444 90.555466 0.000706 0.576593
264.176758 93.021103 0.000007 0.577941
263.952759 94.738167 0.000031 0.531373
263.787720 96.003189 0.000048 0.548162
264.195038 92.246239 4.946383 0.506985
264.225250 92.001251 4.593797 0.458578
264.205902 92.158020 4.156455 0.503922
264.232239 91.944580 3.789906 0.499877
264.113220 92.909431 3.276309 0.511765
264.145020 92.651550 2.930994 0.505882
264.625946 88.753479 2.750750 0.510172
271.393738 33.894958 3.154576 0.192647
273.065460 20.344156 0.621998 0.729044
267.739532 63.515278 -0.000022 0.535294
264.409943 90.504349 0.891610 0.559559
264.405518 90.540359 0.449086 0.573162
264.407227 90.526283 -0.001885 0.619730
264.100616 93.011452 0.000009 0.558456
263.888641 94.729874 -0.000002 0.544730
263.732422 95.996071 0.000020 0.523775
264.170197 91.749100 5.069285 0.509559
264.067322 92.633804 4.454087 0.514951
264.126892 92.121307 4.161377 0.510417
264.056396 92.727364 3.671512 0.526226
264.024048 93.005630 3.264099 0.551103
264.058533 92.709282 2.925450 0.522304
271.401642 29.562551 5.677579 0.142647
271.391113 29.653061 3.223494 0.119485
nan nan nan 0.000000
267.457336 63.481373 -0.000026 0.536274
265.572266 79.691940 -0.000004 0.530025
264.762939 86.651596 0.000003 0.543995
264.312195 90.527718 0.000002 0.536765
264.024445 93.002296 0.000005 0.538848
263.824463 94.722038 -0.000033 0.561029
263.677094 95.989296 -0.000015 0.463603
264.013489 92.395660 4.903952 0.507843
264.003906 92.483551 4.484802 0.511520
264.051300 92.049820 4.172762 0.504657
263.975494 92.743652 3.667767 0.510539
263.936584 93.100060 3.252178 0.519240
263.935699 93.108330 2.891807 0.507721
264.412262 88.744576 2.749971 0.513971
264.405884 88.802811 2.248853 0.522426
nan nan nan 0.000000
267.174927 63.449619 -0.000023 0.544363
265.403046 79.672897 -0.000000 0.528922
264.642334 86.638031 0.000006 0.532353
264.218689 90.517181 0.000004 0.520833
263.948212 92.993721 0.000010 0.517524
263.760193 94.715034 0.000019 0.534314
263.621674 95.983246 0.000036 0.527696
264.184143 89.928978 5.522898 0.504044
263.916077 92.553200 4.467847 0.511275
263.957184 92.150459 4.152751 0.510417
263.844116 93.257462 3.589923 0.524877
264.035278 91.386124 3.449453 0.517524
263.888550 92.822441 2.914713 0.517034
264.313873 88.659180 2.753636 0.508824
nan nan nan 0.000000
nan nan nan 0.000000
266.892242 63.419647 -0.000028 0.534804
265.233704 79.654961 -0.000005 0.545098
264.521637 86.625244 0.000002 0.521936
264.125061 90.507271 0.000001 0.535907
263.871887 92.985634 0.000005 0.534314
263.695923 94.708115 -0.000009 0.544730
263.566254 95.977287 0.000010 0.548407
263.896118 91.920258 5.019432 0.506005
264.096344 89.814835 5.060248 0.505392
263.877197 92.119217 4.156980 0.506863
263.829102 92.625053 3.683061 0.509069
263.766449 93.283722 3.229168 0.505760
263.805054 92.877754 2.909528 0.506005
264.296295 87.712700 2.799824 0.506127
264.208832 88.632202 2.251303 0.505882
nan nan nan 0.000000
266.609406 63.391975 -0.000016 0.332108
265.064240 79.638298 0.000000 0.534681
264.400848 86.613388 0.000008 0.544608
264.031372 90.498070 0.000007 0.543137
263.795502 92.978134 0.000010 0.530392
263.631592 94.701614 -0.000042 0.557843
263.510803 95.971680 -0.000025 0.548774
263.960938 90.225060 5.443771 0.524510
263.780853 92.270203 4.525930 0.510417
264.071045 88.974693 4.729981 0.512868
263.706573 93.113670 3.609225 0.513848
263.761230 92.492744 3.319729 0.512868
263.722534 92.932014 2.904480 0.498162
264.107941 88.556046 2.757721 0.525368
264.108856 88.545540 2.252566 0.506127
nan nan nan 0.000000
266.326385 63.366047 -0.000017 0.333088
264.894684 79.622719 -0.000004 0.534681
264.279999 86.602264 0.000003 0.544240
263.937653 90.489449 0.000001 0.545343
263.719086 92.971100 0.000005 0.522794
263.567169 94.695953 0.000010 0.529289
263.455292 95.966812 0.000029 0.517034
263.719543 92.015671 4.991745 0.497794
263.696869 92.295395 4.518982 0.508824
263.974945 88.864113 4.748557 0.517402
263.622986 93.206978 3.594389 0.505882
263.672272 92.599030 3.306683 0.504167
263.996948 88.592392 3.260941 0.505760
264.011963 88.407318 2.764605 0.513113
nan nan nan 0.000000
nan nan nan 0.000000
266.043152 63.342094 -0.000017 0.331863
264.725006 79.608360 -0.000005 0.525123
264.159058 86.592041 0.000003 0.533578
263.843872 90.481506 0.000000 0.532230
263.642639 92.964638 0.000005 0.513358
263.502777 94.690430 -0.000008 0.531863
263.399750 95.962029 0.000008 0.531985
263.631897 92.070496 4.976354 0.510417
263.611481 92.346024 4.506653 0.511152
263.628510 92.115959 4.153757 0.497672
263.650482 91.819099 3.799962 0.499265
263.588196 92.660240 3.298915 0.507721
263.553925 93.123367 2.887724 0.507108
263.872223 88.823036 2.743712 0.499142
nan nan nan 0.000000
nan nan nan 0.000000
265.759796 63.320118 -0.000018 0.332230
264.555206 79.595253 -0.000000 0.541912
264.038055 86.582695 0.000007 0.532353
263.750031 90.474266 0.000006 0.527941
263.566132 92.958740 0.000010 0.561642
263.438324 94.685280 -0.000041 0.516299
263.344147 95.957611 -0.000020 0.581373
263.545074 92.125175 4.961164 0.503554
263.678040 90.140587 4.982818 0.503064
263.544281 92.137115 4.148840 0.504534
263.552521 92.013901 3.770115 0.509436
263.588562 91.476280 3.434785 0.503431
263.465607 93.310989 2.871869 0.507966
263.805908 88.232040 2.772445 0.505882
263.784821 88.546303 2.252143 0.509559
nan nan nan 0.000000
265.476288 63.300121 -0.000018 0.332598
264.385345 79.583214 -0.000005 0.537868
263.916962 86.574127 0.000004 0.525123
263.656128 90.467613 0.000000 0.540074
263.489594 92.953316 0.000005 0.542892
263.373840 94.680977 0.000012 0.548529
263.288544 95.953888 0.000029 0.491176
263.559937 90.499405 5.367816 0.518873
263.526917 91.049194 4.784902 0.509926
263.460388 92.158226 4.144040 0.641422
263.467773 92.035492 3.766122 0.502819
263.446106 92.396286 3.328121 0.516176
263.437622 92.538254 2.934957 0.505882
263.701263 88.143311 2.776470 0.509926
263.669983 88.664345 2.250097 0.512868
nan nan nan 0.000000
265.192627 63.282104 -0.000018 0.332353
264.215393 79.572479 -0.000001 0.536152
263.795868 86.566460 0.000007 0.533333
263.562195 90.461685 0.000005 0.538971
263.413025 92.948479 0.000010 0.558824
263.309326 94.676735 -0.000021 0.551838
263.232941 95.950241 0.000001 0.507230
263.477142 90.288094 5.419494 0.523775
263.466003 90.498207 4.902973 0.505760
263.376923 92.179298 4.139355 0.479289
263.374420 92.226036 3.737122 0.505270
263.389984 91.932289 3.381050 0.505760
263.398621 91.769920 2.997676 0.500858
263.775848 84.650284 2.948005 0.514461
263.874725 82.784203 2.346355 0.507966
nan nan nan 0.000000
264.908844 63.266064 -0.000019 0.331985
264.045380 79.562836 -0.000005 0.532353
263.674683 86.559586 0.000003 0.540686
263.468201 90.456329 -0.000000 0.544485
263.336395 92.944122 0.000005 0.536765
263.244751 94.673340 0.000034 0.535784
263.177277 95.947304 0.000052 0.556250
263.397308 89.949562 5.503200 0.510172
263.344147 91.105072 4.770762 0.505392
263.293793 92.200325 4.134785 0.500858
263.283173 92.430862 3.706106 0.518382
263.261353 92.905655 3.268479 0.525980
263.350067 90.976814 3.062432 0.501716
263.707947 83.194420 3.019276 0.534191
263.728729 82.742325 2.346922 0.514951
nan nan nan 0.000000
264.625000 63.251999 -0.000019 0.331495
263.875305 79.554489 0.000001 0.534191
263.553467 86.553627 0.000007 0.542770
263.374207 90.451714 0.000005 0.537623
263.259735 92.940361 0.000011 0.543260
263.180206 94.669991 0.000001 0.512623
263.121613 95.944420 0.000020 0.555270
263.259521 90.976982 5.244608 0.512868
263.249725 91.227928 4.743385 0.502451
263.210999 92.221329 4.130327 0.506863
263.224854 91.865440 3.789536 0.513726
263.220551 91.976036 3.375128 0.500245
263.220123 91.987236 2.979204 0.516544
263.564545 83.154243 3.020949 0.506373
263.582214 82.700340 2.347506 0.516176
nan nan nan 0.000000
264.341034 63.239933 -0.000019 0.331985
263.705200 79.547195 -0.000004 0.542770
263.432190 86.548439 0.000003 0.532966
263.280121 90.447693 -0.000000 0.507721
263.183075 92.937073 0.000005 0.522794
263.115631 94.667122 -0.000028 0.528431
263.065918 95.941925 -0.000011 0.556618
263.211914 89.637268 5.579559 0.506005
263.155762 91.391891 4.707274 0.503064
263.128540 92.242302 4.125981 0.510417
263.132416 92.121269 3.751125 0.511887
263.103180 93.034088 3.253005 0.507230
263.168976 90.978745 3.061695 0.507721
263.372284 84.625854 2.948363 0.507598
263.371735 84.642998 2.315614 0.515564
nan nan nan 0.000000
264.057007 63.229862 -0.000020 0.331863
263.535004 79.541206 0.000000 0.539828
263.310883 86.544167 0.000007 0.540809
263.186066 90.444382 0.000004 0.540809
263.106384 92.934380 0.000010 0.532721
263.051025 94.665062 0.000024 0.552819
263.010193 95.940147 0.000039 0.583701
263.067078 91.436874 5.127926 0.508946
263.070618 91.294960 4.727678 0.505515
263.046417 92.263252 4.121746 0.513848
263.048065 92.197350 3.739488 0.511397
263.052521 92.019493 3.369513 0.528922
263.061157 91.673843 3.004471 0.507721
263.079681 90.933830 2.638186 0.511642
263.241547 84.462639 2.318504 0.510294
nan nan nan 0.000000
263.772888 63.221748 -0.000020 0.332353
263.364777 79.536278 -0.000006 0.537990
263.189575 86.540672 0.000002 0.573407
263.091980 90.441658 -0.000002 0.539951
263.029694 92.932167 0.000005 0.539951
262.986389 94.663063 -0.000009 0.556985
262.954498 95.938446 0.000011 0.558211
262.980225 91.418205 5.132134 0.508578
262.983765 91.222038 4.743019 0.518137
262.964630 92.284180 4.117618 0.505882
262.963348 92.356346 3.715638 0.508824
262.963409 92.351494 3.331107 0.510172
262.972137 91.867332 2.988452 0.517647
262.988953 90.934097 2.638077 0.493260
263.096313 84.980476 2.309981 0.507966
nan nan nan 0.000000
263.488739 63.215614 -0.000021 0.332721
263.194550 79.532677 -0.000001 0.556618
263.068237 86.538101 0.000008 0.543382
262.997864 90.439674 0.000005 0.519608
262.952972 92.930542 0.000011 0.522304
262.921753 94.661522 -0.000041 0.575123
262.898743 95.937119 -0.000021 0.564216
262.893127 91.399643 5.136468 0.506127
262.894775 91.252579 4.736145 0.501838
262.883148 92.305092 4.113597 0.508946
262.884460 92.183632 3.741085 0.505760
262.889221 91.752663 3.399865 0.516299
262.916992 89.238670 3.203903 0.507843
262.917206 89.221504 2.722152 0.514216
262.991119 82.530502 2.350043 0.528676
nan nan nan 0.000000
263.204559 63.211491 -0.000021 0.332475
263.024261 79.530128 -0.000007 0.538603
262.946869 86.536285 0.000002 0.556495
262.903778 90.438271 -0.000000 0.559314
262.876251 92.929382 0.000002 0.540686
262.857117 94.660843 0.000014 0.551348
262.843018 95.936516 0.000031 0.578186
262.805786 91.381172 5.140928 0.503676
262.806213 91.283707 4.729278 0.505882
262.807892 90.870163 4.374582 0.506985
262.804626 91.667458 3.817561 0.504167
262.802948 92.084229 3.361647 0.509314
262.808685 90.676987 3.085903 0.506495
262.833069 84.676178 2.945414 0.513726
262.831726 85.004875 2.309534 0.516299
nan nan nan 0.000000
262.919525 63.412785 0.009974 1.000000
262.853973 79.528908 -0.000002 0.540074
262.825500 86.535408 0.000007 0.539583
262.809662 90.437592 0.000003 0.531863
262.799500 92.928833 0.000008 0.553186
262.792450 94.660202 -0.000018 0.531250
262.787262 95.935974 -0.000000 0.559314
262.718201 91.362816 5.145513 0.505882
262.717468 91.107071 4.767417 0.518995
262.721100 92.346886 4.105873 0.531250
262.717163 91.009422 3.915164 0.511765
262.720367 92.105721 3.359170 0.505882
262.716034 90.613014 3.091145 0.520221
262.715942 90.583397 2.655206 0.506863
nan nan nan 0.000000
nan nan nan 0.000000
262.636139 63.209419 -0.000009 0.331985
262.683685 79.528755 -0.000007 0.535539
262.704132 86.535286 0.000000 0.526961
262.715515 90.437500 -0.000002 0.537377
262.722748 92.929001 0.000046 0.541176
262.727844 94.660538 0.000061 0.509069
262.731537 95.936150 0.000051 0.558578
262.630341 91.344574 5.150223 0.503186
262.627808 91.087784 4.771706 0.453186
262.640472 92.367790 4.102163 0.504657
262.627411 91.045624 3.909880 0.524510
262.634735 91.786331 3.395976 0.507598
262.622803 90.579376 3.093951 0.505760
262.623352 90.638260 2.652539 0.515441
262.569733 85.219124 2.306040 0.511397
nan nan nan 0.000000
262.351898 63.211266 -0.000008 0.332353
262.513428 79.529915 -0.000001 0.542157
262.582764 86.536125 0.000007 0.533211
262.621399 90.438141 0.000004 0.542034
262.646027 92.929314 0.000014 0.517524
262.663177 94.660805 0.000030 0.539706
262.675812 95.936378 0.000019 0.562010
262.511749 89.519623 5.607710 0.505024
262.530670 90.640755 4.868527 0.507108
262.551971 91.902901 4.186963 0.513235
262.538086 91.081612 3.904719 0.527941
262.537323 91.034866 3.482567 0.511520
262.530548 90.634155 3.089561 0.494118
262.531525 90.692589 2.649930 0.511520
262.442749 85.432693 2.302573 0.512623
nan nan nan 0.000000
262.067719 63.215065 -0.000007 0.331985
262.343140 79.532112 -0.000008 0.535049
262.461395 86.537689 0.000000 0.544608
262.527283 90.439354 -0.000003 0.524020
262.569305 92.930161 -0.000018 0.529044
262.598541 94.661522 -0.000000 0.532598
262.620087 95.937126 0.000020 0.547426
262.242554 82.453888 7.378602 0.517524
262.287903 84.355400 6.226827 0.505882
262.480072 92.407120 4.095500 0.519608
262.449280 91.117378 3.899684 0.501716
262.457489 91.460907 3.433752 0.503554
262.432556 90.415672 3.107636 0.506005
262.440430 90.746399 2.647379 0.524265
262.301666 84.931061 2.310827 0.506618
nan nan nan 0.000000
261.783539 63.220879 -0.000007 0.332475
262.172913 79.535538 -0.000011 0.535662
262.340057 86.540215 0.000007 0.539338
262.433136 90.441307 0.000003 0.516912
262.492584 92.932022 0.000036 0.523897
262.533905 94.663086 0.000050 0.509069
262.564331 95.938461 0.000072 0.538603
262.365051 91.286171 5.166203 0.510539
262.161926 84.701767 6.152792 0.517647
262.116302 83.223167 5.767772 0.503064
262.360962 91.152885 3.894777 0.496446
262.346527 90.686409 3.523168 0.502819
262.357697 91.047218 3.056040 0.505024
262.177979 85.222282 2.919014 0.515319
nan nan nan 0.000000
nan nan nan 0.000000
261.499451 63.228657 -0.000006 0.332230
262.002686 79.540123 -0.000016 0.540686
262.218719 86.543480 0.000000 0.541299
262.339050 90.443848 -0.000003 0.535539
262.415894 92.933952 0.000005 0.536887
262.469269 94.664703 0.000020 0.533578
262.508636 95.939865 0.000040 0.507475
262.034698 84.889008 6.770516 0.524510
262.266357 91.011551 4.790030 0.463480
262.282471 91.437180 4.273017 0.495098
262.255157 90.715416 3.960170 0.495711
262.256073 90.739746 3.517393 0.507598
262.255981 90.737785 3.081683 0.506005
262.051849 85.343208 2.913290 0.517770
262.025055 84.635452 2.315802 0.511520
nan nan nan 0.000000
261.215424 63.238438 -0.000005 0.332843
261.832520 79.546051 -0.000010 0.527941
262.097443 86.547699 0.000007 0.540686
262.244995 90.447121 0.000004 0.537255
262.339203 92.936409 -0.000027 0.551961
262.404663 94.666786 -0.000011 0.563603
262.452911 95.941650 0.000009 0.566667
261.816498 82.991081 7.247776 0.522426
262.175110 90.989586 4.795584 0.514338
261.877563 84.353683 5.563853 0.507843
262.160034 90.653259 3.969965 0.496936
262.166260 90.792526 3.511752 0.497917
262.168793 90.849281 3.072844 0.506618
261.927307 85.462814 2.907672 0.506373
261.917511 85.244072 2.305924 0.513358
nan nan nan 0.000000
260.931427 63.250179 -0.000005 0.332598
261.662354 79.552994 -0.000017 0.538113
261.976166 86.552650 -0.000001 0.528431
262.150940 90.450958 -0.000004 0.547672
262.262512 92.939880 0.000028 0.538480
262.340057 94.669693 0.000040 0.538480
262.397217 95.944176 0.000064 0.511152
261.751587 84.564514 6.854895 0.507353
261.742188 84.383316 6.225260 0.524510
261.812988 85.749138 5.310803 0.506127
261.794983 85.401886 4.750643 0.504902
262.077118 90.844765 3.506245 0.506250
262.083008 90.958939 3.064202 0.515196
261.785828 85.225220 2.919666 0.553676
nan nan nan 0.000000
nan nan nan 0.000000
260.647552 63.263920 -0.000004 0.332353
261.492279 79.561295 -0.000011 0.532108
261.854950 86.558556 0.000005 0.543995
262.056915 90.455544 0.000004 0.510784
262.185883 92.943390 -0.000007 0.536152
262.275513 94.672676 0.000011 0.559559
262.341553 95.946724 0.000029 0.552083
261.616913 84.579079 6.853116 0.512500
261.991730 90.950157 4.806139 0.554044
261.473389 82.140121 5.969901 0.506373
261.683563 85.712433 4.705562 0.576838
261.988953 90.902840 3.500134 0.515074
261.992249 90.959023 3.064606 0.506618
261.642944 85.021721 2.930036 0.505882
261.647400 85.097694 2.308545 0.506127
nan nan nan 0.000000
260.363770 63.279625 -0.000004 0.332475
261.322235 79.570625 -0.000017 0.537255
261.733734 86.565216 0.000000 0.540319
261.962921 90.460724 -0.000001 0.535784
262.109283 92.948097 0.000078 0.552941
262.210968 94.676491 0.000065 0.502328
262.285889 95.950020 0.000082 0.536152
261.458160 84.226952 6.943622 0.509681
261.492615 84.750336 6.149292 0.511520
261.319366 82.119019 5.975476 0.508701
261.510529 85.022461 4.809308 0.535907
261.843231 90.074959 3.596233 0.509069
261.838593 90.004669 3.143492 0.504412
261.503998 84.923416 2.935280 0.518015
nan nan nan 0.000000
nan nan nan 0.000000
260.080109 63.297302 -0.000004 0.331863
261.152283 79.581284 -0.000011 0.533211
261.612610 86.572815 0.000005 0.537868
261.868988 90.466599 0.000003 0.534069
262.032684 92.952705 0.000046 0.557353
262.146454 94.680374 0.000033 0.539093
262.230286 95.953369 0.000051 0.557230
nan nan nan 0.000000
nan nan nan 0.000000
261.354797 84.704254 5.505757 0.507843
261.408112 85.436226 4.749129 0.519485
261.747650 90.096535 3.594518 0.496691
261.430634 85.745132 3.494233 0.504779
261.436737 85.828766 2.891138 0.509314
261.414551 85.524551 2.301825 0.518505
261.276428 83.628578 1.667067 0.563113
261.281006 83.691574 1.003590 0.593750
261.277740 83.646988 0.333272 0.610294
261.491547 86.581261 0.000011 0.536152
261.775116 90.473145 0.000008 0.538725
261.956116 92.957840 0.000016 0.528309
262.081940 94.684837 0.000032 0.539093
262.174622 95.957214 0.000050 0.526593
261.126862 83.540359 7.121185 0.588358
261.228271 84.809502 6.140696 0.508088
261.238953 84.943344 5.463983 0.493873
261.240326 84.960464 4.821392 0.533701
261.292145 85.609261 4.113233 0.513848
261.286194 85.534477 3.512358 0.511642
261.266785 85.291977 2.918068 0.503431
260.938141 81.177856 2.373342 0.506495
261.135712 83.651108 1.667259 0.553676
261.140320 83.708649 1.003899 0.580392
261.138214 83.682030 0.335266 0.578186
261.370514 86.590469 0.000006 0.550735
261.681244 90.480278 0.000003 0.541544
261.879639 92.963966 0.000067 0.535294
262.017517 94.689987 0.000082 0.517770
262.119080 95.961662 0.000100 0.535049
260.908020 82.670700 7.342827 0.521078
261.130432 85.229630 6.052028 0.512990
261.133636 85.266327 5.407011 0.524265
261.116241 85.066521 4.807244 0.507721
261.149170 85.445450 4.133379 0.505882
261.205078 86.088593 3.467633 0.509436
261.181335 85.815483 2.892788 0.516912
261.093079 84.799805 2.314066 0.509804
nan nan nan 0.000000
259.229950 63.362213 -0.000005 0.332598
260.642914 79.620262 -0.000006 0.528676
261.249573 86.600609 0.000013 0.536274
261.587433 90.488083 0.000000 0.542892
261.803162 92.970200 0.000040 0.568873
261.953064 94.695213 0.000050 0.497181
262.063538 95.966164 0.000069 0.500613
260.815491 83.277679 7.193490 0.506495
260.975067 84.976288 6.109544 0.508578
261.033844 85.602097 5.347797 0.511152
261.029663 85.557381 4.735885 0.507475
261.058533 85.864868 4.086263 0.523407
261.060364 85.884155 3.485396 0.515564
260.695068 81.995750 3.081829 0.524020
260.652863 81.546631 2.367733 0.508946
nan nan nan 0.000000
258.946808 63.387226 -0.000034 0.536029
260.473297 79.635452 -0.000017 0.540686
261.128693 86.611420 -0.000001 0.537010
261.493683 90.496483 -0.000012 0.548284
261.726715 92.976990 0.000018 0.514093
261.888702 94.700943 0.000029 0.513358
262.007996 95.971123 0.000051 0.545711
260.667023 83.248100 7.204473 0.510662
260.833740 84.898827 6.129156 0.508333
260.851990 85.079811 5.445594 0.489093
260.871643 85.274315 4.779948 0.515441
260.880646 85.363235 4.145685 0.502941
260.915802 85.711571 3.500630 0.513113
260.950500 86.055008 2.882133 0.509926
nan nan nan 0.000000
nan nan nan 0.000000
258.663971 63.414917 -0.000028 0.536029
260.303833 79.652054 -0.000011 0.532475
261.007904 86.623253 0.000006 0.523652
261.400024 90.505646 -0.000007 0.548407
261.650360 92.984718 0.000071 0.514216
261.824371 94.707474 0.000086 0.549387
261.952576 95.976730 0.000103 0.529779
260.561768 83.624336 7.113479 0.513603
260.702698 84.928360 6.125753 0.506127
260.732361 85.203117 5.425542 0.534436
260.753174 85.395683 4.763869 0.519485
260.727661 85.159492 4.170827 0.514093
260.765564 85.510330 3.518323 0.515686
260.761841 85.475960 2.911390 0.534191
260.361847 81.774162 2.364508 0.522794
nan nan nan 0.000000
258.381287 63.444588 -0.000021 0.542892
260.134491 79.669830 -0.000005 0.549510
260.887207 86.635933 0.000012 0.539461
261.306396 90.515472 -0.000001 0.545098
261.574036 92.992531 0.000041 0.537132
261.760040 94.714050 0.000055 0.555760
261.897125 95.982399 0.000072 0.568260
260.637207 85.525551 6.638090 0.546201
260.571869 84.958092 6.122506 0.513971
260.577148 85.003891 5.464700 0.525858
260.591827 85.131645 4.805450 0.505024
260.607422 85.267044 4.160064 0.514828
260.663788 85.756622 3.499177 0.513603
260.755463 86.553078 2.858835 0.513971
nan nan nan 0.000000
nan nan nan 0.000000
258.098816 63.475971 -0.000028 0.539216
259.965210 79.688614 -0.000012 0.523897
260.766571 86.649323 0.000005 0.529534
261.212830 90.525856 -0.000009 0.536642
261.497772 93.000999 0.000032 0.544608
261.695770 94.721069 0.000023 0.519485
261.841644 95.988243 -0.000014 0.517647
260.218018 83.161049 7.238619 0.513971
260.455658 85.105705 6.093804 0.509436
260.270569 83.591011 5.726566 0.492279
260.240631 83.345993 5.074621 0.507598
260.245697 83.387642 4.379670 0.566422
260.573547 86.070549 3.474489 0.505270
260.613403 86.396667 2.867288 0.522672
nan nan nan 0.000000
nan nan nan 0.000000
257.816620 63.509609 -0.000021 0.535172
259.796143 79.708755 -0.000007 0.538971
260.645996 86.663498 -0.000010 0.537623
261.119385 90.537018 0.000001 0.543995
261.421631 93.010338 0.000087 0.543382
261.631592 94.728683 0.000021 0.550980
261.786346 95.995033 0.000041 0.545221
260.358856 85.388885 6.680529 0.510049
260.359131 85.391129 6.035242 0.505515
260.067017 83.131866 5.814078 0.507108
260.100983 83.394432 5.070076 0.517770
260.333771 85.195137 4.172094 0.511397
260.461975 86.186539 3.466193 0.504534
260.440430 86.019928 2.886711 0.512745
nan nan nan 0.000000
nan nan nan 0.000000
257.534576 63.544949 -0.000027 0.534559
259.627197 79.729942 -0.000011 0.537745
260.525604 86.678589 -0.000015 0.532843
261.025970 90.548721 -0.000005 0.538725
261.345459 93.019737 0.000057 0.523039
261.567444 94.736610 -0.000010 0.551961
261.731018 96.001877 0.000014 0.549020
260.233551 85.435570 6.673069 0.507843
260.261292 85.639023 5.984947 0.514216
260.031555 83.954475 5.666553 0.551103
259.953583 83.382889 5.074654 0.510417
260.205292 85.228416 4.170245 0.509314
260.230804 85.415512 3.531359 0.507966
259.834686 82.511429 3.061492 0.536029
nan nan nan 0.000000
nan nan nan 0.000000
257.252869 63.582504 -0.000021 0.536397
259.458405 79.752441 -0.000005 0.535784
260.405273 86.694626 -0.000008 0.536029
260.932648 90.561150 0.000001 0.565319
261.269440 93.030151 0.000112 0.541789
261.503387 94.745369 0.000045 0.533088
261.675781 96.009407 0.000062 0.567279
260.182343 85.995453 6.535956 0.511397
260.174835 85.943428 5.922426 0.506618
259.862518 83.767052 5.704590 0.512377
259.913147 84.119667 4.967247 0.510662
260.077667 85.266281 4.167965 0.518995
260.126831 85.608780 3.516847 0.508088
260.204102 86.147232 2.882084 0.509926
nan nan nan 0.000000
nan nan nan 0.000000
256.971375 63.621883 -0.000021 0.534314
259.289734 79.776039 -0.000005 0.537745
260.285095 86.711449 -0.000009 0.548162
260.839447 90.574181 -0.000001 0.555515
261.193420 93.040688 0.000094 0.550000
261.439362 94.754242 0.000026 0.548897
261.620575 96.016922 0.000009 0.534436
nan nan nan 0.000000
259.935059 85.202705 6.088243 0.500490
259.712524 83.725487 5.716044 0.514706
259.816498 84.415916 4.925857 0.506618
259.949646 85.299713 4.166303 0.533456
259.991516 85.577553 3.520994 0.506005
259.759491 84.037338 2.987812 0.506005
nan nan nan 0.000000
nan nan nan 0.000000
256.690155 63.663101 -0.000028 0.535784
259.121246 79.800735 -0.000013 0.542525
260.165009 86.729057 -0.000015 0.535662
260.746307 90.587837 -0.000008 0.514951
261.117493 93.051666 0.000059 0.535294
261.375366 94.763496 -0.000008 0.510907
261.565399 96.024902 -0.000024 0.537868
nan nan nan 0.000000
nan nan nan 0.000000
259.563263 83.694298 5.725791 0.514706
259.672668 84.387741 4.933240 0.510784
259.821716 85.332306 4.164842 0.520833
259.915863 85.928902 3.493468 0.512623
259.775085 85.036842 2.939166 0.519363
247.512527 7.324897 3.600237 0.616667
247.512527 7.324897 0.399761 0.564216
256.409271 63.706585 -0.000020 0.533211
258.952972 79.826767 -0.000006 0.536397
260.045044 86.747627 -0.000008 0.536274
260.653290 90.602242 0.000000 0.539951
261.041565 93.062912 -0.000024 0.536029
261.311462 94.773338 -0.000010 0.535172
261.510284 96.033287 -0.000053 0.528554
247.079239 8.892715 26.124866 0.563971
259.398071 83.571327 6.454363 0.512990
259.270081 82.795341 5.895773 0.521569
259.398407 83.573303 5.058989 0.508456
259.694153 85.366074 4.163345 0.511275
259.663330 85.179405 3.557437 0.506005
259.628601 84.968719 2.943616 0.511887
247.079239 8.892715 3.576040 0.580392
247.079239 8.892723 0.423960 0.450368
256.128662 63.751701 -0.000028 0.538603
258.784851 79.853798 -0.000014 0.532966
259.925232 86.766876 -0.000017 0.538725
260.560364 90.617180 -0.000008 0.531250
260.965881 93.075409 0.000028 0.531373
261.247681 94.783882 0.000044 0.568995
261.455292 96.042374 -0.000001 0.532475
246.396286 8.888748 26.154280 0.653064
259.246826 83.541382 6.466171 0.507108
246.396286 8.888748 19.545900 0.538113
259.381165 84.321716 4.949941 0.532598
259.343201 84.101151 4.313550 0.521324
259.534973 85.215202 3.556292 0.513848
259.428833 84.598785 2.963168 0.518995
246.396286 8.888756 3.577960 0.570343
246.396286 8.888756 0.422040 0.537377
255.848419 63.798958 -0.000027 0.533578
258.616913 79.882133 -0.000011 0.529412
259.805542 86.787079 -0.000014 0.531250
260.467529 90.632835 -0.000006 0.546324
260.890167 93.088058 0.000009 0.535907
261.183929 94.794525 0.000021 0.518627
261.400330 96.051689 0.000013 0.551348
245.711624 8.884764 26.184946 0.570466
245.711624 8.884764 22.853176 0.608456
259.120300 83.653732 5.746468 0.506618
245.711624 8.884771 16.322094 0.623407
259.440002 85.436523 4.160316 0.505760
259.216217 84.188484 3.643733 0.506373
259.087494 83.470787 3.020650 0.507108
245.711624 8.884779 3.579965 0.654167
245.711624 8.884779 0.420035 0.653799
255.568512 63.848270 -0.000021 0.533824
