# This PCD file was generated using the MATLABÂ® pcwrite function
# from Computer Vision ToolboxÂ®.
# .PCD v.7 - Point Cloud Data file format
VERSION .7
FIELDS x y z intensity
SIZE 4 4 4 4
TYPE F F F F
COUNT 1 1 1 1
WIDTH 1325
HEIGHT 1
VIEWPOINT 0 0 0 1 0 0 0
POINTS 1325
DATA ascii
364.851166 101.806564 -0.000017 0.532108
363.611481 102.107819 -0.000007 0.519118
385.312500 96.616035 9.607128 0.791912
385.312500 96.616035 8.559153 0.496691
385.312500 96.616035 7.525891 0.694485
385.312500 96.616035 6.504869 0.502328
385.312500 96.616035 5.493713 0.545098
385.312500 96.616035 4.490145 0.476348
385.312500 96.616035 3.491951 0.591054
385.312500 96.616035 2.496961 0.644118
385.312500 96.616035 1.503038 0.625490
385.312500 96.616035 0.508049 0.617525
379.512970 98.068336 0.000073 0.549755
372.716675 99.770264 0.000069 0.538358
368.931702 100.718079 0.000026 0.525123
366.515076 101.323242 0.000031 0.529779
364.835693 101.743797 -0.000022 0.549877
363.598175 102.053688 -0.000019 0.567647
385.312531 96.397079 9.620636 0.650490
385.312531 96.397079 8.570801 0.442157
385.312531 96.397072 7.535705 0.422304
385.312531 96.397079 6.512867 0.448652
385.312531 96.397079 5.499917 0.490074
385.312531 96.397079 4.494566 0.455147
385.312531 96.397079 3.494600 0.550613
385.312531 96.397079 2.497844 0.476348
385.312531 96.397079 1.502156 0.600490
385.312531 96.397079 0.505400 0.606740
379.470703 97.903389 0.000101 0.529657
372.686523 99.652702 0.000098 0.530270
368.908325 100.626900 0.000055 0.536765
366.496033 101.248909 0.000055 0.525490
364.819672 101.681160 0.000001 0.556863
363.584351 101.999687 0.000009 0.508824
385.312500 96.177338 9.634565 0.661887
385.312500 96.177338 8.582811 0.654779
385.312500 96.177338 7.545823 0.461029
385.312500 96.177338 6.521116 0.613971
385.312500 96.177338 5.506314 0.528309
385.312500 96.177338 4.499125 0.578922
385.312500 96.177338 3.497332 0.634681
385.312500 96.177338 2.498754 0.419608
385.312500 96.177338 1.501246 0.719975
385.312500 96.177338 0.502668 0.641176
379.427795 97.738617 0.000087 0.544118
372.655914 99.535248 0.000085 0.542647
368.884583 100.535812 0.000041 0.526226
366.476715 101.174644 0.000042 0.529289
364.803345 101.618607 -0.000011 0.559926
363.570282 101.945747 -0.000003 0.550735
385.312531 95.956787 9.648917 0.442157
385.312531 95.956787 8.595186 0.523284
385.312531 95.956787 7.556250 0.556250
385.312531 95.956787 6.529616 0.460049
385.312531 95.956787 5.512906 0.478799
385.312531 95.956787 4.503825 0.637377
385.312531 95.956787 3.500147 0.636887
385.312531 95.956787 2.499691 0.450980
385.312531 95.956787 1.500308 0.581618
385.312531 95.956787 0.499853 0.509191
379.383392 97.574226 0.000100 0.536029
372.624268 99.418083 0.000095 0.532843
368.860077 100.444939 0.000054 0.552451
366.456696 101.100571 0.000055 0.533333
364.786194 101.556274 0.000071 0.560172
363.555756 101.891937 0.000010 0.542647
385.312531 95.735382 9.663700 0.440809
385.312531 95.735382 8.607933 0.660049
385.312531 95.735382 7.566987 0.622426
385.312531 95.735382 6.538370 0.516054
385.312531 95.735390 5.519694 0.499755
385.312531 95.735382 4.508663 0.698039
385.312531 95.735382 3.503045 0.620343
385.312531 95.735382 2.500657 0.599510
385.312531 95.735382 1.499342 0.523407
385.312531 95.735382 0.496954 0.530760
379.338165 97.410065 0.000086 0.535172
372.592041 99.301079 0.000082 0.537868
368.835052 100.354195 0.000041 0.546569
366.436340 101.026588 0.000040 0.562500
364.769043 101.493950 0.000057 0.514828
363.540894 101.838203 0.000007 0.510662
385.312531 95.513123 9.678916 0.454534
385.312531 95.513123 8.621050 0.471814
385.312531 95.513123 7.578039 0.614706
385.312531 95.513123 6.547380 0.614093
385.312531 95.513123 5.526684 0.615196
385.312531 95.513123 4.513643 0.566667
385.312531 95.513123 3.506030 0.558088
385.312531 95.513123 2.501652 0.449632
385.312531 95.513123 1.498348 0.530882
385.312531 95.513123 0.493970 0.557966
379.291779 97.246216 0.000073 0.540074
372.558990 99.184296 0.000068 0.543137
368.809448 100.263634 0.000027 0.516422
366.415436 100.952759 0.000027 0.552451
364.751404 101.431747 0.000044 0.500735
363.525726 101.784576 -0.000005 0.522549
385.312531 95.289955 9.694567 0.636520
385.312531 95.289955 8.634544 0.509436
385.312531 95.289955 7.589406 0.549142
385.312531 95.289955 6.556649 0.608456
385.312531 95.289963 5.533870 0.662377
385.312531 95.289955 4.518767 0.626348
385.312531 95.289963 3.509099 0.661397
385.312531 95.289963 2.502673 0.487990
385.312531 95.289963 1.497326 0.655025
385.312531 95.289963 0.490900 0.640686
379.243805 97.082848 0.000101 0.535294
372.524780 99.067848 0.000096 0.542770
368.782898 100.173317 0.000054 0.538235
366.393799 100.879135 0.000054 0.523162
364.733215 101.369720 0.000069 0.532475
363.510010 101.731087 0.000021 0.534069
385.312531 95.065872 9.710655 0.601593
385.312531 95.065880 8.648417 0.450980
385.312531 95.065880 7.601096 0.577819
385.312531 95.065872 6.566177 0.514093
385.312531 95.065872 5.541260 0.532843
385.312531 95.065880 4.524034 0.612010
385.312531 95.065880 3.512255 0.532230
385.312531 95.065872 2.503725 0.451225
385.312531 95.065872 1.496275 0.574142
385.312531 95.065880 0.487745 0.606127
379.195251 96.919640 0.000078 0.530637
372.490173 98.951523 0.000073 0.538235
368.756042 100.083099 0.000033 0.524632
366.371918 100.805588 0.000032 0.553676
364.714783 101.307762 0.000047 0.518015
363.494110 101.677673 0.000002 0.554657
385.312500 94.840843 9.727192 0.551961
385.312531 94.840843 8.662677 0.579044
385.312500 94.840843 7.613107 0.450858
385.312531 94.840843 6.575969 0.542402
385.312531 94.840843 5.548855 0.465931
385.312500 94.840851 4.529448 0.601103
385.312500 94.840843 3.515498 0.476348
385.312500 94.840843 2.504806 0.450980
385.312500 94.840843 1.495194 0.502451
385.312500 94.840843 0.484501 0.646936
379.145447 96.756798 0.000064 0.538235
372.454681 98.835464 0.000059 0.526593
368.728546 99.993088 0.000017 0.514583
366.349457 100.732208 0.000018 0.528064
364.695862 101.245941 0.000034 0.541544
363.477814 101.624359 -0.000012 0.566912
385.312500 94.614830 9.744176 0.495588
385.312500 94.614830 8.677322 0.593015
385.312500 94.614830 7.625446 0.482353
385.312500 94.614830 6.586028 0.666422
385.312500 94.614830 5.556655 0.557598
385.312500 94.614830 4.535007 0.534804
385.312500 94.614830 3.518828 0.450980
385.312500 94.614838 2.505914 0.606005
385.312500 94.614838 1.494086 0.522549
385.312500 94.614830 0.481170 0.664093
379.094055 96.594467 0.000092 0.536029
372.418060 98.719749 0.000086 0.535172
368.700134 99.903343 0.000043 0.521691
366.326294 100.659050 0.000046 0.519118
364.676361 101.184311 0.000062 0.528799
363.460999 101.571220 0.000015 0.539951
385.312531 94.387810 9.761617 0.431005
385.312531 94.387810 8.692358 0.614951
385.312531 94.387810 7.638113 0.548162
385.312531 94.387810 6.596355 0.490931
385.312500 94.387817 5.564663 0.493750
385.312500 94.387810 4.540715 0.468873
385.312500 94.387817 3.522249 0.450980
385.312531 94.387810 2.507054 0.419730
385.312531 94.387810 1.492946 0.480515
385.312500 94.387817 0.477750 0.571691
379.041992 96.432343 0.000078 0.538358
372.380951 98.604202 0.000073 0.539828
368.671356 99.813736 0.000031 0.532353
366.302856 100.585991 0.000033 0.550735
364.656616 101.122757 0.000045 0.545343
363.443756 101.518211 0.000048 0.531985
385.312500 94.159752 9.779514 0.530147
385.312500 94.159752 8.707790 0.659191
385.312500 94.159752 7.651114 0.675123
385.312500 94.159760 6.606953 0.551593
385.312500 94.159752 5.572885 0.659681
385.312500 94.159752 4.546575 0.421691
385.312500 94.159752 3.525760 0.630760
385.312500 94.159752 2.508223 0.450980
385.312500 94.159752 1.491777 0.667157
385.312500 94.159752 0.474240 0.545956
378.988312 96.270744 0.000105 0.526961
372.342682 98.489021 0.000101 0.539338
368.641663 99.724403 0.000057 0.546691
366.278656 100.513161 0.000059 0.539216
364.636230 101.061409 0.000073 0.554167
363.426178 101.465309 0.000075 0.522304
nan nan nan 0.000000
nan nan nan 0.000000
nan nan nan 0.000000
nan nan nan 0.000000
391.822906 91.706863 6.372764 0.508824
nan nan nan 0.000000
391.752136 91.731026 3.863665 0.517402
nan nan nan 0.000000
nan nan nan 0.000000
394.376770 90.834541 0.000081 0.533456
378.934174 96.109306 0.000078 0.541912
372.304077 98.373955 0.000073 0.543627
368.611725 99.635162 0.000030 0.526961
366.254211 100.440437 0.000044 0.562623
364.615662 101.000114 0.000046 0.542034
363.408447 101.412460 0.000048 0.532475
nan nan nan 0.000000
nan nan nan 0.000000
nan nan nan 0.000000
nan nan nan 0.000000
391.475922 91.546997 6.341041 0.519730
390.238098 91.979485 4.986563 0.508456
391.572205 91.513367 3.858802 0.512010
nan nan nan 0.000000
nan nan nan 0.000000
394.284210 90.565826 0.000067 0.535907
378.878723 95.948311 0.000065 0.540074
372.264587 98.259193 0.000058 0.541176
368.581116 99.546165 0.000016 0.528799
366.229218 100.367882 0.000030 0.558701
364.594604 100.938988 0.000033 0.541176
363.390289 101.359764 0.000038 0.538848
nan nan nan 0.000000
nan nan nan 0.000000
nan nan nan 0.000000
nan nan nan 0.000000
391.313110 91.325432 6.331871 0.508946
390.466644 91.627815 5.013841 0.508333
391.498779 91.259109 3.859560 0.518382
nan nan nan 0.000000
nan nan nan 0.000000
394.188995 90.298042 0.000095 0.538358
378.821686 95.787865 0.000092 0.531618
372.223907 98.144844 0.000086 0.538113
368.549561 99.457481 0.000043 0.535294
366.203522 100.295578 0.000057 0.544608
364.572937 100.878075 0.000058 0.525123
363.371643 101.307236 0.000062 0.548162
nan nan nan 0.000000
390.739838 91.254890 10.021441 0.509926
nan nan nan 0.000000
389.070526 91.864418 7.245566 0.512623
391.270233 91.061234 6.337554 0.514706
389.929199 91.550880 4.974535 0.509314
390.885468 91.201714 3.832181 0.518260
393.165802 90.369095 2.650016 0.511520
nan nan nan 0.000000
394.092743 90.030640 0.000081 0.538603
378.764008 95.627647 0.000076 0.531127
372.182800 98.030655 0.000071 0.532598
368.517670 99.368912 0.000028 0.551716
366.177521 100.223381 0.000042 0.542034
364.551056 100.817261 0.000045 0.540809
363.352753 101.254799 0.000050 0.542525
390.696167 90.994438 11.315382 0.502451
390.696075 90.994476 10.032054 0.516422
nan nan nan 0.000000
389.523438 91.431946 7.330814 0.511520
392.893494 90.174706 6.548057 0.513480
390.262115 91.156364 5.011347 0.517157
389.007477 91.624435 3.738437 0.508946
391.860107 90.560204 2.628888 0.517034
nan nan nan 0.000000
393.993805 89.764214 0.000108 0.533088
378.704712 95.468025 0.000104 0.527941
372.140564 97.916878 0.000098 0.533333
368.484924 99.280670 0.000056 0.526471
366.150818 100.151443 0.000070 0.550123
364.528534 100.756653 0.000071 0.515686
363.333374 101.202538 0.000076 0.555270
390.998291 90.601486 11.420920 0.508824
392.631195 89.979286 10.500484 0.541789
390.639008 90.738388 8.773487 0.519363
389.467651 91.184723 7.336006 0.510294
390.683197 90.721542 6.287942 0.506005
389.535187 91.158981 4.955498 0.509436
388.787598 91.443840 3.731461 0.507721
391.444855 90.431320 2.623274 0.507598
nan nan nan 0.000000
393.894073 89.498093 0.000081 0.532475
378.644958 95.308578 0.000076 0.533824
372.097961 97.803230 0.000072 0.546691
368.451874 99.192543 0.000031 0.525245
366.123871 100.079597 0.000043 0.535049
364.505890 100.696114 0.000044 0.540931
363.313782 101.150345 0.000049 0.480147
391.019196 90.311615 11.451896 0.509559
390.301056 90.591011 9.983355 0.519608
389.949371 90.727837 8.657076 0.510417
389.503632 90.901245 7.356096 0.510294
390.430389 90.540703 6.268273 0.512868
388.982330 91.104073 4.914809 0.530147
389.166626 91.032356 3.756101 0.526103
391.235199 90.227570 2.621270 0.516054
nan nan nan 0.000000
393.792206 89.232765 0.000067 0.532966
378.583954 95.149605 0.000062 0.538113
372.054810 97.689796 0.000015 0.537500
368.418152 99.104668 0.000016 0.539828
366.096344 100.007957 0.000029 0.539583
364.482697 100.635765 0.000031 0.533701
363.293823 101.098305 0.000032 0.543137
389.466492 90.644768 11.059395 0.518137
389.849609 90.492630 9.900379 0.511275
389.894379 90.474846 8.664608 0.517647
389.539459 90.615807 7.376531 0.507475
390.080017 90.401131 6.236637 0.529779
389.157745 90.767372 4.938297 0.513603
388.997620 90.830971 3.751993 0.509191
390.953217 90.054367 2.618012 0.512010
nan nan nan 0.000000
393.687744 88.968460 0.000094 0.539706
378.521362 94.991249 0.000089 0.539706
372.010193 97.576927 0.000043 0.545343
368.383545 99.017128 0.000043 0.544240
366.068176 99.936600 0.000055 0.538235
364.458954 100.575645 0.000058 0.545221
363.273315 101.046463 0.000058 0.550000
390.792755 89.834915 11.443254 0.520098
389.595825 90.319923 9.863406 0.522426
389.913452 90.191223 8.687038 0.521569
389.575134 90.328316 7.397323 0.509926
389.838745 90.221489 6.218570 0.512132
388.238373 90.870003 4.865197 0.517524
388.110901 90.921646 3.709905 0.520343
392.763428 89.036362 2.651708 0.524510
nan nan nan 0.000000
393.581970 88.704674 0.000091 0.536887
378.458130 94.833153 0.000075 0.531127
371.965149 97.464233 0.000028 0.532108
368.348572 98.929733 0.000028 0.545098
366.039642 99.865356 0.000041 0.537745
364.434937 100.515625 0.000044 0.525368
363.252625 100.994713 0.000044 0.540196
390.679352 89.597008 11.439534 0.512255
389.551514 90.063210 9.875546 0.508333
390.013977 89.872032 8.725970 0.513726
391.881775 89.099953 7.783004 0.519975
389.599152 90.043510 6.200817 0.507475
388.305267 90.578369 4.879333 0.512255
389.127777 90.238373 3.768853 0.515319
nan nan nan 0.000000
nan nan nan 0.000000
393.474030 88.441765 0.000106 0.537377
378.393433 94.675629 0.000090 0.539461
371.919037 97.351959 0.000043 0.526838
368.312836 98.842659 0.000043 0.520466
366.010529 99.794365 0.000057 0.538113
364.410370 100.455818 0.000058 0.508701
363.231445 100.943146 0.000057 0.576103
390.970032 89.188934 11.546107 0.513480
390.035675 89.582840 10.012012 0.516544
389.890167 89.644180 8.721149 0.596446
389.264221 89.908066 7.378512 0.512500
388.986145 90.025284 6.136546 0.518505
388.234009 90.342354 4.881396 0.514338
389.574524 89.777252 3.797833 0.517647
391.916382 88.789986 2.640438 0.518750
nan nan nan 0.000000
393.364807 88.179382 0.000092 0.535172
378.328003 94.518425 0.000075 0.546201
371.872375 97.239914 0.000029 0.536029
368.276581 98.755791 0.000041 0.536152
365.981018 99.723526 0.000043 0.537623
364.385529 100.396133 0.000043 0.540564
363.210022 100.891685 0.000045 0.505270
389.286804 89.622833 11.115593 0.514216
389.366638 89.588516 9.878580 0.509681
389.241608 89.642265 8.612700 0.515196
389.280548 89.625519 7.397160 0.507475
389.067596 89.717049 6.159058 0.491422
388.167633 90.103859 4.884048 0.509926
389.369415 89.587318 3.792216 0.508333
390.510437 89.096901 2.617302 0.567892
390.456482 89.120079 1.383659 0.571446
390.482666 89.108833 0.148254 0.593382
378.261017 94.361877 0.000102 0.539828
371.824646 97.128326 0.000055 0.532475
368.239563 98.669250 0.000068 0.544485
365.950867 99.652977 0.000067 0.537500
364.360107 100.336700 0.000070 0.547304
363.188110 100.840439 0.000070 0.541422
388.256958 89.796646 10.861621 0.522304
389.172180 89.395683 9.856627 0.518873
388.754120 89.578835 8.535929 0.511029
389.601776 89.207458 7.465558 0.521691
388.555084 89.666023 6.107307 0.514216
389.135834 89.411606 4.979470 0.515441
389.324921 89.328766 3.795268 0.508701
390.367401 88.872040 2.616619 0.557966
390.292206 88.904976 1.384724 0.585539
390.173859 88.956825 0.159199 0.605760
378.193390 94.205605 0.000087 0.543260
371.776428 97.016945 0.000041 0.536520
368.202179 98.582870 0.000054 0.533578
365.920380 99.582550 0.000054 0.548897
364.334412 100.277374 0.000055 0.524755
363.165955 100.789284 0.000056 0.534559
388.837891 89.266800 11.048387 0.512500
388.474945 89.428841 9.716013 0.530637
387.767151 89.744843 8.359473 0.517402
388.306946 89.503838 7.272118 0.524265
388.073639 89.608017 6.059351 0.515319
387.923767 89.674919 4.879847 0.509681
390.581512 88.488335 3.868427 0.527941
391.612396 88.028114 2.640837 0.500613
nan nan nan 0.000000
393.025452 87.397240 0.000089 0.533456
378.124664 94.049805 0.000073 0.531985
371.727478 96.905899 0.000027 0.564706
368.164185 98.496750 0.000039 0.531495
365.889404 99.512344 0.000040 0.535049
364.308319 100.218231 0.000043 0.535907
363.143463 100.738289 0.000046 0.516422
389.175964 88.835983 11.169930 0.520588
390.876892 88.062302 10.310241 0.509314
388.344513 89.214180 8.494919 0.524387
388.382141 89.197060 7.300979 0.513726
389.586121 88.649429 6.263293 0.584314
388.272552 89.246902 4.920340 0.515196
388.052704 89.346901 3.737833 0.526838
392.316071 87.407684 2.655507 0.507353
nan nan nan 0.000000
392.908386 87.138260 0.000105 0.538971
378.054565 93.894638 0.000088 0.533824
371.677460 96.795303 0.000043 0.557476
368.125427 98.410973 0.000053 0.551593
365.857788 99.442429 0.000056 0.518382
364.281708 100.159317 0.000057 0.571936
363.120514 100.687500 0.000061 0.526961
388.921112 88.672386 11.129010 0.510049
388.711182 88.769646 9.821407 0.529412
389.524445 88.392853 8.752394 0.514951
nan nan nan 0.000000
390.445618 87.966072 6.385952 0.525245
387.723602 89.227196 4.880107 0.512132
388.637054 88.803993 3.775050 0.515564
392.345337 87.085907 2.658139 0.529167
nan nan nan 0.000000
392.790070 86.879860 0.000091 0.536887
377.983673 93.739815 0.000074 0.537745
371.626953 96.684952 0.000028 0.523897
368.086243 98.325394 0.000039 0.552451
365.825867 99.372650 0.000040 0.545588
364.254791 100.100540 0.000044 0.536887
363.097321 100.636818 0.000047 0.570833
388.828979 88.434540 11.133333 0.527574
388.329376 88.670250 9.755797 0.528309
387.983459 88.833466 8.464430 0.509559
388.714905 88.488342 7.389967 0.510172
388.120728 88.768684 6.104562 0.513480
388.233276 88.715584 4.935732 0.516912
387.960968 88.844063 3.744129 0.515931
392.711670 86.602592 2.666921 0.507353
nan nan nan 0.000000
392.669220 86.622635 0.000117 0.535539
377.911285 93.585701 0.000100 0.544485
371.575317 96.575104 0.000054 0.519608
368.046204 98.240196 0.000065 0.534926
365.793243 99.303200 0.000067 0.544485
364.227295 100.042023 0.000069 0.531005
363.073608 100.586365 0.000072 0.556005
390.153717 87.515747 11.531878 0.512377
387.953613 88.572624 9.691590 0.521936
387.803955 88.644539 8.449717 0.506985
388.591614 88.266151 7.387623 0.516299
388.785034 88.173225 6.203014 0.517770
389.175323 87.985748 5.031200 0.519485
387.805664 88.643715 3.741470 0.513358
391.972473 86.642044 2.655720 0.512377
nan nan nan 0.000000
392.547302 86.365898 0.000102 0.532843
377.838226 93.431885 0.000086 0.534436
371.523285 96.465462 0.000041 0.536642
368.005829 98.155174 0.000051 0.534926
365.760315 99.233887 0.000053 0.533701
364.199585 99.983627 0.000053 0.492525
363.049713 100.536011 0.000058 0.532966
nan nan nan 0.000000
387.907623 88.318375 9.706598 0.502819
387.624664 88.456749 8.435265 0.509436
390.721222 86.942505 7.757530 0.514951
388.152802 88.198486 6.136291 0.501961
388.731995 87.915237 5.001011 0.492892
387.868774 88.337364 3.750824 0.505147
nan nan nan 0.000000
nan nan nan 0.000000
392.423615 86.110031 0.000088 0.542034
377.764099 93.278580 0.000072 0.533088
371.470459 96.356201 0.000027 0.547917
367.964874 98.070427 0.000036 0.539461
365.726898 99.164803 0.000039 0.568627
364.171448 99.925438 0.000042 0.533578
363.025452 100.485832 0.000044 0.510294
nan nan nan 0.000000
390.591187 86.704552 10.380594 0.503922
390.812164 86.594574 9.105316 0.509681
390.239655 86.879509 7.697598 0.512990
389.036469 87.478317 6.264113 0.527574
388.687225 87.652122 5.007264 0.517524
394.506409 84.756012 4.121103 0.662010
394.406067 84.805946 2.704695 0.704657
394.406067 84.805946 1.295305 0.710049
392.297485 85.855354 0.000109 0.534804
377.688538 93.125992 0.000093 0.534681
371.416595 96.247429 0.000047 0.537500
367.923096 97.986084 0.000059 0.539461
365.692871 99.096039 0.000060 0.503922
364.142761 99.867500 0.000062 0.532108
363.000977 100.435745 -0.000010 0.524877
nan nan nan 0.000000
nan nan nan 0.000000
393.839233 84.756004 9.747660 0.655515
394.144287 84.601524 8.366840 0.756863
388.900604 87.257050 6.261569 0.512990
388.460602 87.479881 4.996993 0.520221
393.839233 84.756004 4.091810 0.662623
394.036682 84.656021 2.700394 0.741176
394.036682 84.656021 1.299606 0.741176
392.170258 85.601234 0.000095 0.537132
377.612274 92.973740 0.000079 0.546691
371.362244 96.138908 0.000034 0.538113
367.880981 97.901917 0.000044 0.517770
365.658508 99.027420 0.000044 0.555392
364.113800 99.809692 0.000046 0.530270
362.975861 100.385971 0.000014 0.545588
nan nan nan 0.000000
nan nan nan 0.000000
393.190216 84.756004 9.642493 0.654289
393.589417 84.550339 8.296995 0.741176
388.667725 87.086128 6.246655 0.538235
388.079956 87.388954 4.972590 0.506740
393.190216 84.756012 4.063417 0.669240
393.202484 84.749687 2.687540 0.103799
393.202484 84.749687 1.312459 0.104534
392.041229 85.348000 0.000080 0.537623
377.534973 92.822014 0.000065 0.539338
371.307129 96.030777 0.000021 0.526226
367.838226 97.818047 0.000029 0.535417
365.623657 98.959053 0.000031 0.531373
364.084442 99.752098 0.000035 0.531005
362.950562 100.336311 0.000001 0.530515
nan nan nan 0.000000
nan nan nan 0.000000
392.558563 84.755997 9.540508 0.661765
392.950958 84.550339 8.212959 0.741176
388.436523 86.916336 6.232058 0.509436
389.923096 86.137238 5.154018 0.513971
389.229401 86.500793 3.851231 0.518505
392.749329 84.656021 2.681668 0.741176
392.749329 84.656021 1.318333 0.741176
391.909729 85.096054 0.000106 0.536397
377.456177 92.671059 0.000090 0.536029
371.250946 95.923180 0.000046 0.504289
367.794678 97.734604 0.000054 0.538113
365.588135 98.891029 0.000057 0.555270
364.054565 99.694778 0.000057 0.511520
362.924805 100.286873 0.000016 0.503064
nan nan nan 0.000000
nan nan nan 0.000000
391.943481 84.756004 9.441559 0.641789
391.862915 84.798950 8.053034 0.763358
391.943481 84.756004 6.704884 0.664461
391.862915 84.798950 5.345921 0.762377
391.943481 84.756004 4.009166 0.672794
391.849792 84.805946 2.667506 0.703064
391.849792 84.805946 1.332493 0.723407
391.943481 84.756004 -0.009167 0.625123
377.376892 92.520386 0.000066 0.543137
371.194427 95.815788 0.000022 0.549877
367.750824 97.651314 0.000031 0.552941
365.552399 98.823120 0.000033 0.547181
364.024414 99.637589 0.000036 0.537255
362.898804 100.237572 0.000003 0.513480
nan nan nan 0.000000
nan nan nan 0.000000
391.344299 84.756004 9.345531 0.676103
391.644318 84.593414 8.038904 0.765319
391.344299 84.756004 6.644169 0.667034
391.644318 84.593414 5.338110 0.753922
389.316620 85.855072 3.869933 0.511152
391.528809 84.656013 2.664042 0.741176
391.528809 84.656013 1.335958 0.741176
391.344299 84.756012 0.016761 0.641789
377.295990 92.370544 0.000091 0.534926
371.136780 95.708984 0.000047 0.527083
367.706116 97.568481 0.000056 0.533333
365.515991 98.755600 0.000058 0.560539
363.994049 99.580521 -0.000017 0.551593
362.872467 100.188446 -0.000009 0.524265
nan nan nan 0.000000
nan nan nan 0.000000
390.760406 84.755997 9.252300 0.670956
390.997498 84.625336 7.952445 0.079902
390.760406 84.755997 6.585225 0.663971
391.133575 84.550346 5.303057 0.741176
390.669800 84.805923 3.952986 0.695711
390.760376 84.756012 2.652222 0.137990
390.760376 84.756012 1.347778 0.102696
390.760376 84.756012 0.041933 0.596201
377.214478 92.221046 0.000077 0.536152
371.078674 95.602425 0.000034 0.540686
367.661041 97.485847 0.000043 0.538971
365.479248 98.688225 0.000043 0.546201
363.962952 99.523857 0.000009 0.518995
362.845642 100.139572 0.000012 0.525858
nan nan nan 0.000000
393.247284 83.043839 11.257490 0.731863
390.191132 84.755997 9.161749 0.652941
390.558167 84.550346 7.900884 0.741176
390.114441 84.798943 6.517865 0.767647
390.558167 84.550346 5.261816 0.741176
390.101959 84.805923 3.928602 0.703186
390.369598 84.656013 2.647427 0.741176
390.369598 84.656013 1.352573 0.741176
390.191101 84.756012 0.066380 0.601838
377.131897 92.072113 0.000063 0.543627
371.019836 95.496277 0.000021 0.527083
367.615417 97.403526 0.000028 0.525000
365.442017 98.621124 0.000030 0.553309
363.931610 99.467308 -0.000006 0.557966
362.818604 100.090828 -0.000002 0.568995
nan nan nan 0.000000
392.174957 83.310120 11.027549 0.721201
389.635803 84.756004 9.073771 0.656863
389.635803 84.756004 7.766747 0.650000
389.635773 84.756004 6.472352 0.667402
389.635773 84.756004 5.187669 0.659069
389.548126 84.805939 3.904909 0.724387
389.431213 84.872505 2.632315 0.689216
389.431213 84.872505 1.367685 0.720833
389.635773 84.756004 0.090133 0.619730
377.047913 91.924004 0.000087 0.545343
370.959991 95.390694 0.000043 0.537010
367.569000 97.321648 0.000053 0.527574
365.404175 98.554375 0.000055 0.543015
363.899719 99.411057 0.000010 0.537623
362.791168 100.042320 0.000013 0.515074
nan nan nan 0.000000
391.156219 83.562523 10.809589 0.708701
389.093933 84.756012 8.988260 0.681373
389.189301 84.700813 7.713381 0.740686
389.189301 84.700813 6.430966 0.748407
389.189331 84.700813 5.158171 0.734436
389.007660 84.805931 3.881883 0.692892
389.093964 84.755997 2.628477 0.702574
389.093964 84.755997 1.371522 0.719730
388.916534 84.858673 0.123289 0.634681
376.963379 91.776192 0.000066 0.540319
370.899719 95.285347 0.000022 0.536765
367.522247 97.239944 0.000031 0.548407
365.366089 98.487755 0.000031 0.545711
363.867584 99.354958 -0.000003 0.529534
362.763428 99.993950 0.000002 0.525490
nan nan nan 0.000000
390.187134 83.802071 10.602732 0.698284
388.565002 84.756020 8.905130 0.671201
388.914764 84.550331 7.689451 0.741176
388.819397 84.606400 6.399684 0.763358
388.914764 84.550331 5.144943 0.741176
388.480103 84.805931 3.859498 0.696078
388.735046 84.656006 2.624230 0.045711
388.649261 84.706459 1.377399 0.621201
388.390472 84.858650 0.145611 0.632843
376.877319 91.629257 0.000090 0.536520
370.838379 95.180618 0.000047 0.522181
367.474731 97.158691 0.000046 0.541422
365.327698 98.421318 -0.000025 0.527451
363.835083 99.299088 -0.000017 0.571691
362.735382 99.945770 -0.000012 0.543627
nan nan nan 0.000000
389.264008 84.029716 10.406152 0.659559
388.048492 84.756004 8.824285 0.653064
388.269958 84.623680 7.601625 0.077941
388.269958 84.623688 6.344293 0.071814
388.269958 84.623688 5.096395 0.070343
387.986603 84.792992 3.838965 0.720833
388.215881 84.655983 2.616922 0.078186
388.299500 84.606018 1.381484 0.741176
387.876678 84.858658 0.167324 0.618750
376.790619 91.482689 0.000075 0.539461
370.776581 95.076157 0.000032 0.531250
367.426819 97.077675 0.000032 0.538848
365.288422 98.355370 -0.000003 0.507230
363.802002 99.243530 0.000008 0.551348
362.706909 99.897873 0.000011 0.549387
nan nan nan 0.000000
388.383575 84.246292 10.219127 0.725980
387.543884 84.756004 8.745636 0.656495
387.882690 84.550339 7.558032 0.741176
387.882690 84.550339 6.310486 0.741176
387.882690 84.550331 5.072299 0.741176
387.461670 84.805931 3.816546 0.698039
387.708740 84.655952 2.609812 0.044975
387.791016 84.606003 1.388612 0.741176
387.374786 84.858665 0.188446 0.630637
376.702942 91.336739 0.000061 0.531495
370.714081 94.972122 0.000018 0.541422
367.378326 96.996986 0.000018 0.553431
365.248932 98.289589 -0.000023 0.526961
363.768768 99.188087 -0.000020 0.529779
362.678192 99.850082 -0.000008 0.560417
nan nan nan 0.000000
387.542847 84.452599 10.040974 0.718260
387.050812 84.755997 8.669102 0.651226
387.050812 84.755997 7.436846 0.673162
387.050812 84.755997 6.216501 0.660417
387.050812 84.755997 5.005312 0.667892
386.850464 84.879532 3.789045 0.697304
387.050812 84.755997 2.599774 0.691054
387.050812 84.755997 1.400226 0.693627
387.050781 84.756004 0.199391 0.702941
376.613831 91.191643 0.000085 0.528186
370.650543 94.868706 0.000043 0.533456
367.329071 96.916786 0.000042 0.517524
365.208801 98.224197 0.000000 0.540564
363.734955 99.133003 0.000003 0.630270
362.649048 99.802582 0.000014 0.517647
nan nan nan 0.000000
386.839874 84.586174 9.896791 0.810539
386.804688 84.608223 8.645256 0.638480
386.804688 84.608223 7.417407 0.660662
386.804688 84.608223 6.201425 0.667402
386.804688 84.608223 4.994566 0.655637
386.804688 84.608223 3.794170 0.605147
386.804688 84.608223 2.597629 0.632475
386.804688 84.608223 1.402370 0.658701
386.804688 84.608223 0.205829 0.637377
376.524139 91.046875 0.000064 0.537990
370.586334 94.765701 0.000060 0.530025
367.279724 96.836624 -0.000016 0.525735
365.168365 98.158974 -0.000014 0.494118
363.700867 99.078064 -0.000009 0.533946
362.619659 99.755211 0.000002 0.569118
nan nan nan 0.000000
386.924103 84.230103 9.953219 0.701348
386.804688 84.306046 8.674603 0.634681
386.804688 84.306053 7.441332 0.677819
386.804688 84.306046 6.219979 0.669118
386.804688 84.306046 5.007791 0.655147
386.804688 84.306046 3.802094 0.662010
386.804688 84.306046 2.600268 0.653431
386.804688 84.306046 1.399731 0.691299
386.804688 84.306046 0.197905 0.631618
376.433044 90.903023 0.000086 0.541544
370.521423 94.663170 0.000084 0.527328
367.229370 96.757118 0.000008 0.536397
365.127289 98.094147 0.000009 0.529902
363.666260 99.023453 0.000015 0.547304
362.589844 99.708115 0.000023 0.556863
389.820770 82.053062 12.129077 0.631985
386.953735 83.904900 9.996515 0.768260
386.804688 84.001190 8.704538 0.627696
386.804688 84.001190 7.465734 0.670956
386.804688 84.001190 6.238904 0.629534
386.804688 84.001190 5.021282 0.672059
386.804688 84.001190 3.810176 0.641176
386.804688 84.001190 2.602961 0.660417
386.804688 84.001190 1.397039 0.665931
386.804688 84.001190 0.189823 0.638726
376.341309 90.759583 0.000073 0.527083
370.456024 94.560921 0.000069 0.536152
367.178619 96.677818 -0.000007 0.520956
365.085938 98.029510 -0.000003 0.540931
363.631439 98.968987 0.000001 0.506740
362.559814 99.661163 0.000011 0.480147
388.960968 82.279373 11.917648 0.688235
386.984070 83.575912 10.040765 0.701716
386.804688 83.693565 8.735072 0.664216
386.804657 83.693565 7.490627 0.664828
386.804688 83.693558 6.258211 0.668995
386.804657 83.693565 5.035040 0.642157
386.804688 83.693558 3.818419 0.670343
386.804688 83.693565 2.605706 0.621936
386.804688 83.693565 1.394293 0.665074
386.804688 83.693558 0.181579 0.663113
376.248199 90.617020 0.000096 0.533824
370.389648 94.459312 0.000091 0.539461
367.127411 96.598854 -0.000027 0.514461
365.044189 97.965141 -0.000023 0.551593
363.596252 98.914757 -0.000019 0.530760
362.529449 99.614403 -0.000009 0.576471
388.071198 82.539757 11.695746 0.808211
387.015076 83.243019 10.085990 0.598529
386.804657 83.383102 8.766216 0.652328
386.804688 83.383095 7.516018 0.679902
386.804657 83.383102 6.277901 0.645098
386.804657 83.383102 5.049075 0.663725
386.804657 83.383102 3.826830 0.658578
386.804688 83.383102 2.608508 0.651716
386.804688 83.383102 1.391491 0.663971
386.804657 83.383102 0.173170 0.634436
376.154510 90.474831 0.000076 0.537377
370.322906 94.357964 0.000071 0.537990
367.075378 96.520409 -0.000004 0.551471
365.001770 97.901184 0.000001 0.531250
363.560516 98.860878 0.000003 0.515564
362.498657 99.567955 0.000014 0.550000
388.169586 82.147064 11.771018 0.705760
387.046722 82.906120 10.132210 0.773775
386.804657 83.069748 8.797984 0.627819
386.804657 83.069748 7.541914 0.663848
386.804657 83.069748 6.297987 0.654412
386.804657 83.069748 5.063391 0.657966
386.804657 83.069748 3.835406 0.659926
386.804657 83.069748 2.611366 0.665809
386.804657 83.069748 1.388635 0.655882
386.804657 83.069748 0.164593 0.638971
376.059753 90.333328 0.000062 0.544485
370.255890 94.256744 -0.000019 0.539338
367.022980 96.442200 -0.000015 0.560294
364.959076 97.837418 -0.000013 0.542892
363.524536 98.807159 -0.000010 0.539461
362.467651 99.521622 -0.000000 0.541789
388.209900 81.789124 11.829833 0.784804
387.079102 82.565109 10.179448 0.714216
386.804688 82.753410 8.830385 0.669363
386.804688 82.753410 7.568331 0.658578
386.804688 82.753418 6.318472 0.658946
386.804688 82.753410 5.077992 0.662010
386.804688 82.753410 3.844155 0.653922
386.804688 82.753410 2.614279 0.640931
386.804688 82.753418 1.385721 0.653186
386.804688 82.753410 0.155845 0.651348
375.963654 90.192749 0.000085 0.540931
370.187408 94.156548 0.000006 0.540686
366.969879 96.364494 0.000008 0.540686
364.915771 97.774063 0.000009 0.520711
363.488068 98.753784 0.000012 0.557230
362.436188 99.475609 0.000021 0.549265
388.251099 81.426552 11.889970 0.712255
387.112183 82.219856 10.227733 0.774755
386.804688 82.434036 8.863433 0.653676
386.804657 82.434052 7.595271 0.671324
386.804657 82.434052 6.339365 0.675613
386.804657 82.434044 5.092884 0.655147
386.804657 82.434052 3.853076 0.651961
386.804657 82.434052 2.617250 0.650980
386.804657 82.434052 1.382749 0.679779
386.804657 82.434052 0.146923 0.638726
375.866974 90.052582 0.000071 0.539093
370.118530 94.056618 -0.000013 0.535294
366.916473 96.286987 -0.000012 0.535784
364.872223 97.710892 -0.000009 0.543873
363.451385 98.700562 -0.000005 0.538725
362.404541 99.429710 0.000003 0.507843
388.293213 81.059204 11.951459 0.759804
387.145966 81.870255 10.277084 0.689216
386.804688 82.111542 8.897142 0.652574
386.804688 82.111542 7.622751 0.672426
386.804688 82.111542 6.360677 0.663725
386.804688 82.111542 5.108073 0.659559
386.804657 82.111549 3.862176 0.661274
386.804688 82.111542 2.620282 0.653676
386.804688 82.111542 1.379718 0.656495
386.804657 82.111549 0.137822 0.665931
375.768951 89.913353 0.000093 0.534804
370.048889 93.957199 -0.000027 0.534191
366.862457 96.209900 -0.000023 0.537010
364.828186 97.648041 -0.000023 0.533946
363.414307 98.647606 -0.000018 0.535417
362.372589 99.384048 -0.000013 0.537377
388.276703 80.729691 11.995976 0.643627
387.180542 81.516174 10.327528 0.619730
386.804688 81.785851 8.931520 0.659191
386.804688 81.785851 7.650777 0.653676
386.804688 81.785858 6.382413 0.663725
386.804688 81.785851 5.123567 0.651471
386.804688 81.785851 3.871459 0.669853
386.804688 81.785851 2.623375 0.634926
386.804688 81.785851 1.376625 0.653676
386.804688 81.785851 0.128540 0.660662
375.670776 89.774231 0.000032 0.522181
369.978333 93.858459 -0.000005 0.540686
366.807739 96.133308 -0.000002 0.541176
364.783569 97.585602 0.000000 0.530147
363.376709 98.595009 0.000003 0.582598
362.340149 99.338699 0.000010 0.484436
nan nan nan 0.000000
387.215912 81.157463 10.379095 0.676348
386.804688 81.456871 8.966585 0.675245
386.804688 81.456871 7.679363 0.638603
386.804688 81.456871 6.404584 0.662990
386.804688 81.456871 5.139368 0.669485
386.804657 81.456879 3.880927 0.670343
386.804688 81.456871 2.626528 0.651471
386.804688 81.456879 1.373472 0.657843
386.804657 81.456879 0.119072 0.651961
375.571167 89.636124 0.000018 0.537255
369.907318 93.760025 -0.000018 0.536029
366.752655 96.056961 -0.000016 0.532353
364.738647 97.523376 -0.000011 0.515319
363.338867 98.542580 -0.000010 0.545711
362.307556 99.293488 -0.000004 0.500368
nan nan nan 0.000000
387.252014 80.794022 10.431811 0.782843
386.804688 81.124527 9.002351 0.656618
386.804688 81.124527 7.708522 0.647059
386.804688 81.124527 6.427197 0.662255
386.804688 81.124527 5.155485 0.655515
386.804688 81.124542 3.890584 0.650368
386.804688 81.124535 2.629744 0.652941
386.804688 81.124535 1.370255 0.663971
386.804688 81.124542 0.109416 0.654289
375.470520 89.498756 0.000010 0.535294
369.835602 93.662109 -0.000026 0.531373
366.697021 95.981033 -0.000023 0.606250
364.693329 97.461472 -0.000020 0.537010
363.300659 98.490425 -0.000018 0.541054
362.274628 99.248528 -0.000012 0.530270
nan nan nan 0.000000
387.288910 80.425720 10.485702 0.663725
386.804657 80.788757 9.038829 0.693382
386.804657 80.788757 7.738259 0.649020
386.804657 80.788757 6.450259 0.690564
386.804657 80.788757 5.171923 0.672672
386.804657 80.788757 3.900432 0.684191
386.804657 80.788757 2.633025 0.653064
386.804657 80.788757 1.366975 0.691176
386.804657 80.788757 0.099567 0.665441
375.368683 89.362274 0.000027 0.526716
369.763000 93.564835 -0.000009 0.518873
366.640747 95.905594 -0.000006 0.568627
364.647430 97.399963 -0.000002 0.524510
363.261993 98.438622 0.000001 0.580515
362.241302 99.203850 0.000003 0.536642
nan nan nan 0.000000
387.326691 80.052368 10.540805 0.750858
386.804688 80.449440 9.076036 0.664461
386.804657 80.449448 7.768589 0.622181
386.804688 80.449448 6.473782 0.652574
386.804688 80.449448 5.188690 0.658088
386.804688 80.449440 3.910479 0.657475
386.804688 80.449448 2.636371 0.652206
386.804688 80.449448 1.363629 0.652819
386.804688 80.449448 0.089521 0.658946
375.266205 89.226288 0.000013 0.540686
369.689972 93.467903 -0.000022 0.543382
366.584106 95.830421 -0.000019 0.501103
364.601227 97.338692 -0.000015 0.543137
363.223083 98.386993 -0.000011 0.549020
362.207733 99.159332 -0.000008 0.525858
nan nan nan 0.000000
387.365326 79.673851 10.597147 0.660539
386.804688 80.106499 9.113987 0.667279
386.804688 80.106499 7.799531 0.622917
386.804688 80.106499 6.497777 0.665319
386.804688 80.106499 5.205791 0.658578
386.804688 80.106499 3.920725 0.667157
386.804688 80.106499 2.639784 0.641299
386.804688 80.106499 1.360216 0.662010
386.804688 80.106499 0.079275 0.663971
375.162445 89.091270 0.000035 0.532475
369.615997 93.371674 0.000000 0.537623
366.526733 95.755783 0.000001 0.518995
364.554504 97.277840 0.000005 0.522304
363.183685 98.335732 0.000009 0.510907
362.173767 99.115128 0.000011 0.497059
nan nan nan 0.000000
387.412750 79.283791 10.656938 0.537990
386.804688 79.759857 9.152698 0.673284
386.804688 79.759857 7.831089 0.658088
386.804688 79.759850 6.522252 0.659804
386.804688 79.759850 5.223238 0.649020
386.804688 79.759857 3.931177 0.659804
386.804688 79.759850 2.643265 0.656250
386.804688 79.759850 1.356734 0.658088
386.804688 79.759857 0.068824 0.664583
375.058075 88.956734 0.000021 0.542770
369.541595 93.275787 -0.000013 0.538358
366.469025 95.681419 -0.000010 0.532475
364.507416 97.217216 -0.000007 0.553431
363.144073 98.284653 -0.000006 0.482353
362.139587 99.071091 0.000000 0.521936
nan nan nan 0.000000
nan nan nan 0.000000
386.804688 79.409378 9.192187 0.654902
386.804688 79.409386 7.863279 0.637010
386.804688 79.409386 6.547218 0.659069
386.804688 79.409386 5.241030 0.654044
386.804688 79.409386 3.941837 0.664093
386.804688 79.409386 2.646817 0.654902
386.804688 79.409386 1.353183 0.660049
386.804688 79.409386 0.058162 0.654044
374.952759 88.822929 0.000009 0.529167
369.466522 93.180412 -0.000026 0.532966
366.410797 95.607452 -0.000023 0.530515
364.459991 97.156921 -0.000020 0.564951
363.104095 98.233856 -0.000017 0.538848
362.105133 99.027290 -0.000013 0.572549
nan nan nan 0.000000
nan nan nan 0.000000
386.804688 79.055008 9.232466 0.668260
386.804688 79.055016 7.896117 0.656495
386.804688 79.055008 6.572685 0.663848
386.804688 79.055008 5.259181 0.642524
386.804657 79.055016 3.952713 0.683088
386.804688 79.055008 2.650439 0.647917
386.804688 79.055008 1.349560 0.690809
386.804657 79.055016 0.047287 0.655760
374.846191 88.690086 0.000026 0.533088
369.390594 93.085724 -0.000009 0.536152
366.351898 95.534027 -0.000005 0.535294
364.411987 97.097054 -0.000003 0.527206
363.063629 98.183426 0.000001 0.549265
362.070251 98.983803 0.000003 0.568750
nan nan nan 0.000000
nan nan nan 0.000000
386.804688 78.696625 9.273556 0.652328
386.804688 78.696625 7.929614 0.673162
386.804688 78.696625 6.598663 0.669363
386.804688 78.696625 5.277699 0.656740
386.804688 78.696625 3.963808 0.650858
386.804688 78.696625 2.654135 0.643750
386.804688 78.696625 1.345865 0.649020
386.804688 78.696625 0.036193 0.660907
374.738983 88.557800 0.000018 0.545956
369.314178 92.991440 -0.000015 0.531373
366.292633 95.460899 -0.000013 0.522304
364.363647 97.037445 -0.000010 0.545098
363.022919 98.133202 -0.000007 0.539216
362.035156 98.940506 -0.000005 0.572059
nan nan nan 0.000000
nan nan nan 0.000000
386.804688 78.334122 9.315475 0.650980
386.804688 78.334129 7.963787 0.642034
386.804688 78.334129 6.625165 0.661642
386.804688 78.334129 5.296588 0.641912
386.804688 78.334129 3.975126 0.656740
386.804688 78.334129 2.657905 0.666667
386.804688 78.334129 1.342095 0.650613
386.804688 78.334129 0.024875 0.614583
374.630920 88.426201 0.000002 0.536520
369.237122 92.897659 -0.000029 0.539828
366.232910 95.388168 -0.000027 0.524510
364.314911 96.978157 -0.000023 0.520711
362.981873 98.083260 -0.000018 0.562500
361.999756 98.897430 -0.000017 0.512010
nan nan nan 0.000000
nan nan nan 0.000000
386.638489 78.107147 9.318730 0.629902
nan nan nan 0.000000
nan nan nan 0.000000
nan nan nan 0.000000
nan nan nan 0.000000
nan nan nan 0.000000
nan nan nan 0.000000
387.011871 77.793198 0.000029 0.537868
374.521576 88.295654 0.000023 0.531863
369.159210 92.804611 -0.000009 0.544608
366.172455 95.316002 -0.000006 0.533701
364.265686 96.919319 -0.000003 0.533701
362.940369 98.033691 0.000001 0.557108
361.963989 98.854691 0.000002 0.529534
nan nan nan 0.000000
nan nan nan 0.000000
nan nan nan 0.000000
nan nan nan 0.000000
nan nan nan 0.000000
nan nan nan 0.000000
nan nan nan 0.000000
nan nan nan 0.000000
nan nan nan 0.000000
386.828430 77.576096 0.000014 0.533824
374.411682 88.165581 0.000008 0.537132
369.080841 92.711899 -0.000023 0.536152
366.111694 95.244110 -0.000021 0.539828
364.216156 96.860703 -0.000018 0.532353
362.898682 97.984306 -0.000015 0.535049
361.927979 98.812111 -0.000013 0.539461
nan nan nan 0.000000
nan nan nan 0.000000
nan nan nan 0.000000
nan nan nan 0.000000
nan nan nan 0.000000
nan nan nan 0.000000
nan nan nan 0.000000
nan nan nan 0.000000
nan nan nan 0.000000
386.642883 77.360832 0.000039 0.532966
374.300507 88.036598 0.000032 0.544485
369.001617 92.619965 0.000002 0.550735
366.050262 95.172813 0.000004 0.522059
364.166046 96.802574 0.000006 0.520833
362.856476 97.935326 0.000008 0.535539
361.891602 98.769890 0.000012 0.566912
nan nan nan 0.000000
nan nan nan 0.000000
nan nan nan 0.000000
nan nan nan 0.000000
nan nan nan 0.000000
nan nan nan 0.000000
nan nan nan 0.000000
nan nan nan 0.000000
nan nan nan 0.000000
386.456390 77.146347 0.000026 0.541176
374.188782 87.908096 0.000020 0.537010
368.921967 92.528381 -0.000010 0.550980
365.988464 95.101776 -0.000009 0.512500
364.115692 96.744675 -0.000006 0.550245
362.814026 97.886551 -0.000004 0.512868
361.855042 98.727829 -0.000000 0.556495
nan nan nan 0.000000
nan nan nan 0.000000
nan nan nan 0.000000
nan nan nan 0.000000
nan nan nan 0.000000
nan nan nan 0.000000
nan nan nan 0.000000
nan nan nan 0.000000
nan nan nan 0.000000
386.268433 76.933182 0.000014 0.533456
374.076141 87.780380 0.000007 0.533333
368.841492 92.437523 0.000007 0.531127
365.926239 95.031181 -0.000021 0.542034
364.064941 96.687119 -0.000018 0.540686
362.771271 97.838051 -0.000018 0.575613
361.818176 98.686020 -0.000013 0.549510
nan nan nan 0.000000
nan nan nan 0.000000
nan nan nan 0.000000
nan nan nan 0.000000
nan nan nan 0.000000
nan nan nan 0.000000
nan nan nan 0.000000
nan nan nan 0.000000
nan nan nan 0.000000
386.078491 76.721756 0.000032 0.536520
373.962372 87.653694 0.000025 0.538725
368.760406 92.347229 0.000024 0.534559
365.863342 94.961136 -0.000006 0.533211
364.013672 96.630020 -0.000004 0.563848
362.728088 97.789955 -0.000003 0.556618
361.780945 98.644554 0.000004 0.544730
nan nan nan 0.000000
nan nan nan 0.000000
nan nan nan 0.000000
nan nan nan 0.000000
nan nan nan 0.000000
nan nan nan 0.000000
nan nan nan 0.000000
nan nan nan 0.000000
nan nan nan 0.000000
385.887512 76.511276 0.000023 0.538113
373.847900 87.527611 0.000017 0.539583
368.678833 92.257355 0.000016 0.524632
365.800079 94.891441 -0.000014 0.536152
363.962097 96.573204 -0.000011 0.507108
362.684631 97.742081 -0.000010 0.484314
361.743469 98.603271 -0.000006 0.552451
nan nan nan 0.000000
nan nan nan 0.000000
nan nan nan 0.000000
nan nan nan 0.000000
nan nan nan 0.000000
nan nan nan 0.000000
nan nan nan 0.000000
nan nan nan 0.000000
nan nan nan 0.000000
385.695068 76.302109 0.000011 0.534804
373.732635 87.402283 0.000005 0.532721
368.596680 92.168022 0.000004 0.529289
365.736359 94.822159 -0.000025 0.546201
363.910156 96.516724 -0.000022 0.527206
362.640869 97.694511 -0.000019 0.524632
361.705750 98.562248 -0.000017 0.525858
nan nan nan 0.000000
nan nan nan 0.000000
nan nan nan 0.000000
nan nan nan 0.000000
nan nan nan 0.000000
nan nan nan 0.000000
nan nan nan 0.000000
nan nan nan 0.000000
nan nan nan 0.000000
385.500763 76.094696 0.000029 0.534559
373.616211 87.278015 0.000024 0.530147
368.513672 92.079453 0.000022 0.550000
365.671997 94.753479 -0.000006 0.537010
363.857697 96.460724 -0.000004 0.537132
362.596680 97.647331 -0.000003 0.553799
361.667633 98.521568 -0.000000 0.554902
nan nan nan 0.000000
nan nan nan 0.000000
nan nan nan 0.000000
nan nan nan 0.000000
nan nan nan 0.000000
nan nan nan 0.000000
nan nan nan 0.000000
nan nan nan 0.000000
nan nan nan 0.000000
385.305389 75.888275 0.000021 0.535907
373.499176 87.154335 0.000015 0.541544
368.430237 91.991310 0.000014 0.536274
365.607300 94.685112 -0.000015 0.521814
363.804932 96.404991 -0.000013 0.541912
362.552246 97.600372 -0.000010 0.561275
361.629303 98.481079 -0.000008 0.574877
nan nan nan 0.000000
nan nan nan 0.000000
nan nan nan 0.000000
nan nan nan 0.000000
nan nan nan 0.000000
nan nan nan 0.000000
nan nan nan 0.000000
nan nan nan 0.000000
nan nan nan 0.000000
385.108673 75.683182 0.000009 0.538725
373.381287 87.031448 0.000002 0.542034
368.346222 91.903725 0.000003 0.546446
365.542114 94.617188 -0.000026 0.513358
363.751801 96.349617 -0.000025 0.525000
362.507477 97.553719 -0.000022 0.530025
361.590729 98.440857 -0.000019 0.494853
nan nan nan 0.000000
nan nan nan 0.000000
nan nan nan 0.000000
nan nan nan 0.000000
nan nan nan 0.000000
nan nan nan 0.000000
nan nan nan 0.000000
nan nan nan 0.000000
nan nan nan 0.000000
384.909973 75.479950 0.000032 0.531863
373.262268 86.909676 0.000024 0.536642
368.261414 91.816917 0.000022 0.544608
365.476196 94.550011 0.000024 0.543260
363.698181 96.294739 -0.000003 0.515196
362.462280 97.507492 0.000000 0.552328
361.551727 98.400986 0.000000 0.530147
nan nan nan 0.000000
nan nan nan 0.000000
nan nan nan 0.000000
nan nan nan 0.000000
nan nan nan 0.000000
nan nan nan 0.000000
nan nan nan 0.000000
nan nan nan 0.000000
nan nan nan 0.000000
384.710388 75.277618 0.000020 0.535907
373.142639 86.788445 0.000013 0.538113
368.176178 91.730515 0.000011 0.534069
365.410065 94.483009 0.000014 0.543627
363.644287 96.240112 -0.000014 0.551961
362.416779 97.461563 0.000016 0.536274
361.512604 98.361313 -0.000010 0.562377
nan nan nan 0.000000
nan nan nan 0.000000
nan nan nan 0.000000
nan nan nan 0.000000
nan nan nan 0.000000
nan nan nan 0.000000
nan nan nan 0.000000
nan nan nan 0.000000
nan nan nan 0.000000
384.509308 75.076744 0.000011 0.539706
373.022186 86.668091 0.000004 0.547059
368.090302 91.644745 0.000004 0.537745
365.343475 94.416473 0.000005 0.553309
363.589996 96.185875 -0.000022 0.539583
362.371063 97.415871 0.000008 0.528064
361.473145 98.321915 -0.000017 0.538480
nan nan nan 0.000000
nan nan nan 0.000000
nan nan nan 0.000000
nan nan nan 0.000000
nan nan nan 0.000000
nan nan nan 0.000000
nan nan nan 0.000000
nan nan nan 0.000000
nan nan nan 0.000000
384.306488 74.877647 0.000029 0.538113
372.900665 86.548805 0.000023 0.541789
368.003662 91.559715 0.000021 0.547181
365.276337 94.350533 0.000022 0.524755
363.535126 96.132225 0.000022 0.531127
362.324951 97.370583 0.000025 0.494730
361.433380 98.282867 -0.000001 0.565564
nan nan nan 0.000000
nan nan nan 0.000000
nan nan nan 0.000000
nan nan nan 0.000000
nan nan nan 0.000000
nan nan nan 0.000000
nan nan nan 0.000000
nan nan nan 0.000000
nan nan nan 0.000000
384.102661 74.679596 0.000022 0.541544
372.778503 86.430161 0.000015 0.526838
367.916656 91.475136 0.000013 0.541789
365.208801 94.284943 0.000014 0.541176
363.480103 96.078758 0.000015 0.537500
362.278656 97.325439 -0.000012 0.523162
361.393402 98.244019 -0.000010 0.536274
nan nan nan 0.000000
nan nan nan 0.000000
nan nan nan 0.000000
nan nan nan 0.000000
nan nan nan 0.000000
nan nan nan 0.000000
nan nan nan 0.000000
nan nan nan 0.000000
nan nan nan 0.000000
383.897491 74.482918 0.000010 0.539338
372.655609 86.312317 0.000003 0.538358
367.829010 91.391151 0.000002 0.534314
365.140869 94.219795 0.000002 0.539338
363.424713 96.025665 0.000004 0.549020
362.231964 97.280701 -0.000022 0.512745
361.353180 98.205444 -0.000021 0.523039
nan nan nan 0.000000
nan nan nan 0.000000
nan nan nan 0.000000
nan nan nan 0.000000
nan nan nan 0.000000
nan nan nan 0.000000
nan nan nan 0.000000
nan nan nan 0.000000
nan nan nan 0.000000
383.690491 74.288170 0.000031 0.530882
372.531586 86.195625 0.000024 0.535294
