# This PCD file was generated using the MATLABÂ® pcwrite function
# from Computer Vision ToolboxÂ®.
# .PCD v.7 - Point Cloud Data file format
VERSION .7
FIELDS x y z intensity
SIZE 4 4 4 4
TYPE F F F F
COUNT 1 1 1 1
WIDTH 1245
HEIGHT 1
VIEWPOINT 0 0 0 1 0 0 0
POINTS 1245
DATA ascii
387.533234 158.326233 4.639642 0.491176
386.939636 158.569687 3.550000 0.453554
387.048798 158.524933 2.518228 0.490319
nan nan nan 0.000000
395.413452 155.094238 0.000055 0.541299
380.314972 161.286743 0.000067 0.546691
373.833099 163.945236 0.000030 0.542525
370.222961 165.425888 -0.000004 0.529044
367.917999 166.371231 0.000003 0.528064
366.315979 167.028305 0.000011 0.562623
365.135681 167.512405 0.000018 0.492892
nan nan nan 0.000000
388.146851 157.825928 9.116722 0.475735
387.509949 158.092361 7.870004 0.478922
387.188171 158.226959 6.733660 0.476716
386.967834 158.319122 5.643679 0.471446
387.313782 158.174408 4.627779 0.489093
387.160461 158.238556 3.566249 0.489706
387.906464 157.926483 2.534942 0.491054
nan nan nan 0.000000
395.304169 154.831863 0.000082 0.536642
380.249542 161.129532 0.000092 0.537500
373.786102 163.833313 0.000093 0.531618
370.186798 165.338989 0.000022 0.542279
367.888519 166.300400 0.000029 0.559559
366.291107 166.968628 0.000035 0.561397
365.114258 167.460922 0.000037 0.549510
nan nan nan 0.000000
387.551697 157.829697 8.997992 0.498407
387.843994 157.705032 7.953422 0.501103
386.764679 158.165405 6.679348 0.487990
387.104797 158.020309 5.671568 0.493995
387.331268 157.923721 4.637098 0.462623
386.551819 158.256195 3.538368 0.485539
387.890198 157.685318 2.536232 0.477819
387.874390 157.692047 1.464048 0.669240
387.855988 157.699905 0.391978 0.596569
380.183441 160.972595 0.000077 0.537990
373.739014 163.721466 0.000078 0.520221
370.150269 165.252228 0.000003 0.521569
367.858734 166.229691 0.000015 0.558333
366.266052 166.909027 0.000016 0.529289
365.092621 167.409561 0.000023 0.528309
387.685669 157.524780 10.177118 0.492525
387.573486 157.573563 9.024200 0.479534
387.093140 157.782425 7.822376 0.481618
386.956177 157.841980 6.724414 0.507598
386.779572 157.918762 5.641827 0.478554
386.859589 157.883987 4.602866 0.473284
386.568695 158.010483 3.543903 0.482966
388.363586 157.229996 2.546296 0.474510
387.767792 157.489075 1.464336 0.620833
387.753815 157.495132 0.392609 0.639828
380.116302 160.816116 0.000059 0.536642
373.691162 163.609940 0.000061 0.528676
370.113129 165.165741 -0.000014 0.533456
367.828491 166.159164 -0.000006 0.531495
366.240540 166.849640 0.000000 0.507353
365.070618 167.358337 0.000007 0.547059
387.687317 157.274765 10.202677 0.461275
nan nan nan 0.000000
387.022919 157.569214 7.826264 0.480270
387.077850 157.544846 6.758660 0.470833
387.382385 157.409897 5.728859 0.439951
386.596100 157.758347 4.587224 0.493260
387.610046 157.309006 3.604599 0.469730
387.920593 157.171387 2.540042 0.493873
nan nan nan 0.000000
394.966919 154.048828 0.000082 0.529657
380.047668 160.660294 0.000078 0.533333
373.642120 163.498917 0.000093 0.546814
370.075104 165.079651 0.000020 0.540196
367.797485 166.088974 0.000027 0.537132
366.214417 166.790497 0.000033 0.496569
365.048157 167.307343 0.000027 0.499755
nan nan nan 0.000000
nan nan nan 0.000000
386.919678 157.370529 7.823884 0.478799
386.745361 157.449249 6.719426 0.477451
387.759674 156.991241 5.788144 0.484069
387.006683 157.331268 4.632253 0.484926
387.391632 157.157425 3.597846 0.494240
386.576019 157.525711 2.517590 0.493382
nan nan nan 0.000000
394.851227 153.789230 0.000063 0.538113
379.978333 160.504776 0.000060 0.535417
373.592682 163.388062 0.000076 0.533456
370.036743 164.993683 0.000003 0.550858
367.766235 166.018890 0.000010 0.524142
366.187988 166.731506 0.000043 0.521078
365.025452 167.256424 0.000012 0.502574
nan nan nan 0.000000
nan nan nan 0.000000
387.398956 156.904144 7.938427 0.470956
386.749481 157.202866 6.735141 0.485417
387.165619 157.011475 5.724991 0.481863
386.873505 157.145828 4.628622 0.495098
387.506927 156.854477 3.609171 0.464583
386.778564 157.189484 2.522888 0.471446
393.855865 153.934219 1.349636 0.665564
393.855865 153.934219 0.047513 0.653431
379.907410 160.349960 0.000086 0.538725
373.542572 163.277527 0.000050 0.540686
369.997437 164.908157 0.000054 0.511275
367.734131 165.949188 0.000062 0.541667
366.161041 166.672729 0.000069 0.572917
365.002106 167.205795 0.000071 0.513971
nan nan nan 0.000000
nan nan nan 0.000000
nan nan nan 0.000000
387.375214 156.663651 6.853009 0.493750
386.837341 156.915619 5.695380 0.490931
386.737061 156.962601 4.624801 0.478922
387.298340 156.699677 3.603079 0.487990
386.774811 156.944916 2.524518 0.493627
393.201782 153.934219 1.359344 0.674632
393.201782 153.934219 0.076659 0.679412
379.835876 160.195419 0.000070 0.539216
373.491608 163.167404 0.000034 0.540809
369.957886 164.822739 0.000039 0.563113
367.701935 165.879547 0.000045 0.557476
366.133942 166.614044 0.000046 0.537255
364.978699 167.155212 0.000052 0.512377
nan nan nan 0.000000
nan nan nan 0.000000
nan nan nan 0.000000
392.566956 153.934204 7.722292 0.638971
392.460907 153.984802 6.424362 0.633824
392.972229 153.740906 5.199915 0.676593
387.015900 156.581985 3.593005 0.495221
386.836853 156.667389 2.527377 0.485294
392.972229 153.740906 1.361389 0.062990
392.972229 153.740906 0.082796 0.019118
379.763306 160.041382 0.000053 0.536274
373.439850 163.057602 0.000019 0.542647
369.917725 164.737595 0.000024 0.543260
367.669220 165.810120 0.000024 0.536152
366.106384 166.555588 0.000030 0.520098
364.955017 167.104767 0.000024 0.513726
nan nan nan 0.000000
nan nan nan 0.000000
392.818115 153.512863 9.093674 0.644975
391.950378 153.934219 7.639881 0.651716
391.839691 153.987961 6.359808 0.635907
392.451477 153.690918 5.163216 0.668627
392.245544 153.790909 3.883969 0.762377
392.348511 153.740906 2.629414 0.678431
392.389679 153.720917 1.369836 0.678431
392.348480 153.740921 0.110408 0.016789
379.689209 159.888062 0.000074 0.532843
373.387024 162.948334 0.000040 0.535662
369.876831 164.652832 0.000041 0.531863
367.635834 165.741028 0.000045 0.544363
366.078308 166.497345 0.000040 0.519853
364.930756 167.054581 0.000047 0.526471
nan nan nan 0.000000
nan nan nan 0.000000
391.755432 153.734497 8.902286 0.503799
391.351318 153.934219 7.560079 0.638358
391.351318 153.934219 6.312074 0.662255
391.351349 153.934204 5.073432 0.665931
391.351349 153.934204 3.841422 0.649755
391.351349 153.934204 2.613369 0.667647
391.351349 153.934204 1.386631 0.660784
391.351349 153.934204 0.158577 0.662255
379.614532 159.735046 0.000055 0.523652
373.333771 162.839249 0.000021 0.552451
369.835510 164.568268 0.000026 0.558456
367.602142 165.672089 0.000033 0.521569
366.049927 166.439255 0.000026 0.568627
364.906281 167.004486 0.000027 0.569975
nan nan nan 0.000000
nan nan nan 0.000000
390.749969 153.943771 8.721561 0.425245
390.768951 153.934219 7.482769 0.653554
390.768921 153.934219 6.252114 0.699510
390.935150 153.850632 5.045949 0.929657
390.668427 153.984772 3.810290 0.635049
390.935150 153.850632 2.607884 0.915074
390.935150 153.850632 1.392116 0.918995
390.768951 153.934204 0.184182 0.623284
379.538727 159.582565 0.000040 0.535784
373.279724 162.730591 0.000006 0.532843
369.793579 164.483978 0.000013 0.528922
367.568024 165.603348 0.000005 0.518382
366.021118 166.381378 0.000011 0.558333
364.881409 166.954620 0.000036 0.543137
nan nan nan 0.000000
nan nan nan 0.000000
390.202545 153.934204 8.633522 0.656863
390.202545 153.934219 7.407838 0.665564
390.202515 153.934219 6.194002 0.669608
390.677979 153.690887 5.033072 0.673897
390.103699 153.984772 3.785548 0.634069
390.677979 153.690887 2.605315 0.720711
390.580261 153.740906 1.396482 0.696324
390.202545 153.934204 0.208997 0.687010
379.461456 159.430832 0.000061 0.528676
373.224670 162.622421 0.000027 0.540319
369.750946 164.400070 0.000020 0.520711
367.533203 165.534958 0.000026 0.533578
365.991821 166.323761 0.000026 0.560172
364.856110 166.904938 0.000052 0.518750
nan nan nan 0.000000
nan nan nan 0.000000
389.651337 153.934219 8.544400 0.649755
389.651337 153.934219 7.335184 0.660049
389.651337 153.934219 6.137657 0.653922
390.118744 153.690903 4.992323 0.678431
389.548615 153.987686 3.761251 0.628554
390.118713 153.690918 2.597182 0.678431
389.926636 153.790924 1.406362 0.829657
389.651367 153.934204 0.233059 0.651838
379.383514 159.279434 0.000046 0.534926
373.169098 162.514526 0.000014 0.537377
369.707886 164.316376 0.000005 0.539216
367.498077 165.466736 0.000008 0.528309
365.962219 166.266281 0.000015 0.576226
364.830597 166.855392 0.000037 0.539338
nan nan nan 0.000000
nan nan nan 0.000000
389.114777 153.934204 8.457951 0.635294
389.114746 153.934204 7.264712 0.640441
389.114746 153.934204 6.083003 0.660049
389.114746 153.934204 4.910160 0.635784
389.114746 153.934204 3.743600 0.696201
389.114746 153.934204 2.580784 0.645833
389.114746 153.934204 1.419215 0.671936
389.114777 153.934204 0.256399 0.653186
379.304169 159.128769 0.000065 0.548897
373.112640 162.407104 0.000020 0.539216
369.663971 164.233093 0.000026 0.545221
367.462341 165.398834 0.000028 0.559804
365.932037 166.209122 0.000052 0.527328
364.804626 166.806076 0.000055 0.548774
nan nan nan 0.000000
392.398163 151.884827 10.499545 0.431495
388.592133 153.934219 8.374067 0.646936
388.752045 153.848099 7.223270 0.924142
388.592133 153.934204 6.029969 0.673039
388.752045 153.848099 4.887254 0.909314
388.592133 153.934204 3.720952 0.657475
388.752045 153.848099 2.576214 0.923529
388.752045 153.848099 1.423786 0.919976
388.592133 153.934204 0.279047 0.648897
379.224091 158.978485 0.000051 0.528554
373.055573 162.299988 0.000008 0.540196
369.619568 164.150116 0.000042 0.560539
367.426239 165.331131 0.000016 0.502696
365.901611 166.152069 0.000041 0.536274
364.778473 166.756836 0.000031 0.492157
nan nan nan 0.000000
391.346741 152.147247 10.272937 0.671936
388.082886 153.934204 8.292637 0.617402
388.334686 153.796341 7.172524 0.881740
388.082886 153.934204 5.978481 0.662868
388.527252 153.690918 4.877206 0.678431
388.082886 153.934219 3.698966 0.686765
388.527252 153.690918 2.574209 0.703431
388.344604 153.790924 1.429200 0.901471
388.082886 153.934204 0.301034 0.671201
379.143463 158.828506 -0.000008 0.534681
372.997742 162.193268 -0.000005 0.529289
369.574738 164.067368 0.000028 0.538603
367.389587 165.263702 0.000023 0.541667
365.870850 166.095230 0.000023 0.537255
364.751892 166.707825 0.000016 0.535539
nan nan nan 0.000000
390.351624 152.395096 10.058899 0.627574
387.586456 153.934219 8.213557 0.673774
387.933716 153.740906 7.124431 0.653309
387.586426 153.934219 5.928485 0.646691
388.023590 153.690903 4.841050 0.678431
387.586426 153.934219 3.677614 0.634926
388.023590 153.690903 2.566992 0.678431
387.843903 153.790924 1.436373 0.864828
387.586456 153.934219 0.322385 0.631495
379.061005 158.679520 0.000007 0.540931
372.938751 162.087204 0.000039 0.529412
369.529175 163.985001 0.000041 0.532353
367.352448 165.196564 0.000036 0.533333
365.839569 166.038635 0.000026 0.517892
364.724945 166.659058 0.000029 0.535172
nan nan nan 0.000000
389.408203 152.629578 9.856421 0.601348
387.102325 153.934204 8.136734 0.661765
387.102325 153.934204 7.002844 0.647304
387.102295 153.934219 5.879913 0.694363
387.102325 153.934204 4.765409 0.639216
387.102295 153.934219 3.656873 0.621569
387.102325 153.934204 2.551897 0.670221
387.102325 153.934204 1.448103 0.628922
387.102295 153.934219 0.343126 0.674265
378.977814 158.530945 -0.000004 0.548897
372.879456 161.981293 0.000025 0.565074
369.483215 163.902847 0.000020 0.529902
367.314941 165.129608 0.000023 0.530392
365.807983 165.982224 0.000015 0.532230
364.697601 166.610458 0.000035 0.581985
nan nan nan 0.000000
388.512482 152.851700 9.664609 0.337990
386.629974 153.934204 8.062079 0.667525
386.629974 153.934204 6.941985 0.653064
386.629974 153.934204 5.832715 0.647917
386.629974 153.934204 4.731768 0.643995
386.629974 153.934204 3.636718 0.641667
386.629974 153.934204 2.545182 0.687010
386.629974 153.934204 1.454817 0.664706
386.629974 153.934204 0.363282 0.621936
378.893250 158.383133 0.000013 0.536887
372.819214 161.875931 0.000042 0.540564
369.436493 163.821136 0.000035 0.541299
367.276886 165.063004 0.000039 0.529902
365.775787 165.926178 0.000057 0.554902
364.669952 166.562073 0.000052 0.565564
nan nan nan 0.000000
387.660858 153.062408 9.482658 0.690319
386.325592 153.842697 8.022518 0.665319
386.328796 153.840836 6.910279 0.616667
386.327911 153.841339 5.808008 0.653309
386.324432 153.843369 4.713830 0.650613
386.326385 153.842224 3.626082 0.647181
386.325531 153.842743 2.541624 0.660294
386.326660 153.842056 1.458355 0.621078
386.326233 153.842316 0.373927 0.714951
378.807709 158.235901 0.000027 0.524387
372.758423 161.770889 0.000030 0.530637
369.389343 163.739655 0.000024 0.536029
367.238495 164.996552 0.000016 0.533333
365.743408 165.870224 0.000046 0.531985
364.642059 166.513824 0.000037 0.533088
nan nan nan 0.000000
386.850067 153.262543 9.309836 0.651838
386.325439 153.574036 8.047303 0.686887
386.327545 153.572815 6.930297 0.658333
386.325928 153.573761 5.823436 0.648284
386.326294 153.573547 4.725190 0.675490
386.327240 153.572983 3.632831 0.642892
386.325714 153.573883 2.543859 0.694730
386.326569 153.573380 1.456125 0.602206
386.326172 153.573624 0.367231 0.709314
378.721130 158.089264 0.000040 0.528799
372.696808 161.666321 0.000033 0.528186
369.341492 163.658600 0.000034 0.553554
367.199493 164.930466 0.000029 0.510907
365.710602 165.814514 0.000049 0.541912
364.613739 166.465805 0.000041 0.550735
nan nan nan 0.000000
386.720032 153.065048 9.307644 0.701471
386.325470 153.303070 8.072624 0.651716
386.326324 153.302536 6.950737 0.653922
386.324005 153.303955 5.839185 0.656863
386.328156 153.301437 4.736779 0.635172
386.324951 153.303391 3.639534 0.641667
386.325928 153.302795 2.546140 0.696201
386.326447 153.302490 1.453850 0.648039
386.326385 153.302521 0.360382 0.614093
378.633789 157.943085 0.000030 0.543015
372.634552 161.562134 0.000023 0.549632
369.293213 163.577805 0.000024 0.531250
367.160034 164.864655 0.000041 0.530147
365.677429 165.759033 0.000037 0.530637
364.585144 166.417938 0.000028 0.492279
nan nan nan 0.000000
386.753693 152.767380 9.347255 0.658456
386.325623 153.029709 8.098490 0.678431
386.325287 153.029907 6.971609 0.697059
386.327362 153.028625 5.855975 0.659069
386.325928 153.029526 4.748205 0.694485
386.325806 153.029587 3.646558 0.648897
386.326141 153.029388 2.548467 0.648775
386.326355 153.029266 1.451529 0.661887
386.326324 153.029282 0.353412 0.615074
378.545441 157.797516 0.000017 0.543505
372.571594 161.458374 0.000009 0.544363
369.244446 163.497284 0.000001 0.538113
367.120209 164.799057 0.000029 0.520956
365.643890 165.703751 0.000021 0.559681
364.556152 166.370346 0.000040 0.499142
nan nan nan 0.000000
386.777710 152.472687 9.385115 0.731127
386.325928 152.753906 8.124911 0.667770
386.324280 152.754913 6.992922 0.647059
386.325592 152.754120 5.872394 0.698162
386.327881 152.752686 4.760271 0.664951
386.326691 152.753418 3.653726 0.653676
386.326324 152.753662 2.550841 0.687990
386.326233 152.753723 1.449161 0.632843
386.326202 152.753723 0.346301 0.655025
378.455841 157.652710 0.000030 0.549632
372.507721 161.355179 0.000022 0.535294
369.194916 163.417252 0.000018 0.564828
367.079865 164.733780 0.000033 0.538848
365.609924 165.648773 0.000029 0.537132
364.526947 166.322876 0.000022 0.514706
388.247650 151.260971 11.038263 0.644363
386.802124 152.174835 9.423767 0.507475
386.326385 152.475571 8.151896 0.657108
386.323456 152.477463 7.014684 0.631373
386.323853 152.477203 5.889152 0.672549
386.325684 152.476028 4.772173 0.625858
386.327606 152.474823 3.661037 0.643505
386.326538 152.475494 2.553263 0.671446
386.326080 152.475769 1.446745 0.621324
386.326111 152.475739 0.339048 0.674387
378.365540 157.508331 0.000010 0.539216
372.443298 161.252304 0.000011 0.547917
369.144836 163.337555 0.000026 0.522426
367.039154 164.668747 0.000021 0.534681
365.575623 165.593964 0.000015 0.493015
364.497375 166.275620 0.000001 0.563725
387.857605 151.212067 10.962435 0.673284
386.826935 151.873734 9.463230 0.455637
386.327057 152.194672 8.179461 0.687132
386.329163 152.193329 7.038045 0.639951
386.327484 152.194397 5.906986 0.642034
386.327759 152.194229 4.784730 0.639951
386.325348 152.195770 3.668309 0.662623
386.326752 152.194855 2.555734 0.695711
386.325989 152.195374 1.444282 0.616912
386.326324 152.195145 0.331632 0.714093
378.273895 157.364807 0.000024 0.546936
372.377991 161.150009 0.000024 0.556373
369.094177 163.258209 0.000040 0.528431
366.997864 164.604065 0.000034 0.553922
365.540741 165.539536 0.000051 0.545098
364.467407 166.228622 0.000013 0.520343
387.893127 150.890717 11.013638 0.416789
386.861542 151.563217 9.505930 0.339706
386.327881 151.911118 8.207612 0.670466
386.328522 151.910690 7.060740 0.651961
386.325897 151.912415 5.924453 0.631373
386.325653 151.912567 4.797129 0.687990
386.326294 151.912140 3.675918 0.665809
386.326965 151.911713 2.558254 0.706250
386.325867 151.912415 1.441769 0.653186
386.326263 151.912170 0.324085 0.670343
378.181549 157.221756 0.000011 0.524510
372.312195 161.048004 0.000004 0.523039
369.043121 163.179153 0.000028 0.533701
366.956238 164.539612 0.000022 0.564461
365.505707 165.485199 0.000029 0.518627
364.437164 166.181808 0.000001 0.535417
387.928467 150.566071 11.065680 0.270833
386.887177 151.255295 9.547071 0.548774
386.328888 151.624832 8.236364 0.674877
386.328003 151.625412 7.083909 0.674020
386.324371 151.627838 5.942279 0.648652
386.327789 151.625549 4.810199 0.706005
386.327271 151.625885 3.683679 0.670098
386.327179 151.625946 2.560824 0.682353
386.325714 151.626907 1.439205 0.672304
386.326172 151.626617 0.316386 0.656985
378.087921 157.079529 0.000025 0.549632
372.245483 160.946625 0.000018 0.541054
368.991425 163.100494 0.000032 0.533088
366.914063 164.475479 0.000026 0.542157
365.470154 165.431198 0.000039 0.510539
364.406464 166.135269 0.000026 0.563971
387.965271 150.236908 11.119099 0.641176
386.913330 150.943817 9.589096 0.620588
386.330048 151.335754 8.265728 0.633456
386.327606 151.337418 7.107564 0.682966
386.328247 151.336975 5.961217 0.694608
386.325745 151.338654 4.823111 0.679167
386.325073 151.339096 3.691405 0.689216
386.325226 151.339005 2.563401 0.657353
386.326843 151.337921 1.436566 0.652206
386.326355 151.338242 0.308519 0.663480
377.993561 156.937775 0.000015 0.543137
372.178192 160.845612 0.000008 0.531618
368.939240 163.022125 0.000022 0.553431
366.871552 164.411606 0.000015 0.534804
365.434326 165.377380 0.000030 0.522794
364.375580 166.088882 0.000015 0.546078
nan nan nan 0.000000
386.948730 150.622711 9.634312 0.735417
386.323578 151.049149 8.293991 0.711887
386.327332 151.046616 7.131713 0.713848
386.326874 151.046921 5.979794 0.660417
386.328003 151.046158 4.836711 0.685662
386.326080 151.047455 3.699479 0.668995
386.325470 151.047897 2.566076 0.626471
386.326721 151.047028 1.433899 0.668137
386.326294 151.047333 0.300508 0.666054
377.898010 156.796829 0.000024 0.529412
372.109955 160.745239 0.000036 0.542892
368.886444 162.944229 0.000030 0.549387
366.828430 164.348145 0.000044 0.556005
365.398163 165.323807 0.000011 0.504657
364.344299 166.042725 0.000025 0.564583
nan nan nan 0.000000
386.975830 150.303787 9.678149 0.646446
386.325134 150.754349 8.324602 0.655270
386.327148 150.752960 7.156369 0.650613
386.325531 150.754074 5.998751 0.701961
386.326019 150.753738 4.850159 0.636029
386.327118 150.752975 3.707716 0.690319
386.325684 150.753967 2.568804 0.676716
386.326569 150.753357 1.431179 0.710172
386.326172 150.753632 0.292339 0.641789
377.801636 156.656433 0.000013 0.535539
372.041290 160.645172 0.000026 0.531005
368.833191 162.866623 0.000021 0.547794
366.785034 164.284851 0.000025 0.525980
365.361603 165.270508 0.000001 0.549142
364.312775 165.996750 0.000006 0.535172
nan nan nan 0.000000
387.011810 149.975128 9.725142 0.714828
386.326874 150.456528 8.355870 0.636520
386.327118 150.456345 7.181538 0.661642
386.324310 150.458344 6.018099 0.651961
386.328400 150.455475 4.864311 0.690074
386.324982 150.457886 3.715923 0.638848
386.325928 150.457214 2.571585 0.643873
386.326447 150.456833 1.428404 0.686642
386.326355 150.456894 0.283992 0.606985
377.704102 156.516830 0.000023 0.528922
371.971863 160.545639 0.000028 0.527696
368.779205 162.789490 0.000039 0.538480
366.741089 164.221954 0.000034 0.517770
365.324554 165.217529 0.000019 0.534804
364.280823 165.951096 0.000031 0.480882
nan nan nan 0.000000
387.039978 149.648331 9.770892 0.537623
386.328857 150.155594 8.387804 0.625735
386.327240 150.156738 7.207233 0.656495
386.328613 150.155762 6.038616 0.676716
386.326508 150.157257 4.878316 0.686887
386.326050 150.157578 3.724492 0.638971
386.326172 150.157486 2.574423 0.535539
386.326324 150.157394 1.425575 0.702206
386.326294 150.157425 0.275494 0.618260
377.605713 156.377869 0.000024 0.534191
371.901764 160.446533 0.000018 0.549387
368.724884 162.712631 0.000029 0.511029
366.696777 164.159286 0.000026 0.521324
365.287201 165.164749 0.000011 0.492034
364.248657 165.905563 0.000015 0.528186
nan nan nan 0.000000
387.076660 149.311676 9.819757 0.224142
386.322998 149.857254 8.418620 0.694485
386.327484 149.854004 7.233466 0.659926
386.327515 149.853989 6.058776 0.644853
386.324646 149.856049 4.892604 0.677206
386.327179 149.854233 3.733233 0.652819
386.326447 149.854767 2.577317 0.681740
386.326172 149.854950 1.422688 0.682966
386.326202 149.854935 0.266825 0.647549
377.506409 156.239532 0.000016 0.543505
371.830994 160.347931 0.000009 0.532108
368.669983 162.636169 0.000021 0.526471
366.651978 164.096985 0.000026 0.535172
365.249512 165.112228 -0.000003 0.530760
364.216125 165.860291 0.000009 0.518260
nan nan nan 0.000000
387.106018 148.976501 9.867533 0.535172
386.325348 149.549942 8.451913 0.672672
386.327850 149.548096 7.260248 0.661274
386.326508 149.549103 6.079350 0.664706
386.327179 149.548615 4.907626 0.668995
386.325073 149.550171 3.741950 0.688848
386.326691 149.548981 2.580269 0.663848
386.326019 149.549469 1.419745 0.669118
386.326324 149.549225 0.257971 0.638726
377.406036 156.101990 0.000022 0.537010
371.759460 160.249908 0.000018 0.557843
368.614502 162.560135 0.000028 0.539461
366.606750 164.035004 0.000033 0.528186
365.211395 165.060013 0.000005 0.554289
364.183289 165.815247 0.000010 0.519118
nan nan nan 0.000000
nan nan nan 0.000000
386.327942 149.239273 8.485917 0.642892
386.328400 149.238953 7.287591 0.600613
386.325623 149.240997 6.100350 0.683824
386.325409 149.241150 4.922505 0.654167
386.326202 149.240555 3.751043 0.711642
386.326965 149.240005 2.583280 0.665074
386.325867 149.240799 1.416742 0.693873
386.326263 149.240524 0.248952 0.627696
377.304779 155.965073 0.000016 0.533333
371.687286 160.152298 0.000010 0.551348
368.558594 162.484421 0.000014 0.529167
366.561188 163.973282 0.000018 0.566299
365.172913 165.008057 0.000013 0.545221
364.150116 165.770462 0.000017 0.551348
nan nan nan 0.000000
nan nan nan 0.000000
386.322662 148.931274 8.518796 0.628799
386.329041 148.926422 7.315504 0.623039
386.324799 148.929642 6.121779 0.622917
386.328064 148.927155 4.938138 0.663113
386.327423 148.927673 3.760320 0.697304
386.327240 148.927811 2.586350 0.600613
386.325745 148.928940 1.413680 0.660784
386.326202 148.928589 0.239754 0.661887
377.202484 155.828949 0.000023 0.548284
371.614319 160.055328 0.000025 0.512623
368.502045 162.409180 0.000021 0.541176
366.515137 163.911865 0.000008 0.551838
365.134125 164.956360 0.000014 0.551471
364.116638 165.725891 0.000017 0.551593
nan nan nan 0.000000
nan nan nan 0.000000
386.325714 148.613663 8.554258 0.658333
386.323090 148.615662 7.342735 0.648162
386.324066 148.614929 6.143655 0.673162
386.326416 148.613113 4.953634 0.665196
386.325348 148.613937 3.769579 0.671936
386.325287 148.613983 2.589437 0.643137
386.326782 148.612823 1.410532 0.656618
386.326294 148.613190 0.230359 0.711887
377.099365 155.693436 0.000015 0.545466
371.540802 159.958740 0.000018 0.550245
368.445038 162.334274 0.000015 0.524020
366.468689 163.850815 0.000001 0.493382
365.094971 164.904907 0.000005 0.573284
364.082886 165.681534 0.000012 0.523162
nan nan nan 0.000000
nan nan nan 0.000000
386.328979 148.292419 8.590479 0.695221
386.324066 148.296265 7.371821 0.644363
386.328979 148.292419 6.166793 0.727206
386.324799 148.295685 4.969445 0.634191
386.326599 148.294281 3.779231 0.661642
386.325562 148.295090 2.592633 0.637868
386.326660 148.294235 1.407345 0.660049
386.326263 148.294571 0.220790 0.719975
376.995239 155.558685 0.000014 0.541912
371.466583 159.862747 0.000022 0.530392
368.387390 162.259857 0.000026 0.505392
366.421753 163.790085 -0.000001 0.529289
365.055450 164.853760 0.000004 0.546936
364.048798 165.637421 0.000011 0.533946
nan nan nan 0.000000
nan nan nan 0.000000
386.324310 147.973907 8.625570 0.654779
386.325165 147.973206 7.401523 0.637623
386.328491 147.970612 6.189589 0.614706
386.327637 147.971283 4.986043 0.671201
386.327850 147.971085 3.789078 0.682843
386.325836 147.972687 2.595891 0.666667
386.326477 147.972183 1.404095 0.647426
386.326172 147.972427 0.211027 0.684069
376.890228 155.424652 0.000009 0.535049
371.391693 159.767197 0.000017 0.539828
368.329346 162.185730 0.000019 0.541789
366.374359 163.729736 0.000008 0.536397
365.015564 164.802872 0.000000 0.504289
364.014404 165.593552 0.000005 0.533333
nan nan nan 0.000000
nan nan nan 0.000000
386.328094 147.645142 8.663347 0.650858
386.326477 147.646423 7.431849 0.664706
386.328033 147.645172 6.212856 0.644608
386.326111 147.646713 5.002512 0.653431
386.325867 147.646927 3.798914 0.643995
386.326141 147.646698 2.599216 0.647304
386.326324 147.646545 1.400780 0.681373
386.326294 147.646576 0.201057 0.670466
376.784180 155.291428 0.000014 0.539828
371.316132 159.672241 0.000021 0.562868
368.270721 162.112106 0.000025 0.532598
366.326569 163.669693 0.000011 0.563480
364.975250 164.752319 0.000015 0.550735
363.979675 165.549957 0.000019 0.536029
nan nan nan 0.000000
nan nan nan 0.000000
386.323853 147.319153 8.699993 0.686765
386.327942 147.315796 7.462818 0.676348
386.327698 147.315994 6.236607 0.668873
386.324646 147.318481 5.019319 0.672917
386.327209 147.316422 3.809162 0.658946
386.326447 147.317047 2.602607 0.643260
386.326172 147.317261 1.397398 0.655882
386.326233 147.317230 0.190900 0.620466
376.677277 155.158875 0.000009 0.536152
371.239990 159.577728 0.000011 0.554534
368.211670 162.038834 0.000018 0.537868
366.278442 163.609940 0.000002 0.546078
364.934723 164.701981 0.000006 0.527574
363.944702 165.506561 0.000010 0.512377
nan nan nan 0.000000
nan nan nan 0.000000
386.143127 147.134979 8.695773 0.646691
nan nan nan 0.000000
nan nan nan 0.000000
nan nan nan 0.000000
nan nan nan 0.000000
nan nan nan 0.000000
nan nan nan 0.000000
389.161499 144.646759 0.000017 0.531740
376.569366 155.027130 0.000014 0.538358
371.163055 159.483826 0.000014 0.539951
368.152039 161.965988 0.000017 0.499020
366.229828 163.550583 0.000006 0.522794
364.893738 164.651978 0.000010 0.543015
363.909363 165.463440 0.000018 0.569118
nan nan nan 0.000000
nan nan nan 0.000000
nan nan nan 0.000000
nan nan nan 0.000000
nan nan nan 0.000000
nan nan nan 0.000000
nan nan nan 0.000000
nan nan nan 0.000000
nan nan nan 0.000000
388.979889 144.428131 0.000020 0.532475
376.460571 154.896133 0.000017 0.538358
371.085510 159.390472 0.000019 0.533946
368.092010 161.893494 0.000000 0.505882
366.180786 163.491547 0.000013 0.529779
364.852417 164.602249 0.000018 0.559681
363.873749 165.420563 0.000023 0.540074
nan nan nan 0.000000
nan nan nan 0.000000
nan nan nan 0.000000
nan nan nan 0.000000
nan nan nan 0.000000
nan nan nan 0.000000
nan nan nan 0.000000
nan nan nan 0.000000
nan nan nan 0.000000
388.796906 144.210678 0.000016 0.534559
376.350891 154.765884 0.000016 0.527328
371.007355 159.297623 0.000016 0.525123
368.031372 161.821472 -0.000002 0.536642
366.131378 163.432846 0.000009 0.551471
364.810791 164.552795 0.000013 0.501838
363.837921 165.377869 0.000002 0.551348
nan nan nan 0.000000
nan nan nan 0.000000
nan nan nan 0.000000
nan nan nan 0.000000
394.331177 139.075470 7.551178 0.583456
394.331177 139.075470 5.956603 0.573897
394.330444 139.076080 4.370520 0.590564
394.214203 139.176086 2.787099 0.831495
394.214172 139.176086 1.212900 0.820221
388.612305 143.994598 0.000018 0.540564
376.240295 154.636414 0.000019 0.549632
370.928497 159.205368 0.000021 0.535784
367.970184 161.749954 0.000009 0.543260
366.081482 163.374512 0.000013 0.557230
364.768799 164.503632 0.000012 0.552941
363.801666 165.335510 0.000007 0.530515
nan nan nan 0.000000
nan nan nan 0.000000
nan nan nan 0.000000
nan nan nan 0.000000
393.782928 139.106705 7.501152 0.799265
388.998810 143.280228 5.400384 0.488358
393.818024 139.076080 4.351492 0.567279
393.673096 139.202545 2.780123 0.678431
393.673096 139.202545 1.219877 0.678431
388.426270 143.779709 0.000014 0.533578
376.128815 154.507660 0.000014 0.541789
370.849060 159.113586 0.000016 0.545221
367.908630 161.678772 0.000001 0.511152
366.031281 163.316498 0.000005 0.531863
364.726501 164.454758 0.000010 0.564216
363.765198 165.293365 0.000004 0.510049
nan nan nan 0.000000
nan nan nan 0.000000
nan nan nan 0.000000
nan nan nan 0.000000
388.164001 143.632263 6.671914 0.477451
388.472656 143.359192 5.363699 0.492279
393.313721 139.076096 4.332880 0.553554
387.938446 143.831848 2.659625 0.462377
393.170807 139.202530 1.226051 0.678431
388.238617 143.566269 0.000018 0.543015
376.016388 154.379791 0.000018 0.532598
370.768951 159.022430 0.000020 0.536887
367.846466 161.608063 0.000003 0.527819
365.980652 163.258850 0.000008 0.557230
364.683838 164.406204 0.000013 0.575735
363.728424 165.251495 0.000004 0.521324
nan nan nan 0.000000
nan nan nan 0.000000
nan nan nan 0.000000
393.209229 138.724457 9.067137 0.340686
392.817444 139.075974 7.420306 0.541054
388.018616 143.381805 5.334668 0.493750
387.831085 143.550095 3.985560 0.487010
387.780548 143.595398 2.660271 0.614216
392.676422 139.202530 1.232092 0.678431
388.049591 143.354004 0.000015 0.530392
375.903137 154.252625 0.000015 0.537623
370.688232 158.931793 0.000016 0.556863
367.783844 161.537781 0.000002 0.514093
365.929596 163.201538 0.000007 0.535784
364.640808 164.357925 0.000013 0.530025
363.691345 165.209854 0.000001 0.550000
nan nan nan 0.000000
nan nan nan 0.000000
nan nan nan 0.000000
388.063416 142.957169 8.079840 0.476103
387.780731 143.214417 6.671196 0.484436
392.345490 139.060699 5.835452 0.678431
387.661011 143.323349 3.986830 0.479534
387.600891 143.378067 2.660473 0.483578
392.189636 139.202530 1.238002 0.678431
387.859039 143.143143 0.000016 0.532843
375.789032 154.126251 0.000013 0.550490
370.606842 158.841736 0.000014 0.545711
367.720734 161.467941 0.000005 0.511520
365.878143 163.144638 0.000011 0.549265
364.597473 164.309952 0.000009 0.541912
363.653961 165.168503 0.000005 0.555270
nan nan nan 0.000000
nan nan nan 0.000000
388.004822 142.621857 9.491186 0.485662
387.736481 142.869476 8.052874 0.472181
387.412170 143.168808 6.643479 0.485662
387.250214 143.318222 5.291576 0.489216
387.579529 143.014328 3.994136 0.454902
387.346863 143.229050 2.659057 0.459681
388.030457 142.598221 1.325723 0.659191
387.667053 142.933563 0.000013 0.536152
375.673981 154.000671 0.000009 0.535662
370.524872 158.752228 0.000011 0.542647
367.657135 161.398544 0.000002 0.506250
365.826324 163.088028 0.000004 0.541789
364.553802 164.262299 0.000012 0.467402
363.616333 165.127411 0.000001 0.565686
nan nan nan 0.000000
nan nan nan 0.000000
387.497589 142.702927 9.413532 0.473897
391.677948 138.790924 8.893002 0.377696
387.251038 142.933624 6.648321 0.472304
387.121613 143.054764 5.298556 0.485907
386.946930 143.218231 3.964550 0.481127
388.589691 141.680923 2.691200 0.482353
391.238281 139.202377 1.249442 0.713358
387.473511 142.725418 0.000018 0.534681
375.558014 153.875992 0.000017 0.530637
370.442230 158.663361 0.000018 0.539216
367.593018 161.329636 0.000012 0.522672
365.774048 163.031845 0.000012 0.518260
364.509827 164.214920 0.000006 0.501103
363.578369 165.086594 0.000008 0.496691
nan nan nan 0.000000
nan nan nan 0.000000
387.544189 142.266571 9.474154 0.493505
391.180176 138.816071 8.836704 0.308578
387.326843 142.472809 6.691025 0.463848
387.681030 142.136688 5.383567 0.480515
387.005524 142.777756 3.981486 0.490809
388.114807 141.725067 2.685049 0.495833
390.848022 139.131287 1.253292 0.678431
387.278625 142.518600 0.000018 0.537255
375.441162 153.752106 0.000022 0.548897
370.358948 158.575043 0.000020 0.542157
367.528503 161.261108 0.000008 0.535172
365.721405 162.976013 0.000017 0.498407
364.465454 164.167862 0.000004 0.512255
363.540131 165.046021 0.000009 0.540931
nan nan nan 0.000000
nan nan nan 0.000000
387.450012 141.959213 9.500409 0.493137
390.696899 138.834595 8.782978 0.350980
386.989502 142.402359 6.668568 0.493627
387.410736 141.996994 5.375457 0.459314
387.220825 142.179749 4.009430 0.493137
387.217316 142.183136 2.669252 0.459681
390.388580 139.131302 1.258727 0.678431
387.082275 142.313095 0.000016 0.534069
375.323547 153.628998 0.000021 0.545098
370.275116 158.487289 0.000018 0.571446
367.463470 161.193069 0.000010 0.524142
365.668396 162.920532 0.000012 0.538480
364.420807 164.121140 0.000005 0.548774
363.501617 165.005722 0.000006 0.520711
nan nan nan 0.000000
nan nan nan 0.000000
nan nan nan 0.000000
390.214783 138.859009 8.729103 0.434436
386.948669 142.046356 6.693696 0.493137
389.926788 139.140060 5.686634 0.707966
386.946350 142.048630 4.004230 0.491176
386.715607 142.273804 2.662323 0.481495
389.935791 139.131287 1.264048 0.681250
386.884460 142.109009 0.000016 0.542647
375.205078 153.506668 0.000017 0.529289
370.190765 158.400040 0.000004 0.559681
367.397949 161.125473 0.000009 0.501716
365.615021 162.865433 0.000014 0.565809
364.375793 164.074707 0.000005 0.535539
363.462799 164.965714 0.000012 0.519608
nan nan nan 0.000000
nan nan nan 0.000000
nan nan nan 0.000000
389.745789 138.877594 8.677551 0.425735
389.640900 138.981384 7.161743 0.694975
389.560730 139.060699 5.669787 0.684436
387.331696 141.266602 4.044660 0.464216
387.009949 141.584976 2.673660 0.460049
389.444153 139.176086 1.270300 0.821691
386.685242 141.906326 0.000019 0.541054
375.085754 153.385208 0.000015 0.527696
370.105652 158.313492 0.000007 0.569975
367.331970 161.058319 0.000008 0.567892
365.561218 162.810669 0.000010 0.518505
364.330505 164.028610 0.000004 0.543750
363.423737 164.925934 0.000008 0.520588
nan nan nan 0.000000
nan nan nan 0.000000
nan nan nan 0.000000
389.284302 138.895477 8.627188 0.307598
389.198669 138.981369 7.125710 0.678431
388.959473 139.221466 5.625558 0.586397
388.952301 139.228638 4.171726 0.824387
388.978302 139.202515 2.723996 0.678431
388.978302 139.202515 1.276005 0.678431
386.484589 141.705002 0.000019 0.537377
374.965546 153.264587 0.000016 0.530515
370.019989 158.227524 0.000007 0.543995
367.265533 160.991669 0.000011 0.542770
365.507050 162.756332 0.000012 0.577819
364.284851 163.982819 0.000006 0.516054
363.384399 164.886444 0.000008 0.563358
323.012390 205.890579 14.413912 0.630637
325.114166 203.751770 12.056089 0.724510
324.967010 203.901489 10.510151 0.678431
325.115936 203.749954 8.906214 0.727941
324.967010 203.901489 7.380495 0.678431
325.115723 203.750153 5.817554 0.737623
324.967010 203.901489 4.297679 0.678431
325.115753 203.750153 2.761875 0.737500
324.646118 204.228027 1.227162 0.703064
329.214020 199.579620 -0.000004 0.539461
340.652222 187.939789 -0.000010 0.334436
345.563171 182.942276 -0.000001 0.524755
348.298248 180.158981 -0.000001 0.527819
350.044342 178.382156 -0.000020 0.524510
351.258026 177.147034 0.000007 0.564706
352.152130 176.237183 -0.000009 0.570956
324.173889 205.189133 14.084956 0.673652
325.572388 203.745956 11.986069 0.696691
325.455780 203.866302 10.443461 0.735294
325.572113 203.746262 8.858562 0.697917
325.455811 203.866287 7.338328 0.727206
325.572144 203.746231 5.791185 0.698039
325.455811 203.866272 4.279672 0.735049
325.572083 203.746277 2.756613 0.698039
323.494995 205.889725 1.194544 0.624265
329.417450 199.778107 -0.000004 0.534804
340.774139 188.058716 -0.000010 0.332475
345.650055 183.027054 -0.000001 0.528554
348.365631 180.224716 -0.000001 0.542525
350.099243 178.435745 -0.000019 0.566789
351.304230 177.192245 -0.000013 0.531740
352.192139 176.276001 0.000027 0.554167
324.647583 205.180969 14.001213 0.672794
326.022186 203.742493 11.918169 0.730147
325.877625 203.893784 10.393838 0.678431
326.022400 203.742279 8.811821 0.705637
325.877625 203.893784 7.306956 0.678431
326.022186 203.742508 5.765380 0.704412
325.877655 203.893768 4.266274 0.678431
326.022217 203.742477 2.751461 0.729289
323.974182 205.885651 1.200029 0.626838
329.622253 199.975189 -0.000003 0.534681
340.896820 188.176788 -0.000010 0.332598
345.737518 183.111206 -0.000001 0.653064
348.433472 180.289978 -0.000001 0.543015
350.154724 178.488770 0.000027 0.550245
351.350952 177.236954 0.000024 0.599510
352.232361 176.314590 0.000050 0.546569
325.031006 205.261795 13.949789 0.663113
326.466278 203.738678 11.851551 0.719853
326.323730 203.889969 10.337464 0.678431
326.466217 203.738770 8.766125 0.723284
326.323730 203.889984 7.271316 0.678431
326.466248 203.738739 5.740091 0.720343
326.323730 203.889969 4.251055 0.678431
326.466309 203.738678 2.746413 0.722794
324.446899 205.881653 1.205402 0.637255
329.828400 200.170837 -0.000004 0.531985
341.020325 188.294006 -0.000010 0.334191
345.825531 183.194748 -0.000000 0.543750
348.501740 180.354767 -0.000002 0.559804
350.210297 178.541672 0.000007 0.558456
351.397644 177.281662 -0.000040 0.518627
352.272614 176.353149 -0.000013 0.566054
325.224518 205.542816 13.968064 0.655025
326.904236 203.735199 11.786373 0.692647
326.763855 203.886261 10.282250 0.678431
326.904785 203.734604 8.721226 0.694363
326.763855 203.886261 7.236404 0.678431
326.904449 203.734985 5.715317 0.696936
326.763855 203.886246 4.236147 0.678431
326.904480 203.734940 2.741471 0.695221
324.913330 205.877701 1.210665 0.625245
330.035919 200.365021 -0.000004 0.538971
341.144653 188.410355 -0.000010 0.336029
345.914154 183.277679 -0.000001 0.517524
348.570465 180.419083 -0.000001 0.545221
350.266449 178.593948 0.000044 0.523284
351.444946 177.325714 -0.000005 0.476225
352.313385 176.391144 0.000016 0.577574
325.422089 205.820938 13.985701 0.641422
327.324341 203.744980 11.726395 0.699142
327.198242 203.882584 10.228156 0.678431
327.326965 203.742081 8.679571 0.700735
327.198242 203.882584 7.202204 0.678431
327.336945 203.731186 5.691036 0.715074
327.198242 203.882584 4.221542 0.678431
327.336853 203.731277 2.736627 0.722426
325.373657 205.873795 1.215819 0.651348
330.244781 200.557755 -0.000004 0.531618
341.269806 188.525818 -0.000009 0.333211
346.003357 183.359985 -0.000001 0.542279
348.639648 180.482910 -0.000000 0.526716
350.322693 178.646164 -0.000000 0.512010
351.492462 177.369553 -0.000003 0.541667
352.354370 176.428940 0.000019 0.549387
325.828033 205.869949 13.926354 0.648162
327.676605 203.824036 11.687819 0.720221
327.627014 203.878922 10.175162 0.678431
327.676605 203.824036 8.653656 0.740931
327.626984 203.878937 7.168701 0.678431
327.763977 203.727341 5.667238 0.696936
327.627014 203.878937 4.207234 0.678431
327.763733 203.727615 2.731881 0.715441
325.828033 205.869949 1.220870 0.637868
330.455017 200.749039 -0.000005 0.538848
341.395782 188.640427 -0.000009 0.333824
346.093140 183.441666 0.000000 0.552328
348.709259 180.546265 0.000000 0.524142
350.379517 178.697723 0.000021 0.546691
351.540314 177.413010 0.000015 0.519485
352.395538 176.466492 0.000009 0.580392
326.276581 205.866165 13.850608 0.647059
328.097046 203.822861 11.626990 0.767402
328.050293 203.875351 10.123240 0.678431
328.099182 203.820450 8.611397 0.737868
328.050293 203.875351 7.135871 0.678431
328.184570 203.724640 5.644045 0.690441
328.050293 203.875351 4.193215 0.678431
328.185089 203.724060 2.727234 0.695221
326.276581 205.866135 1.225819 0.624387
330.666565 200.938858 -0.000004 0.535417
341.522522 188.754150 -0.000009 0.334314
346.183472 183.522720 -0.000001 0.538358
348.779327 180.609131 -0.000000 0.540931
350.436737 178.748856 0.000048 0.529289
351.588409 177.456253 -0.000006 0.518015
352.437164 176.503601 0.000049 0.489461
326.719513 205.862411 13.776386 0.614461
328.494812 203.841599 11.573091 0.832966
328.468262 203.871811 10.072365 0.678431
328.494812 203.841583 8.574860 0.836397
328.468292 203.871796 7.103705 0.678431
328.586487 203.737259 5.622982 0.690931
328.468292 203.871811 4.179480 0.678431
328.601135 203.720566 2.722680 0.688848
326.688934 205.897202 1.229910 0.136642
330.879425 201.127182 -0.000004 0.532721
341.650055 188.866974 -0.000008 0.334436
346.274384 183.603149 -0.000001 0.526838
348.849823 180.671494 -0.000000 0.534436
350.494202 178.799744 0.000039 0.560784
351.636780 177.499115 -0.000014 0.544363
352.478760 176.540680 -0.000004 0.486520
327.100616 205.923737 13.725208 0.678431
328.937317 203.803345 11.504037 0.632843
328.937317 203.803345 10.006868 0.637990
328.937317 203.803345 8.527433 0.623162
328.937317 203.803345 7.062297 0.633578
328.937317 203.803345 5.608152 0.632353
328.937317 203.803345 4.161796 0.625123
329.012024 203.717117 2.718217 0.717402
327.126831 205.893509 1.234665 0.142279
331.093597 201.314011 -0.000004 0.535784
341.778412 188.978912 -0.000008 0.330270
346.365814 183.682938 -0.000001 0.549755
348.920776 180.733383 -0.000000 0.526838
350.551727 178.850510 -0.000039 0.536152
351.685486 177.541641 -0.000023 0.543015
352.520721 176.577423 -0.000036 0.593995
327.533539 205.920059 13.653801 0.678431
329.303192 203.847977 11.459817 0.780515
329.303192 203.847977 9.969616 0.786397
329.303223 203.847977 8.497061 0.791912
329.303192 203.847977 7.038742 0.793627
329.335693 203.809967 5.587267 0.729412
329.303223 203.847946 4.151736 0.793750
329.417908 203.713684 2.713843 0.726961
329.119141 204.063492 1.278628 0.670343
331.309082 201.499313 -0.000003 0.541054
341.907501 189.089966 -0.000009 0.334314
346.457855 183.762070 -0.000001 0.538480
348.992126 180.794769 -0.000001 0.530270
350.610046 178.900360 0.000004 0.514951
351.734741 177.583496 0.000064 0.528186
352.563080 176.613647 0.000006 0.525613
327.961212 205.916428 13.583821 0.678431
329.691620 203.861435 11.407780 0.678431
329.691620 203.861435 9.925774 0.678431
329.691620 203.861435 8.461322 0.678431
329.691620 203.861435 7.011024 0.678431
329.737793 203.806564 5.565726 0.729044
329.691620 203.861435 4.139901 0.678431
329.818878 203.710312 2.709557 0.686275
328.015930 205.851410 1.244638 0.627083
331.525879 201.683136 -0.000002 0.533701
342.037354 189.200104 -0.000009 0.332108
346.550446 183.840576 0.000001 0.515931
349.063904 180.855637 -0.000001 0.545098
350.668640 178.949951 0.000015 0.532475
351.783936 177.625443 0.000027 0.545711
352.605591 176.649658 0.000018 0.488480
328.408844 205.882645 13.505402 0.871446
330.135193 203.803207 11.336673 0.778676
330.135193 203.803207 9.865870 0.779534
330.135193 203.803207 8.412487 0.806127
330.135193 203.803207 6.973151 0.779657
330.135193 203.803207 5.544614 0.779779
330.135193 203.803207 4.123728 0.765074
330.215332 203.706696 2.705351 0.696324
328.437744 205.847839 1.249111 0.630270
331.743927 201.865448 -0.000002 0.535049
342.167999 189.309341 -0.000009 0.333578
346.643524 183.918442 -0.000001 0.540564
349.136108 180.916016 -0.000000 0.539461
350.727631 178.998993 0.000057 0.557476
351.833588 177.666824 0.000047 0.520711
352.648346 176.685440 0.000010 0.522304
328.854614 205.844315 13.426971 0.645956
330.483002 203.854721 11.297480 0.678431
330.483002 203.854721 9.832851 0.678431
330.483002 203.854721 8.385566 0.678431
330.483002 203.854721 6.952274 0.678431
330.525238 203.803146 5.524269 0.767157
330.483002 203.854736 4.114813 0.678431
330.606873 203.703430 2.701235 0.700368
328.854614 205.844315 1.253494 0.645711
331.963226 202.046234 -0.000003 0.537623
342.299408 189.417633 -0.000008 0.333701
346.737183 183.995636 -0.000001 0.519730
349.208771 180.975891 -0.000000 0.544608
350.786804 179.047867 0.000045 0.525123
351.883484 177.707932 0.000051 0.534559
352.691345 176.720886 0.000013 0.513726
329.266663 205.840820 13.361197 0.633946
330.871826 203.851440 11.243964 0.678431
330.909637 203.804581 9.776814 0.738113
330.871826 203.851440 8.348814 0.678431
330.871826 203.851440 6.923769 0.678431
330.871826 203.851440 5.509418 0.678431
330.871826 203.851456 4.102640 0.678431
330.993866 203.700195 2.697199 0.690196
329.266663 205.840805 1.257791 0.637745
332.183777 202.225494 -0.000003 0.536029
342.431549 189.525024 -0.000007 0.333333
346.831360 184.072174 -0.000001 0.548897
349.281799 181.035248 0.000001 0.542157
350.846130 179.096497 -0.000015 0.522794
351.933502 177.748932 -0.000011 0.556005
352.734619 176.756058 0.000006 0.538113
329.673950 205.837372 13.296730 0.636887
331.256226 203.848175 11.191507 0.678431
331.299866 203.793320 9.730818 0.778922
331.256226 203.848160 8.312786 0.678431
331.256226 203.848160 6.895828 0.678431
331.256226 203.848175 5.489504 0.678431
331.256226 203.848175 4.090709 0.678431
331.376465 203.697021 2.693244 0.695588
329.673981 205.837357 1.262003 0.617892
332.405609 202.403183 -0.000002 0.532230
342.564453 189.631500 -0.000008 0.334436
346.926086 184.148056 0.000000 0.524265
349.355255 181.094086 0.000001 0.569118
350.906097 179.144394 0.000008 0.548652
351.984039 177.789200 0.000033 0.509069
352.778046 176.791016 -0.000025 0.534191
330.076752 205.833939 13.233531 0.619976
331.636292 203.844955 11.140086 0.678431
331.682190 203.786453 9.686722 0.702819
331.636292 203.844955 8.277470 0.678431
331.636292 203.844955 6.868439 0.678431
331.636292 203.844971 5.469982 0.678431
331.636292 203.844971 4.079012 0.678431
331.754761 203.693863 2.689367 0.719608
330.076752 205.833939 1.266131 0.633946
332.628662 202.579330 -0.000003 0.532108
342.698090 189.737045 -0.000007 0.331740
347.021362 184.223267 0.000001 0.548897
349.429138 181.152435 0.000000 0.562377
350.966370 179.191925 0.000012 0.578431
352.034790 177.829239 0.000036 0.574020
352.821960 176.825348 0.000042 0.557966
330.475067 205.830582 13.171577 0.660172
332.012146 203.841782 11.089678 0.678431
332.045197 203.798996 9.647947 0.772672
332.012146 203.841782 8.242849 0.678431
332.012177 203.841766 6.841588 0.678431
332.012146 203.841782 5.450845 0.678431
332.012146 203.841782 4.067547 0.678431
332.128876 203.690735 2.685566 0.700123
330.475067 205.830582 1.270178 0.635172
332.852905 202.753937 -0.000004 0.539216
342.832458 189.841644 -0.000008 0.332598
347.117126 184.297836 0.000000 0.516912
349.503418 181.210266 -0.000000 0.557598
351.026825 179.239166 -0.000013 0.549387
352.085785 177.868988 0.000029 0.533946
352.865906 176.859619 0.000032 0.501716
330.819519 205.892197 13.131296 0.678431
332.383881 203.838623 11.040262 0.678431
332.416473 203.795837 9.606367 0.757966
332.383881 203.838623 8.208908 0.678431
332.383881 203.838623 6.815268 0.678431
332.383881 203.838623 5.432084 0.678431
332.383881 203.838623 4.056305 0.678431
332.498932 203.687653 2.681840 0.693015
330.869019 205.827225 1.274147 0.641667
333.078400 202.926941 -0.000003 0.538603
342.967560 189.945282 -0.000007 0.331740
347.213409 184.371719 -0.000000 0.547426
349.578094 181.267563 -0.000000 0.513235
351.087708 179.285873 -0.000010 0.525368
352.137207 177.908188 0.000071 0.558946
352.910217 176.893417 0.000075 0.567770
331.209961 205.888901 13.071645 0.678431
332.751648 203.835510 10.991813 0.678431
332.783752 203.792725 9.565603 0.754779
332.751648 203.835495 8.175636 0.678431
332.777191 203.801468 6.784567 0.832598
332.751648 203.835510 5.413692 0.678431
332.751648 203.835510 4.045286 0.678431
332.864960 203.684586 2.678187 0.697304
331.258759 205.823929 1.278036 0.630147
333.305084 203.098373 -0.000003 0.539461
343.103394 190.048019 -0.000007 0.330637
347.310211 184.444916 0.000000 0.548774
349.653168 181.324326 0.000002 0.551225
351.148895 179.332199 -0.000017 0.561765
352.188538 177.947495 -0.000011 0.503554
352.954529 176.927246 0.000012 0.560539
331.596252 205.885620 13.013164 0.678431
333.115479 203.832428 10.944318 0.678431
