# This PCD file was generated using the MATLABÂ® pcwrite function
# from Computer Vision ToolboxÂ®.
# .PCD v.7 - Point Cloud Data file format
VERSION .7
FIELDS x y z intensity
SIZE 4 4 4 4
TYPE F F F F
COUNT 1 1 1 1
WIDTH 1259
HEIGHT 1
VIEWPOINT 0 0 0 1 0 0 0
POINTS 1259
DATA ascii
264.299622 92.037292 5.980219 0.507230
264.107239 92.077454 5.389449 0.503064
263.888977 92.123016 4.814947 0.512010
263.979187 92.104179 4.308496 0.506373
263.376831 92.229935 3.719543 0.505882
263.582062 92.187088 3.242796 0.506618
264.923523 91.907028 2.811934 0.510172
266.698334 91.536507 2.300120 0.516789
nan nan nan 0.000000
288.597046 86.964737 -0.000014 0.333088
272.621918 90.299843 -0.000004 0.526961
265.763245 91.731728 0.000001 0.525858
261.942993 92.529282 0.000060 0.532230
259.504456 93.038368 0.000046 0.549632
257.809631 93.392197 0.000027 0.545588
256.560913 93.652893 0.000016 0.496569
264.362091 91.910294 6.002146 0.498407
264.199219 91.945496 5.414807 0.518873
263.917847 92.006279 4.824498 0.531005
263.863342 92.018051 4.294343 0.506127
262.544525 92.303009 3.624138 0.502451
263.641388 92.066025 3.249616 0.503554
263.853607 92.020164 2.759364 0.503186
264.678192 91.841995 2.266746 0.509804
nan nan nan 0.000000
288.537964 86.686722 -0.000012 0.332108
272.586578 90.133270 -0.000005 0.536887
265.738068 91.612991 -0.000005 0.535539
261.923157 92.437263 0.000099 0.557721
259.488312 92.963348 0.000085 0.536642
257.795990 93.329002 0.000066 0.534436
256.548950 93.598450 0.000110 0.543382
264.311737 91.807251 5.995361 0.515564
264.009644 91.874741 5.378097 0.502328
263.890503 91.901352 4.823733 0.507843
263.882233 91.903191 4.300736 0.502941
262.599182 92.189812 3.633073 0.512500
263.559113 91.975372 3.244623 0.500735
263.914215 91.896049 2.763581 0.516054
264.525574 91.759483 2.264596 0.507353
nan nan nan 0.000000
288.476959 86.409134 -0.000012 0.331740
272.550018 89.966957 -0.000005 0.538725
265.712036 91.494446 -0.000002 0.541054
261.903046 92.345314 0.000085 0.559559
259.471954 92.888390 0.000066 0.535294
257.782196 93.265854 0.000053 0.538480
256.537048 93.543991 0.000090 0.525980
264.319305 91.691231 6.003644 0.513971
264.114014 91.738602 5.406589 0.521814
263.895599 91.788986 4.829169 0.517524
262.473999 92.116989 4.090003 0.505882
262.645691 92.077377 3.641156 0.508088
263.760925 91.820068 3.263580 0.523529
265.042816 91.524300 2.821693 0.514338
266.498993 91.188324 2.298157 0.512500
nan nan nan 0.000000
288.414032 86.131966 -0.000012 0.331985
272.512299 89.800896 -0.000004 0.537377
265.685150 91.376099 -0.000002 0.522181
261.882416 92.253479 0.000053 0.498652
259.455139 92.813515 0.000032 0.527328
257.768036 93.202782 0.000021 0.495711
256.524872 93.489601 0.000056 0.544240
264.441254 91.547485 6.041604 0.528554
263.915466 91.672668 5.368090 0.513358
263.898926 91.676620 4.834417 0.521936
262.530396 92.002441 4.102028 0.502941
262.701080 91.961815 3.650391 0.503676
262.873352 91.920792 3.190839 0.503799
265.818848 91.219498 2.862230 0.509436
266.399689 91.081200 2.296975 0.511520
nan nan nan 0.000000
288.349152 85.855247 -0.000012 0.332230
272.473450 89.635109 -0.000004 0.546324
265.657440 91.257919 -0.000003 0.516054
261.860687 92.161903 0.000093 0.530637
259.437408 92.738853 0.000069 0.518995
257.753113 93.139870 0.000056 0.551348
256.511993 93.435364 0.000090 0.548162
263.357208 91.697617 5.768826 0.510294
264.392059 91.443588 5.479765 0.506127
263.926239 91.557930 4.844326 0.532721
262.581482 91.888039 4.113380 0.508456
263.169678 91.743645 3.708691 0.513971
262.933563 91.801605 3.197934 0.505882
nan nan nan 0.000000
nan nan nan 0.000000
nan nan nan 0.000000
288.282349 85.579002 -0.000011 0.332353
272.433411 89.469597 -0.000003 0.548652
265.628937 91.139954 -0.000004 0.542157
261.839111 92.070267 0.000007 0.540686
259.419525 92.664238 0.000043 0.518750
257.738068 93.076996 0.000023 0.539461
256.498993 93.381165 0.000069 0.563480
263.340088 91.593605 5.770966 0.508211
264.564117 91.284042 5.524160 0.505147
264.374939 91.331894 4.933491 0.509559
262.638062 91.771133 4.125718 0.519608
263.097900 91.654846 3.703148 0.511029
262.245361 91.870438 3.141816 0.525613
265.324738 91.091690 2.840152 0.521446
nan nan nan 0.000000
nan nan nan 0.000000
288.213593 85.303223 -0.000009 0.332108
272.392212 89.304367 -0.000003 0.534314
265.599579 91.022186 -0.000002 0.537377
261.816132 91.978996 0.000045 0.532966
259.400757 92.589828 0.000081 0.573529
257.722260 93.014313 0.000060 0.567157
256.485382 93.327110 0.000102 0.506005
263.342682 91.484329 5.778395 0.504167
264.489014 91.185883 5.513721 0.506127
264.733337 91.122276 5.006144 0.506985
263.605133 91.415993 4.277764 0.522672
262.851501 91.612183 3.676913 0.511152
263.044250 91.562012 3.211550 0.506985
265.068054 91.035141 2.828628 0.509681
nan nan nan 0.000000
nan nan nan 0.000000
288.142944 85.027924 -0.000009 0.332843
272.349945 89.139404 -0.000008 0.555882
265.569458 90.904610 -0.000006 0.542034
261.793060 91.887741 -0.000004 0.525858
259.381866 92.515465 0.000050 0.549510
257.706329 92.951653 0.000029 0.554534
256.471649 93.273094 0.000072 0.496446
263.290436 91.389297 5.771821 0.511275
257.767090 92.868469 4.017241 0.509191
264.682678 91.016441 5.002146 0.505637
262.746124 91.535057 4.150055 0.521569
263.224609 91.406929 3.724438 0.510907
262.887024 91.497330 3.200441 0.505637
266.583221 90.507469 2.907215 0.506005
nan nan nan 0.000000
nan nan nan 0.000000
288.070374 84.753136 -0.000009 0.331985
272.306488 88.974762 -0.000007 0.543260
265.538452 90.787262 -0.000006 0.535784
261.769012 91.796738 -0.000004 0.529657
259.362091 92.441322 0.000086 0.551593
257.689667 92.889198 0.000066 0.552819
256.457275 93.219238 0.000108 0.605025
265.929688 90.553673 6.464675 0.519730
262.846832 91.402374 5.159012 0.506985
263.088623 91.335815 4.707006 0.512132
262.797028 91.416100 4.161964 0.515074
262.979095 91.365974 3.698417 0.503064
262.668243 91.451553 3.184108 0.515319
nan nan nan 0.000000
nan nan nan 0.000000
nan nan nan 0.000000
287.996033 84.478813 -0.000015 0.332475
272.261841 88.810432 -0.000006 0.534681
265.506622 90.670143 -0.000004 0.540809
261.744324 91.705902 -0.000001 0.510907
259.342163 92.367218 0.000052 0.536152
257.672638 92.826836 0.000087 0.551348
256.442780 93.165413 0.000078 0.526838
263.290100 91.170898 5.786266 0.508456
262.684967 91.342041 5.128840 0.514706
263.183594 91.201019 4.730240 0.515686
256.883484 92.982841 3.254581 0.507353
262.785217 91.313698 3.678550 0.506863
262.608612 91.363640 3.181339 0.504412
267.168030 90.074120 2.940566 0.506005
nan nan nan 0.000000
nan nan nan 0.000000
287.919617 84.205055 -0.000015 0.331985
272.216064 88.646423 -0.000005 0.537745
265.473969 90.553246 0.000000 0.540196
261.719025 91.615234 0.000001 0.534436
259.321350 92.293365 0.000090 0.511642
257.655090 92.764610 0.000122 0.538848
256.427673 93.111763 0.000110 0.546324
263.268677 91.067238 5.788260 0.505637
257.642975 92.700821 4.001160 0.500980
257.777496 92.661758 3.711405 0.505882
256.855469 92.929497 3.252768 0.494608
262.711975 91.228897 3.673136 0.507230
262.622101 91.254997 3.184855 0.507843
266.213013 90.212257 2.893594 0.505882
nan nan nan 0.000000
nan nan nan 0.000000
287.646057 83.988541 0.009974 1.000000
272.169128 88.482727 -0.000004 0.546814
265.440521 90.436577 0.000002 0.526716
261.693085 91.524757 0.000002 0.541789
259.300598 92.219490 0.000012 0.559926
257.637390 92.702446 0.000100 0.514583
256.412445 93.058144 0.000079 0.503064
263.266174 90.957809 5.795392 0.507966
258.891907 92.261192 4.286734 0.519118
264.120361 90.703293 4.919184 0.595956
263.508972 90.885468 4.285175 0.510417
263.284943 90.952225 3.745356 0.505882
262.975769 91.044334 3.217553 0.507353
264.605438 90.558754 2.813025 0.583701
264.550262 90.575195 2.269872 0.570098
264.561432 90.571869 1.729937 0.613113
264.479218 90.596359 1.193444 0.586397
264.465118 90.600571 0.655023 0.560417
264.536926 90.579170 0.104356 0.601716
261.666504 91.434448 0.000000 0.533946
259.278809 92.145905 0.000037 0.496814
257.619049 92.640457 0.000124 0.532966
256.396637 93.004700 0.000101 0.527451
258.036682 92.445244 4.433682 0.506863
256.936707 92.781372 3.849995 0.518015
262.505646 91.079613 4.618121 0.495588
263.460266 90.787895 4.282439 0.514338
262.664734 91.030991 3.674433 0.505392
262.508026 91.078880 3.180015 0.520711
264.503113 90.469215 2.809484 0.552328
264.477386 90.477081 2.269195 0.548284
264.432159 90.490898 1.731579 0.568750
264.432648 90.490753 1.194137 0.568627
264.398682 90.501129 0.657883 0.586152
264.393524 90.502708 0.117609 0.617279
261.639313 91.344345 0.000002 0.522549
259.256744 92.072418 0.000019 0.537010
257.600464 92.578552 0.000104 0.515074
256.380585 92.951309 0.000082 0.514951
256.817108 92.756172 4.118819 0.507721
256.940521 92.717522 3.854859 0.494730
259.626770 91.876099 4.074861 0.501593
256.081238 92.986671 3.140362 0.517647
256.391907 92.889359 2.921848 0.503554
266.154327 89.831467 3.495869 0.524387
265.848053 89.927391 2.880473 0.511520
266.784821 89.633965 2.309345 0.507353
264.465515 90.360458 1.730427 0.584069
287.594971 83.115562 -0.000015 0.537010
264.509766 90.346588 0.645434 0.566667
264.360718 90.393272 0.117494 0.599755
261.611481 91.254425 0.000005 0.519485
259.234222 91.999054 -0.000012 0.562745
257.581482 92.516739 0.000071 0.546814
256.364197 92.898033 0.000060 0.538603
256.819763 92.693298 4.124216 0.512010
257.481201 92.481033 3.981613 0.505882
257.609283 92.439926 3.693929 0.501471
256.078369 92.931229 3.142439 0.513848
262.756165 90.788223 3.692818 0.519608
262.953522 90.724884 3.223553 0.505392
265.918854 89.773262 2.886076 0.508088
nan nan nan 0.000000
nan nan nan 0.000000
287.509064 82.844635 -0.000014 0.535784
271.970062 87.831337 -0.000005 0.534559
265.298645 89.972298 -0.000001 0.531005
261.583008 91.164696 0.000006 0.554902
259.210846 91.925964 0.000021 0.511887
257.561798 92.455170 0.000105 0.546936
256.347229 92.844940 0.000093 0.533456
256.823273 92.629829 4.129961 0.503676
257.440552 92.426971 3.976866 0.517770
257.515808 92.402237 3.679868 0.512990
256.075439 92.875595 3.144578 0.522917
261.795563 90.995773 3.580336 0.505760
256.095673 92.868942 2.634431 0.497549
265.992493 89.616524 2.891895 0.505515
nan nan nan 0.000000
nan nan nan 0.000000
287.421265 82.574318 -0.000015 0.535539
271.917511 87.669357 -0.000009 0.524755
265.261230 89.856842 -0.000006 0.555147
261.553986 91.075165 0.000000 0.531005
259.187286 91.852928 -0.000008 0.531863
257.541962 92.393646 0.000075 0.528799
256.330139 92.791893 0.000063 0.548162
257.273285 92.415817 4.253842 0.502328
256.951599 92.524033 3.870041 0.506005
256.215973 92.771477 3.434236 0.519608
257.299164 92.407120 3.338752 0.505270
256.459442 92.689590 2.936336 0.506373
256.203583 92.775650 2.645241 0.507230
266.069031 89.457047 2.897936 0.528431
266.278778 89.386490 2.302720 0.514828
nan nan nan 0.000000
287.331573 82.304626 -0.000014 0.535907
271.863800 87.507774 -0.000009 0.529902
265.222900 89.741676 -0.000005 0.540686
261.524261 90.985840 -0.000000 0.558088
259.162933 91.780174 0.000026 0.566054
257.521606 92.332283 0.000063 0.517279
256.312439 92.739037 0.000094 0.547672
256.830200 92.501892 4.141826 0.505882
256.058350 92.767540 3.670460 0.555270
256.210846 92.715050 3.436661 0.512500
256.067261 92.764473 3.148682 0.507108
255.927322 92.812630 2.873827 0.505882
256.174408 92.727592 2.644246 0.512010
266.055237 89.326843 2.899354 0.505392
nan nan nan 0.000000
nan nan nan 0.000000
287.240021 82.035568 -0.000013 0.533211
271.808929 87.346573 -0.000007 0.535049
265.183777 89.626778 -0.000004 0.542770
261.493958 90.896729 -0.000002 0.550000
259.138306 91.707497 0.000005 0.537745
257.500916 92.271042 0.000035 0.533578
256.294586 92.686241 0.000065 0.525735
256.832764 92.437698 4.147718 0.513726
256.129974 92.685089 3.690926 0.520956
256.208649 92.657387 3.439732 0.507108
256.579803 92.526749 3.232077 0.505637
256.411743 92.585907 2.935030 0.439093
256.155731 92.676018 2.644189 0.494240
266.082642 89.181709 2.902970 0.504044
nan nan nan 0.000000
nan nan nan 0.000000
287.146576 81.767143 -0.000013 0.534069
271.752930 87.185745 -0.000006 0.532475
265.143890 89.512154 -0.000002 0.523529
261.463013 90.807846 0.000003 0.528676
259.112946 91.635071 0.000029 0.549632
257.479584 92.210022 0.000057 0.519240
256.276184 92.633621 0.000087 0.546936
257.157227 92.257317 4.239437 0.499387
256.933990 92.337654 3.879685 0.504412
256.203491 92.600533 3.442319 0.505637
256.631256 92.446594 3.243257 0.494608
257.096161 92.279289 3.021039 0.509804
258.469543 91.785057 2.847425 0.505882
258.119659 91.910973 2.489460 0.509926
nan nan nan 0.000000
nan nan nan 0.000000
287.051270 81.499382 -0.000013 0.534559
271.695862 87.025307 -0.000010 0.548407
265.103210 89.397804 -0.000006 0.523284
261.431458 90.719154 -0.000002 0.541912
259.087372 91.562721 0.000001 0.531373
257.458038 92.149071 0.000028 0.558578
256.257751 92.581009 0.000017 0.509681
257.118347 92.205124 4.234752 0.504289
256.273438 92.515854 3.732457 0.500980
256.201355 92.542358 3.445570 0.506373
256.403381 92.468056 3.210402 0.511887
256.360291 92.483902 2.933435 0.505882
257.849304 91.936295 2.795393 0.512745
257.486481 92.069717 2.457563 0.510294
nan nan nan 0.000000
nan nan nan 0.000000
286.954102 81.232285 -0.000013 0.539338
271.637634 86.865288 -0.000010 0.546569
265.061737 89.283737 -0.000007 0.533701
261.399292 90.630692 -0.000003 0.553186
259.060944 91.490669 0.000033 0.536765
257.435791 92.088371 0.000058 0.537132
256.238586 92.528671 0.000047 0.580270
256.841675 92.242523 4.166534 0.505882
256.348694 92.427750 3.754323 0.495221
256.196228 92.485031 3.448332 0.506618
256.458862 92.386360 3.222339 0.505882
256.304047 92.444534 2.928948 0.504412
257.495667 91.996819 2.766483 0.508211
259.081635 91.400925 2.542465 0.507353
nan nan nan 0.000000
nan nan nan 0.000000
286.855072 80.965881 -0.000013 0.538848
271.578308 86.705673 -0.000010 0.537745
265.019409 89.169983 -0.000005 0.544976
261.366486 90.542473 -0.000002 0.553676
259.034119 91.418777 0.000053 0.529289
257.413391 92.027725 0.000032 0.558701
256.219238 92.476387 0.000020 0.523039
257.856750 91.788361 4.444621 0.498039
256.420135 92.339607 3.775505 0.505270
256.355743 92.364311 3.483263 0.512377
256.048004 92.482391 3.160307 0.499142
256.461823 92.323608 2.950856 0.519853
257.902588 91.770767 2.804258 0.496446
257.551971 91.905312 2.463415 0.558088
258.273865 91.628311 2.167015 0.505882
nan nan nan 0.000000
286.754211 80.700172 -0.000013 0.535049
271.517853 86.546478 -0.000009 0.540074
264.976318 89.056519 -0.000003 0.557476
261.333038 90.454475 -0.000001 0.538725
259.006744 91.347107 0.000083 0.558456
257.390289 91.967346 0.000063 0.518627
256.199341 92.424324 0.000051 0.527574
256.848969 92.109985 4.180126 0.508088
256.344391 92.307640 3.762750 0.506985
256.188690 92.368637 3.454635 0.499265
256.042542 92.425880 3.162580 0.509559
256.313354 92.319794 2.935089 0.501716
257.824097 91.727982 2.799524 0.505147
257.193359 91.975060 2.445750 0.505882
257.743195 91.759682 2.158140 0.512132
nan nan nan 0.000000
286.651428 80.435181 -0.000013 0.535784
271.456360 86.387695 -0.000013 0.536397
264.932495 88.943344 -0.000007 0.539583
261.299042 90.366707 -0.000003 0.525613
258.979126 91.275505 0.000057 0.546446
257.367004 91.907036 0.000044 0.524387
256.179291 92.372307 0.000024 0.550613
256.416565 92.217422 4.069514 0.527941
256.343323 92.246696 3.767382 0.511152
256.455078 92.202019 3.510867 0.507721
256.032410 92.371010 3.164177 0.496936
255.899033 92.424339 2.886342 0.505882
256.979034 91.992538 2.727112 0.501838
257.705536 91.702072 2.474081 0.501471
258.203766 91.502869 2.166695 0.522059
nan nan nan 0.000000
286.546875 80.170906 -0.000014 0.534314
271.393677 86.229362 -0.000012 0.531373
264.887817 88.830498 -0.000005 0.531373
261.264404 90.279190 -0.000000 0.531863
258.950775 91.204201 0.000076 0.557230
257.343140 91.846962 0.000063 0.535784
256.158722 92.320511 0.000043 0.541054
256.423248 92.152390 4.077173 0.506005
256.338623 92.186928 3.771269 0.498284
256.535645 92.106552 3.530961 0.506005
256.036987 92.309967 3.168199 0.509069
255.895599 92.367645 2.888420 0.504902
257.162292 91.850922 2.745394 0.509436
257.288788 91.799316 2.453309 0.508456
257.589203 91.676765 2.156304 0.493750
nan nan nan 0.000000
286.440430 79.907364 -0.000014 0.531495
271.329895 86.071465 -0.000011 0.532843
264.842346 88.717957 -0.000005 0.530882
261.229156 90.191902 -0.000003 0.523652
258.922150 91.133018 0.000061 0.546569
257.318970 91.787003 0.000050 0.531740
256.137878 92.268814 0.000035 0.558088
256.425262 92.088852 4.083698 0.509559
256.336761 92.125687 3.775937 0.496814
256.179016 92.191330 3.465085 0.505760
256.031281 92.252792 3.170647 0.506863
255.891846 92.310814 2.890511 0.512990
257.195953 91.768173 2.750531 0.505515
257.322052 91.715698 2.456384 0.514338
257.513458 91.636055 2.155412 0.521936
nan nan nan 0.000000
286.332153 79.644577 -0.000014 0.535172
271.265045 85.914009 -0.000013 0.527206
264.796143 88.605728 -0.000008 0.535907
261.193329 90.104858 -0.000009 0.533824
258.892822 91.062103 0.000076 0.535539
257.294281 91.727264 0.000069 0.553431
256.116547 92.217308 0.000056 0.572672
256.431183 92.023262 4.091428 0.511765
256.332092 92.065308 3.780059 0.526471
255.772827 92.302612 3.389103 0.504534
256.028625 92.194069 3.173658 0.508701
255.886703 92.254288 2.892485 0.506740
255.752609 92.311180 2.624175 0.507966
257.476563 91.579697 2.465970 0.507721
nan nan nan 0.000000
nan nan nan 0.000000
286.222046 79.382553 -0.000013 0.536765
271.199066 85.757027 -0.000012 0.536887
264.749146 88.493835 -0.000009 0.527574
261.156860 90.018089 -0.000006 0.557966
258.863220 90.991302 0.000051 0.531863
257.269348 91.667610 0.000040 0.579167
256.095062 92.165878 0.000030 0.578309
256.735352 91.828171 4.180708 0.500490
256.552979 91.907066 3.837372 0.501225
256.171295 92.072174 3.472263 0.525123
255.861237 92.206299 3.150119 0.505882
255.882828 92.196953 2.894672 0.511275
255.748322 92.255142 2.625662 0.505882
258.004028 91.279366 2.495600 0.506373
257.540283 91.479980 2.156814 0.511275
257.673309 91.422432 1.840814 0.502083
286.110107 79.121307 -0.000013 0.532966
271.131989 85.600502 -0.000011 0.530882
264.701324 88.382271 -0.000008 0.534681
261.119751 89.931564 -0.000004 0.545711
258.832916 90.920815 0.000070 0.534069
257.243805 91.608223 0.000060 0.537132
256.073029 92.114670 0.000049 0.505392
256.436890 91.893333 4.105664 0.444730
256.274139 91.965096 3.777165 0.520343
256.800201 91.733162 3.601818 0.496446
256.352020 91.930763 3.233193 0.505882
255.879578 92.139046 2.896997 0.514216
256.443146 91.890579 2.689836 0.505882
257.328644 91.500175 2.460852 0.494853
257.593842 91.383263 2.158250 0.506127
nan nan nan 0.000000
285.996368 78.860847 -0.000013 0.539706
271.063812 85.444458 -0.000010 0.533211
264.652740 88.271049 -0.000007 0.540196
261.082092 89.845314 -0.000000 0.542525
258.802338 90.850449 0.000046 0.557721
257.218048 91.548935 0.000034 0.544485
256.050812 92.063545 0.000024 0.549877
256.645782 91.735153 4.169579 0.505147
256.470825 91.813766 3.829264 0.494363
256.166809 91.950333 3.480460 0.510172
255.928238 92.057518 3.168117 0.506495
255.875641 92.081146 2.899291 0.506005
256.431091 91.831604 2.690900 0.505760
257.255219 91.461365 2.458331 0.527941
257.633453 91.291451 2.159453 0.517034
nan nan nan 0.000000
285.880798 78.601189 -0.000014 0.534681
270.994629 85.288864 -0.000015 0.529779
264.603424 88.160149 -0.000011 0.524142
261.043823 89.759308 -0.000003 0.552206
258.770966 90.780396 0.000074 0.489951
257.191650 91.489922 0.000061 0.543382
256.028046 92.012672 0.000051 0.520588
256.441406 91.762199 4.120154 0.518873
256.415100 91.774239 3.821827 0.505882
255.837921 92.038391 3.419341 0.506495
255.961365 91.981895 3.177227 0.507721
255.870682 92.023399 2.901513 0.529657
257.220917 91.405441 2.764311 0.513235
257.821472 91.130562 2.490380 0.497549
257.689697 91.190895 2.160971 0.511029
nan nan nan 0.000000
285.763428 78.342331 -0.000014 0.537623
270.924286 85.133789 -0.000012 0.527328
264.553284 88.049614 -0.000010 0.540809
261.004974 89.673584 -0.000003 0.550123
258.739410 90.710449 0.000046 0.514951
257.165070 91.430992 0.000036 0.553186
256.005127 91.961861 0.000026 0.541054
256.556793 91.643211 4.158893 0.512377
256.385620 91.723000 3.820693 0.512010
256.159241 91.828529 3.488431 0.514583
255.996979 91.904167 3.186856 0.494485
255.866669 91.964905 2.903917 0.509314
257.792023 91.067429 2.818445 0.505270
257.112000 91.384407 2.453507 0.499877
263.784119 88.274246 2.271523 0.511029
nan nan nan 0.000000
285.644257 78.084312 -0.000014 0.531618
270.852875 84.979210 -0.000009 0.530025
264.502319 87.939461 -0.000002 0.532721
260.965485 89.588135 -0.000003 0.552206
258.707153 90.640831 0.000064 0.546814
257.137878 91.372345 0.000054 0.511397
255.981689 91.911293 0.000044 0.539583
255.950043 91.864609 3.997760 0.513113
255.633087 92.015060 3.646768 0.511520
255.908524 91.884315 3.442830 0.527819
256.167999 91.761162 3.218841 0.500245
256.473907 91.615952 2.984219 0.490564
258.242737 90.776352 2.862045 0.520588
257.042847 91.345886 2.451239 0.516789
257.007904 91.362480 2.149672 0.514338
nan nan nan 0.000000
285.523285 77.827133 -0.000014 0.530637
270.780426 84.825104 -0.000013 0.531618
264.450714 87.829613 -0.000006 0.551348
260.925446 89.502953 -0.000006 0.519485
258.674591 90.571342 0.000041 0.521078
257.110474 91.313797 0.000030 0.586520
255.958054 91.860809 0.000021 0.538603
256.333588 91.617432 4.111151 0.513358
255.819519 91.865852 3.697000 0.514216
256.415466 91.577850 3.550110 0.502819
256.002747 91.777306 3.195699 0.506127
256.968079 91.310806 3.050654 0.506373
257.550415 91.029381 2.801887 0.507721
256.972168 91.308830 2.448894 0.496324
nan nan nan 0.000000
nan nan nan 0.000000
285.400513 77.570801 -0.000014 0.537623
270.706818 84.671532 -0.000011 0.538971
264.398285 87.720161 -0.000005 0.534559
260.884766 89.418060 -0.000005 0.539216
258.641388 90.502182 0.000058 0.523284
257.082458 91.255531 0.000048 0.514706
255.933929 91.810570 0.000036 0.543015
256.121521 91.656174 4.059149 0.512010
255.856216 91.786667 3.711622 0.498529
255.980499 91.725533 3.467195 0.522059
256.109253 91.662201 3.217383 0.507966
256.970093 91.238762 3.054496 0.537623
257.591827 90.932930 2.808404 0.509926
263.559631 87.997414 2.811078 0.547672
nan nan nan 0.000000
nan nan nan 0.000000
285.275940 77.315323 -0.000014 0.532598
270.632172 84.518478 -0.000010 0.535907
264.345062 87.611069 -0.000003 0.548039
260.843506 89.333466 -0.000001 0.509926
258.607819 90.433174 0.000044 0.529412
257.054169 91.197395 0.000035 0.560784
255.909546 91.760437 0.000023 0.513603
255.904007 91.700874 4.005370 0.512868
255.741348 91.782295 3.689817 0.511642
255.478882 91.913689 3.370213 0.509314
256.143890 91.580780 3.227356 0.506618
256.277496 91.513908 2.969052 0.505882
257.885162 90.709106 2.838110 0.526103
264.266754 87.514549 2.852740 0.506005
nan nan nan 0.000000
nan nan nan 0.000000
285.149628 77.060722 -0.000015 0.536274
270.556488 84.365944 -0.000009 0.532721
264.291107 87.502342 -0.000004 0.542402
260.801636 89.249153 0.000000 0.537623
258.573639 90.364471 0.000061 0.527451
257.025391 91.139519 0.000049 0.555025
255.884705 91.710533 0.000039 0.559191
255.710678 91.736626 3.958103 0.510539
255.763702 91.709618 3.701203 0.506250
256.438141 91.366081 3.570935 0.515809
256.645477 91.260475 3.315187 0.504657
257.583435 90.782715 3.141079 0.501103
263.048584 87.999023 3.316201 0.507721
263.738190 87.647781 2.826610 0.506250
nan nan nan 0.000000
nan nan nan 0.000000
285.021484 76.807022 -0.000015 0.537010
270.479767 84.213921 -0.000012 0.528799
264.236450 87.393990 -0.000007 0.535417
260.759247 89.165123 -0.000003 0.513848
258.539124 90.295944 0.000046 0.537132
256.996338 91.081764 0.000027 0.543750
255.859650 91.660744 0.000018 0.531005
256.468781 91.282326 4.179011 0.495588
254.958038 92.065163 3.511334 0.495466
255.405930 91.833076 3.365042 0.515686
256.223785 91.409271 3.249461 0.512990
256.360474 91.338440 2.986721 0.506005
257.667145 90.661362 2.823955 0.501716
nan nan nan 0.000000
nan nan nan 0.000000
nan nan nan 0.000000
284.891632 76.554214 -0.000014 0.537255
270.401947 84.062454 -0.000012 0.528922
264.180969 87.286034 -0.000007 0.525490
260.716217 89.081390 -0.000003 0.538603
258.503967 90.227730 0.000062 0.519853
256.966736 91.024292 0.000041 0.519363
255.834122 91.611183 0.000033 0.516544
255.346008 91.805450 3.869066 0.520466
255.827530 91.551651 3.729142 0.507721
255.378906 91.788116 3.364474 0.505637
255.919357 91.503250 3.202984 0.499510
256.402557 91.248573 2.995800 0.506740
257.589020 90.623230 2.819727 0.506373
nan nan nan 0.000000
258.877075 89.944336 2.187420 0.510294
nan nan nan 0.000000
284.759979 76.302330 -0.000014 0.532721
270.323029 83.911552 -0.000009 0.533701
264.124725 87.178474 -0.000004 0.533578
260.672607 88.997971 -0.000002 0.542157
258.468536 90.159676 0.000041 0.500735
256.936859 90.966957 0.000023 0.540074
255.808365 91.561745 0.000013 0.550368
255.900192 91.449287 4.033517 0.502696
255.810425 91.497406 3.731379 0.505882
255.116714 91.869247 3.315420 0.509804
255.869705 91.465637 3.199098 0.485907
256.990662 90.864777 3.076264 0.505392
257.484161 90.600243 2.813019 0.512255
258.736694 89.928856 2.556930 0.502328
nan nan nan 0.000000
nan nan nan 0.000000
284.626587 76.051361 -0.000014 0.541544
270.243164 83.761169 -0.000013 0.530637
264.067810 87.071281 -0.000009 0.538235
260.628448 88.914848 -0.000006 0.543505
258.432404 90.091965 0.000063 0.556618
256.906433 90.909927 0.000046 0.536887
255.782135 91.512573 0.000035 0.547549
255.091339 91.825607 3.810456 0.507475
255.779846 91.450333 3.730402 0.505760
255.146881 91.795334 3.326642 0.501348
255.818451 91.429298 3.194973 0.505760
258.441833 89.999443 3.270463 0.508211
257.380707 90.577789 2.806433 0.505024
258.805908 89.801010 2.562906 0.507108
nan nan nan 0.000000
nan nan nan 0.000000
284.491425 75.801331 -0.000015 0.533211
270.162170 83.611374 -0.000011 0.543750
264.010071 86.964523 -0.000006 0.543627
260.583679 88.832054 -0.000001 0.547794
258.395996 90.024414 0.000044 0.535784
256.875763 90.853012 0.000027 0.550368
255.755707 91.463501 0.000016 0.541544
255.974930 91.278290 4.070457 0.494363
255.749084 91.403435 3.729458 0.504289
257.597595 90.379120 3.841553 0.587868
256.201569 91.152687 3.264541 0.507108
258.092041 90.105125 3.229342 0.508088
258.649414 89.796265 2.928464 0.509681
258.876984 89.670174 2.569062 0.506005
259.114044 89.538803 2.193987 0.513480
nan nan nan 0.000000
284.354523 75.552246 -0.000014 0.535172
270.080109 83.462151 -0.000009 0.540564
263.951599 86.858162 -0.000005 0.529167
260.538330 88.749557 -0.000002 0.526838
258.358978 89.957207 0.000058 0.530637
256.844574 90.796387 0.000041 0.568137
255.728806 91.414680 0.000029 0.518137
256.008942 91.192909 4.088321 0.501103
255.111816 91.698250 3.578244 0.515931
255.117935 91.694794 3.330902 0.499142
255.978256 91.210182 3.231461 0.509069
255.435257 91.516060 2.883352 0.500613
258.718384 89.666702 2.938581 0.506740
nan nan nan 0.000000
259.191284 89.400314 2.196196 0.499387
nan nan nan 0.000000
284.215942 75.304131 -0.000014 0.535417
269.997101 83.313469 -0.000013 0.537623
263.892426 86.752197 -0.000008 0.534804
260.492462 88.667374 -0.000004 0.545221
258.321655 89.890167 0.000038 0.531373
256.813110 90.739922 0.000029 0.586029
255.701645 91.365997 0.000020 0.538358
255.042892 91.678917 3.817787 0.504779
255.147354 91.619118 3.593359 0.540809
255.206879 91.585037 3.354839 0.505392
255.705261 91.299690 3.189692 0.501838
258.573456 89.657593 3.302865 0.505637
258.789154 89.534096 2.948998 0.539706
259.201599 89.297958 2.591932 0.509436
259.270660 89.258415 2.198472 0.510294
nan nan nan 0.000000
284.075592 75.056984 -0.000014 0.537868
269.913025 83.165405 -0.000012 0.533211
263.832489 86.646660 -0.000007 0.523162
260.445953 88.585541 -0.000000 0.538480
258.283722 89.823479 0.000052 0.555147
256.781128 90.683746 0.000042 0.551348
255.674072 91.317551 0.000033 0.542647
255.072556 91.603043 3.833721 0.500613
257.374115 90.263924 4.156208 0.586275
255.282974 91.480606 3.376331 0.506740
255.397919 91.413742 3.141749 0.489093
nan nan nan 0.000000
258.820587 89.422318 2.955812 0.499877
259.089569 89.265808 2.587955 0.506863
nan nan nan 0.000000
nan nan nan 0.000000
283.933472 74.810822 -0.000014 0.541176
269.827850 83.017929 -0.000010 0.543382
263.771790 86.541542 -0.000006 0.525368
260.398865 88.504021 0.000001 0.561397
258.245422 89.756958 0.000031 0.522181
256.748871 90.627708 0.000023 0.545588
255.646271 91.269234 0.000015 0.509559
255.101257 91.526703 3.849596 0.499510
255.593597 91.235634 3.718319 0.505882
255.320831 91.396889 3.389978 0.545711
256.229736 90.859543 3.289772 0.509069
258.904938 89.277908 3.357794 0.512132
259.202728 89.101868 2.996131 0.500123
258.983643 89.231377 2.584322 0.505637
nan nan nan 0.000000
nan nan nan 0.000000
283.789703 74.565666 -0.000014 0.537623
269.741730 82.871025 -0.000013 0.534069
263.710449 86.436829 -0.000010 0.537132
260.351288 88.422806 -0.000004 0.532843
258.206543 89.690804 0.000044 0.517402
256.716125 90.571976 0.000036 0.543505
255.618042 91.221184 0.000028 0.512868
255.136902 91.445160 3.867723 0.507230
255.541641 91.202042 3.712395 0.533333
255.086655 91.475342 3.346068 0.520833
255.472504 91.243576 3.164120 0.522672
257.475769 90.040268 3.171659 0.536520
258.608917 89.359612 2.943487 0.509191
258.878967 89.197395 2.580759 0.503186
nan nan nan 0.000000
nan nan nan 0.000000
283.644196 74.321518 -0.000014 0.533946
269.654541 82.724754 -0.000012 0.540686
263.648285 86.332581 -0.000008 0.518750
260.303101 88.341965 -0.000001 0.533088
258.167358 89.624840 0.000026 0.551225
256.683105 90.516403 0.000018 0.546078
255.589554 91.173264 0.000011 0.557353
255.653458 91.068977 4.027211 0.516544
255.509918 91.156555 3.711623 0.506495
255.057816 91.432434 3.345623 0.506250
255.512604 91.154922 3.176020 0.519853
257.012634 90.239571 3.114209 0.614828
258.332520 89.434174 2.920933 0.512132
258.775482 89.163849 2.577264 0.501103
nan nan nan 0.000000
nan nan nan 0.000000
283.497009 74.078384 -0.000014 0.534681
269.566376 82.579094 -0.000010 0.533333
263.585419 86.228760 -0.000007 0.536274
260.254333 88.261444 0.000000 0.540564
258.127563 89.559227 0.000038 0.528676
256.649567 90.461128 0.000031 0.532230
255.560638 91.125603 0.000022 0.527206
255.208939 91.278023 3.904933 0.501103
255.542419 91.071327 3.727242 0.518750
255.028824 91.389671 3.345204 0.504534
255.553238 91.064613 3.188172 0.494608
257.079651 90.118492 3.128072 0.470221
257.043549 90.140862 2.800551 0.580270
257.021179 90.154732 2.478351 0.584191
257.016357 90.157707 2.159244 0.624510
257.022888 90.153679 1.840631 0.547059
256.993286 90.172012 1.523261 0.606495
256.961670 90.191620 1.207348 0.580882
256.945099 90.201881 0.890138 0.611029
256.959320 90.193077 0.566440 0.585784
256.992096 90.172768 0.234511 0.520466
256.615723 90.406044 0.000023 0.554902
255.531464 91.078117 0.000017 0.547672
255.748108 90.875870 4.072845 0.505270
255.446045 91.066025 3.710196 0.499632
254.999664 91.347038 3.344813 0.506250
255.445786 91.066185 3.174530 0.497794
256.998352 90.088776 3.121950 0.569240
256.980988 90.099709 2.797988 0.576226
256.974731 90.103645 2.477745 0.556618
256.952057 90.117920 2.158696 0.551593
256.939697 90.125702 1.841542 0.576593
256.922882 90.136276 1.525264 0.559069
256.912445 90.142853 1.208652 0.598897
256.892487 90.155411 0.892438 0.493750
256.894958 90.153862 0.571454 0.544240
256.920013 90.138107 0.242293 0.486887
256.581451 90.351242 0.000034 0.553799
255.501892 91.030853 0.000027 0.549632
255.710205 90.831528 4.070779 0.513726
256.019379 90.633850 3.864763 0.502574
255.512070 90.958199 3.461444 0.504044
255.290985 91.099541 3.152489 0.508211
256.184479 90.528305 3.015801 0.495466
256.960571 90.032127 2.799543 0.612132
256.973633 90.023766 2.479802 0.548652
256.926819 90.053688 2.158911 0.436765
256.903046 90.068909 1.841552 0.573284
256.891205 90.076462 1.525003 0.627328
256.895111 90.073967 1.206826 0.607353
256.870209 90.089897 0.890566 0.534926
256.862915 90.094543 0.570753 0.680147
256.860657 90.095993 0.247305 0.549020
256.546753 90.296677 0.000045 0.524387
255.472015 90.983810 0.000035 0.560294
255.314331 91.019722 3.961888 0.505147
255.885468 90.648926 3.838687 0.509926
254.919601 91.275978 3.339504 0.498162
255.653564 90.799492 3.221807 0.511765
256.068848 90.529877 3.004522 0.501225
258.548950 88.919754 2.958428 0.576838
258.906219 88.687820 2.595160 0.514583
nan nan nan 0.000000
256.908630 89.984673 1.840728 0.594730
256.901306 89.989433 1.522272 0.519608
269.203491 82.002670 -0.000012 0.535662
263.326782 85.817924 -0.000007 0.547426
256.865234 90.012840 0.563901 0.596814
256.831665 90.034637 0.245695 0.684926
256.511810 90.242294 0.000029 0.524510
255.441864 90.936920 0.000021 0.560784
255.592850 90.770630 4.054430 0.513235
255.975281 90.518539 3.870336 0.502451
254.889847 91.234047 3.339150 0.505882
255.439392 90.871788 3.189351 0.504902
258.275391 89.002357 3.313149 0.506005
258.587158 88.796822 2.966568 0.504167
nan nan nan 0.000000
nan nan nan 0.000000
nan nan nan 0.000000
282.735748 72.878471 -0.000014 0.536765
269.110260 81.860176 -0.000011 0.549387
263.260315 85.716362 -0.000006 0.532475
260.002228 87.864052 -0.000002 0.551225
256.877808 89.923615 0.227609 0.616912
256.476379 90.188225 0.000038 0.496078
255.411316 90.890297 0.000031 0.503799
255.445175 90.800568 4.019466 0.500000
255.296051 90.900368 3.702508 0.516176
254.859924 91.192238 3.338824 0.510294
255.083557 91.042580 3.131365 0.504289
258.770111 88.575371 3.387737 0.505392
258.475281 88.772697 2.960020 0.495343
nan nan nan 0.000000
nan nan nan 0.000000
nan nan nan 0.000000
282.578491 72.641724 -0.000014 0.535662
269.016022 81.718338 -0.000009 0.542279
263.193176 85.615265 -0.000005 0.552941
259.950134 87.785637 -0.000001 0.542157
257.879608 89.171333 0.000031 0.531250
256.440674 90.134331 0.000023 0.555882
255.380524 90.843826 0.000016 0.579289
255.514999 90.685081 4.050141 0.518260
255.263336 90.856064 3.701997 0.554902
256.123077 90.271942 3.623012 0.506373
255.059464 90.994568 3.132384 0.506127
255.736267 90.534752 2.972339 0.520098
258.728058 88.502121 2.989609 0.500000
nan nan nan 0.000000
nan nan nan 0.000000
nan nan nan 0.000000
282.419617 72.406075 -0.000014 0.535417
268.920837 81.577126 -0.000012 0.537010
263.125336 85.514626 -0.000008 0.530760
259.897552 87.707581 -0.000006 0.537132
257.836700 89.107735 0.000040 0.545711
256.404480 90.080750 0.000033 0.539216
255.349335 90.797638 0.000025 0.532230
257.826019 89.021881 4.763155 0.517647
255.872849 90.368881 3.870064 0.509314
254.799622 91.109032 3.338258 0.506495
257.161285 89.480309 3.516537 0.506005
255.629929 90.536415 2.962137 0.515441
258.255585 88.725624 2.947289 0.503676
258.444641 88.595222 2.578844 0.515809
nan nan nan 0.000000
nan nan nan 0.000000
282.259064 72.171547 -0.000015 0.541054
268.824646 81.436623 -0.000011 0.541789
263.056763 85.414467 -0.000007 0.522426
259.844360 87.629906 -0.000006 0.550735
257.793365 89.044373 0.000026 0.540686
256.368042 90.027382 0.000019 0.499632
255.317902 90.751610 0.000012 0.564093
257.243286 89.335770 4.598423 0.510907
255.197495 90.767845 3.701110 0.505882
255.338455 90.669167 3.464444 0.504289
255.431473 90.604057 3.210700 0.504657
257.965057 88.830551 3.294724 0.555025
255.561203 90.513252 2.682219 0.512010
258.333679 88.572502 2.575004 0.507108
nan nan nan 0.000000
nan nan nan 0.000000
282.096863 71.938141 -0.000014 0.536152
268.727478 81.296783 -0.000010 0.525000
262.987488 85.314804 -0.000005 0.532230
259.790680 87.552605 -0.000006 0.535417
257.749573 88.981384 0.000034 0.535907
256.331116 89.974312 0.000027 0.533211
255.286057 90.705849 0.000021 0.538358
257.184418 89.288765 4.593157 0.498774
255.320679 90.612869 3.742144 0.502451
255.318710 90.614273 3.467263 0.545343
255.390671 90.563156 3.209248 0.503064
255.260849 90.655380 2.919503 0.517279
255.458267 90.515129 2.675233 0.500000
262.685242 85.380661 2.840080 0.506495
263.464081 84.827324 2.295460 0.508946
nan nan nan 0.000000
281.933075 71.705864 -0.000014 0.534681
268.629364 81.157608 -0.000013 0.540809
262.917572 85.215607 -0.000008 0.550490
259.736389 87.475677 -0.000007 0.530760
257.705383 88.918633 0.000022 0.569485
256.293915 89.921448 0.000015 0.562255
255.253983 90.660271 0.000008 0.551348
255.135544 90.676933 3.973439 0.512500
255.223022 90.613869 3.724866 0.512623
255.250412 90.594116 3.459293 0.517279
254.982101 90.787567 3.140591 0.504289
255.323547 90.541382 2.933002 0.507230
261.353149 86.193947 3.274505 0.521691
262.601257 85.294029 2.839202 0.506127
262.947632 85.044281 2.286522 0.511397
307.100983 53.209019 0.822733 0.718995
281.767670 71.474739 -0.000015 0.534804
268.530243 81.019142 -0.000012 0.532966
262.846924 85.116905 -0.000007 0.529167
259.681641 87.399132 -0.000006 0.543260
257.660675 88.856285 0.000038 0.540441
256.256195 89.868912 0.000031 0.536397
255.221481 90.614983 0.000025 0.540441
255.135818 90.608597 3.983554 0.501225
255.097748 90.636444 3.700107 0.502941
255.159454 90.591293 3.446203 0.501103
254.962784 90.735184 3.142841 0.506863
261.638763 85.850525 3.837953 0.567892
258.605408 88.069954 3.001814 0.511029
262.517792 85.207314 2.838388 0.508578
262.499146 85.220970 2.278885 0.509926
306.250397 53.209011 0.833995 0.720466
281.600647 71.244781 -0.000014 0.539093
268.430176 80.881371 -0.000010 0.539338
262.775574 85.018715 -0.000006 0.542034
259.626312 87.322983 -0.000006 0.537255
257.615631 88.794159 0.000025 0.522549
256.218262 89.816582 0.000019 0.561029
255.188751 90.569847 0.000014 0.562868
255.234192 90.466705 4.024476 0.510294
255.033310 90.615845 3.691545 0.505024
255.261993 90.446060 3.476901 0.495466
255.423737 90.325974 3.233895 0.502696
261.098541 86.112671 3.770035 0.522794
260.772675 86.354637 3.228311 0.536765
262.081543 85.382843 2.816020 0.517034
263.242798 84.520645 2.295481 0.517647
305.415924 53.209019 0.844988 0.726593
281.432007 71.015999 -0.000014 0.539338
268.329163 80.744263 -0.000014 0.531005
262.703583 84.920998 -0.000009 0.544240
259.570465 87.247200 -0.000008 0.531005
257.570068 88.732407 0.000033 0.551838
256.179871 89.764557 0.000025 0.533333
255.155655 90.524994 0.000021 0.556250
254.761520 90.752144 3.886841 0.510784
255.801529 89.968658 3.908131 0.519608
254.971832 90.593689 3.418533 0.502574
257.367737 88.788757 3.601392 0.508211
263.143707 84.437469 4.073872 0.508824
258.474518 87.954964 2.998819 0.519730
261.026337 86.032593 2.755388 0.510417
262.005341 85.295074 2.271673 0.506005
304.596985 53.209015 0.855719 0.727328
281.261780 70.788391 -0.000014 0.533701
268.227173 80.607918 -0.000012 0.533946
262.630890 84.823807 -0.000008 0.542402
259.514099 87.171829 -0.000007 0.550858
257.524170 88.670929 0.000021 0.546691
256.141205 89.712761 0.000015 0.539216
255.122314 90.480339 0.000010 0.528064
255.566193 90.070892 4.150562 0.513726
255.381653 90.211945 3.804128 0.502574
254.880707 90.594841 3.405198 0.499020
254.904739 90.576477 3.150043 0.512990
254.622787 90.791985 2.851082 0.503554
260.293884 86.457329 3.191888 0.511642
260.886841 86.004089 2.750776 0.506250
261.893158 85.234940 2.270806 0.506373
303.793091 53.209023 0.866198 0.726225
281.089966 70.561981 -0.000015 0.537868
268.124207 80.472275 -0.000010 0.538235
262.557526 84.727127 -0.000006 0.529167
259.457184 87.096855 -0.000005 0.561029
257.477753 88.609818 0.000028 0.529779
256.102112 89.661278 0.000021 0.548162
255.088593 90.435951 0.000017 0.536152
255.088638 90.365379 4.010774 0.504902
255.742630 89.858231 3.912510 0.520098
254.944855 90.476875 3.427541 0.497181
256.592194 89.199425 3.472996 0.498039
254.612381 90.734695 2.854154 0.519608
260.284332 86.336304 3.197323 0.505882
260.336914 86.295547 2.720634 0.499877
263.078522 84.169533 2.296812 0.514951
303.003754 53.209026 0.876434 0.741054
280.916595 70.336777 -0.000015 0.529657
268.020325 80.337349 -0.000010 0.540319
262.483459 84.630966 -0.000005 0.552574
259.399750 87.022278 -0.000003 0.542402
257.430969 88.548996 0.000023 0.539338
256.062683 89.610039 0.000017 0.546324
255.054596 90.391769 0.000012 0.565686
254.909592 90.434921 3.964707 0.517770
254.993179 90.369164 3.717016 0.515931
255.606491 89.886673 3.588523 0.520098
255.158844 90.238838 3.210525 0.517157
254.593002 90.683990 2.855987 0.505882
260.276489 86.212769 3.203050 0.514828
260.773743 85.821587 2.751879 0.506127
302.070587 53.333248 3.110281 0.126961
302.228485 53.209019 0.886431 0.732966
280.741638 70.112785 -0.000015 0.540441
267.915558 80.203125 -0.000013 0.544363
262.408783 84.535301 -0.000008 0.531127
259.341827 86.948067 -0.000008 0.534681
257.383698 88.488541 0.000028 0.548652
256.022888 89.559105 0.000022 0.518627
255.020264 90.347855 0.000018 0.540196
254.864594 90.400780 3.961183 0.505270
254.947433 90.334663 3.713901 0.553554
255.592346 89.819984 3.594043 0.534069
254.856812 90.406982 3.159920 0.519363
254.573547 90.633064 2.857872 0.496569
255.109818 90.205070 2.667707 0.521324
261.608398 85.018776 2.808511 0.512132
301.311218 53.333237 3.100540 0.108333
301.466858 53.209019 0.896199 0.724877
280.565125 69.890022 -0.000014 0.533824
267.809753 80.069664 -0.000012 0.537500
262.333405 84.440178 -0.000007 0.559436
259.283386 86.874298 -0.000007 0.547426
257.336060 88.428368 0.000019 0.566912
255.982758 89.508408 0.000013 0.513726
254.985687 90.304146 0.000009 0.521446
254.942078 90.267731 3.997193 0.494485
254.901810 90.300331 3.710863 0.517524
254.983093 90.234528 3.460381 0.506373
254.836990 90.352806 3.162662 0.505637
254.554001 90.581902 2.859806 0.511642
257.550293 88.156235 2.928924 0.514461
261.557800 84.911919 2.809863 0.510907
261.452881 84.996841 2.267553 0.510172
300.718475 53.209015 0.905745 0.727696
280.387085 69.668495 -0.000015 0.536642
267.703064 79.936958 -0.000010 0.533211
262.257355 84.345573 -0.000006 0.550735
259.224396 86.800941 -0.000005 0.545711
257.287994 88.368568 0.000023 0.528922
255.942230 89.458038 0.000018 0.541789
254.950745 90.260704 0.000014 0.503186
254.893326 90.235733 3.992794 0.521324
255.498123 89.739075 3.887286 0.517279
254.922379 90.211876 3.454424 0.509314
254.640701 90.443184 3.131624 0.516667
257.001190 88.504799 3.229000 0.504902
257.560974 88.045105 2.935363 0.526838
260.647125 85.510818 2.756596 0.505882
261.344543 84.938110 2.266786 0.510294
299.982880 53.209011 0.915074 0.729289
280.207458 69.448219 -0.000014 0.538725
267.595490 79.804947 -0.000013 0.532598
262.180695 84.251503 -0.000009 0.549265
259.164917 86.727974 -0.000008 0.521201
257.239532 88.309074 0.000015 0.529902
255.901398 89.407913 0.000010 0.543750
254.915543 90.217484 0.000007 0.544118
254.730057 90.299438 3.951107 0.505760
254.810791 90.232185 3.705014 0.558701
255.114624 89.979118 3.508372 0.539216
254.424988 90.553535 3.096533 0.508333
260.437439 85.545547 3.750593 0.504657
257.088501 88.335007 2.890359 0.513235
260.602966 85.407669 2.758154 0.504902
261.236816 84.879715 2.266037 0.506863
299.259644 53.209011 0.924194 0.730025
280.026337 69.229195 -0.000015 0.534681
267.486908 79.673752 -0.000010 0.535662
262.103333 84.157967 -0.000008 0.552451
259.104919 86.655449 -0.000005 0.550245
257.190613 88.249954 0.000019 0.546324
255.860184 89.358101 0.000014 0.526961
254.880005 90.174545 0.000011 0.511887
254.685349 90.266022 3.947908 0.503676
254.424713 90.486221 3.605864 0.499510
255.094284 89.920547 3.512385 0.500368
255.542053 89.542259 3.319891 0.493750
256.938721 88.362328 3.233965 0.504534
255.089142 89.924881 2.680978 0.505882
256.907745 88.388481 2.524960 0.503186
263.640442 82.700455 2.319090 0.520098
298.548492 53.209019 0.933111 0.746201
279.843658 69.011452 -0.000014 0.537990
267.377502 79.543297 -0.000010 0.526103
262.025299 84.064995 -0.000006 0.546324
259.044434 86.583336 -0.000005 0.558211
257.141327 88.191139 0.000011 0.545711
255.818680 89.308556 0.000007 0.552451
254.844208 90.131821 0.000004 0.459314
254.643860 90.230080 3.945827 0.512132
255.432358 89.554443 3.902033 0.507598
255.073822 89.861656 3.516494 0.550490
254.756622 90.133461 3.174325 0.501593
254.958710 89.960297 2.941355 0.507108
255.041077 89.889725 2.679844 0.503799
256.850250 88.339493 2.524368 0.507475
297.703979 53.333218 3.055047 0.085539
297.848938 53.209015 0.941829 0.732476
279.659485 68.794983 -0.000015 0.536274
267.267181 79.413582 -0.000012 0.530025
261.946686 83.972549 -0.000009 0.540441
258.983429 86.511627 -0.000009 0.545466
257.091583 88.132706 0.000014 0.531495
255.776779 89.259323 0.000010 0.545098
254.808075 90.089378 0.000007 0.576716
255.366180 89.530510 4.197288 0.505392
255.712433 89.229584 3.993667 0.516667
255.269943 89.614136 3.572935 0.534926
254.736221 90.077965 3.177413 0.420221
256.080231 88.909958 3.117977 0.505147
254.993149 89.854691 2.678745 0.494853
256.792908 88.290619 2.523803 0.505882
256.766968 88.313141 2.173915 0.510417
297.160736 53.209011 0.950354 0.714706
279.473785 68.579811 -0.000015 0.538848
267.155884 79.284676 -0.000011 0.546201
261.867371 83.880661 -0.000008 0.525245
258.921936 86.440376 -0.000007 0.521936
257.041443 88.074615 0.000016 0.566176
255.734543 89.210388 0.000012 0.538971
254.771637 90.047180 0.000010 0.531618
255.342178 89.470024 4.202744 0.491667
254.629730 90.097961 3.694180 0.517647
255.427963 89.394424 3.620901 0.422304
254.715683 90.022194 3.180570 0.494730
256.845428 88.145103 3.242168 0.506740
256.960663 88.043518 2.897952 0.508456
262.829224 82.871124 2.922302 0.535294
296.422546 53.262711 3.039975 0.721324
296.483490 53.209023 0.958694 0.731373
279.286621 68.365929 -0.000015 0.533824
267.043762 79.156532 -0.000011 0.541054
261.787415 83.789337 -0.000005 0.536520
258.859955 86.369553 -0.000006 0.544608
256.990936 88.016853 0.000011 0.547549
255.691971 89.161728 0.000007 0.693627
254.734955 90.005219 0.000004 0.524020
254.510178 90.131386 3.936906 0.495221
254.584625 90.064835 3.691643 0.519730
254.661285 89.996307 3.443867 0.511029
254.699554 89.962097 3.184699 0.517770
254.423615 90.208755 2.876204 0.508701
256.928650 87.969597 2.900013 0.505882
256.678558 88.193138 2.522757 0.507475
256.653198 88.215820 2.173571 0.508578
295.816864 53.209015 0.966853 0.725613
279.097961 68.153374 -0.000014 0.531373
266.930725 79.029152 -0.000014 0.549755
261.706879 83.698547 -0.000009 0.542525
258.797455 86.299149 -0.000006 0.529902
256.939972 87.959488 0.000020 0.536642
255.649017 89.113403 0.000015 0.520956
254.697922 89.963562 0.000014 0.603064
255.737732 88.945724 4.364145 0.506863
254.539566 90.031868 3.689173 0.505882
254.615631 89.962921 3.441757 0.516912
254.678757 89.905685 3.188004 0.517157
254.916824 89.689888 2.958310 0.506127
256.650879 88.117966 2.874945 0.496446
256.621582 88.144531 2.522274 0.503676
295.101349 53.262714 3.023857 0.699142
295.160583 53.209026 0.974835 0.724142
278.907806 67.942123 -0.000014 0.538971
266.816803 78.902603 -0.000012 0.540074
261.625641 83.608345 -0.000008 0.549510
258.734467 86.229195 -0.000005 0.545588
256.888641 87.902443 0.000015 0.548162
255.605789 89.065338 0.000011 0.585662
254.660629 89.922112 0.000009 0.530637
255.269104 89.287048 4.219806 0.506005
255.185303 89.364067 3.889419 0.495956
254.570023 89.929703 3.439704 0.506005
254.657806 89.848999 3.191378 0.499755
254.372955 90.110870 2.879450 0.498284
256.593719 88.069313 2.874175 0.501961
256.568878 88.092178 2.522095 0.509681
294.455963 53.262703 3.016057 0.713113
294.514343 53.209007 0.982645 0.726103
278.716187 67.732216 -0.000015 0.531863
266.701965 78.776848 -0.000011 0.541176
261.543823 83.518723 -0.000006 0.524755
258.670990 86.159691 -0.000003 0.548652
256.836884 87.845772 0.000016 0.550858
255.562210 89.017601 0.000013 0.553309
254.623062 89.880951 0.000010 0.554902
255.195068 89.271484 4.208845 0.500490
254.452286 89.963951 3.685222 0.505882
254.922531 89.525551 3.536730 0.509681
255.565460 88.926170 3.383174 0.471324
255.584885 88.908051 3.075765 0.507598
256.832214 87.745224 2.906577 0.509681
256.494507 88.060051 2.520487 0.516176
261.205536 83.668167 2.278766 0.587377
261.212708 83.661469 1.721073 0.612868
261.160248 83.710388 1.166145 0.559191
261.163940 83.706909 0.607834 0.564828
