# This PCD file was generated using the MATLAB® pcwrite function
# from Computer Vision Toolbox®.
# .PCD v.7 - Point Cloud Data file format
VERSION .7
FIELDS x y z intensity
SIZE 4 4 4 4
TYPE F F F F
COUNT 1 1 1 1
WIDTH 1279
HEIGHT 1
VIEWPOINT 0 0 0 1 0 0 0
POINTS 1279
DATA ascii
388.983124 105.077362 3.613933 0.432598
389.712006 105.085945 2.549521 0.454902
390.261230 105.092415 1.441490 0.458578
396.837738 105.169907 0.000169 0.531127
380.521912 104.977669 0.000087 0.539583
373.516602 104.895126 0.000044 0.545466
369.614594 104.849152 0.000063 0.544730
367.123596 104.819801 0.000063 0.533088
365.392181 104.799400 0.000081 0.573039
364.116547 104.784370 0.000105 0.548897
nan nan nan 0.000000
nan nan nan 0.000000
388.301056 104.844727 7.853231 0.399020
387.728729 104.841980 6.686830 0.400490
386.540375 104.836281 5.498120 0.409191
387.224854 104.839561 4.549411 0.423407
389.754730 104.851700 3.651745 0.460784
nan nan nan 0.000000
nan nan nan 0.000000
396.840271 104.885719 0.000159 0.538725
380.523438 104.807396 0.000078 0.533211
373.517731 104.773758 0.000033 0.542157
369.615448 104.755028 0.000053 0.538725
367.124298 104.743073 0.000054 0.533456
365.392853 104.734756 0.000054 0.520956
364.117035 104.728630 0.000095 0.569240
nan nan nan 0.000000
nan nan nan 0.000000
387.723999 104.621414 7.748181 0.412623
388.009583 104.620789 6.728449 0.401716
388.079773 104.620636 5.675182 0.412745
387.193573 104.622574 4.546821 0.403309
392.004486 104.612076 3.762255 0.414951
nan nan nan 0.000000
nan nan nan 0.000000
396.840057 104.601532 0.000188 0.539583
380.523315 104.637115 0.000107 0.535294
373.517456 104.652397 0.000081 0.533088
369.615356 104.660904 0.000082 0.543382
367.124146 104.666336 0.000099 0.517402
365.392822 104.670113 0.000083 0.540196
364.117157 104.672897 0.000083 0.589338
nan nan nan 0.000000
nan nan nan 0.000000
387.606873 104.401924 7.727093 0.406373
388.337769 104.395233 6.777320 0.405392
388.814484 104.390862 5.759851 0.454902
389.611938 104.383560 4.745227 0.457598
392.398346 104.358032 3.781674 0.431250
nan nan nan 0.000000
nan nan nan 0.000000
396.838654 104.317345 0.000180 0.528186
380.522461 104.466843 0.000098 0.543137
373.516846 104.531029 0.000072 0.527328
369.614899 104.566780 0.000072 0.527819
367.123749 104.589607 0.000091 0.553186
365.392395 104.605469 0.000092 0.541789
364.116882 104.617157 0.000074 0.537623
nan nan nan 0.000000
nan nan nan 0.000000
388.072540 104.174644 7.812348 0.407230
389.113312 104.157845 6.892796 0.451225
388.729126 104.164047 5.750365 0.405637
388.621246 104.165787 4.664226 0.403186
392.493286 104.103271 3.786496 0.415074
nan nan nan 0.000000
nan nan nan 0.000000
396.835205 104.033173 0.000171 0.541422
380.519897 104.296577 0.000132 0.532108
373.515411 104.409668 0.000063 0.541299
369.613800 104.472664 0.000061 0.523407
367.122833 104.512878 0.000082 0.535049
365.391632 104.540833 0.000081 0.561642
364.116119 104.561424 0.000082 0.554534
nan nan nan 0.000000
nan nan nan 0.000000
389.097534 103.927872 7.999695 0.430392
388.311737 103.946045 6.774535 0.408456
387.383636 103.967522 5.596051 0.410172
388.869324 103.933151 4.684938 0.411520
392.435669 103.850670 3.783909 0.402941
nan nan nan 0.000000
nan nan nan 0.000000
396.829437 103.749046 0.000181 0.533824
380.516418 104.126350 0.000142 0.552206
373.512939 104.288322 0.000072 0.526226
369.611877 104.378555 0.000073 0.510294
367.121277 104.436157 0.000092 0.552206
365.390320 104.476196 0.000092 0.539583
364.114990 104.505692 0.000092 0.589093
nan nan nan 0.000000
nan nan nan 0.000000
389.123657 103.696785 8.005562 0.404167
388.273743 103.722382 6.769783 0.418627
387.751129 103.738129 5.639014 0.409436
nan nan nan 0.000000
nan nan nan 0.000000
nan nan nan 0.000000
nan nan nan 0.000000
396.821655 103.464958 0.000191 0.534559
380.511780 103.956139 0.000151 0.540074
373.509613 104.167007 0.000081 0.526226
369.609192 104.284470 0.000100 0.530270
367.119202 104.359459 0.000100 0.556985
365.388458 104.411583 0.000121 0.563848
364.113495 104.449974 0.000100 0.588358
nan nan nan 0.000000
nan nan nan 0.000000
388.438751 103.491623 7.882263 0.409069
388.274628 103.497711 6.771032 0.411029
387.758331 103.516869 5.640699 0.405760
nan nan nan 0.000000
nan nan nan 0.000000
nan nan nan 0.000000
nan nan nan 0.000000
396.811920 103.180939 0.000201 0.536520
380.505920 103.785965 0.000163 0.534069
373.504761 104.045746 0.000173 0.549387
369.605927 104.190399 0.000110 0.538603
367.116547 104.282768 0.000109 0.504534
365.386230 104.346970 0.000129 0.526471
364.111664 104.394264 0.000091 0.542157
nan nan nan 0.000000
nan nan nan 0.000000
389.942017 103.199425 8.157726 0.446814
387.705078 103.298065 6.687819 0.415441
387.733124 103.296829 5.638830 0.402941
nan nan nan 0.000000
nan nan nan 0.000000
nan nan nan 0.000000
nan nan nan 0.000000
396.800537 102.896980 0.000192 0.536520
380.499115 103.615829 0.000153 0.546078
373.499908 103.924477 0.000165 0.539461
369.602173 104.096359 0.000101 0.532966
367.113617 104.206100 0.000080 0.536029
365.383850 104.282372 0.000079 0.531985
364.109436 104.338570 0.000080 0.579289
nan nan nan 0.000000
nan nan nan 0.000000
388.016571 103.061234 7.808967 0.406740
388.964600 103.012802 6.876448 0.400245
388.750061 103.023758 5.757179 0.419363
nan nan nan 0.000000
nan nan nan 0.000000
nan nan nan 0.000000
nan nan nan 0.000000
396.788147 102.613060 0.000137 0.539338
380.491180 103.445747 0.000141 0.543873
373.494232 103.803253 0.000152 0.532721
369.597961 104.002327 0.000067 0.540196
367.110016 104.129440 0.000068 0.516789
365.380829 104.217796 0.000067 0.539093
364.106750 104.282890 0.000086 0.531985
nan nan nan 0.000000
nan nan nan 0.000000
388.424103 102.814308 7.885457 0.407721
388.799744 102.792480 6.853815 0.401103
388.918213 102.785599 5.777988 0.404902
nan nan nan 0.000000
nan nan nan 0.000000
nan nan nan 0.000000
nan nan nan 0.000000
396.772888 102.329269 0.000128 0.531127
380.482025 103.275719 0.000131 0.533333
373.487701 103.682060 0.000142 0.545711
369.592865 103.908340 0.000059 0.531740
367.105896 104.052826 0.000057 0.542402
365.377350 104.153244 0.000057 0.516912
364.103760 104.227242 0.000078 0.526838
nan nan nan 0.000000
nan nan nan 0.000000
387.978363 102.617035 7.806720 0.418260
389.756531 102.501266 6.998134 0.408701
388.534058 102.580856 5.735329 0.405392
nan nan nan 0.000000
nan nan nan 0.000000
nan nan nan 0.000000
nan nan nan 0.000000
396.754791 102.045647 0.000158 0.540319
380.471222 103.105789 0.000160 0.542034
373.479980 103.560944 0.000172 0.521691
369.586884 103.814407 0.000087 0.531005
367.101013 103.976250 0.000086 0.543505
365.373169 104.088737 0.000107 0.535784
364.100189 104.171616 0.000106 0.518137
nan nan nan 0.000000
nan nan nan 0.000000
387.143158 102.453903 7.657135 0.413848
nan nan nan 0.000000
388.763519 102.337036 5.763581 0.407843
nan nan nan 0.000000
nan nan nan 0.000000
nan nan nan 0.000000
nan nan nan 0.000000
396.735535 101.762115 0.000148 0.534681
380.459656 102.935898 0.000151 0.533211
373.472107 103.439842 0.000123 0.540686
369.580505 103.720490 0.000077 0.536520
367.095734 103.899696 0.000096 0.560662
365.368744 104.024239 0.000099 0.535049
364.096436 104.116005 0.000096 0.512500
nan nan nan 0.000000
nan nan nan 0.000000
386.963989 102.250343 7.627421 0.404657
388.878906 102.098801 6.872576 0.402819
nan nan nan 0.000000
nan nan nan 0.000000
nan nan nan 0.000000
nan nan nan 0.000000
nan nan nan 0.000000
396.714325 101.478706 0.000136 0.533088
380.446960 102.766106 0.000140 0.522181
373.463043 103.318817 0.000111 0.517770
369.573517 103.626625 0.000066 0.526716
367.089996 103.823181 0.000082 0.551348
365.363953 103.959778 0.000084 0.515319
364.092285 104.060410 0.000083 0.535049
nan nan nan 0.000000
nan nan nan 0.000000
nan nan nan 0.000000
nan nan nan 0.000000
389.082184 101.851112 5.804536 0.405637
nan nan nan 0.000000
nan nan nan 0.000000
nan nan nan 0.000000
nan nan nan 0.000000
396.691101 101.195465 0.000127 0.540441
380.433075 102.596397 0.000130 0.547304
373.453125 103.197853 0.000102 0.538480
369.565399 103.532860 0.000116 0.544853
367.083740 103.746696 0.000074 0.539583
365.358765 103.895332 0.000055 0.537990
364.087799 104.004852 0.000056 0.568015
nan nan nan 0.000000
nan nan nan 0.000000
nan nan nan 0.000000
nan nan nan 0.000000
nan nan nan 0.000000
nan nan nan 0.000000
nan nan nan 0.000000
nan nan nan 0.000000
nan nan nan 0.000000
396.665100 100.912453 0.000157 0.540564
380.417480 102.426834 0.000159 0.542647
373.442047 103.076996 0.000130 0.524510
369.556793 103.439125 0.000146 0.547794
367.076935 103.670265 0.000062 0.548284
365.352875 103.830963 0.000084 0.555882
364.082733 103.949348 0.000081 0.570466
nan nan nan 0.000000
nan nan nan 0.000000
nan nan nan 0.000000
nan nan nan 0.000000
nan nan nan 0.000000
nan nan nan 0.000000
nan nan nan 0.000000
nan nan nan 0.000000
nan nan nan 0.000000
396.637939 100.629570 0.000148 0.539093
380.401215 102.257347 0.000150 0.534314
373.430450 102.956192 0.000121 0.544976
369.547791 103.345436 0.000138 0.527574
367.069611 103.593887 0.000054 0.534069
365.346680 103.766609 0.000072 0.558456
364.077362 103.893860 0.000073 0.481127
393.527039 100.677574 11.420476 0.529657
393.881805 100.639496 10.199757 1.000000
394.101044 100.615974 8.948177 0.987990
393.527008 100.677582 7.578714 0.566912
394.094055 100.616730 6.392135 0.897549
394.094055 100.616722 5.130495 0.869240
393.527008 100.677574 3.847593 0.512623
394.097076 100.616402 2.624806 1.000000
394.097076 100.616402 1.375193 0.969975
393.526978 100.677574 0.152408 0.499755
380.383789 102.087967 0.000138 0.525368
373.417999 102.835464 0.000109 0.549265
369.538177 103.251816 0.000125 0.527574
367.061737 103.517555 0.000043 0.538235
365.340057 103.702309 0.000061 0.530515
364.071594 103.838425 0.000081 0.543015
391.216522 100.677574 10.845241 0.530270
391.216492 100.677582 9.626696 0.555882
391.216492 100.677574 8.425262 0.560907
391.216492 100.677574 7.238062 0.523162
391.216461 100.677582 6.062333 0.465196
391.216461 100.677582 4.895429 0.571569
391.216461 100.677582 3.734774 0.598652
391.216492 100.677582 2.577846 0.458578
391.216492 100.677582 1.422155 0.499142
391.216492 100.677582 0.265225 0.593505
380.365112 101.918716 0.000128 0.530515
373.404572 102.714844 0.000118 0.524632
369.527740 103.158264 0.000133 0.541422
367.053345 103.441277 0.000033 0.524877
365.332977 103.638046 0.000054 0.528554
364.065491 103.783020 0.000071 0.565441
389.171875 100.677567 10.336611 0.570833
389.171814 100.677582 9.188124 0.695343
389.171875 100.677567 8.055796 0.534436
389.171814 100.677574 6.936850 0.707475
389.171814 100.677582 5.828732 0.741422
389.171875 100.677567 4.728937 0.510907
389.171875 100.677567 3.635020 0.971569
389.171875 100.677574 2.544617 0.869976
389.171875 100.677574 1.455383 0.814338
389.171844 100.677574 0.364981 0.595833
380.345123 101.749626 0.000134 0.533211
373.390076 102.594345 0.000147 0.554657
369.516510 103.064812 0.000162 0.533824
367.043762 103.365143 0.000140 0.514583
365.325287 103.573860 0.000080 0.542157
364.058868 103.727676 0.000098 0.550980
387.966949 100.598198 10.039588 0.862255
387.966949 100.598198 8.932037 0.933333
387.349457 100.677574 7.726751 0.496201
387.957947 100.599358 6.759621 0.992647
387.957977 100.599358 5.691284 0.983088
387.349457 100.677574 4.580660 0.536397
387.851654 100.613022 3.571056 0.963358
387.964966 100.598457 2.525181 0.959436
387.964966 100.598450 1.474819 0.927328
387.349487 100.677574 0.453817 0.504289
380.324127 101.580658 0.000126 0.534191
373.375122 102.473915 0.000138 0.528922
369.504883 102.971413 0.000154 0.525858
367.034332 103.288994 0.000129 0.524265
365.317291 103.509712 0.000072 0.524632
364.052002 103.672363 0.000090 0.587623
385.714813 100.677582 9.477705 0.587500
385.714844 100.677574 8.447563 0.614706
385.714844 100.677574 7.431880 0.586765
385.714844 100.677574 6.428226 0.561029
385.714813 100.677582 5.434274 0.576716
385.714813 100.677582 4.447780 0.595588
385.714813 100.677582 3.466568 0.512132
385.714844 100.677574 2.488507 0.446324
385.714813 100.677582 1.511493 0.552696
385.714783 100.677574 0.533433 0.520466
380.301971 101.411819 0.000112 0.529657
373.359344 102.353584 0.000126 0.530147
369.492645 102.878098 0.000140 0.526103
367.024323 103.212921 0.000118 0.549755
365.308807 103.445625 0.000077 0.583088
364.044739 103.617096 0.000078 0.565319
385.312531 100.524475 9.383192 0.712745
385.312531 100.524483 8.366069 0.627696
385.312531 100.524483 7.363225 0.517279
385.312531 100.524483 6.372255 0.540319
385.312531 100.524483 5.390866 0.700123
385.312531 100.524490 4.416841 0.527328
385.312531 100.524475 3.448031 0.453064
385.312531 100.524475 2.482333 0.454534
385.312531 100.524475 1.517668 0.701838
385.312531 100.524475 0.551969 0.630147
380.278351 101.243187 0.000123 0.531863
373.342529 102.233391 0.000136 0.537868
369.479645 102.784874 0.000150 0.526961
367.013702 103.136925 0.000127 0.558946
365.299866 103.381607 0.000087 0.537010
364.037018 103.561897 0.000088 0.532230
385.312561 100.316406 9.390739 0.672059
385.312561 100.316406 8.372575 0.584191
385.312561 100.316414 7.368704 0.459436
385.312561 100.316414 6.376725 0.584681
385.312561 100.316414 5.394333 0.476348
385.312561 100.316414 4.419311 0.562623
385.312561 100.316406 3.449511 0.465686
385.312561 100.316414 2.482825 0.672917
385.312561 100.316414 1.517175 0.628554
385.312561 100.316406 0.550488 0.541789
380.253571 101.074730 0.000132 0.533211
373.324860 102.113319 0.000145 0.524387
369.465912 102.691757 0.000160 0.528431
367.002533 103.061012 0.000138 0.566176
365.290466 103.317650 0.000095 0.529902
364.028961 103.506737 0.000075 0.528064
385.312531 100.107903 9.398663 0.518627
385.312531 100.107903 8.379406 0.522672
385.312531 100.107903 7.374461 0.539583
385.312531 100.107903 6.381416 0.528309
385.312531 100.107903 5.397971 0.439951
385.312531 100.107903 4.421906 0.419608
385.312531 100.107903 3.451065 0.514338
385.312531 100.107903 2.483342 0.648162
385.312531 100.107903 1.516657 0.634804
385.312531 100.107903 0.548935 0.562745
380.228119 100.906372 0.000102 0.534069
373.306732 101.993317 0.000114 0.539461
369.451996 102.598679 0.000107 0.532108
366.990936 102.985161 0.000124 0.540931
365.280762 103.253731 0.000065 0.519730
364.020630 103.451630 0.000046 0.535417
385.312561 99.898933 9.406963 0.537868
385.312561 99.898933 8.386564 0.536642
385.312561 99.898933 7.380491 0.430515
385.312561 99.898933 6.386333 0.588358
385.312561 99.898933 5.401783 0.605270
385.312561 99.898933 4.424621 0.519118
385.312561 99.898933 3.452693 0.450980
385.312561 99.898933 2.483886 0.590441
385.312561 99.898933 1.516114 0.652451
385.312561 99.898933 0.547307 0.489338
380.200775 100.738304 0.000131 0.541299
373.287079 101.873558 0.000162 0.523775
369.436890 102.505768 0.000134 0.527451
366.978638 102.909424 0.000151 0.519975
365.270233 103.189949 0.000127 0.560784
364.011719 103.396606 0.000073 0.464706
385.312561 99.689484 9.415646 0.420833
385.312561 99.689484 8.394049 0.519485
385.312561 99.689484 7.386796 0.500000
385.312561 99.689484 6.391474 0.552328
385.312561 99.689484 5.405770 0.526593
385.312561 99.689484 4.427464 0.519608
385.312561 99.689484 3.454396 0.481618
385.312561 99.689484 2.484452 0.586765
385.312561 99.689484 1.515548 0.667402
385.312561 99.689484 0.545604 0.479167
380.172760 100.570343 0.000118 0.536152
373.267090 101.753853 0.000149 0.547672
369.421387 102.412933 0.000122 0.548039
366.966003 102.833740 0.000138 0.529779
365.259583 103.126183 0.000115 0.516054
364.002533 103.341629 0.000060 0.549755
385.312531 99.479530 9.424709 0.452941
385.312531 99.479530 8.401865 0.452696
385.312531 99.479530 7.393382 0.484681
385.312531 99.479538 6.396842 0.521078
385.312531 99.479538 5.409935 0.433946
385.312531 99.479530 4.430431 0.694485
385.312531 99.479538 3.456173 0.452451
385.312531 99.479538 2.485044 0.582475
385.312531 99.479538 1.514955 0.617892
385.312531 99.479538 0.543826 0.455147
380.143524 100.402603 0.000109 0.545833
373.246277 101.634293 0.000140 0.539461
369.405243 102.320213 0.000113 0.538235
366.952850 102.758148 0.000131 0.550245
365.248505 103.062500 0.000107 0.560539
363.992889 103.286728 0.000069 0.525245
385.312561 99.269066 9.434157 0.472917
385.312561 99.269066 8.410011 0.427819
385.312561 99.269066 7.400245 0.585294
385.312561 99.269066 6.402436 0.589461
385.312561 99.269066 5.414273 0.447059
385.312561 99.269066 4.433525 0.590686
385.312561 99.269066 3.458027 0.451716
385.312561 99.269066 2.485662 0.559926
385.312561 99.269066 1.514338 0.671691
385.312561 99.269066 0.541973 0.480515
380.112640 100.235146 0.000138 0.543627
373.224243 101.514938 0.000169 0.517279
369.388184 102.227646 0.000141 0.530147
366.938934 102.682686 0.000157 0.540074
365.236786 102.998924 0.000135 0.533456
363.982788 103.231911 0.000097 0.537623
385.312531 99.058037 9.443996 0.433333
385.312531 99.058037 8.418493 0.518873
385.312531 99.058037 7.407391 0.525613
385.312531 99.058037 6.408262 0.612010
385.312531 99.058037 5.418791 0.518137
385.312531 99.058037 4.436744 0.585907
385.312531 99.058037 3.459957 0.450980
385.312531 99.058037 2.486305 0.552083
385.312531 99.058037 1.513695 0.659559
385.312531 99.058037 0.540043 0.541176
380.081329 100.067780 0.000107 0.542034
373.201965 101.395645 0.000136 0.552574
369.370850 102.135124 0.000111 0.529412
366.925018 102.607224 0.000091 0.549510
365.224884 102.935387 0.000105 0.549510
363.972534 103.177116 0.000066 0.534681
385.312561 98.846451 9.454221 0.672549
385.312561 98.846451 8.427311 0.508211
385.312561 98.846451 7.414819 0.561397
385.312561 98.846451 6.414319 0.600980
385.312561 98.846451 5.423489 0.426961
385.312561 98.846451 4.440092 0.572181
385.312561 98.846451 3.461962 0.468015
385.312561 98.846451 2.486973 0.558701
385.312561 98.846451 1.513028 0.603554
385.312561 98.846451 0.538038 0.474020
380.047913 99.900810 0.000153 0.539461
373.178314 101.276611 0.000165 0.542157
369.352509 102.042816 0.000141 0.537745
366.910065 102.531967 0.000119 0.559314
365.212280 102.871986 0.000135 0.512255
363.961670 103.122444 0.000094 0.503922
385.312531 98.634270 9.464840 0.604289
385.312531 98.634270 8.436466 0.678922
385.312531 98.634270 7.422533 0.522549
385.312531 98.634270 6.420608 0.696814
385.312531 98.634270 5.428365 0.452819
385.312531 98.634270 4.443567 0.619976
385.312531 98.634270 3.464045 0.577451
385.312531 98.634270 2.487666 0.632230
385.312531 98.634270 1.512334 0.662745
385.312531 98.634270 0.535955 0.451225
380.014008 99.733955 0.000145 0.539583
373.154144 101.157684 0.000156 0.551348
369.333740 101.950577 0.000133 0.522059
366.894775 102.456772 0.000110 0.561152
365.199402 102.808632 0.000125 0.544118
363.950500 103.067841 0.000104 0.524142
385.312531 98.421471 9.475855 0.506740
385.312531 98.421471 8.445965 0.615686
385.312531 98.421471 7.430534 0.608578
385.312531 98.421471 6.427130 0.490931
385.312531 98.421471 5.433424 0.535907
385.312531 98.421478 4.447173 0.580882
385.312531 98.421478 3.466204 0.554044
385.312531 98.421478 2.488386 0.503676
385.312531 98.421478 1.511614 0.620588
385.312531 98.421478 0.533795 0.448284
379.979004 99.567314 0.000130 0.537868
373.129150 101.038918 0.000144 0.549265
369.314392 101.858467 0.000121 0.531740
366.879028 102.381683 0.000093 0.550858
365.186096 102.745377 0.000111 0.550613
363.939026 103.013290 0.000092 0.549877
385.312561 98.208031 9.487267 0.742647
385.312531 98.208038 8.455805 0.561152
385.312531 98.208038 7.438823 0.627328
385.312531 98.208038 6.433888 0.456618
385.312531 98.208038 5.438664 0.649632
385.312531 98.208038 4.450909 0.759436
385.312531 98.208038 3.468443 0.626471
385.312531 98.208038 2.489131 0.508333
385.312531 98.208038 1.510868 0.770466
385.312531 98.208038 0.531557 0.666789
379.942291 99.401047 0.000160 0.537255
373.103027 100.920403 0.000171 0.539093
369.294128 101.766556 0.000148 0.544363
366.862488 102.306755 0.000122 0.537010
365.172211 102.682243 0.000139 0.515319
363.927002 102.958862 0.000118 0.574877
385.312531 97.993927 9.499081 0.421446
385.312531 97.993935 8.465990 0.614583
385.312531 97.993935 7.447404 0.477574
385.312531 97.993935 6.440882 0.512745
385.312531 97.993935 5.444090 0.507353
385.312531 97.993935 4.454776 0.488971
385.312531 97.993935 3.470759 0.483578
385.312531 97.993935 2.489903 0.461397
385.312531 97.993935 1.510097 0.638235
385.312531 97.993935 0.529241 0.460294
379.905182 99.234879 0.000129 0.532108
373.076874 100.801888 0.000102 0.522059
369.273590 101.674698 0.000117 0.548774
366.845734 102.231865 0.000093 0.537500
365.158020 102.619179 0.000129 0.518137
363.914856 102.904472 0.000088 0.567770
385.312561 97.779152 9.511295 0.452328
385.312561 97.779152 8.476524 0.644363
385.312561 97.779152 7.456278 0.454902
385.312561 97.779152 6.448117 0.595466
385.312561 97.779152 5.449700 0.536520
385.312561 97.779152 4.458775 0.452083
385.312561 97.779152 3.473155 0.624142
385.312561 97.779152 2.490701 0.767279
385.312561 97.779152 1.509299 0.578554
385.312561 97.779152 0.526844 0.454044
379.866669 99.069008 0.000115 0.534804
373.049408 100.683670 0.000089 0.530392
369.252289 101.583015 0.000103 0.553922
366.828278 102.157143 0.000099 0.541667
365.143372 102.556213 0.000114 0.533456
363.902191 102.850189 0.000094 0.569853
385.312561 97.563652 9.523922 0.459436
385.312561 97.563652 8.487410 0.437990
385.312561 97.563652 7.465449 0.484436
385.312561 97.563652 6.455595 0.501103
385.312561 97.563652 5.455500 0.582843
385.312561 97.563652 4.462907 0.467647
385.312561 97.563652 3.475632 0.476716
385.312561 97.563652 2.491526 0.436397
385.312561 97.563652 1.508474 0.602941
385.312561 97.563652 0.524368 0.482966
379.826508 98.903534 0.000143 0.550000
373.020782 100.565727 0.000117 0.533088
369.230103 101.491554 0.000132 0.537010
366.810181 102.082573 0.000125 0.549755
365.128143 102.493393 0.000142 0.537132
363.889038 102.796021 0.000119 0.493505
385.312561 97.347412 9.536958 0.602328
385.312561 97.347412 8.498648 0.449632
385.312561 97.347412 7.474918 0.518627
385.312561 97.347412 6.463315 0.536765
385.312561 97.347412 5.461485 0.544240
385.312561 97.347412 4.467175 0.596078
385.312561 97.347412 3.478188 0.525123
385.312561 97.347412 2.492377 0.420098
385.312561 97.347412 1.507622 0.633211
385.312561 97.347412 0.521811 0.552941
379.785858 98.738182 0.000114 0.534069
372.991852 100.447861 0.000087 0.557598
369.207672 101.400139 0.000101 0.596691
366.791870 102.008057 0.000097 0.539828
365.112732 102.430611 0.000111 0.544608
363.875763 102.741898 0.000092 0.544608
385.312561 97.130417 9.550404 0.659069
385.312531 97.130417 8.510243 0.494240
385.312531 97.130417 7.484687 0.634314
385.312531 97.130409 6.471277 0.570833
385.312531 97.130417 5.467661 0.509681
385.312531 97.130417 4.471577 0.438848
385.312531 97.130417 3.480825 0.571814
385.312531 97.130417 2.493256 0.450980
385.312531 97.130417 1.506744 0.543382
385.312531 97.130417 0.519174 0.488235
379.743683 98.573212 0.000121 0.540441
372.961761 100.330292 0.000094 0.528922
369.184296 101.308952 0.000109 0.560294
366.772858 101.933731 0.000104 0.553186
365.096710 102.367981 0.000119 0.574020
363.861938 102.687897 0.000098 0.510294
385.312531 96.912636 9.564270 0.671446
385.312561 96.912628 8.522202 0.669976
385.312531 96.912636 7.494759 0.561275
385.312531 96.912636 6.479488 0.591912
385.312531 96.912636 5.474030 0.598529
385.312531 96.912636 4.476116 0.423284
385.312531 96.912636 3.483545 0.707721
385.312531 96.912636 2.494162 0.699387
385.312531 96.912636 1.505838 0.574632
385.312531 96.912636 0.516455 0.450980
379.700256 98.408577 0.000134 0.534926
372.930786 100.212936 0.000107 0.534069
369.160461 101.217911 0.000098 0.519118
366.753265 101.859535 0.000116 0.530270
365.080231 102.305481 0.000131 0.531863
363.847717 102.634003 0.000110 0.535662
385.312531 96.694038 9.578556 0.423039
385.312531 96.694046 8.534519 0.486520
385.312531 96.694038 7.505138 0.600613
385.312531 96.694038 6.487949 0.601593
385.312531 96.694046 5.480591 0.545098
385.312531 96.694038 4.480792 0.448162
385.312531 96.694038 3.486346 0.618382
385.312531 96.694046 2.495095 0.421324
385.312531 96.694046 1.504905 0.534559
385.312531 96.694038 0.513652 0.466667
379.655975 98.244156 0.000120 0.541912
372.899261 100.095734 0.000091 0.551716
369.135986 101.127022 0.000084 0.527451
366.733337 101.785431 0.000101 0.554534
365.063416 102.243057 0.000117 0.503186
363.833221 102.580177 0.000098 0.488603
385.312561 96.474609 9.593271 0.479167
385.312561 96.474602 8.547205 0.599142
385.312561 96.474609 7.515824 0.482966
385.312561 96.474609 6.496661 0.529044
385.312561 96.474602 5.487348 0.499020
385.312561 96.474609 4.485608 0.749142
385.312561 96.474609 3.489232 0.749265
385.312561 96.474609 2.496056 0.450980
385.312561 96.474609 1.503944 0.723407
385.312561 96.474609 0.510767 0.667279
379.610077 98.080177 0.000147 0.529412
372.866547 99.978867 0.000119 0.544118
369.110626 101.036385 0.000112 0.551471
366.712646 101.711548 0.000129 0.533088
365.046112 102.180779 0.000121 0.574265
363.818146 102.526512 0.000140 0.528431
385.312531 96.254311 9.608410 0.432843
385.312531 96.254311 8.560259 0.459314
385.312531 96.254311 7.526823 0.454044
385.312531 96.254311 6.505628 0.502696
385.312531 96.254311 5.494302 0.501838
385.312531 96.254311 4.490565 0.523039
385.312531 96.254311 3.492202 0.566422
385.312531 96.254311 2.497045 0.419853
385.312531 96.254311 1.502955 0.567034
385.312531 96.254311 0.507798 0.561887
379.563690 97.916351 0.000118 0.534804
372.833496 99.862099 0.000090 0.530637
369.084991 100.945808 0.000083 0.544363
366.691742 101.637711 0.000100 0.543505
365.028473 102.118576 0.000093 0.557476
363.802948 102.472885 0.000111 0.517647
385.312531 96.033127 9.623983 0.694853
385.312531 96.033127 8.573687 0.474265
385.312561 96.033127 7.538136 0.542279
385.312561 96.033119 6.514851 0.508946
385.312561 96.033127 5.501454 0.488113
385.312531 96.033127 4.495662 0.598407
385.312531 96.033119 3.495256 0.597181
385.312561 96.033119 2.498064 0.508211
385.312561 96.033119 1.501937 0.518137
385.312531 96.033119 0.504743 0.572549
379.515503 97.753029 0.000146 0.541667
372.799133 99.745697 0.000119 0.528799
369.058350 100.855537 0.000111 0.518995
366.669922 101.564148 0.000146 0.531985
365.010193 102.056572 0.000120 0.529167
363.787170 102.419418 0.000137 0.524387
385.312561 95.811012 9.639995 0.584926
385.312561 95.811012 8.587492 0.664216
385.312561 95.811012 7.549766 0.453064
385.312561 95.811012 6.524331 0.479657
385.312561 95.811012 5.508807 0.486152
385.312561 95.811012 4.500903 0.620098
385.312561 95.811012 3.498397 0.546324
385.312561 95.811012 2.499108 0.432966
385.312561 95.811012 1.500891 0.507966
385.312561 95.811012 0.501603 0.607353
379.466675 97.589905 0.000131 0.535784
372.764343 99.629425 0.000103 0.549877
369.031342 100.765366 0.000095 0.531250
366.647949 101.490639 0.000131 0.508824
364.991638 101.994644 0.000106 0.554167
363.771179 102.366028 0.000126 0.519608
385.312531 95.587967 9.656446 0.541054
385.312531 95.587967 8.601677 0.637745
385.312531 95.587967 7.561718 0.541422
385.312531 95.587967 6.534074 0.625613
385.312561 95.587967 5.516364 0.537868
385.312531 95.587967 4.506289 0.620588
385.312531 95.587967 3.501622 0.495221
385.312531 95.587967 2.500183 0.419608
385.312531 95.587967 1.499816 0.515564
385.312531 95.587967 0.498376 0.636887
379.416412 97.427231 0.000144 0.538235
372.728485 99.513474 0.000116 0.509191
369.003571 100.675438 0.000108 0.549510
366.625275 101.417328 0.000144 0.544730
364.972565 101.932884 0.000117 0.505392
363.754730 102.312775 0.000138 0.542279
385.312561 95.363937 9.673344 0.428064
385.312561 95.363937 8.616247 0.589828
385.312561 95.363937 7.573992 0.638603
385.312561 95.363937 6.544081 0.564706
385.312561 95.363937 5.524124 0.532598
385.312561 95.363930 4.511821 0.574387
385.312561 95.363930 3.504937 0.463480
385.312561 95.363937 2.501288 0.450980
385.312561 95.363937 1.498712 0.504167
385.312561 95.363930 0.495063 0.566667
379.365295 97.264809 0.000130 0.543260
372.692047 99.397705 0.000102 0.535539
368.975311 100.585655 0.000093 0.526593
366.602264 101.344139 0.000129 0.518382
364.953156 101.871223 0.000105 0.556985
363.738007 102.259613 0.000123 0.565564
385.312531 95.138916 9.690690 0.535662
385.312531 95.138908 8.631204 0.452819
385.312531 95.138908 7.586592 0.511520
385.312531 95.138908 6.554356 0.535417
385.312531 95.138908 5.532090 0.521814
385.312531 95.138908 4.517499 0.618382
385.312531 95.138908 3.508339 0.420711
385.312531 95.138908 2.502420 0.450735
385.312531 95.138908 1.497579 0.494118
385.312531 95.138908 0.491660 0.584436
379.313049 97.102737 0.000115 0.547672
372.654846 99.282196 0.000088 0.541176
368.946442 100.496071 0.000079 0.539461
366.578705 101.271111 0.000114 0.534926
364.933319 101.809692 0.000090 0.533946
363.720886 102.206566 0.000111 0.567892
385.312561 94.912849 9.708496 0.572917
385.312561 94.912849 8.646555 0.506740
385.312561 94.912849 7.599526 0.421691
385.312561 94.912849 6.564897 0.626593
385.312531 94.912857 5.540267 0.532475
385.312561 94.912849 4.523326 0.581127
385.312561 94.912849 3.511831 0.487132
385.312561 94.912849 2.503583 0.420221
385.312561 94.912849 1.496416 0.452083
385.312561 94.912849 0.488169 0.669363
379.259277 96.941170 0.000133 0.527083
372.616547 99.167023 0.000102 0.540196
368.916779 100.406754 0.000093 0.537255
366.554535 101.198288 0.000126 0.548039
364.912933 101.748344 0.000103 0.521936
363.703339 102.153664 0.000123 0.567034
385.312561 94.685730 9.726759 0.522917
385.312561 94.685730 8.662302 0.568627
385.312561 94.685730 7.612792 0.472304
385.312561 94.685730 6.575713 0.503309
385.312561 94.685730 5.548656 0.556495
385.312561 94.685730 4.529305 0.543873
385.312561 94.685730 3.515412 0.451103
385.312561 94.685730 2.504777 0.450490
385.312561 94.685730 1.495223 0.476225
385.312561 94.685730 0.484586 0.509314
379.204803 96.779846 0.000117 0.538971
372.577576 99.052086 0.000105 0.545098
368.886627 100.317574 0.000079 0.527083
366.529968 101.125595 0.000113 0.541667
364.892242 101.687103 0.000088 0.564216
363.685608 102.100822 0.000082 0.538848
385.312531 94.457527 9.745486 0.453922
385.312531 94.457527 8.678452 0.594118
385.312531 94.457527 7.626397 0.532843
385.312531 94.457527 6.586803 0.484069
385.312531 94.457527 5.557258 0.682230
385.312531 94.457527 4.535436 0.584926
385.312531 94.457527 3.519087 0.547672
385.312531 94.457527 2.506000 0.419975
385.312531 94.457527 1.494000 0.592892
385.312531 94.457527 0.480913 0.517524
379.148712 96.619087 0.000145 0.534314
372.537567 98.937500 0.000132 0.533946
368.855621 100.228706 0.000105 0.555515
366.504700 101.053139 0.000139 0.518995
364.870941 101.626060 0.000115 0.541054
363.667236 102.048195 0.000108 0.556127
385.312561 94.228195 9.764687 0.521078
385.312531 94.228203 8.695005 0.643260
385.312531 94.228195 7.640344 0.528554
385.312561 94.228195 6.598173 0.500858
385.312531 94.228195 5.566074 0.497672
385.312531 94.228203 4.541720 0.596446
385.312531 94.228203 3.522852 0.505760
385.312531 94.228203 2.507255 0.450980
385.312531 94.228203 1.492745 0.477328
385.312531 94.228203 0.477148 0.616789
379.092133 96.458488 0.000117 0.539706
372.497253 98.823036 0.000104 0.527451
368.824341 100.139931 0.000077 0.539216
366.479156 100.980774 0.000113 0.542279
364.849365 101.565125 0.000105 0.559559
363.648712 101.995628 0.000082 0.515319
nan nan nan 0.000000
nan nan nan 0.000000
nan nan nan 0.000000
nan nan nan 0.000000
391.486267 91.735413 6.331522 0.510172
391.610229 91.689980 5.098121 0.509926
391.688446 91.661324 3.860306 0.510539
nan nan nan 0.000000
nan nan nan 0.000000
394.355713 90.683922 0.000139 0.537132
379.033813 96.298515 0.000144 0.530637
372.455688 98.709007 0.000130 0.534314
368.792114 100.051506 0.000103 0.537745
366.452881 100.908684 0.000138 0.521691
364.827271 101.504387 0.000130 0.553186
363.629608 101.943260 0.000108 0.535294
nan nan nan 0.000000
nan nan nan 0.000000
nan nan nan 0.000000
nan nan nan 0.000000
391.643524 91.395851 6.362058 0.516422
390.250366 91.917419 4.987081 0.534681
391.508636 91.446350 3.855690 0.517279
nan nan nan 0.000000
nan nan nan 0.000000
394.257263 90.417313 0.000124 0.536029
378.974823 96.138779 0.000129 0.538848
372.413635 98.595161 0.000116 0.540931
368.759369 99.963249 0.000107 0.517279
366.426331 100.836700 0.000123 0.544485
364.804871 101.443748 0.000117 0.560662
363.610291 101.890968 0.000093 0.547794
nan nan nan 0.000000
390.752838 91.453026 10.005100 0.515809
nan nan nan 0.000000
nan nan nan 0.000000
391.412292 91.200874 6.345113 0.509069
390.461884 91.564270 5.013549 0.509069
391.437164 91.191360 3.856839 0.518873
393.126312 90.545494 2.648098 0.510784
nan nan nan 0.000000
394.156433 90.151611 0.000138 0.538480
378.914429 95.979584 0.000143 0.539461
372.370605 98.481697 0.000129 0.538725
368.725983 99.875252 0.000122 0.548897
366.399078 100.764969 0.000137 0.514706
364.781921 101.383308 0.000130 0.546078
363.590515 101.838860 0.000107 0.555270
nan nan nan 0.000000
nan nan nan 0.000000
nan nan nan 0.000000
389.072235 91.831337 7.245185 0.510662
391.339569 90.946190 6.347869 0.508824
390.030304 91.457298 4.983703 0.532475
390.783051 91.163445 3.827359 0.510662
393.217133 90.213219 2.651443 0.511152
nan nan nan 0.000000
394.054321 89.886398 0.000123 0.537868
378.853210 95.820686 0.000128 0.543015
372.326965 98.368439 0.000114 0.543873
368.692169 99.787415 0.000107 0.536152
366.371521 100.693359 0.000121 0.509804
364.758698 101.322983 0.000116 0.519485
363.570496 101.786842 0.000092 0.561642
390.646912 90.938164 11.306279 0.510784
390.663666 90.931480 10.028123 0.516054
392.142883 90.342079 9.053190 0.513848
389.533600 91.381767 7.333319 0.509069
392.752960 90.098999 6.534886 0.510172
390.421783 91.027863 5.026482 0.555882
388.981567 91.601730 3.737128 0.525245
391.904541 90.437050 2.630118 0.513603
nan nan nan 0.000000
393.949524 89.622223 0.000149 0.534681
378.790436 95.662407 0.000154 0.540686
372.282227 98.255623 0.000141 0.519730
368.657440 99.699921 0.000132 0.521814
366.343231 100.622032 0.000147 0.549755
364.734863 101.262894 0.000141 0.521078
363.549957 101.735031 0.000119 0.533088
nan nan nan 0.000000
393.294037 89.581932 10.663980 0.517402
390.576294 90.686882 8.765325 0.510539
389.472717 91.135551 7.338580 0.508211
391.189453 90.437592 6.353485 0.517034
389.540314 91.108070 4.956978 0.508211
388.799408 91.409302 3.732358 0.516667
391.461792 90.326866 2.624070 0.516667
nan nan nan 0.000000
393.843719 89.358467 0.000134 0.535172
378.727020 95.504379 0.000139 0.521936
372.237061 98.142990 0.000125 0.540441
368.622406 99.612572 0.000118 0.544853
366.314636 100.550819 0.000133 0.532966
364.710785 101.202904 0.000126 0.536397
363.529175 101.683296 0.000103 0.520711
390.983978 90.236801 11.450665 0.517524
390.572998 90.407242 10.052628 0.520711
389.749725 90.748672 8.621929 0.517770
389.928406 90.674576 7.427081 0.520466
390.362213 90.494652 6.262957 0.537132
389.029846 91.047226 4.920154 0.510784
388.868866 91.113976 3.741024 0.524755
392.036591 89.800255 2.636044 0.515564
nan nan nan 0.000000
393.736237 89.095367 0.000107 0.537500
378.662659 95.346733 0.000112 0.527574
372.191132 98.030632 0.000098 0.539951
368.586823 99.525436 0.000091 0.529902
366.285645 100.479782 0.000107 0.507598
364.686340 101.143059 0.000101 0.556005
363.508118 101.631706 0.000079 0.502574
389.409088 90.616875 11.050022 0.526716
390.445496 90.178543 10.046310 0.503309
390.468536 90.168793 8.783333 0.507598
392.007629 89.517876 7.777849 0.517157
390.482208 90.163025 6.290427 0.510417
389.140320 90.730553 4.938538 0.514828
389.024261 90.779625 3.754413 0.520466
390.864960 90.001144 2.617091 0.523897
nan nan nan 0.000000
393.625977 88.833427 0.000133 0.539583
378.596588 95.189812 0.000138 0.531863
372.144043 97.918777 0.000125 0.533333
368.550323 99.438683 0.000117 0.551348
366.255890 100.409058 0.000132 0.539706
364.661255 101.083473 0.000127 0.537745
363.486481 101.580330 0.000104 0.552941
389.471039 90.315491 11.093940 0.516544
389.682465 90.224319 9.890868 0.516422
390.271881 89.970169 8.764616 0.514951
389.580170 90.268425 7.402976 0.515686
389.806671 90.170761 6.218608 0.515074
388.399048 90.777718 4.881122 0.507721
388.088165 90.911758 3.709569 0.526716
nan nan nan 0.000000
nan nan nan 0.000000
393.514648 88.571945 0.000118 0.536274
378.529877 95.033142 0.000124 0.532721
372.096527 97.807114 0.000109 0.540074
368.513428 99.352081 0.000102 0.533946
366.225800 100.338463 0.000117 0.558701
364.635956 101.023994 0.000110 0.506373
363.464630 101.529045 0.000090 0.519975
nan nan nan 0.000000
389.707397 89.934753 9.920770 0.523775
389.913910 89.843994 8.714056 0.512132
390.163330 89.734383 7.513908 0.516422
389.567047 89.996437 6.201335 0.505392
388.354889 90.529167 4.885939 0.507843
389.808502 89.890320 3.807089 0.508211
391.972168 88.939407 2.640608 0.511152
nan nan nan 0.000000
393.400940 88.311485 0.000132 0.536029
378.461731 94.877090 0.000138 0.542647
372.047943 97.695885 0.000124 0.533211
368.475769 99.265823 0.000116 0.517524
366.195129 100.268143 0.000132 0.529657
364.610077 100.964752 0.000125 0.535294
363.442352 101.477959 0.000103 0.525735
nan nan nan 0.000000
388.277649 90.294540 9.606985 0.526961
389.535187 89.731346 8.659381 0.515196
389.344116 89.816917 7.397866 0.510907
388.971680 89.983719 6.139321 0.509069
392.262115 88.510109 5.245926 0.518137
389.078918 89.935692 3.773423 0.522549
392.090851 88.586807 2.644723 0.508088
nan nan nan 0.000000
393.285614 88.051743 0.000136 0.533701
378.392639 94.721474 0.000142 0.534069
371.998718 97.584969 0.000128 0.537132
368.437561 99.179794 0.000120 0.546936
366.164001 100.198013 0.000134 0.523897
364.583832 100.905670 0.000129 0.543750
363.419739 101.427010 0.000105 0.538848
389.237366 89.586388 11.114501 0.511642
389.264679 89.573921 9.865355 0.507966
389.691620 89.379135 8.711714 0.509681
389.358521 89.531105 7.417279 0.509191
389.065308 89.664879 6.164248 0.513603
389.495422 89.468643 5.006833 0.512623
388.814423 89.779350 3.764746 0.512868
390.421814 89.045975 2.616741 0.576226
390.359131 89.074562 1.384387 0.569363
390.380615 89.064781 0.150681 0.588235
378.322784 94.566177 0.000115 0.534191
371.948944 97.474281 0.000101 0.539093
368.398956 99.093956 0.000093 0.543015
366.132507 100.128036 0.000109 0.541544
364.557312 100.846718 0.000103 0.518137
363.396851 101.376183 0.000082 0.539338
388.330933 89.727509 10.893478 0.517524
388.777954 89.519760 9.774759 0.505392
388.634308 89.586525 8.521180 0.508946
388.447388 89.673393 7.285680 0.509559
388.850586 89.486000 6.150418 0.515564
389.099182 89.370483 4.980689 0.533333
388.739685 89.537544 3.766381 0.509926
391.875885 88.080124 2.644963 0.517034
391.233643 88.378563 1.366624 0.602083
390.151520 88.881439 0.157136 0.629657
378.251312 94.411644 0.000141 0.539093
371.897949 97.364136 0.000127 0.529657
368.359467 99.008530 0.000118 0.539706
366.100281 100.058395 0.000134 0.537010
364.530182 100.788048 0.000126 0.544853
363.373444 101.325592 0.000106 0.493260
388.603882 89.324120 10.998286 0.510662
387.830078 89.690300 9.573769 0.524020
388.548431 89.350342 8.525285 0.507721
388.559021 89.345345 7.321335 0.510662
387.761444 89.722771 6.025411 0.506373
389.626038 88.840401 5.038254 0.512990
388.575653 89.337471 3.763258 0.518015
391.768524 87.826500 2.645137 0.515319
nan nan nan 0.000000
392.929321 87.277176 0.000120 0.538480
378.179169 94.257401 0.000126 0.543015
371.846558 97.254196 0.000111 0.522426
368.319550 98.923271 0.000104 0.527819
366.067780 99.988884 0.000119 0.524142
364.502808 100.729492 0.000112 0.555882
363.349854 101.275101 0.000091 0.551593
388.606232 89.044601 11.028989 0.505270
390.498749 88.132774 10.238848 0.509559
388.465759 89.112289 8.530370 0.509314
388.673920 89.011986 7.358025 0.530882
389.609314 88.561310 6.274821 0.512868
388.324554 89.180305 4.929945 0.502941
388.079987 89.298149 3.742115 0.516667
nan nan nan 0.000000
nan nan nan 0.000000
392.806580 87.020851 0.000134 0.534804
378.105652 94.103821 0.000139 0.537010
371.794128 97.144737 0.000125 0.537255
368.278931 98.838379 0.000118 0.535662
366.034668 99.919670 0.000131 0.536642
364.474884 100.671181 0.000127 0.545833
363.325775 101.224831 0.000105 0.516789
388.897736 88.621368 11.141000 0.509436
388.627625 88.753830 9.816745 0.506863
388.382141 88.874214 8.535628 0.510049
390.601501 87.785782 7.694703 0.494975
389.150299 88.497490 6.230537 0.505882
388.261902 88.933197 4.934182 0.524387
388.031952 89.045967 3.745410 0.511642
392.388733 86.909241 2.660795 0.512010
nan nan nan 0.000000
392.682617 86.765121 0.000119 0.536765
378.031372 93.950607 0.000125 0.539338
371.741180 97.035522 0.000111 0.536029
368.237854 98.753677 0.000103 0.554779
366.001190 99.850639 0.000118 0.550858
364.446686 100.613014 0.000111 0.529902
363.301453 101.174675 0.000090 0.519363
390.740845 87.416687 11.688622 0.512132
388.257019 88.656425 9.754328 0.512990
388.290405 88.639755 8.539586 0.515686
388.721344 88.424660 7.402704 0.513848
388.452789 88.558701 6.155495 0.513235
388.243164 88.663330 4.942618 0.516054
387.885681 88.841766 3.743418 0.515809
392.006927 86.784737 2.656098 0.513848
nan nan nan 0.000000
392.556122 86.510620 0.000144 0.533578
377.955597 93.798126 0.000150 0.536520
371.687195 96.926842 0.000135 0.553799
368.196014 98.669388 0.000126 0.522181
365.967041 99.781914 0.000142 0.512623
364.417938 100.555122 0.000135 0.511275
363.276642 101.124756 0.000113 0.546936
nan nan nan 0.000000
391.206390 86.877365 10.496091 0.513848
388.131226 88.439178 8.530125 0.509191
388.593231 88.204536 7.400416 0.534314
388.712799 88.143814 6.203673 0.515441
389.011414 87.992157 5.023630 0.529044
387.372528 88.824509 3.721283 0.508824
392.471893 86.234657 2.666942 0.509314
nan nan nan 0.000000
392.428772 86.256554 0.000119 0.535662
377.879303 93.645905 0.000125 0.536887
371.632813 96.818344 0.000110 0.552696
368.153778 98.585251 0.000103 0.529534
365.932648 99.713326 0.000117 0.563971
364.388947 100.497330 0.000111 0.556005
363.251678 101.074921 0.000087 0.504412
nan nan nan 0.000000
387.962952 88.244102 9.738035 0.507966
388.484619 87.974571 8.625902 0.509436
390.373016 86.998856 7.716929 0.511397
388.192596 88.125458 6.151376 0.509559
388.585205 87.922607 4.995126 0.510417
394.713867 84.755989 4.133403 0.661152
394.507233 84.862747 2.706821 0.698284
394.507233 84.862747 1.293179 0.691789
392.299469 86.003479 0.000104 0.532230
377.801819 93.494270 0.000109 0.528186
371.577576 96.710274 0.000096 0.532721
368.110962 98.501434 0.000087 0.539706
365.897736 99.644997 0.000103 0.542892
364.359528 100.439766 0.000095 0.509681
363.226654 101.025124 -0.000016 0.533701
nan nan nan 0.000000
390.617615 86.566338 10.413950 0.509681
390.790131 86.475670 9.123962 0.511275
390.161499 86.806076 7.702318 0.514706
388.532532 87.662186 6.210686 0.523407
388.273376 87.798401 4.977159 0.500735
394.062195 84.755997 4.105011 0.656250
394.252411 84.656006 2.704686 0.655270
394.252411 84.656006 1.295313 0.620221
392.167725 85.751663 0.000128 0.535539
377.722870 93.343407 0.000134 0.539706
371.521332 96.602737 0.000119 0.519853
368.067352 98.418030 0.000110 0.558824
365.862152 99.577003 0.000126 0.554534
364.329559 100.382484 0.000118 0.571201
363.200806 100.975716 -0.000002 0.484069
nan nan nan 0.000000
nan nan nan 0.000000
393.427582 84.756004 9.694527 0.662990
393.812378 84.550323 8.337523 0.741176
388.122314 87.591721 6.172783 0.508578
388.412048 87.436852 5.001091 0.513971
393.427582 84.756004 4.077467 0.663235
393.614655 84.656006 2.695466 0.741176
393.614655 84.656006 1.304535 0.741176
392.035034 85.500328 0.000103 0.538848
377.643402 93.192810 0.000109 0.561520
371.464630 96.495407 0.000096 0.541544
368.023499 98.334740 0.000070 0.547549
365.826324 99.509140 0.000101 0.521078
364.299377 100.325317 0.000095 0.527206
363.174774 100.926437 -0.000017 0.556863
nan nan nan 0.000000
nan nan nan 0.000000
392.809357 84.756004 9.595503 0.639338
393.187775 84.550331 8.255965 0.741176
388.551331 87.070343 6.244685 0.506740
388.188599 87.267479 4.991551 0.513603
392.809357 84.756004 4.050731 0.669240
392.993378 84.655998 2.686516 0.741176
392.993378 84.655998 1.313484 0.741176
391.899780 85.250381 0.000127 0.535049
377.562347 93.043068 0.000133 0.532721
371.406921 96.388672 0.000118 0.535539
367.978699 98.251961 0.000094 0.540441
365.789825 99.441658 0.000124 0.557476
364.268646 100.268471 0.000119 0.486887
363.148254 100.877419 0.000007 0.587990
nan nan nan 0.000000
nan nan nan 0.000000
392.206818 84.756004 9.499359 0.644975
392.206818 84.756012 8.113697 0.655025
388.306915 86.911087 6.228837 0.517034
392.206787 84.756012 5.379453 0.651961
389.971649 85.991158 3.899317 0.508946
391.987061 84.877457 2.670333 0.697059
391.987152 84.877411 1.329665 0.726716
391.763062 85.001244 0.000135 0.537990
377.480682 92.893669 0.000118 0.534681
371.348694 96.282181 0.000104 0.532598
367.933563 98.169373 0.000080 0.540931
365.753021 99.374336 0.000110 0.520098
364.238037 100.211510 -0.000001 0.554412
363.121552 100.828491 -0.000015 0.534804
nan nan nan 0.000000
nan nan nan 0.000000
391.619293 84.756020 9.405975 0.658824
391.689331 84.716690 8.049478 0.729044
391.619293 84.756020 6.682386 0.676471
390.259644 85.519806 5.209498 0.513358
389.335907 86.038712 3.870894 0.510417
391.701691 84.709747 2.667589 0.130637
391.701691 84.709755 1.332411 0.129657
391.624451 84.753128 0.000150 0.535539
377.397644 92.745003 0.000133 0.532843
371.289490 96.176224 0.000118 0.537500
367.887634 98.087204 0.000094 0.524142
365.715607 99.307343 0.000123 0.551348
364.206512 100.155083 0.000020 0.524877
363.094330 100.779839 0.000007 0.519118
nan nan nan 0.000000
nan nan nan 0.000000
391.046234 84.756012 9.315243 0.659804
391.406494 84.550323 8.025135 0.741176
391.046234 84.756004 6.625021 0.657598
391.406494 84.550323 5.330498 0.741176
391.046234 84.756012 3.975061 0.653922
391.221405 84.656006 2.661184 0.741176
391.221405 84.656006 1.338815 0.741176
391.046265 84.755997 0.024936 0.631373
377.313873 92.596741 0.000117 0.539461
371.229950 96.070488 0.000088 0.522672
367.841339 98.005249 0.000079 0.517402
365.677856 99.240540 0.000109 0.515319
364.174683 100.098808 0.000007 0.527083
363.066803 100.731377 0.000025 0.568505
nan nan nan 0.000000
393.598663 82.950439 11.355401 0.559314
390.487030 84.756004 9.227053 0.684926
390.712219 84.625328 7.930330 0.080025
390.487030 84.756012 6.569262 0.663725
390.761627 84.596680 5.282774 0.075000
390.487030 84.756012 3.951251 0.662377
390.632111 84.671822 2.652697 0.228554
390.632111 84.671822 1.347302 0.193873
390.487061 84.755997 0.048746 0.636152
377.228790 92.449272 0.000134 0.535049
371.169220 95.965408 0.000111 0.542525
367.794250 97.923752 0.000102 0.529412
365.639465 99.174095 0.000132 0.539706
364.142365 100.042809 0.000023 0.546446
363.038910 100.683098 0.000041 0.549632
nan nan nan 0.000000
392.640625 83.164291 11.153473 0.680760
389.941101 84.756004 9.141312 0.674632
389.868286 84.798943 7.809265 0.713971
389.868286 84.798943 6.505326 0.726103
389.868286 84.798943 5.211174 0.744853
389.856445 84.805923 3.923273 0.708456
390.110718 84.655998 2.645464 0.741176
390.110718 84.655998 1.354536 0.741176
389.941101 84.755989 0.071897 0.581740
377.143036 92.302147 0.000110 0.530882
371.108093 95.860550 0.000089 0.549877
367.746887 97.842422 0.000078 0.520343
365.600830 99.107796 0.000108 0.515564
364.109772 99.986969 0.000007 0.563971
363.010834 100.634949 0.000027 0.507475
nan nan nan 0.000000
391.662384 83.405418 10.945246 0.685662
389.407959 84.755997 9.057920 0.657598
389.407959 84.755997 7.753823 0.638113
389.407959 84.755997 6.462330 0.669363
389.407959 84.755997 5.180527 0.663971
389.324646 84.805923 3.900814 0.713726
389.213470 84.872505 2.631032 0.698652
389.213470 84.872505 1.368968 0.713113
389.213470 84.872505 0.105549 0.716299
377.055786 92.155922 0.000133 0.531618
371.045929 95.756317 0.000111 0.544976
367.698669 97.761589 0.000100 0.531373
365.562256 99.041466 -0.000023 0.518995
364.076813 99.931366 -0.000006 0.551838
362.982391 100.587006 0.000012 0.512255
nan nan nan 0.000000
390.729187 83.634888 10.747090 0.671936
388.887115 84.755989 8.976788 0.673774
389.144318 84.599442 7.732348 0.761642
389.060669 84.650345 6.434412 0.734681
