# This PCD file was generated using the MATLABÂ® pcwrite function
# from Computer Vision ToolboxÂ®.
# .PCD v.7 - Point Cloud Data file format
VERSION .7
FIELDS x y z intensity
SIZE 4 4 4 4
TYPE F F F F
COUNT 1 1 1 1
WIDTH 1206
HEIGHT 1
VIEWPOINT 0 0 0 1 0 0 0
POINTS 1206
DATA ascii
367.941132 49.504219 16.542671 0.419485
367.941132 49.504223 14.539239 0.429779
367.941132 49.504223 12.563936 0.376593
367.979736 49.467823 10.619904 0.496814
367.979736 49.467827 8.685095 0.480025
367.941132 49.504223 6.760450 0.409559
367.941132 49.504219 4.852187 0.407843
367.941132 49.504227 2.950049 0.368873
367.941132 49.504227 1.049951 0.367647
355.316040 61.400105 -0.000002 0.531127
343.438354 72.591736 0.000026 0.548284
338.338928 77.396637 0.000043 0.540074
335.498993 80.072533 0.000017 0.525613
333.685852 81.780945 0.000016 0.562990
332.425629 82.968361 0.000016 0.515074
331.497131 83.843239 0.000030 0.529534
367.354431 49.504219 16.436062 0.417770
367.354431 49.504215 14.447321 0.421078
367.354431 49.504215 12.486500 0.414093
367.354431 49.504223 10.548898 0.421569
367.518158 49.347755 8.656081 0.678431
367.354431 49.504219 6.725554 0.408824
367.354431 49.504215 4.831278 0.421446
367.354431 49.504219 2.943086 0.426225
367.354431 49.504219 1.056915 0.423162
355.120392 61.193939 -0.000002 0.543505
343.321472 72.467888 -0.000011 0.527206
338.255585 77.308388 0.000008 0.541422
335.434326 80.004120 -0.000012 0.526471
333.633118 81.725174 -0.000012 0.571936
332.381165 82.921432 0.000005 0.502451
331.458893 83.802681 -0.000016 0.535662
366.776245 49.504223 16.331699 0.429902
366.776245 49.504219 14.357334 0.441912
366.776245 49.504227 12.410686 0.446078
366.776245 49.504223 10.487097 0.412010
366.846436 49.436199 8.593340 0.240441
366.776245 49.504227 6.691391 0.436397
366.776245 49.504227 4.810809 0.384314
366.776245 49.504219 2.936268 0.373407
366.776245 49.504219 1.063732 0.355392
354.923340 60.989132 -0.000002 0.535784
343.203308 72.345284 0.000001 0.532475
338.171478 77.220886 -0.000000 0.533946
335.369019 79.936348 0.000001 0.526838
333.579895 81.669930 0.000000 0.519240
332.336304 82.874886 0.000018 0.565931
331.420227 83.762543 -0.000002 0.554167
366.277405 49.434376 16.254486 0.493015
366.206299 49.504227 14.269232 0.409926
366.206299 49.504227 12.336464 0.414093
366.206299 49.504223 10.426588 0.407230
366.366577 49.346779 8.561013 0.678431
366.206299 49.504227 6.657943 0.403431
366.206299 49.504223 4.790770 0.432230
366.206329 49.504215 2.929592 0.401593
366.206329 49.504215 1.070408 0.405515
354.724854 60.785709 -0.000002 0.536029
343.084320 72.223465 0.000007 0.526103
338.086700 77.134048 0.000006 0.512500
335.303253 79.869019 0.000010 0.523529
333.526276 81.615028 0.000006 0.512255
332.291199 82.828583 0.000007 0.527083
331.381256 83.722672 0.000006 0.578431
365.800232 49.348988 16.184566 0.678431
365.644440 49.504223 14.182970 0.409559
365.644440 49.504219 12.263791 0.416667
365.644440 49.504227 10.367340 0.375858
365.800232 49.348999 8.514522 0.678431
365.644440 49.504230 6.625195 0.361275
365.644440 49.504227 4.771148 0.413971
365.644440 49.504230 2.923056 0.405882
365.644440 49.504227 1.076944 0.411397
354.524933 60.583675 -0.000002 0.536520
342.964661 72.102318 -0.000005 0.522304
338.001343 77.047722 -0.000003 0.519730
335.237091 79.802048 -0.000001 0.566912
333.472351 81.560455 -0.000001 0.519730
332.245758 82.782608 -0.000000 0.548774
331.342133 83.682976 -0.000020 0.533088
365.242035 49.351009 16.085503 0.678431
365.090393 49.504223 14.098496 0.403431
365.090393 49.504219 12.192625 0.396324
365.090393 49.504219 10.309325 0.443995
365.242004 49.351017 8.469026 0.678431
365.090393 49.504227 6.593123 0.406005
365.090393 49.504223 4.751934 0.437868
365.090393 49.504223 2.916657 0.416912
365.090393 49.504223 1.083344 0.400490
354.323639 60.383034 -0.000002 0.541789
342.843933 71.982201 0.000006 0.545221
337.915344 76.962105 0.000008 0.548162
335.170471 79.735535 -0.000015 0.532598
333.417938 81.506317 0.000008 0.520343
332.199921 82.737000 0.000008 0.509804
331.302612 83.643661 -0.000008 0.528799
364.691498 49.353035 15.988482 0.678431
364.543945 49.504223 14.015766 0.393137
364.543945 49.504227 12.122926 0.408211
364.543945 49.504219 10.252507 0.400123
364.691498 49.353039 8.424465 0.673529
364.543945 49.504223 6.561716 0.400735
364.543945 49.504223 4.733116 0.419485
364.543945 49.504223 2.910388 0.428309
364.543945 49.504223 1.089611 0.415931
354.120911 60.183823 -0.000002 0.539951
342.722626 71.862694 -0.000011 0.539951
337.828857 76.876930 -0.000009 0.550123
335.103394 79.669495 -0.000028 0.560907
333.363342 81.452393 -0.000026 0.530270
332.153870 82.691650 -0.000003 0.545588
331.262909 83.604546 -0.000023 0.522304
364.148438 49.355080 15.893438 0.678431
364.004883 49.504223 13.934739 0.380392
364.004883 49.504219 12.054665 0.391544
364.004883 49.504219 10.196857 0.390686
364.148438 49.355076 8.380816 0.678431
364.004883 49.504227 6.530955 0.394975
364.004883 49.504219 4.714686 0.443873
364.004883 49.504223 2.904248 0.356985
364.004883 49.504223 1.095750 0.408088
353.916840 59.986012 -0.000003 0.540319
342.600311 71.744255 -0.000002 0.533456
337.741638 76.792526 0.000000 0.526961
335.035767 79.604012 -0.000023 0.524877
333.308197 81.399025 -0.000017 0.531250
332.107483 82.646606 -0.000016 0.496691
331.222839 83.565788 -0.000011 0.508456
363.612640 49.357113 15.800344 0.678431
363.473022 49.504223 13.855374 0.430025
363.473022 49.504223 11.987800 0.414093
363.473022 49.504219 10.142344 0.400980
363.612640 49.357121 8.338060 0.678431
363.346954 49.637039 6.485810 0.330025
363.473022 49.504223 4.696633 0.392525
363.473022 49.504227 2.898235 0.402574
363.473022 49.504227 1.101764 0.404167
353.711395 59.789627 -0.000004 0.533333
342.477112 71.626671 0.000005 0.534559
337.653900 76.708702 0.000007 0.557598
334.967590 79.539139 0.000011 0.545343
333.252686 81.346046 -0.000007 0.512255
332.060730 82.601974 -0.000007 0.506127
331.182465 83.527359 0.000018 0.521691
363.083923 49.359154 15.709141 0.678431
363.083923 49.359154 13.820538 0.484681
362.948151 49.504227 11.922298 0.407843
362.948151 49.504223 10.088947 0.418995
363.083923 49.359158 8.296173 0.678431
363.069031 49.375072 6.485811 0.339706
362.948151 49.504227 4.678948 0.403309
362.948151 49.504219 2.892345 0.390931
362.948151 49.504223 1.107655 0.403922
353.504547 59.594688 -0.000004 0.538235
342.353149 71.509941 0.000013 0.535662
337.565491 76.625534 0.000018 0.531740
334.899017 79.474640 0.000022 0.511520
333.196808 81.293465 0.000004 0.567647
332.013641 82.557678 0.000005 0.521201
331.141907 83.489090 0.000006 0.568873
362.562286 49.361015 15.619845 0.678431
362.562286 49.361023 13.743543 0.678431
362.430145 49.504219 11.858130 0.401348
362.430145 49.504215 10.036634 0.408088
362.562286 49.361019 8.255163 0.678431
362.562286 49.361019 6.458369 0.678431
362.430145 49.504219 4.661623 0.393627
362.430145 49.504223 2.886575 0.396936
362.430115 49.504227 1.113426 0.405760
353.296387 59.401199 -0.000005 0.530760
342.228577 71.393852 -0.000006 0.524142
337.476715 76.542770 -0.000004 0.538480
334.830200 79.410461 0.000002 0.566912
333.140656 81.241135 -0.000017 0.547549
331.966339 82.513603 -0.000013 0.542157
331.101166 83.451088 -0.000013 0.503676
361.951843 49.467827 15.496804 0.446691
361.951843 49.467831 13.637456 0.468382
361.918732 49.504219 11.795259 0.437990
361.918732 49.504223 9.985382 0.388848
361.951843 49.467827 8.198656 0.478186
361.951843 49.467827 6.418093 0.457966
361.918732 49.504223 4.644648 0.437745
361.918732 49.504230 2.880919 0.421446
361.918732 49.504230 1.119080 0.375368
353.086823 59.209171 -0.000004 0.536274
342.102966 71.278854 0.000000 0.529289
337.387299 76.460670 -0.000018 0.529902
334.760712 79.346909 0.000011 0.517770
333.084076 81.189323 -0.000009 0.501716
331.918640 82.469955 -0.000003 0.475980
331.060028 83.413452 -0.000004 0.486397
361.413757 49.504223 15.399676 0.451103
361.538757 49.364929 13.594129 0.678431
361.413757 49.504227 11.733653 0.411029
361.413757 49.504223 9.935162 0.431250
361.413757 49.504227 8.154047 0.404902
361.538757 49.364933 6.401645 0.678431
361.413757 49.504223 4.628016 0.395343
361.413757 49.504227 2.875380 0.399632
361.413757 49.504227 1.124620 0.401716
352.875946 59.018627 -0.000004 0.532230
341.976563 71.164749 0.000008 0.536274
337.297241 76.379356 -0.000010 0.536152
334.690979 79.283737 -0.000002 0.554657
333.027191 81.137825 -0.000021 0.547917
331.870728 82.426575 -0.000015 0.513971
331.018646 83.376114 0.000007 0.519118
360.915100 49.504227 15.316577 0.395098
361.036682 49.366795 13.521688 0.678431
360.915100 49.504227 11.673290 0.407598
360.915100 49.504223 9.885949 0.393995
360.915100 49.504227 8.115883 0.393260
361.036682 49.366802 6.374141 0.678431
360.915100 49.504227 4.611717 0.420221
360.915070 49.504230 2.869951 0.388603
360.915070 49.504230 1.130049 0.408824
352.663757 58.829552 -0.000004 0.536152
341.849579 71.051300 -0.000011 0.529657
337.206573 76.298653 -0.000002 0.542157
334.620667 79.221130 0.000001 0.537010
332.969849 81.086800 -0.000015 0.515196
331.822418 82.383583 -0.000008 0.560049
330.977051 83.338997 -0.000005 0.528554
360.422546 49.504227 15.235145 0.412745
360.540802 49.368675 13.450692 0.678431
360.422546 49.504223 11.614136 0.400735
360.422546 49.504227 9.837725 0.425000
360.422546 49.504227 8.078482 0.389828
360.540802 49.368675 6.347189 0.678431
360.422546 49.504223 4.595748 0.444240
360.422546 49.504223 2.864631 0.431005
360.422546 49.504223 1.135369 0.429289
352.450256 58.641956 -0.000003 0.534436
341.721832 70.938705 -0.000033 0.550245
337.115509 76.218399 -0.000024 0.515686
334.550018 79.158905 -0.000016 0.534681
332.912292 81.036064 -0.000035 0.567402
331.773926 82.340851 -0.000027 0.592402
330.935242 83.302162 -0.000020 0.517402
359.935974 49.504234 15.155333 0.407353
360.050964 49.370541 13.381113 0.678431
359.935974 49.504227 11.556165 0.399020
359.935974 49.504227 9.790464 0.435907
359.935974 49.504227 8.041830 0.407598
360.050964 49.370537 6.320776 0.678431
359.935974 49.504227 4.580094 0.425735
359.935974 49.504230 2.859418 0.361275
359.935974 49.504230 1.140583 0.372181
352.235443 58.455849 -0.000004 0.537132
341.593109 70.827225 -0.000030 0.538725
337.023712 76.138985 -0.000016 0.547672
334.478851 79.097290 -0.000013 0.547426
332.854279 80.985847 -0.000029 0.544730
331.725037 82.298531 -0.000025 0.505270
330.893066 83.265663 -0.000017 0.549387
359.455200 49.504219 15.077121 0.403064
359.567017 49.372402 13.312915 0.678309
359.455200 49.504227 11.499346 0.399632
359.455200 49.504227 9.744144 0.403309
359.455200 49.504230 8.005905 0.409559
359.567017 49.372406 6.294885 0.678431
359.455200 49.504230 4.564754 0.380882
359.455200 49.504230 2.854308 0.400123
359.455200 49.504230 1.145693 0.385049
352.019318 58.271267 -0.000003 0.539216
341.463501 70.716743 -0.000017 0.532475
336.931396 76.060211 -0.000008 0.543260
334.407257 79.036217 -0.000002 0.530270
332.795776 80.936172 0.000010 0.538971
331.675873 82.256584 -0.000012 0.531373
330.850647 83.229500 -0.000004 0.570466
358.980072 49.504227 15.000458 0.396446
359.088867 49.374130 13.246113 0.678431
358.980072 49.504230 11.443657 0.405270
358.980072 49.504230 9.698746 0.402696
358.980072 49.504230 7.970697 0.387623
359.088867 49.374130 6.269523 0.678431
358.980072 49.504234 4.549719 0.402574
358.980072 49.504227 2.849299 0.401838
358.980072 49.504227 1.150700 0.383946
351.801941 58.088169 -0.000004 0.540809
341.333282 70.607033 -0.000018 0.537010
336.838562 75.982018 -0.000008 0.554044
334.335205 78.975632 0.000007 0.534804
332.737091 80.886726 0.000009 0.550490
331.626373 82.214973 -0.000004 0.511029
330.808014 83.193604 -0.000002 0.587990
358.510498 49.504230 14.925312 0.411397
358.616241 49.375988 13.180590 0.678431
358.510498 49.504227 11.389074 0.379289
358.510498 49.504227 9.654247 0.426593
358.510498 49.504230 7.936187 0.408824
358.616241 49.375984 6.244648 0.678431
358.510498 49.504227 4.534981 0.407598
358.510498 49.504230 2.844391 0.412132
358.510498 49.504230 1.155609 0.415809
351.583282 57.906597 -0.000004 0.535539
341.202240 70.498291 -0.000015 0.532966
336.745148 75.904533 -0.000001 0.545221
334.262787 78.915504 0.000009 0.543873
332.678040 80.837746 0.000016 0.542402
331.576691 82.173599 -0.000024 0.526348
330.765137 83.158005 0.000004 0.506740
358.046295 49.504223 14.851660 0.445711
358.149109 49.377705 13.116399 0.678431
358.149139 49.377701 11.365236 0.458211
358.046295 49.504227 9.610630 0.403309
358.046295 49.504227 7.902359 0.395343
358.149139 49.377701 6.220279 0.678431
358.046295 49.504230 4.520535 0.418382
358.046295 49.504227 2.839578 0.419240
358.046295 49.504230 1.160422 0.393505
351.363342 57.726582 -0.000004 0.539338
341.070435 70.390480 -0.000008 0.536887
336.651215 75.827675 0.000003 0.533333
334.189911 78.855927 0.000017 0.507475
332.618713 80.789055 -0.000002 0.544608
331.526672 82.132668 -0.000018 0.520833
330.722015 83.122650 -0.000014 0.471078
357.587311 49.504223 14.779458 0.390319
357.587311 49.504223 13.018931 0.431005
357.687286 49.379421 11.312222 0.678431
357.587311 49.504227 9.567873 0.411152
357.587311 49.504227 7.869201 0.393137
357.687286 49.379417 6.196387 0.678431
357.587311 49.504230 4.506375 0.410784
357.587311 49.504227 2.834862 0.418873
357.587311 49.504227 1.165138 0.407108
351.142181 57.548103 -0.000003 0.533333
340.937866 70.283592 -0.000004 0.529902
336.556732 75.751518 0.000011 0.533088
334.116638 78.796844 0.000023 0.535784
332.558990 80.740883 0.000001 0.529044
331.476318 82.092087 -0.000013 0.534559
330.678650 83.087669 -0.000006 0.545956
357.133423 49.504223 14.708676 0.400980
357.133423 49.504219 12.957903 0.446691
357.230652 49.381134 11.260250 0.678431
357.133423 49.504223 9.525958 0.425613
357.133423 49.504223 7.836694 0.354044
357.230621 49.381142 6.172965 0.678431
357.133423 49.504223 4.492493 0.432598
357.133423 49.504227 2.830237 0.413235
357.133423 49.504227 1.169763 0.437500
350.919739 57.371162 -0.000003 0.533211
340.804840 70.177284 -0.000035 0.532721
336.461914 75.675751 -0.000020 0.555147
334.043213 78.737953 -0.000031 0.548162
332.499023 80.693001 -0.000024 0.525000
331.425812 82.051750 -0.000038 0.558088
330.635040 83.052895 -0.000026 0.561887
356.684540 49.504227 14.639289 0.402941
356.684540 49.504227 12.898072 0.430515
356.779053 49.382832 11.209296 0.678431
356.684540 49.504227 9.484867 0.387377
356.684540 49.504234 7.804825 0.396936
356.779053 49.382839 6.150005 0.678431
356.684540 49.504227 4.478885 0.409191
356.684540 49.504230 2.825704 0.414338
356.684540 49.504230 1.174295 0.381495
350.696106 57.195763 -0.000004 0.540074
340.670746 70.072334 -0.000021 0.525613
336.366364 75.600876 -0.000015 0.549510
333.969116 78.679893 -0.000026 0.528309
332.438599 80.645714 -0.000009 0.574510
331.374847 82.011986 -0.000003 0.539216
330.591187 83.018517 -0.000020 0.538235
356.240479 49.504227 14.571263 0.412010
356.240479 49.504219 12.839422 0.434804
356.332336 49.384541 11.159342 0.678431
356.240479 49.504227 9.444584 0.396569
356.240479 49.504230 7.773584 0.430515
356.332336 49.384544 6.127494 0.678431
356.240479 49.504227 4.465544 0.439093
356.240479 49.504234 2.821261 0.403186
356.240479 49.504234 1.178739 0.414828
350.471191 57.021969 -0.000002 0.535049
340.535980 69.968224 -0.000017 0.538358
336.270447 75.526512 -0.000036 0.535172
333.894623 78.622368 -0.000019 0.524755
332.377869 80.598785 -0.000007 0.522059
331.323669 81.972473 0.000004 0.545221
330.547058 82.984459 -0.000011 0.508578
355.801178 49.504227 14.504578 0.394853
355.801178 49.504219 12.781919 0.394975
355.828705 49.467812 11.091753 0.500245
355.801178 49.504223 9.405092 0.384804
355.801178 49.504230 7.742956 0.396078
355.828705 49.467823 6.097036 0.499142
355.801178 49.504230 4.452464 0.402451
355.801178 49.504230 2.816905 0.417034
355.801178 49.504234 1.183095 0.381250
350.245148 56.849709 -0.000003 0.537868
340.400482 69.865089 -0.000011 0.546936
336.173889 75.452972 -0.000032 0.538235
333.819702 78.565353 -0.000015 0.549510
332.316803 80.552330 0.000002 0.538971
331.272247 81.933311 0.000010 0.488603
330.502777 82.950615 -0.000032 0.549265
355.366455 49.504227 14.439194 0.401838
355.366455 49.504227 12.725542 0.401225
355.453247 49.387821 11.062370 0.678431
355.366486 49.504227 9.366373 0.430637
355.366455 49.504227 7.712928 0.404902
355.453247 49.387825 6.083795 0.678431
355.366455 49.504230 4.439641 0.378676
355.366455 49.504234 2.812632 0.418260
355.366455 49.504230 1.187367 0.393995
350.017853 56.679058 -0.000002 0.537868
340.264343 69.762817 -0.000013 0.545833
336.076843 75.380112 -0.000030 0.540931
333.744446 78.508835 -0.000014 0.521936
332.255432 80.506248 0.000004 0.528554
331.220612 81.894394 -0.000017 0.557108
330.458191 82.917137 -0.000032 0.561765
354.936279 49.504227 14.375092 0.411152
354.936279 49.504227 12.670270 0.436152
355.020569 49.389496 11.015292 0.678431
354.936279 49.504227 9.328409 0.398897
354.936279 49.504230 7.683488 0.393015
355.020569 49.389500 6.062582 0.678431
354.936279 49.504227 4.427069 0.419240
354.936279 49.504227 2.808445 0.411887
354.936279 49.504227 1.191555 0.400613
349.789429 56.509979 -0.000003 0.531618
340.127380 69.661583 -0.000006 0.542770
335.979248 75.307938 -0.000026 0.529289
333.668762 78.452858 -0.000010 0.530270
332.193726 80.460632 0.000009 0.524510
331.168610 81.855995 -0.000003 0.542279
330.413361 82.884003 -0.000026 0.556373
354.510498 49.504227 14.312245 0.391667
354.510498 49.504227 12.616082 0.396324
354.592407 49.391071 10.969152 0.678431
354.510498 49.504230 9.291193 0.378922
354.510498 49.504230 7.654624 0.351225
354.592407 49.391068 6.041789 0.678431
354.510498 49.504230 4.414743 0.386275
354.510498 49.504227 2.804340 0.405760
354.510498 49.504227 1.195661 0.367157
349.559784 56.342510 -0.000003 0.536274
339.989838 69.561249 -0.000006 0.544240
335.881165 75.236404 -0.000028 0.534314
333.592712 78.397415 -0.000006 0.539951
332.131805 80.415291 -0.000019 0.546569
331.116364 81.817902 -0.000002 0.521201
330.368317 82.851151 -0.000025 0.525980
354.088959 49.504234 14.250622 0.382966
354.088989 49.504230 12.562949 0.363235
354.168579 49.392639 10.923916 0.678431
354.088989 49.504223 9.254704 0.407353
354.088989 49.504230 7.626326 0.436152
354.168579 49.392639 6.021403 0.678431
354.088989 49.504234 4.402658 0.378676
354.088989 49.504230 2.800314 0.406985
354.088989 49.504234 1.199686 0.401838
349.328979 56.176632 -0.000003 0.537745
339.851593 69.461823 -0.000010 0.523897
335.782562 75.165634 -0.000019 0.540809
333.516296 78.342461 -0.000010 0.529534
332.069519 80.370499 -0.000021 0.514951
331.063873 81.780182 -0.000001 0.555147
330.322998 82.818726 0.000006 0.534926
353.671600 49.504230 14.190210 0.425245
353.671600 49.504223 12.510862 0.418015
353.762390 49.375095 10.883808 0.307721
353.671600 49.504223 9.218927 0.396078
353.671600 49.504230 7.598578 0.431863
353.762390 49.375092 6.003330 0.311152
353.671600 49.504227 4.390810 0.417034
353.671600 49.504227 2.796368 0.400858
353.671600 49.504227 1.203633 0.397181
349.097046 56.012383 -0.000004 0.545343
339.712616 69.363403 -0.000010 0.530270
335.683533 75.095490 -0.000020 0.529289
333.439453 78.288055 -0.000011 0.562745
332.006866 80.326164 -0.000018 0.528064
331.011108 81.742821 -0.000001 0.538725
330.277496 82.786522 0.000008 0.573407
353.258362 49.504230 14.130977 0.402328
353.258362 49.504219 12.459791 0.416422
353.333466 49.395763 10.836066 0.673897
353.258362 49.504227 9.183849 0.407966
353.258362 49.504230 7.571373 0.399142
353.333466 49.395767 5.981818 0.673897
353.258362 49.504234 4.379192 0.433088
353.258362 49.504230 2.792498 0.469240
353.258362 49.504230 1.207503 0.421446
348.863953 55.849743 -0.000004 0.534314
339.573090 69.265747 -0.000034 0.520956
335.583954 75.026070 -0.000016 0.519975
333.362335 78.234085 -0.000032 0.521201
331.943939 80.282265 -0.000015 0.507230
330.958099 81.705864 0.000007 0.525613
330.231750 82.754677 0.000024 0.534069
352.849060 49.504227 14.072904 0.406005
352.849060 49.504223 12.409716 0.410417
352.873901 49.467827 10.777893 0.481373
352.849060 49.504230 9.149459 0.414706
352.849060 49.504227 7.544703 0.399387
352.873901 49.467831 5.955601 0.457721
352.849060 49.504227 4.367802 0.400490
352.849060 49.504234 2.788703 0.402206
352.849060 49.504234 1.211296 0.392402
348.629730 55.688759 -0.000004 0.532475
339.432800 69.169281 -0.000034 0.540074
335.483917 74.957344 -0.000012 0.545343
333.284790 78.180756 -0.000034 0.530147
331.880707 80.238815 -0.000011 0.556005
330.904785 81.669243 0.000009 0.538235
330.185883 82.723022 -0.000001 0.513235
352.443665 49.504223 14.015966 0.389093
352.443665 49.504223 12.360622 0.382966
352.514465 49.398857 10.751616 0.678431
352.443665 49.504223 9.115743 0.399020
352.443665 49.504230 7.518554 0.416299
352.514465 49.398853 5.943760 0.678431
352.443665 49.504227 4.356636 0.404044
352.443665 49.504238 2.784983 0.401593
352.443665 49.504238 1.215016 0.401103
348.394409 55.529373 -0.000005 0.539093
339.291809 69.073753 -0.000039 0.535294
335.383423 74.889259 -0.000017 0.527941
333.206818 78.128021 -0.000025 0.504534
331.817169 80.195778 -0.000016 0.508211
330.851349 81.632866 -0.000024 0.565686
330.139740 82.691750 -0.000004 0.536152
352.042023 49.504230 13.960142 0.422917
352.042053 49.504219 12.312489 0.396446
352.110779 49.400391 10.710623 0.678431
352.042053 49.504223 9.082684 0.429044
352.042023 49.504227 7.492916 0.409681
352.110779 49.400391 5.925287 0.678431
352.042023 49.504230 4.345686 0.405637
352.042023 49.504230 2.781338 0.405147
352.042023 49.504230 1.218663 0.400000
348.157928 55.371685 -0.000004 0.538358
339.150146 68.979256 -0.000040 0.541667
335.282471 74.821907 -0.000018 0.521569
333.128510 78.075783 -0.000026 0.535907
331.753296 80.153206 -0.000012 0.538848
330.797577 81.597008 -0.000022 0.525858
330.093353 82.660828 -0.000002 0.515564
351.644104 49.504227 13.905416 0.405882
351.644104 49.504227 12.265298 0.393137
351.710815 49.401909 10.670435 0.678431
351.644104 49.504227 9.050273 0.394485
351.644104 49.504230 7.467780 0.400123
351.710815 49.401917 5.907177 0.678431
351.644104 49.504227 4.334954 0.406740
351.644104 49.504227 2.777763 0.432598
351.644104 49.504230 1.222238 0.436152
347.920410 55.215633 -0.000004 0.531373
339.007782 68.885803 -0.000034 0.544608
335.181000 74.755325 -0.000009 0.548162
333.049805 78.024147 -0.000017 0.519240
331.689178 80.111099 -0.000008 0.556985
330.743530 81.561539 -0.000014 0.551593
330.046753 82.630249 0.000005 0.518260
351.249786 49.504227 13.851759 0.414706
351.249786 49.504223 12.219033 0.406985
351.314545 49.403358 10.631043 0.678431
351.249786 49.504227 9.018497 0.408824
351.249786 49.504230 7.443138 0.388603
351.314545 49.403362 5.889426 0.678431
351.249786 49.504234 4.324430 0.435907
351.249786 49.504234 2.774256 0.407843
351.249786 49.504238 1.225744 0.424510
347.681793 55.061222 -0.000005 0.533824
338.864502 68.793785 0.000012 0.532353
335.079102 74.689400 -0.000009 0.537255
332.970764 77.973022 -0.000017 0.571324
331.624695 80.069481 0.000007 0.526348
330.689240 81.526413 -0.000016 0.505760
329.999939 82.599976 0.000009 0.469730
350.887207 49.459579 13.812388 0.491789
350.858978 49.504230 12.173678 0.395711
350.858978 49.504230 10.571021 0.413848
350.858978 49.504227 8.987349 0.412010
350.858978 49.504238 7.418979 0.400980
350.921783 49.404873 5.872017 0.678431
350.858978 49.504227 4.314114 0.411029
350.858978 49.504230 2.770821 0.418260
350.858978 49.504230 1.229179 0.399142
347.442108 54.908497 -0.000005 0.541912
338.720886 68.702278 0.000013 0.527451
334.976746 74.624176 -0.000009 0.544608
332.891388 77.922440 -0.000017 0.568995
331.559967 80.028244 0.000007 0.539093
330.634705 81.491692 -0.000012 0.500245
329.952911 82.570030 0.000010 0.601716
350.532562 49.406303 13.776483 0.678431
350.471619 49.504230 12.129215 0.411642
350.471619 49.504230 10.533564 0.416176
350.471619 49.504230 8.956810 0.369240
350.471619 49.504234 7.395297 0.402819
350.532562 49.406311 5.854956 0.678431
350.471619 49.504227 4.303999 0.360294
350.471619 49.504230 2.767452 0.400490
350.471619 49.504234 1.232549 0.378554
347.201355 54.757458 -0.000005 0.538358
338.576721 68.611671 0.000002 0.540686
334.873962 74.559578 -0.000022 0.546446
332.811676 77.872360 -0.000026 0.554657
331.495087 79.987274 -0.000034 0.552819
330.579987 81.457283 -0.000025 0.568873
329.905792 82.540260 -0.000032 0.540196
350.146729 49.407791 13.725370 0.678431
350.087585 49.504230 12.085629 0.400858
350.087585 49.504227 10.496843 0.427451
350.091553 49.497757 8.928001 0.395098
350.087585 49.504223 7.372081 0.408578
350.146729 49.407795 5.838226 0.678431
350.087585 49.504230 4.294085 0.386029
350.087585 49.504234 2.764150 0.406863
350.087585 49.504234 1.235851 0.403186
346.959534 54.608120 -0.000004 0.535049
338.431824 68.522247 0.000008 0.528064
334.770813 74.495628 -0.000044 0.519730
332.731567 77.822929 -0.000020 0.544730
331.429810 79.946976 -0.000027 0.514951
330.524902 81.423393 -0.000004 0.552819
329.858368 82.511002 -0.000023 0.569608
349.736603 49.454964 13.661899 0.287255
349.706879 49.504227 12.042903 0.401471
349.706879 49.504230 10.460849 0.429167
349.736603 49.454952 8.906066 0.290196
349.706879 49.504234 7.349322 0.410784
349.736572 49.454971 5.817448 0.292279
349.706879 49.504234 4.284367 0.394730
349.706879 49.504234 2.760912 0.419975
349.706879 49.504234 1.239088 0.407230
346.716675 54.460453 -0.000002 0.530882
338.286285 68.433800 0.000010 0.542157
334.667145 74.432564 -0.000045 0.549265
332.651154 77.774025 -0.000020 0.511765
331.364227 79.907120 -0.000024 0.510907
330.469666 81.389832 0.000002 0.556618
329.810699 82.482040 -0.000023 0.527083
349.384918 49.410633 13.626182 0.678431
349.329315 49.504227 12.001023 0.398039
349.329315 49.504227 10.425566 0.412500
349.384918 49.410637 8.884913 0.678431
349.329285 49.504230 7.327015 0.399265
349.384918 49.410637 5.805756 0.678431
349.329285 49.504230 4.274842 0.397917
349.329285 49.504230 2.757738 0.421936
349.329285 49.504234 1.242261 0.417157
346.472809 54.314472 -0.000004 0.542892
338.140167 68.346344 0.000010 0.537377
334.562988 74.370232 -0.000044 0.526716
332.570374 77.725700 -0.000016 0.531127
331.298370 79.867706 -0.000025 0.539828
330.414215 81.356613 0.000000 0.530637
329.762848 82.453468 -0.000006 0.526471
349.008728 49.412079 13.578045 0.678431
348.954865 49.504227 11.959976 0.404167
348.954865 49.504227 10.390984 0.409804
349.008728 49.412083 8.856406 0.678431
348.954865 49.504227 7.305151 0.422426
349.008728 49.412083 5.789999 0.678431
348.954865 49.504234 4.265505 0.407108
348.954865 49.504234 2.754629 0.395098
348.954865 49.504234 1.245371 0.401103
346.227936 54.170189 -0.000004 0.538480
337.993530 68.259758 -0.000003 0.545466
334.458435 74.308533 -0.000056 0.523652
332.489319 77.677834 -0.000031 0.525735
331.232300 79.828690 -0.000039 0.563603
330.358612 81.323639 -0.000041 0.531127
329.714844 82.425133 -0.000018 0.499632
348.635712 49.413475 13.530873 0.678431
348.583496 49.504227 11.919744 0.403431
348.583496 49.504227 10.357089 0.385294
348.635712 49.413479 8.828470 0.678431
348.583496 49.504234 7.283721 0.408456
348.635712 49.413475 5.774558 0.678431
348.583496 49.504234 4.256353 0.447917
348.583496 49.504230 2.751581 0.428676
348.583496 49.504230 1.248420 0.367647
345.982056 54.027649 -0.000004 0.537255
337.846222 68.174370 -0.000002 0.534314
334.353455 74.247658 -0.000057 0.529412
332.407898 77.630630 -0.000031 0.526593
331.165894 79.790215 -0.000035 0.567034
330.302673 81.291214 -0.000042 0.555882
329.666626 82.397186 -0.000015 0.548774
348.265656 49.414867 13.484642 0.678431
348.215057 49.504234 11.880314 0.423529
348.215057 49.504230 10.323873 0.369240
348.265656 49.414871 8.801095 0.678431
348.215057 49.504230 7.262721 0.390686
348.265656 49.414864 5.759424 0.678431
348.215057 49.504230 4.247385 0.444485
348.215057 49.504238 2.748593 0.400368
348.215057 49.504242 1.251407 0.417402
345.735199 53.886795 -0.000005 0.533088
337.698303 68.089989 -0.000002 0.539338
334.248016 74.187515 -0.000057 0.532353
332.326233 77.583809 -0.000061 0.522304
331.099243 79.752190 -0.000035 0.531618
330.246490 81.259178 -0.000039 0.521936
329.618195 82.369568 -0.000014 0.562623
347.869843 49.467823 13.424545 0.505637
347.849548 49.504227 11.841677 0.408578
347.849548 49.504227 10.291321 0.392279
347.869843 49.467815 8.765508 0.476225
347.849548 49.504238 7.242137 0.398284
347.869843 49.467827 5.739753 0.461275
347.849548 49.504230 4.238596 0.427083
347.849548 49.504230 2.745665 0.419608
347.849548 49.504230 1.254334 0.347181
345.487366 53.747700 -0.000005 0.530270
337.549805 68.006653 -0.000001 0.537745
334.142212 74.128105 -0.000056 0.543382
332.244141 77.537727 -0.000062 0.512377
331.032318 79.714661 -0.000031 0.518015
330.190125 81.227547 -0.000039 0.523162
329.569580 82.342293 -0.000012 0.530882
347.534302 49.417606 13.394938 0.678431
347.486847 49.504227 11.803815 0.423775
347.486847 49.504223 10.259424 0.446936
347.534302 49.417610 8.747972 0.678431
347.486847 49.504223 7.221973 0.405270
347.486847 49.504230 5.721962 0.433946
347.486847 49.504223 4.229984 0.432230
347.486847 49.504227 2.742796 0.400490
347.486847 49.504227 1.257203 0.430270
345.238525 53.610329 -0.000004 0.534559
337.400818 67.924217 -0.000014 0.518382
334.035797 74.069710 -0.000021 0.539338
332.161774 77.492142 -0.000077 0.521201
330.965179 79.677475 -0.000049 0.533088
330.133575 81.196228 -0.000056 0.509314
329.520874 82.315193 -0.000057 0.505270
347.172852 49.418968 13.351433 0.678431
347.126953 49.504227 11.766719 0.390196
347.126953 49.504227 10.228170 0.393505
347.172852 49.418968 8.722212 0.678431
347.126953 49.504230 7.202213 0.409681
347.126953 49.504230 5.707879 0.400000
347.126953 49.504227 4.221546 0.406127
347.126953 49.504230 2.739986 0.408088
347.126953 49.504234 1.260014 0.396201
344.988739 53.474709 -0.000004 0.538113
337.251190 67.842964 -0.000013 0.544608
333.929108 74.011787 -0.000021 0.519975
332.079071 77.447235 -0.000075 0.534069
330.897766 79.640854 -0.000049 0.541789
330.076752 81.165390 -0.000052 0.478922
329.471893 82.288589 -0.000057 0.547794
346.789001 49.467827 13.295342 0.506863
346.769745 49.504227 11.730375 0.418505
346.769745 49.504227 10.197551 0.387010
346.789001 49.467823 8.688993 0.479289
346.769714 49.504230 7.182855 0.408578
346.769714 49.504234 5.694080 0.403309
346.769745 49.504223 4.213280 0.391176
346.769714 49.504230 2.737233 0.389461
346.769714 49.504230 1.262767 0.417770
344.738068 53.340794 -0.000005 0.529044
337.100952 67.762756 -0.000012 0.543873
333.822052 73.954620 -0.000021 0.521078
331.996002 77.402885 -0.000076 0.541544
330.830048 79.604729 -0.000045 0.561397
330.019745 81.134949 -0.000050 0.545711
329.422699 82.262352 -0.000054 0.539583
346.458130 49.421646 13.267053 0.678431
346.415131 49.504227 11.694769 0.357108
346.415131 49.504223 10.167556 0.334191
346.458099 49.421661 8.672239 0.678431
346.415131 49.504223 7.163890 0.440074
346.415131 49.504227 5.680563 0.390074
346.415131 49.504227 4.205181 0.397059
346.415131 49.504230 2.734535 0.381127
346.415131 49.504230 1.265465 0.406740
344.486420 53.208660 -0.000005 0.540319
336.949951 67.683990 0.000025 0.534926
333.714447 73.898468 0.000015 0.534436
331.912598 77.359344 -0.000040 0.543015
330.762024 79.569229 -0.000009 0.522426
329.962402 81.105049 -0.000012 0.534314
329.373291 82.236557 -0.000019 0.514706
346.104675 49.422985 13.226143 0.678431
346.063110 49.504223 11.659894 0.392034
346.063110 49.504227 10.138173 0.405760
346.104675 49.422989 8.648015 0.678431
346.063110 49.504227 7.145312 0.400000
346.063110 49.504234 5.667323 0.407353
346.063110 49.504227 4.197248 0.403309
346.063110 49.504227 2.731892 0.407353
346.063110 49.504227 1.268108 0.406005
344.233887 53.078312 -0.000005 0.533088
336.798706 67.605812 0.000018 0.536642
333.606628 73.842766 0.000011 0.520588
331.828796 77.316437 0.000005 0.538603
330.693939 79.533844 -0.000047 0.504779
329.904968 81.075363 -0.000020 0.538848
329.323761 82.210968 -0.000023 0.561029
345.729980 49.471603 13.172813 0.361520
345.713562 49.504223 11.625737 0.357721
345.713562 49.504227 10.109396 0.419485
345.729980 49.471603 8.616434 0.387623
345.713562 49.504234 7.127118 0.333701
345.713562 49.504234 5.654356 0.381985
345.713562 49.504234 4.189478 0.371569
345.713562 49.504238 2.729304 0.392770
345.713562 49.504238 1.270696 0.396936
343.980408 52.949718 -0.000003 0.537623
336.646912 67.528580 0.000002 0.534314
333.498474 73.787720 -0.000005 0.504412
331.744904 77.273735 -0.000012 0.546446
330.625549 79.499046 -0.000063 0.525123
329.847351 81.046059 -0.000032 0.524387
329.274078 82.185692 -0.000038 0.539828
345.774994 48.677834 13.355780 0.678431
345.695007 48.839638 11.752399 0.396078
345.695007 48.839653 10.216105 0.404534
345.774994 48.677841 8.724783 0.678431
345.695007 48.839649 7.194585 0.423529
345.695007 48.839645 5.702441 0.407230
345.695007 48.839645 4.218288 0.403064
345.695007 48.839649 2.738902 0.375245
345.695007 48.839649 1.261099 0.407353
343.726074 52.822880 -0.000004 0.533088
336.494507 67.452621 0.000005 0.546691
333.389832 73.733566 -0.000005 0.545098
331.660645 77.231728 -0.000013 0.527941
330.556854 79.464798 -0.000064 0.551348
329.789490 81.017204 -0.000034 0.511029
329.224213 82.160820 -0.000038 0.542770
345.774963 47.953346 13.518744 0.676348
345.695007 48.118038 11.892354 0.413358
345.695007 48.118042 10.334015 0.407598
345.774963 47.953354 8.821287 0.678431
345.695007 48.118042 7.269132 0.404044
345.774963 47.953354 5.770587 0.678431
345.695007 48.118053 4.250123 0.418505
345.695007 48.118050 2.749504 0.415196
345.695007 48.118050 1.250495 0.388725
343.470856 52.697826 -0.000004 0.533088
336.341614 67.377701 0.000005 0.530025
333.280823 73.680176 -0.000003 0.538848
331.576141 77.190315 -0.000011 0.530025
330.487915 79.431122 -0.000045 0.537132
329.731445 80.988770 -0.000032 0.547549
329.174164 82.136299 -0.000036 0.552206
345.774994 47.207741 13.687032 0.678431
345.694977 47.375397 12.036880 0.405270
345.694977 47.375397 10.455771 0.393627
345.774994 47.207733 8.920949 0.559191
345.694977 47.375404 7.346114 0.421691
345.774994 47.207741 5.825675 0.678431
345.694977 47.375404 4.282996 0.398897
345.694977 47.375404 2.760455 0.394730
345.694977 47.375404 1.239545 0.402206
343.214752 52.574562 -0.000005 0.534559
336.188171 67.303787 0.000000 0.547917
333.171509 73.627480 -0.000010 0.549755
331.491302 77.149597 0.000005 0.539706
330.418762 79.397812 -0.000051 0.525123
329.673218 80.960632 -0.000054 0.548407
329.123932 82.112099 -0.000042 0.538480
345.692841 46.615337 13.812387 0.445221
345.695007 46.610676 12.186198 0.410049
345.695007 46.610687 10.581568 0.417892
345.695007 46.610683 8.995946 0.401103
345.695007 46.610687 7.425646 0.395956
345.755402 46.481724 5.878809 0.242770
345.695007 46.610695 4.316960 0.402819
345.695007 46.610687 2.771768 0.419363
345.695007 46.610687 1.228231 0.436887
342.957794 52.453068 -0.000005 0.538235
336.034271 67.231018 0.000001 0.521201
333.061676 73.575798 0.000014 0.536152
331.406189 77.109375 0.000006 0.533946
330.349396 79.365021 -0.000050 0.524265
329.614807 80.933006 -0.000053 0.549020
329.073486 82.088348 -0.000021 0.537990
345.695007 45.822849 13.992670 0.375368
345.695007 45.822842 12.340534 0.401225
345.774963 45.648987 10.746413 0.678431
345.695007 45.822842 9.101946 0.393750
345.695007 45.822845 7.507853 0.400613
345.774963 45.648991 5.941417 0.678431
345.695007 45.822853 4.352065 0.448652
345.695007 45.822849 2.783462 0.419975
345.695007 45.822849 1.216538 0.410294
342.700012 52.333408 -0.000004 0.536274
335.879883 67.159111 -0.000017 0.538113
332.951660 73.524536 -0.000004 0.528309
331.320862 77.069633 -0.000010 0.546201
330.279724 79.332878 -0.000015 0.518873
329.556152 80.905716 -0.000069 0.562990
329.022980 82.064819 -0.000037 0.548039
345.695007 45.010719 14.177774 0.415441
345.695007 45.010715 12.500139 0.420833
345.774994 44.833611 10.881415 0.678431
345.695007 45.010712 9.211563 0.413113
345.695007 45.010712 7.592867 0.404902
345.774994 44.833614 6.002252 0.678431
345.695007 45.010715 4.388370 0.394975
345.695007 45.010715 2.795554 0.400368
345.695007 45.010715 1.204445 0.384804
342.441406 52.215523 -0.000005 0.534191
335.724792 67.088837 0.000014 0.574755
332.841095 73.474449 0.000026 0.536887
331.235138 77.030785 0.000021 0.537868
330.209808 79.301208 0.000017 0.539583
329.497284 80.879036 -0.000038 0.503309
328.972260 82.041679 -0.000042 0.547181
345.695007 44.173092 14.369302 0.435294
345.695007 44.173084 12.665280 0.393627
345.774963 43.992641 11.021092 0.678431
345.695007 44.173088 9.324982 0.405147
345.695007 44.173096 7.680828 0.406373
345.774963 43.992641 6.065195 0.678431
345.695007 44.173096 4.425933 0.406250
345.695007 44.173088 2.808068 0.393015
345.695007 44.173088 1.191933 0.410662
342.181976 52.099438 -0.000005 0.537745
335.569336 67.019310 0.000016 0.538358
332.730347 73.424889 0.000027 0.527451
331.149170 76.992363 0.000023 0.532843
330.139771 79.269875 0.000016 0.514951
329.438263 80.852631 -0.000036 0.559559
328.921356 82.018929 -0.000041 0.522917
345.695007 43.308632 14.567568 0.409681
345.695007 43.308636 12.836231 0.421936
345.774994 43.124733 11.165693 0.678431
345.695007 43.308640 9.442392 0.387745
345.695007 43.308632 7.771887 0.377451
345.774994 43.124737 6.130357 0.678431
345.695007 43.308643 4.464818 0.437255
345.695007 43.308636 2.821019 0.417647
345.695007 43.308636 1.178981 0.418873
341.921722 51.985168 -0.000006 0.538235
335.413513 66.950630 -0.000005 0.541789
332.619202 73.376060 0.000022 0.538358
331.063019 76.954491 0.000019 0.568015
330.069519 79.238991 0.000010 0.545221
329.379089 80.826622 -0.000042 0.560172
328.870331 81.996506 -0.000044 0.589951
345.695007 42.415993 14.772927 0.402941
345.694977 42.415997 13.013297 0.357966
345.720581 42.356030 11.290239 0.472794
345.694977 42.415993 9.564005 0.387132
345.694977 42.415997 7.866198 0.401838
345.720581 42.356033 6.186482 0.448652
345.695007 42.415993 4.505094 0.433946
345.695007 42.415993 2.834436 0.415441
345.695007 42.415993 1.165565 0.430637
341.660706 51.872723 -0.000006 0.532353
335.257202 66.883041 -0.000025 0.529657
332.507935 73.327599 -0.000034 0.539828
330.976624 76.917130 -0.000002 0.518995
329.999084 79.208557 -0.000006 0.531005
329.319733 80.800972 -0.000061 0.543750
328.819183 81.974373 -0.000066 0.547917
345.695007 41.493626 14.985751 0.400123
345.720581 41.432491 13.211120 0.442402
345.695007 41.493629 11.432975 0.409926
345.695007 41.493629 9.690039 0.398652
345.695007 41.493637 7.963943 0.419608
345.720581 41.432491 6.256238 0.414951
345.695007 41.493637 4.546834 0.409926
345.695007 41.493641 2.848339 0.402696
345.695007 41.493645 1.151661 0.384314
341.398895 51.762135 -0.000005 0.531740
335.100403 66.816689 -0.000031 0.533701
332.396149 73.280304 -0.000040 0.564583
330.889923 76.880463 -0.000007 0.532230
329.928406 79.178650 -0.000013 0.506127
329.260193 80.775772 -0.000069 0.517647
328.767822 81.952652 -0.000071 0.520956
345.695007 40.539978 15.206439 0.406373
345.721893 40.474422 13.402396 0.238480
345.695007 40.539974 11.593287 0.375245
345.695007 40.539986 9.820728 0.401471
345.695007 40.539978 8.065300 0.412868
345.721893 40.474426 6.328856 0.232230
345.695007 40.539986 4.590117 0.398039
345.695007 40.539974 2.862757 0.376348
345.695007 40.539974 1.137244 0.391912
341.136322 51.653370 -0.000005 0.541299
334.943054 66.751541 -0.000029 0.535417
332.283997 73.233871 -0.000038 0.538480
330.803070 76.844215 -0.000043 0.548652
329.857513 79.149292 -0.000011 0.548897
329.200378 80.751282 -0.000011 0.539216
328.716339 81.931328 -0.000068 0.519485
345.695007 39.553295 15.435431 0.425735
345.719513 39.492416 13.598707 0.244853
345.695007 39.553288 11.759629 0.398775
345.695007 39.553291 9.956334 0.402696
345.695007 39.553291 8.170469 0.398407
345.719513 39.492424 6.403383 0.239583
345.695007 39.553291 4.635027 0.398162
345.695007 39.553291 2.877716 0.389828
345.695007 39.553295 1.122285 0.371201
340.872986 51.546421 -0.000005 0.535784
334.785156 66.687828 0.000003 0.541299
332.171448 73.188477 -0.000005 0.541912
330.715759 76.809013 -0.000009 0.537868
329.786346 79.120598 0.000024 0.532966
329.140442 80.727089 0.000020 0.504779
328.664642 81.910477 -0.000036 0.514461
345.713379 38.485134 15.685727 0.268995
345.713379 38.485138 13.800348 0.267647
345.695007 38.531742 11.932328 0.412745
345.695007 38.531738 10.097127 0.405270
345.713348 38.485142 8.285420 0.262377
345.713379 38.485134 6.479935 0.261029
345.695007 38.531742 4.681655 0.407353
345.695007 38.531742 2.893248 0.399877
345.695007 38.531742 1.106753 0.403309
340.608917 51.441307 -0.000006 0.532721
334.626923 66.624870 0.000005 0.524632
332.058655 73.143608 -0.000002 0.540564
330.628296 76.774208 -0.000008 0.534804
329.715057 79.092232 0.000025 0.550735
329.080353 80.703178 0.000019 0.533456
328.612823 81.889870 -0.000034 0.529657
345.722717 37.401588 15.939443 0.475858
345.695007 37.473339 14.002503 0.403309
345.695007 37.473343 12.111754 0.416054
345.695007 37.473347 10.243396 0.400000
345.722687 37.401592 8.401945 0.471691
345.695007 37.473339 6.556682 0.405147
345.695007 37.473339 4.730101 0.417402
345.695007 37.473343 2.909383 0.417647
345.695007 37.473343 1.090616 0.407230
340.344116 51.338051 -0.000005 0.537745
334.468384 66.562668 -0.000025 0.539583
331.945679 73.099281 -0.000031 0.524632
330.540649 76.739830 -0.000035 0.526348
329.643616 79.064209 -0.000002 0.544853
329.020172 80.679581 -0.000004 0.531985
328.560852 81.869705 -0.000011 0.530025
351.993835 19.709534 20.639889 0.677941
351.993835 19.709541 18.072018 0.678431
351.993835 19.709541 15.540197 0.678431
351.963623 19.789562 13.025678 0.419730
351.963623 19.789570 10.550870 0.382475
351.963623 19.789547 8.094637 0.410172
351.963623 19.789547 5.651554 0.401225
351.963623 19.789562 3.216316 0.417647
351.963623 19.789562 0.783685 0.419240
340.078613 51.236622 -0.000006 0.534804
334.309296 66.501945 -0.000022 0.541544
331.832306 73.056007 -0.000027 0.530147
330.452728 76.706261 -0.000033 0.539338
329.571899 79.036835 -0.000002 0.499142
328.959778 80.656525 -0.000004 0.517157
328.508789 81.849823 -0.000007 0.541422
351.439911 19.709536 20.591293 0.677451
351.439911 19.709543 18.030109 0.678431
351.410309 19.789537 15.489376 0.402451
351.410278 19.789566 12.996928 0.418382
351.410309 19.789553 10.528578 0.416176
351.410309 19.789545 8.078746 0.407843
351.410278 19.789558 5.642031 0.407966
351.410309 19.789545 3.213144 0.375123
351.410309 19.789553 0.786857 0.396569
339.812408 51.137070 -0.000007 0.534804
334.149811 66.442261 -0.000026 0.546446
331.718628 73.013443 -0.000033 0.526716
330.364563 76.673256 -0.000039 0.537132
329.500122 79.009750 -0.000043 0.537623
328.899231 80.633850 -0.000011 0.548039
328.456573 81.830284 -0.000013 0.508946
350.868011 19.767059 20.528522 0.462745
350.868011 19.767059 17.975990 0.433333
350.859894 19.789558 15.454946 0.442770
350.859894 19.789551 12.968866 0.405270
350.859894 19.789551 10.506812 0.405024
350.859894 19.789551 8.063232 0.431250
350.859894 19.789536 5.632739 0.410784
350.859894 19.789558 3.210049 0.406495
350.859894 19.789558 0.789952 0.376226
339.545502 51.039394 -0.000005 0.534804
333.989899 66.383751 -0.000024 0.546691
331.604645 72.971748 -0.000031 0.527206
330.276184 76.640915 -0.000037 0.554902
329.428040 78.983383 -0.000041 0.569853
328.838501 80.611649 -0.000006 0.557966
328.404236 81.811134 -0.000010 0.517524
350.340546 19.709538 20.497541 0.678431
350.312225 19.789524 17.930950 0.411152
350.312225 19.789539 15.421351 0.424387
350.312195 19.789555 12.941474 0.399142
350.312195 19.789555 10.485569 0.395833
350.312225 19.789547 8.048092 0.391667
350.312195 19.789555 5.623666 0.403554
350.312225 19.789555 3.207027 0.401716
350.312225 19.789547 0.792973 0.400000
339.277924 50.943565 -0.000005 0.539951
333.829437 66.326729 0.000010 0.540196
331.490265 72.931099 0.000003 0.536029
330.187469 76.609390 -0.000004 0.532721
329.355774 78.957672 -0.000009 0.515564
328.777679 80.589828 -0.000012 0.552941
328.351715 81.792473 0.000025 0.532721
349.794952 19.709532 20.452362 0.678431
349.767273 19.789545 17.892040 0.405637
349.767273 19.789537 15.388574 0.398284
349.767273 19.789545 12.914752 0.425735
349.767273 19.789553 10.464847 0.432475
349.767273 19.789553 8.033321 0.406618
349.767273 19.789545 5.614817 0.432230
349.767273 19.789560 3.204079 0.409436
349.767273 19.789560 0.795922 0.397426
339.009705 50.849602 -0.000006 0.534559
333.668854 66.270081 -0.000021 0.529534
331.375824 72.890717 -0.000029 0.537623
330.098694 76.578072 -0.000036 0.546446
329.283386 78.932144 -0.000039 0.537868
328.716675 80.568321 -0.000041 0.559926
328.299164 81.773933 -0.000006 0.509926
349.252014 19.709555 20.408300 0.624142
349.224945 19.789547 17.854090 0.436642
349.224945 19.789562 15.356599 0.437255
349.224945 19.789547 12.888692 0.403922
349.224945 19.789555 10.444633 0.415441
349.224945 19.789547 8.018914 0.430147
349.224945 19.789555 5.606184 0.406127
349.224945 19.789539 3.201204 0.410294
349.224945 19.789539 0.798796 0.412255
338.740784 50.757515 -0.000007 0.534069
333.507751 66.214943 -0.000019 0.539093
331.260986 72.851418 -0.000026 0.529657
330.009674 76.547592 -0.000034 0.551716
329.210785 78.907288 -0.000038 0.523284
328.655548 80.547379 -0.000042 0.527206
328.246460 81.755730 -0.000043 0.527819
348.685181 19.789536 20.344240 0.394730
348.685150 19.789558 17.817089 0.418382
348.685181 19.789543 15.325434 0.442279
348.685181 19.789543 12.863281 0.422059
348.685150 19.789558 10.424927 0.406005
348.685181 19.789543 8.004869 0.391912
348.685150 19.789551 5.597770 0.424265
348.685150 19.789558 3.198399 0.400123
348.685150 19.789566 0.801600 0.403431
338.471283 50.667305 -0.000007 0.537132
333.346283 66.160835 -0.000024 0.538480
331.145905 72.812859 -0.000032 0.530270
329.920380 76.517693 -0.000037 0.519485
329.138000 78.882919 -0.000041 0.542034
328.594238 80.526840 -0.000048 0.538971
328.193604 81.738022 -0.000047 0.551716
348.147888 19.789536 20.302418 0.407230
348.147858 19.789543 17.781036 0.440564
348.147888 19.789536 15.295055 0.390319
348.147858 19.789551 12.838516 0.401961
348.147858 19.789551 10.405721 0.400980
348.147858 19.789558 7.991177 0.407476
348.147858 19.789551 5.589568 0.415809
348.147858 19.789551 3.195668 0.395956
348.147858 19.789551 0.804332 0.429044
338.201141 50.579002 -0.000007 0.535417
333.184296 66.108330 0.000011 0.536152
331.030457 72.775436 0.000004 0.535294
329.830872 76.488670 -0.000002 0.538725
329.065002 78.859261 -0.000007 0.540074
328.532715 80.506905 -0.000012 0.540809
328.140564 81.720840 -0.000012 0.546936
347.613007 19.789537 20.261677 0.395343
347.613007 19.789545 17.745905 0.393260
347.613007 19.789537 15.265458 0.404289
347.613007 19.789553 12.814389 0.382966
347.613007 19.789537 10.387010 0.362745
347.613007 19.789545 7.977844 0.372794
347.613007 19.789553 5.581576 0.410662
347.613007 19.789553 3.193006 0.407721
347.613007 19.789553 0.806994 0.419608
337.930389 50.492596 -0.000006 0.537255
333.022095 66.056473 0.000005 0.548284
330.914825 72.738472 -0.000002 0.538480
329.741180 76.460007 -0.000008 0.570833
328.991943 78.835892 -0.000013 0.546078
328.471161 80.487221 -0.000017 0.544118
328.087463 81.703857 -0.000020 0.530637
347.080505 19.789543 20.222000 0.407598
347.080505 19.789543 17.711697 0.416544
347.080505 19.789536 15.236642 0.406373
347.080505 19.789558 12.790894 0.402574
347.080505 19.789558 10.368789 0.418137
347.080505 19.789543 7.964857 0.398039
347.080505 19.789551 5.573795 0.418873
347.080505 19.789551 3.190415 0.403554
347.080505 19.789551 0.809585 0.393260
337.659027 50.408054 -0.000006 0.536397
332.859619 66.005539 -0.000020 0.551471
330.799011 72.702171 -0.000028 0.528554
329.651367 76.431839 -0.000034 0.539583
328.918701 78.812935 -0.000038 0.527696
328.409485 80.467896 -0.000040 0.524387
328.034271 81.687286 -0.000018 0.573529
346.550262 19.789551 20.183378 0.399632
346.550262 19.789543 17.678398 0.404902
346.550262 19.789528 15.208588 0.406618
346.550262 19.789558 12.768022 0.418382
346.550262 19.789551 10.351049 0.408578
346.550262 19.789551 7.952215 0.400000
