# This PCD file was generated using the MATLABÂ® pcwrite function
# from Computer Vision ToolboxÂ®.
# .PCD v.7 - Point Cloud Data file format
VERSION .7
FIELDS x y z intensity
SIZE 4 4 4 4
TYPE F F F F
COUNT 1 1 1 1
WIDTH 1322
HEIGHT 1
VIEWPOINT 0 0 0 1 0 0 0
POINTS 1322
DATA ascii
nan nan nan nan
nan nan nan nan
nan nan nan nan
237.186752 130.121506 3.452883 3.452883
237.506149 129.955231 0.553010 0.553010
279.830322 107.922142 0.000050 0.000050
294.304901 100.386955 0.000019 0.000019
300.519623 97.151703 0.000016 0.000016
303.980927 95.349823 0.000017 0.000017
306.190674 94.199478 0.000020 0.000020
307.726471 93.399979 0.000003 0.000003
308.858002 92.810905 0.000010 0.000010
nan nan nan nan
nan nan nan nan
nan nan nan nan
nan nan nan nan
nan nan nan nan
nan nan nan nan
239.221466 129.745514 6.264673 6.264673
239.221466 129.745514 3.420541 3.420541
239.221497 129.745499 0.579458 0.579458
279.962646 108.173660 0.000063 0.000063
294.384186 100.537651 0.000031 0.000031
300.576141 97.259102 0.000030 0.000030
304.024780 95.433121 0.000030 0.000030
306.226379 94.267380 0.000032 0.000032
307.756622 93.457153 0.000034 0.000034
308.883972 92.860237 0.000022 0.000022
nan nan nan nan
nan nan nan nan
nan nan nan nan
nan nan nan nan
nan nan nan nan
nan nan nan nan
240.499771 129.745514 6.209275 6.209275
240.499710 129.745544 3.402092 3.402092
240.499771 129.745514 0.597910 0.597910
280.096405 108.424408 0.000058 0.000058
294.464355 100.687881 0.000026 0.000026
300.633301 97.366180 0.000025 0.000025
304.069061 95.516167 0.000025 0.000025
306.262512 94.335091 0.000027 0.000027
307.787048 93.514191 0.000029 0.000029
308.910217 92.909409 0.000019 0.000019
nan nan nan nan
nan nan nan nan
nan nan nan nan
nan nan nan nan
nan nan nan nan
nan nan nan nan
241.745361 129.745499 6.155500 6.155500
241.745331 129.745514 3.384179 3.384179
241.745346 129.745499 0.615823 0.615823
280.231934 108.674225 0.000053 0.000053
294.545593 100.837555 0.000023 0.000023
300.691162 97.472870 0.000021 0.000021
304.113953 95.598907 0.000020 0.000020
306.299042 94.402580 0.000006 0.000006
307.817871 93.571014 0.000024 0.000024
308.936798 92.958405 0.000014 0.000014
nan nan nan nan
nan nan nan nan
nan nan nan nan
nan nan nan nan
nan nan nan nan
nan nan nan nan
242.959564 129.745499 6.103276 6.103276
242.959534 129.745514 3.366783 3.366783
242.959549 129.745499 0.633218 0.633218
280.369598 108.922859 0.000070 0.000070
294.628082 100.986519 0.000041 0.000041
300.749969 97.579048 0.000037 0.000037
304.159515 95.681252 0.000036 0.000036
306.336182 94.469711 0.000022 0.000022
307.849152 93.627602 0.000026 0.000026
308.963806 93.007179 0.000030 0.000030
nan nan nan nan
nan nan nan nan
nan nan nan nan
nan nan nan nan
nan nan nan nan
nan nan nan nan
244.143692 129.745514 6.052546 6.052546
244.143661 129.745529 3.349885 3.349885
244.143692 129.745514 0.650115 0.650115
280.508301 109.170944 0.000047 0.000047
294.711334 101.135056 0.000035 0.000035
300.809296 97.684921 0.000031 0.000031
304.205597 95.763351 0.000033 0.000033
306.373749 94.536636 0.000019 0.000019
307.880768 93.683998 0.000020 0.000020
308.991028 93.055817 0.000015 0.000015
nan nan nan nan
nan nan nan nan
nan nan nan nan
nan nan nan nan
nan nan nan nan
nan nan nan nan
245.298996 129.745499 6.003247 6.003247
245.298965 129.745514 3.333461 3.333461
245.298996 129.745499 0.666538 0.666538
280.648987 109.417877 0.000042 0.000042
294.795654 101.283005 0.000030 0.000030
300.869385 97.790375 0.000024 0.000024
304.252197 95.845123 0.000029 0.000029
306.411713 94.603310 0.000014 0.000014
307.912750 93.740158 0.000015 0.000015
309.018646 93.104240 0.000012 0.000012
nan nan nan nan
nan nan nan nan
nan nan nan nan
nan nan nan nan
nan nan nan nan
nan nan nan nan
246.363266 129.782471 5.958924 5.958924
246.256393 129.844910 3.320725 3.320725
246.256409 129.844910 0.679276 0.679276
280.791443 109.663811 0.000036 0.000036
294.881012 101.430344 0.000026 0.000026
300.930206 97.895401 0.000018 0.000018
304.299377 95.926582 0.000022 0.000022
306.450256 94.669670 0.000022 0.000022
307.945160 93.796104 0.000009 0.000009
309.046570 93.152473 0.000008 0.000008
nan nan nan nan
nan nan nan nan
nan nan nan nan
nan nan nan nan
nan nan nan nan
nan nan nan nan
246.363266 130.436752 5.975239 5.975239
246.256409 130.500183 3.326167 3.326167
246.256409 130.500183 0.673834 0.673834
280.935760 109.908646 0.000040 0.000040
294.967499 101.577042 0.000030 0.000030
300.991852 97.999954 0.000024 0.000024
304.347046 96.007736 0.000007 0.000007
306.489227 94.735779 0.000026 0.000026
307.977997 93.851784 0.000016 0.000016
309.074860 93.200493 0.000013 0.000013
nan nan nan nan
nan nan nan nan
245.849686 131.406311 16.894283 16.894283
246.292450 131.139206 14.065553 14.065553
246.292450 131.139206 11.357339 11.357339
246.292450 131.139206 8.669444 8.669444
246.292404 131.139236 5.995947 5.995947
246.292419 131.139221 3.331030 3.331030
246.292419 131.139221 0.668969 0.668969
281.081604 110.152588 0.000033 0.000033
295.054901 101.723175 0.000025 0.000025
301.054138 98.104111 0.000018 0.000018
304.395386 96.088516 0.000003 0.000003
306.528503 94.801682 0.000004 0.000004
308.011169 93.907272 0.000009 0.000009
309.103516 93.248329 0.000008 0.000008
nan nan nan nan
nan nan nan nan
247.022324 131.357941 16.707397 16.707397
247.379227 131.139221 13.927807 13.927807
247.379211 131.139221 11.250513 11.250513
247.379227 131.139221 8.593306 8.593306
247.379211 131.139221 5.950325 5.950325
247.379211 131.139221 3.315835 3.315835
247.379211 131.139221 0.684165 0.684165
281.229553 110.395248 0.000050 0.000050
295.143524 101.868576 0.000042 0.000042
301.117310 98.207748 0.000035 0.000035
304.444397 96.168884 0.000021 0.000021
306.568481 94.867203 0.000020 0.000020
308.044891 93.962440 0.000041 0.000041
309.132507 93.295921 0.000026 0.000026
nan nan nan nan
246.902313 132.097321 19.563433 19.563433
248.165634 131.310959 16.525908 16.525908
248.537506 131.079468 13.776971 13.776971
248.441513 131.139221 11.146538 11.146538
248.582367 131.051544 8.505592 8.505592
248.441498 131.139236 5.905925 5.905925
248.441498 131.139236 3.301046 3.301046
248.441498 131.139236 0.698955 0.698955
281.378815 110.637115 0.000044 0.000044
295.232941 102.013489 0.000036 0.000036
301.181091 98.311020 0.000032 0.000032
304.493805 96.248985 0.000016 0.000016
306.608765 94.932503 0.000016 0.000016
308.078735 94.017509 0.000014 0.000014
309.161743 93.343391 0.000006 0.000006
nan nan nan nan
248.053650 132.041107 19.346329 19.346329
249.280807 131.265320 16.349602 16.349602
249.616257 131.053238 13.639347 13.639347
249.480255 131.139221 11.045306 11.045306
249.480255 131.139221 8.447046 8.447046
249.480255 131.139236 5.862696 5.862696
249.480255 131.139236 3.286647 3.286647
249.480255 131.139236 0.713353 0.713353
281.529541 110.878052 0.000029 0.000029
295.323212 102.157875 0.000015 0.000015
301.245483 98.413910 0.000016 0.000016
304.543823 96.328728 0.000015 0.000015
306.649475 94.997551 0.000001 0.000001
308.113007 94.072311 -0.000003 -0.000003
309.191345 93.390617 0.000003 0.000003
247.921890 132.791977 22.246695 22.246695
249.176498 131.986526 19.135460 19.135460
250.368988 131.220947 16.178274 16.178274
250.496262 131.139236 13.536108 13.536108
250.496277 131.139236 10.946733 10.946733
250.496277 131.139236 8.376783 8.376783
250.496277 131.139221 5.820599 5.820599
250.496277 131.139236 3.272624 3.272624
250.496277 131.139236 0.727376 0.727376
281.682587 111.117554 0.000047 0.000047
295.414886 102.301392 0.000030 0.000030
301.310760 98.516197 0.000031 0.000031
304.594482 96.408066 0.000028 0.000028
306.690796 95.062218 0.000019 0.000019
308.147827 94.126793 0.000014 0.000014
309.221344 93.437592 0.000018 0.000018
249.053131 132.728134 22.000099 22.000099
249.901108 132.175339 19.026211 19.026211
250.636856 131.695694 16.184269 16.184269
250.720200 131.641357 13.548676 13.548676
250.720200 131.641357 10.956479 10.956479
250.720215 131.641357 8.383730 8.383730
250.720215 131.641357 5.824762 5.824762
250.720230 131.641357 3.274011 3.274011
250.720230 131.641357 0.725991 0.725991
281.836914 111.356216 0.000043 0.000043
295.507294 102.444397 0.000025 0.000025
301.376709 98.618111 0.000029 0.000029
304.645569 96.487099 0.000025 0.000025
306.732452 95.126656 0.000014 0.000014
308.182953 94.181068 0.000015 0.000015
309.251617 93.484390 0.000017 0.000017
249.111984 133.357635 22.074350 22.074350
249.879410 132.849701 19.110098 19.110098
250.618988 132.360168 16.253368 16.253368
250.789886 132.247040 13.589362 13.589362
250.720200 132.293152 10.997646 10.997646
250.720200 132.293167 8.413075 8.413075
250.720215 132.293152 5.842342 5.842342
250.720230 132.293152 3.279866 3.279866
250.720230 132.293152 0.720134 0.720134
281.992828 111.593826 0.000037 0.000037
295.600739 102.586761 0.000018 0.000018
301.443268 98.719582 0.000024 0.000024
304.697235 96.565788 0.000022 0.000022
306.774567 95.190811 0.000011 0.000011
308.218445 94.235123 0.000009 0.000009
309.282196 93.530998 0.000013 0.000013
249.085693 134.049408 22.175974 22.175974
249.857239 133.530914 19.195717 19.195717
250.600708 133.031311 16.323891 16.323891
250.789871 132.904205 13.643452 13.643452
250.720200 132.951019 11.039639 11.039639
250.720200 132.951019 8.443002 8.443002
250.720215 132.951019 5.860274 5.860274
250.720200 132.951019 3.285838 3.285838
250.720200 132.951019 0.714161 0.714161
282.150574 111.830231 0.000042 0.000042
295.695282 102.728371 0.000027 0.000027
301.510681 98.820526 0.000029 0.000029
304.749512 96.644073 0.000027 0.000027
306.817169 95.254631 0.000015 0.000015
308.254333 94.288879 0.000017 0.000017
309.313110 93.577393 0.000003 0.000003
nan nan nan nan
249.834610 134.219193 19.283100 19.283100
250.582077 133.709290 16.395866 16.395866
250.789902 133.567535 13.698613 13.698613
250.720200 133.615067 11.082470 11.082470
250.769882 133.581192 8.468599 8.468599
250.720200 133.615067 5.878564 5.878564
250.720200 133.615067 3.291932 3.291932
250.720200 133.615067 0.708068 0.708068
282.310211 112.065384 0.000058 0.000058
295.790924 102.869263 0.000043 0.000043
301.578705 98.921036 0.000028 0.000028
304.802246 96.722023 0.000025 0.000025
306.860199 95.318146 0.000024 0.000024
308.290588 94.342384 0.000025 0.000025
309.344391 93.623520 0.000017 0.000017
nan nan nan nan
249.811493 134.914719 19.372301 19.372301
250.563065 134.394287 16.469315 16.469315
250.720215 134.285492 13.767457 13.767457
250.720215 134.285492 11.126152 11.126152
250.720215 134.285492 8.504667 8.504667
250.720215 134.285492 5.897220 5.897220
250.720215 134.285492 3.298146 3.298146
250.720215 134.285492 0.701854 0.701854
282.470917 112.299774 0.000043 0.000043
295.887238 103.009712 0.000028 0.000028
301.647339 99.021133 0.000013 0.000013
304.855469 96.799660 0.000010 0.000010
306.903625 95.381432 0.000011 0.000011
308.327148 94.395699 0.000012 0.000012
309.375946 93.669479 0.000006 0.000006
nan nan nan nan
nan nan nan nan
250.543655 135.086487 16.544273 16.544273
250.789917 134.913422 13.812272 13.812272
250.720200 134.962402 11.170708 11.170708
250.720200 134.962402 8.536423 8.536423
250.720184 134.962418 5.916247 5.916247
250.720215 134.962402 3.304482 3.304482
250.720215 134.962402 0.695517 0.695517
282.633881 112.532639 0.000062 0.000062
295.984802 103.149261 0.000043 0.000043
301.716949 99.120537 0.000040 0.000040
304.909454 96.876785 0.000028 0.000028
306.947601 95.444313 0.000026 0.000026
308.364197 94.448677 0.000029 0.000029
309.407898 93.715141 0.000031 0.000031
nan nan nan nan
nan nan nan nan
250.523880 135.786041 16.620770 16.620770
250.720200 135.646027 13.883507 13.883507
250.720200 135.646011 11.216154 11.216154
250.720200 135.646011 8.568817 8.568817
250.720200 135.646011 5.935653 5.935653
250.720200 135.646011 3.310947 3.310947
250.720200 135.646011 0.689053 0.689053
282.797852 112.764771 0.000047 0.000047
296.083099 103.288315 0.000031 0.000031
301.787018 99.219658 0.000025 0.000025
304.963745 96.953667 0.000013 0.000013
306.991882 95.506966 0.000015 0.000015
308.401550 94.501472 0.000018 0.000018
309.440094 93.760651 0.000022 0.000022
nan nan nan nan
nan nan nan nan
nan nan nan nan
nan nan nan nan
nan nan nan nan
243.119766 141.838379 9.371202 9.371202
247.072617 138.976929 6.176666 6.176666
250.099823 136.785538 3.330073 3.330073
250.011780 136.849289 0.668148 0.668148
282.962769 112.996254 -0.000009 -0.000009
296.182617 103.426491 0.000046 0.000046
301.857941 99.318146 0.000040 0.000040
305.018768 97.030029 0.000032 0.000032
307.036774 95.569237 0.000033 0.000033
308.439331 94.553917 0.000036 0.000036
309.472626 93.805923 0.000020 0.000020
nan nan nan nan
nan nan nan nan
nan nan nan nan
nan nan nan nan
nan nan nan nan
243.061417 142.659973 9.414762 9.414762
247.274429 139.565140 6.185680 6.185680
250.011749 137.554321 3.338650 3.338650
250.011765 137.554321 0.661350 0.661350
283.131165 113.225204 0.000047 0.000047
296.282776 103.564178 0.000032 0.000032
301.929352 99.416267 0.000030 0.000030
305.074158 97.106140 0.000018 0.000018
307.081909 95.631279 0.000019 0.000019
308.477386 94.606186 0.000022 0.000022
309.505432 93.850983 0.000009 0.000009
nan nan nan nan
nan nan nan nan
nan nan nan nan
nan nan nan nan
nan nan nan nan
243.001785 143.491821 9.459265 9.459265
247.274429 140.307022 6.207360 6.207360
250.011765 138.266632 3.345584 3.345584
250.011765 138.266617 0.654416 0.654416
283.300476 113.453476 0.000062 0.000062
296.384277 103.700920 0.000050 0.000050
302.001648 99.513763 0.000043 0.000043
305.130280 97.181694 0.000044 0.000044
307.127563 95.692947 0.000024 0.000024
308.515839 94.658165 0.000019 0.000019
309.538635 93.895760 0.000026 0.000026
nan nan nan nan
nan nan nan nan
nan nan nan nan
nan nan nan nan
nan nan nan nan
242.940826 144.334183 9.504732 9.504732
247.274429 141.056641 6.229472 6.229472
250.011765 138.986374 3.352654 3.352654
250.011765 138.986389 0.647344 0.647344
283.469940 113.681641 -0.000010 -0.000010
296.486359 103.837196 0.000036 0.000036
302.074463 99.610870 0.000033 0.000033
305.186737 97.257034 0.000029 0.000029
307.173615 95.754341 0.000014 0.000014
308.554596 94.709862 0.000018 0.000018
309.572083 93.940338 0.000022 0.000022
nan nan nan nan
nan nan nan nan
nan nan nan nan
nan nan nan nan
nan nan nan nan
242.878586 145.187378 9.551186 9.551186
247.274429 141.814255 6.252028 6.252028
250.011780 139.713776 3.359869 3.359869
250.011765 139.713776 0.640132 0.640132
283.643555 113.906693 0.000074 0.000074
296.589722 103.972542 0.000051 0.000051
302.148132 99.707336 0.000047 0.000047
305.243744 97.331924 0.000025 0.000025
307.220154 95.815338 0.000027 0.000027
308.593842 94.761238 0.000034 0.000034
309.605865 93.984688 0.000019 0.000019
nan nan nan nan
nan nan nan nan
nan nan nan nan
nan nan nan nan
nan nan nan nan
242.814972 146.051666 9.598653 9.598653
247.274429 142.580002 6.275033 6.275033
250.099823 140.380432 3.365401 3.365401
250.011765 140.448990 0.632774 0.632774
283.816010 114.132584 -0.000009 -0.000009
296.693451 104.107567 0.000011 0.000011
302.222168 99.803482 0.000025 0.000025
305.301239 97.406464 0.000009 0.000009
307.267029 95.876114 0.000010 0.000010
308.633240 94.812500 -0.000005 -0.000005
309.639893 94.028831 0.000001 0.000001
nan nan nan nan
nan nan nan nan
nan nan nan nan
nan nan nan nan
nan nan nan nan
242.749985 146.927383 9.647152 9.647152
247.274429 143.354141 6.298501 6.298501
249.222427 141.815674 3.391190 3.391190
249.858856 141.313034 0.622080 0.622080
283.991364 114.356247 -0.000009 -0.000009
296.798645 104.241463 0.000025 0.000025
302.297058 99.899010 0.000021 0.000021
305.359375 97.480476 0.000022 0.000022
307.314423 95.936432 0.000028 0.000028
308.673187 94.863335 0.000009 0.000009
309.674347 94.072662 0.000015 0.000015
nan nan nan nan
nan nan nan nan
nan nan nan nan
nan nan nan nan
nan nan nan nan
242.683594 147.814880 9.696712 9.696712
247.274414 144.136841 6.322436 6.322436
250.099838 141.873215 3.380541 3.380541
250.011765 141.943771 0.617613 0.617613
284.168304 114.578690 -0.000010 -0.000010
296.904724 104.374687 0.000031 0.000031
302.372650 99.993973 0.000027 0.000027
305.418030 97.554100 0.000033 0.000033
307.362244 95.996475 0.000032 0.000032
308.713470 94.913902 0.000019 0.000019
309.709045 94.116272 0.000022 0.000022
nan nan nan nan
nan nan nan nan
nan nan nan nan
nan nan nan nan
nan nan nan nan
242.615677 148.714493 9.747369 9.747369
247.274414 144.928375 6.346857 6.346857
250.011765 142.703735 3.390196 3.390196
250.011765 142.703735 0.609804 0.609804
284.346771 114.799881 -0.000009 -0.000009
297.011597 104.507240 0.000027 0.000027
302.448792 100.088470 0.000019 0.000019
305.477051 97.627411 0.000019 0.000019
307.410309 96.056290 0.000003 0.000003
308.754028 94.964241 0.000008 0.000008
309.744019 94.159683 0.000008 0.000008
nan nan nan nan
nan nan nan nan
nan nan nan nan
nan nan nan nan
nan nan nan nan
242.546341 149.626511 9.799135 9.799135
247.274399 145.728897 6.371765 6.371765
250.011795 143.472351 3.398161 3.398161
250.011780 143.472351 0.601837 0.601837
284.526794 115.019821 -0.000010 -0.000010
297.119537 104.638954 0.000033 0.000033
302.525726 100.182358 0.000023 0.000023
305.536743 97.700195 0.000031 0.000031
307.458954 96.115623 0.000018 0.000018
308.795044 95.014229 0.000023 0.000023
309.779327 94.202789 0.000018 0.000018
nan nan nan nan
nan nan nan nan
nan nan nan nan
nan nan nan nan
nan nan nan nan
242.475418 150.551407 9.852052 9.852052
247.274414 146.538727 6.397179 6.397179
250.011780 144.249908 3.406291 3.406291
250.011765 144.249908 0.593710 0.593710
284.708374 115.238480 -0.000009 -0.000009
297.228333 104.769936 0.000038 0.000038
302.603333 100.275665 0.000038 0.000038
305.596832 97.772659 0.000023 0.000023
307.507996 96.174629 0.000027 0.000027
308.836304 95.063995 0.000012 0.000012
309.815002 94.245659 0.000026 0.000026
nan nan nan nan
nan nan nan nan
nan nan nan nan
nan nan nan nan
nan nan nan nan
242.402939 151.489426 9.906140 9.906140
247.050690 147.547791 6.437519 6.437519
250.011780 145.036560 3.414581 3.414581
250.011749 145.036575 0.585418 0.585418
284.891418 115.455887 -0.000009 -0.000009
297.337952 104.900253 0.000030 0.000030
302.681427 100.368576 0.000024 0.000024
305.657410 97.844704 0.000010 0.000010
307.557373 96.233360 0.000016 0.000016
308.877899 95.113464 0.000004 0.000004
309.850861 94.288307 0.000021 0.000021
nan nan nan nan
nan nan nan nan
nan nan nan nan
nan nan nan nan
nan nan nan nan
242.328842 152.441101 9.961439 9.961439
247.011749 148.413071 6.466578 6.466578
249.274155 146.467056 3.438962 3.438962
250.099823 145.756851 0.578858 0.578858
285.075989 115.672012 -0.000009 -0.000009
297.448578 105.029694 0.000035 0.000035
302.760162 100.460930 0.000013 0.000013
305.718597 97.916237 0.000021 0.000021
307.607300 96.291672 0.000026 0.000026
308.919922 95.162605 0.000015 0.000015
309.887054 94.330734 0.000008 0.000008
nan nan nan nan
nan nan nan nan
nan nan nan nan
nan nan nan nan
nan nan nan nan
nan nan nan nan
246.971985 149.290085 6.496266 6.496266
249.587082 147.008759 3.440896 3.440896
250.099838 146.561447 0.570237 0.570237
285.262115 115.886826 -0.000009 -0.000009
297.560150 105.158356 0.000040 0.000040
302.839691 100.552643 0.000018 0.000018
305.780243 97.987335 0.000031 0.000031
307.657471 96.349724 0.000014 0.000014
308.962280 95.211433 0.000024 0.000024
309.923584 94.372833 0.000021 0.000021
nan nan nan nan
nan nan nan nan
nan nan nan nan
nan nan nan nan
nan nan nan nan
nan nan nan nan
246.931351 150.179169 6.526593 6.526593
250.011765 147.453766 3.440481 3.440481
250.011765 147.453781 0.559517 0.559517
285.449677 116.100342 -0.000009 -0.000009
297.672424 105.286369 0.000028 0.000028
302.919678 100.643883 0.000006 0.000006
305.842316 98.058121 0.000014 0.000014
307.708038 96.407410 0.000002 0.000002
309.004852 95.260078 -0.000000 -0.000000
309.960327 94.414734 0.000010 0.000010
nan nan nan nan
nan nan nan nan
nan nan nan nan
nan nan nan nan
nan nan nan nan
nan nan nan nan
246.889816 151.080673 6.557580 6.557580
250.011795 148.279434 3.449471 3.449471
250.011795 148.279434 0.550529 0.550529
285.638763 116.312546 -0.000008 -0.000008
297.785767 105.413467 0.000034 0.000034
303.000458 100.734474 0.000012 0.000012
305.904999 98.128349 0.000025 0.000025
307.759155 96.464661 0.000014 0.000014
309.047913 95.308311 0.000010 0.000010
309.997375 94.456383 -0.000002 -0.000002
nan nan nan nan
nan nan nan nan
nan nan nan nan
nan nan nan nan
nan nan nan nan
nan nan nan nan
246.847397 151.994934 6.589238 6.589238
250.011795 149.115509 3.458643 3.458643
250.011795 149.115509 0.541357 0.541357
285.829285 116.523430 -0.000009 -0.000009
297.899780 105.539909 0.000023 0.000023
303.081940 100.824440 0.000027 0.000027
305.968048 98.198242 0.000014 0.000014
307.810638 96.521553 0.000025 0.000025
309.091278 95.356239 0.000021 0.000021
310.034760 94.497719 0.000008 0.000008
nan nan nan nan
nan nan nan nan
nan nan nan nan
nan nan nan nan
nan nan nan nan
nan nan nan nan
246.804047 152.922363 6.621592 6.621592
250.011795 149.962280 3.468005 3.468005
250.011810 149.962280 0.531996 0.531996
286.021332 116.732979 -0.000009 -0.000009
298.014832 105.665466 0.000022 0.000022
303.163971 100.913895 0.000031 0.000031
306.031616 98.267654 0.000013 0.000013
307.862427 96.578201 0.000006 0.000006
309.134949 95.403900 0.000023 0.000023
310.072449 94.538788 0.000018 0.000018
nan nan nan nan
nan nan nan nan
nan nan nan nan
nan nan nan nan
nan nan nan nan
nan nan nan nan
246.759750 153.863281 6.654650 6.654650
249.190048 151.589005 3.495976 3.495976
250.099823 150.737640 0.524414 0.524414
286.214813 116.941170 -0.000008 -0.000008
298.130798 105.790161 0.000026 0.000026
303.246613 101.002762 0.000037 0.000037
306.095764 98.336548 0.000025 0.000025
307.914673 96.634392 0.000012 0.000012
309.178925 95.451286 0.000013 0.000013
310.110352 94.579651 0.000007 0.000007
nan nan nan nan
nan nan nan nan
nan nan nan nan
nan nan nan nan
nan nan nan nan
nan nan nan nan
246.714478 154.818146 6.688440 6.688440
249.528976 152.147232 3.498205 3.498205
250.099838 151.605499 0.514674 0.514674
286.409698 117.148026 -0.000009 -0.000009
298.247620 105.914055 0.000031 0.000031
303.329773 101.091187 0.000021 0.000021
306.160309 98.405037 0.000028 0.000028
307.967316 96.690224 0.000015 0.000015
309.223297 95.498322 0.000017 0.000017
310.148590 94.620209 0.000011 0.000011
nan nan nan nan
nan nan nan nan
nan nan nan nan
nan nan nan nan
nan nan nan nan
nan nan nan nan
246.668198 155.787323 6.722980 6.722980
250.011780 152.569672 3.497268 3.497268
250.011780 152.569672 0.502732 0.502732
286.606079 117.353493 -0.000009 -0.000009
298.365112 106.037300 0.000014 0.000014
303.413513 101.179031 0.000004 0.000004
306.225281 98.473129 0.000017 0.000017
308.020294 96.745743 0.000004 0.000004
309.267944 95.545097 0.000007 0.000007
310.187103 94.660522 0.000005 0.000005
nan nan nan nan
nan nan nan nan
nan nan nan nan
nan nan nan nan
nan nan nan nan
nan nan nan nan
246.975555 156.425171 6.733944 6.733944
250.011795 153.462189 3.507431 3.507431
250.011795 153.462189 0.492568 0.492568
286.803894 117.557587 -0.000008 -0.000008
298.483643 106.159546 0.000019 0.000019
303.498016 101.266159 0.000009 0.000009
306.290802 98.540726 0.000016 0.000016
308.073700 96.800835 0.000008 0.000008
309.312927 95.591507 0.000010 0.000010
310.225830 94.700600 -0.000012 -0.000012
nan nan nan nan
nan nan nan nan
nan nan nan nan
nan nan nan nan
nan nan nan nan
nan nan nan nan
nan nan nan nan
250.011780 154.366974 3.517810 3.517810
250.011780 154.366974 0.482190 0.482190
287.003082 117.760315 -0.000009 -0.000009
298.602997 106.280998 0.000018 0.000018
303.583099 101.352707 0.000013 0.000013
306.356720 98.607948 -0.000001 -0.000001
308.127472 96.855598 0.000001 0.000001
309.358215 95.637657 -0.000002 -0.000002
310.264923 94.740341 -0.000008 -0.000008
nan nan nan nan
nan nan nan nan
nan nan nan nan
nan nan nan nan
nan nan nan nan
nan nan nan nan
nan nan nan nan
250.062286 155.233673 3.527237 3.527237
250.011780 155.284332 0.471594 0.471594
287.203735 117.961624 -0.000008 -0.000008
298.723206 106.401619 0.000019 0.000019
303.668762 101.438683 0.000013 0.000013
306.423157 98.674599 0.000004 0.000004
308.181641 96.909927 0.000006 0.000006
309.403870 95.683434 0.000003 0.000003
310.304352 94.779770 0.000012 0.000012
354.986481 49.389534 15.954260 0.678431
354.873779 49.504219 13.997161 0.395588
354.873779 49.504223 12.107251 0.405760
354.873779 49.504219 10.239728 0.413848
354.986481 49.389538 8.408751 0.673162
354.873779 49.504219 6.554654 0.438235
354.873779 49.504223 4.728884 0.412868
354.873779 49.504219 2.908979 0.400613
354.873779 49.504219 1.091021 0.404902
344.474731 60.086605 -0.000005 0.541789
333.035950 71.726997 0.000053 0.551103
328.125336 76.724190 0.000037 0.535049
325.390259 79.507477 0.000044 0.525245
323.644226 81.284256 0.000022 0.503676
322.430603 82.519302 0.000036 0.512500
321.536499 83.429131 0.000017 0.490319
354.442902 49.391598 15.858797 0.678431
354.333771 49.504215 13.915707 0.398529
354.333771 49.504215 12.038630 0.392770
354.333771 49.504219 10.183785 0.398407
354.442902 49.391598 8.364906 0.678431
354.333771 49.504219 6.523730 0.417402
354.333771 49.504223 4.710357 0.396078
354.333771 49.504219 2.902807 0.386029
354.333771 49.504219 1.097193 0.387868
344.271301 59.888096 -0.000006 0.536887
332.914001 71.608177 0.000064 0.539216
328.038391 76.639488 0.000046 0.528922
325.322906 79.441704 0.000036 0.572304
323.589294 81.230667 0.000025 0.561275
322.384369 82.474121 0.000028 0.564216
321.496552 83.390251 0.000035 0.507598
353.835815 49.467823 15.739594 0.511397
353.801056 49.504211 13.835925 0.405515
353.801025 49.504219 11.971415 0.404412
353.801025 49.504219 10.128988 0.397181
353.835815 49.467823 8.310162 0.485784
353.801025 49.504219 6.493442 0.406127
353.801025 49.504223 4.692209 0.371936
353.801025 49.504219 2.896762 0.408946
353.801025 49.504223 1.103238 0.408456
344.066467 59.691044 -0.000004 0.536029
332.791382 71.489983 0.000051 0.525980
327.950958 76.555290 0.000039 0.539706
325.255127 79.376396 0.000028 0.560662
323.533997 81.177498 0.000035 0.563848
322.337769 82.429283 0.000025 0.518873
321.456421 83.351608 0.000036 0.543137
353.377716 49.395611 15.673725 0.678431
353.377686 49.395615 13.790000 0.678431
353.275360 49.504219 11.905571 0.400980
353.275360 49.504219 10.075312 0.418015
353.377686 49.395615 8.279909 0.678431
353.377686 49.395615 6.476006 0.520466
353.275360 49.504223 4.674432 0.431373
353.275360 49.504223 2.890841 0.435784
353.275360 49.504223 1.109159 0.396569
343.860321 59.495407 -0.000004 0.537500
332.667755 71.372917 0.000067 0.545343
327.862854 76.471848 0.000056 0.542525
325.186859 79.311600 0.000027 0.548407
323.478302 81.124695 0.000039 0.537255
322.290863 82.384804 0.000030 0.506127
321.415985 83.313217 0.000030 0.501593
352.790375 49.467815 15.559994 0.507843
352.790375 49.467815 13.691940 0.500368
352.756561 49.504211 11.841073 0.405882
352.756531 49.504219 10.022728 0.405637
352.790375 49.467823 8.227675 0.469485
352.790375 49.467812 6.438779 0.491299
352.756531 49.504219 4.657018 0.436765
352.756531 49.504215 2.885041 0.407966
352.756531 49.504215 1.114960 0.400858
343.652802 59.301201 -0.000005 0.533333
332.543396 71.256577 0.000068 0.539951
327.774231 76.388924 0.000056 0.562745
325.118103 79.247314 0.000034 0.538603
323.422302 81.072258 0.000035 0.555147
322.243683 82.340607 0.000023 0.580392
321.375305 83.275131 0.000030 0.527083
352.244446 49.504219 15.460555 0.399755
352.340393 49.399513 13.636871 0.678431
352.244446 49.504215 11.777878 0.408333
352.244446 49.504219 9.971212 0.392647
352.340393 49.399509 8.198343 0.678431
352.340393 49.399513 6.417871 0.678431
352.244446 49.504215 4.639956 0.377328
352.244446 49.504219 2.879357 0.407108
352.244446 49.504215 1.120643 0.418873
343.443939 59.108463 -0.000005 0.538971
332.418335 71.141037 0.000061 0.545711
327.685211 76.306412 0.000024 0.542402
325.048950 79.183449 0.000027 0.519853
323.365875 81.020226 0.000038 0.574265
322.196167 82.296776 0.000026 0.550000
321.334320 83.237350 0.000036 0.525245
351.738800 49.504215 15.375320 0.333211
351.771698 49.467815 13.543301 0.484681
351.738800 49.504219 11.715961 0.398652
351.738800 49.504219 9.920735 0.411152
351.738800 49.504215 8.142860 0.449755
351.771698 49.467815 6.382347 0.494853
351.738800 49.504219 4.623238 0.426348
351.738800 49.504219 2.873787 0.434559
351.738800 49.504219 1.126212 0.438358
343.233704 58.917179 -0.000005 0.534559
332.292358 71.026443 0.000061 0.536887
327.595428 76.224739 0.000025 0.534559
324.979309 79.120125 0.000031 0.549632
323.309113 80.968597 0.000041 0.576961
322.148376 82.253258 0.000021 0.513603
321.293121 83.199806 0.000028 0.522672
351.239532 49.504219 15.291798 0.409681
351.329407 49.403351 13.489870 0.678431
351.239563 49.504215 11.655293 0.385539
351.239532 49.504219 9.871275 0.399510
351.239563 49.504215 8.104503 0.429779
351.329407 49.403355 6.362064 0.678431
351.239532 49.504219 4.606858 0.440319
351.239532 49.504223 2.868332 0.400368
351.239532 49.504223 1.131668 0.410294
343.022186 58.727364 -0.000005 0.537990
332.165527 70.912827 0.000072 0.544853
327.505005 76.143768 0.000038 0.531005
324.909210 79.057304 0.000039 0.546446
323.252014 80.917351 0.000041 0.568382
322.100189 82.210136 0.000036 0.522304
321.251587 83.162621 0.000039 0.533946
350.746429 49.504219 15.209953 0.406495
350.778412 49.467819 13.400586 0.496569
350.746429 49.504215 11.595840 0.407598
350.746429 49.504211 9.822809 0.353799
350.746429 49.504215 8.066916 0.406863
350.778412 49.467823 6.328166 0.483088
350.746429 49.504215 4.590807 0.398529
350.746429 49.504219 2.862986 0.399755
350.746429 49.504219 1.137015 0.402328
342.809296 58.539047 -0.000005 0.533456
332.038147 70.799828 0.000054 0.534314
327.413940 76.063553 0.000070 0.540686
324.838806 78.994835 0.000020 0.551716
323.194550 80.866478 0.000033 0.513480
322.051849 82.167236 0.000018 0.572304
321.209869 83.125656 0.000031 0.562377
350.259338 49.504215 15.129751 0.402328
350.343536 49.407032 13.348736 0.678431
350.259338 49.504215 11.537578 0.426961
350.259338 49.504215 9.775312 0.389093
350.259338 49.504219 8.030079 0.394730
350.343506 49.407032 6.308482 0.678431
350.259338 49.504211 4.575076 0.415074
350.259338 49.504215 2.857745 0.400490
350.259338 49.504215 1.142254 0.363113
342.595123 58.352207 -0.000005 0.533946
331.909821 70.687897 0.000055 0.543015
327.322510 75.983780 0.000070 0.525980
324.767822 78.932999 0.000028 0.541299
323.136749 80.816010 0.000028 0.539461
322.003113 82.124748 0.000021 0.558701
321.167847 83.089005 0.000026 0.494118
349.778107 49.504219 15.051143 0.393995
349.809174 49.467827 13.263525 0.502941
349.778107 49.504215 11.480478 0.434804
349.778107 49.504219 9.728763 0.450858
349.778107 49.504215 7.993977 0.419608
349.809174 49.467831 6.276132 0.475368
349.778107 49.504215 4.559660 0.414951
349.778107 49.504219 2.852610 0.438480
349.778107 49.504223 1.147389 0.388848
342.379669 58.166855 -0.000007 0.537990
331.780670 70.576920 0.000061 0.540931
327.230438 75.904686 0.000078 0.537377
324.696472 78.871628 0.000028 0.558946
323.078552 80.766006 0.000036 0.539706
321.954041 82.082649 0.000038 0.562255
321.125610 83.052628 0.000017 0.505024
349.302582 49.504211 14.974104 0.405024
349.381378 49.410652 13.213182 0.678431
349.302582 49.504215 11.424515 0.407476
349.302582 49.504219 9.683138 0.398529
349.302582 49.504223 7.958594 0.443627
349.381378 49.410652 6.257020 0.678431
349.302582 49.504215 4.544550 0.398407
349.302582 49.504219 2.847577 0.436397
349.302582 49.504219 1.152422 0.426961
342.162903 57.983028 -0.000007 0.534314
331.650787 70.466812 0.000064 0.529289
327.137848 75.826195 0.000079 0.541299
324.624695 78.810715 0.000023 0.536397
323.020020 80.716354 0.000032 0.550980
321.904724 82.040863 0.000044 0.525490
321.083099 83.016594 0.000023 0.522794
348.832642 49.504215 14.898593 0.409314
348.862823 49.467815 13.131870 0.492770
348.862823 49.467815 11.378272 0.512010
348.832611 49.504223 9.638421 0.419730
348.832642 49.504215 7.923914 0.399632
348.862823 49.467823 6.226150 0.483456
348.832642 49.504211 4.529741 0.405637
348.832642 49.504215 2.842644 0.391176
348.832611 49.504219 1.157356 0.409069
341.944855 57.800716 -0.000006 0.535172
331.520142 70.357590 0.000065 0.548407
327.044861 75.748230 0.000062 0.525613
324.552460 78.750374 0.000030 0.522181
322.961151 80.667160 0.000038 0.523039
321.855164 81.999382 0.000039 0.524387
321.040344 82.980820 0.000019 0.518015
348.368042 49.504215 14.824577 0.443627
348.441772 49.414181 13.082963 0.678431
348.441772 49.414177 11.337070 0.678431
348.368042 49.504215 9.594589 0.402574
348.368042 49.504215 7.889922 0.374265
348.441772 49.414185 6.207583 0.678431
348.368042 49.504215 4.515224 0.437500
348.368042 49.504219 2.837810 0.406005
348.368042 49.504219 1.162191 0.418137
341.725555 57.619930 -0.000007 0.536152
331.388794 70.249252 0.000061 0.537255
326.951263 75.670959 0.000051 0.545956
324.479828 78.690514 0.000031 0.528922
322.901917 80.618362 0.000040 0.543627
321.805237 81.958290 0.000049 0.549755
320.997345 82.945396 0.000026 0.518382
347.908813 49.504208 14.752020 0.364338
347.908783 49.504219 12.995274 0.436642
347.980042 49.415928 11.283834 0.678431
347.908783 49.504219 9.551625 0.388235
347.908783 49.504219 7.856598 0.404289
347.980042 49.415936 6.183594 0.678431
347.908783 49.504219 4.500994 0.399877
347.908783 49.504215 2.833069 0.399020
347.908783 49.504215 1.166930 0.399387
341.505005 57.440674 -0.000007 0.537745
331.256622 70.141869 0.000062 0.522181
326.857025 75.594437 0.000055 0.546569
324.406830 78.631096 0.000021 0.533088
322.842407 80.569931 0.000031 0.505515
321.755096 81.917480 0.000038 0.490809
320.954071 82.910217 0.000020 0.532721
347.454651 49.504215 14.680899 0.419730
347.454651 49.504215 12.933949 0.430637
347.523499 49.417648 11.231652 0.678431
347.454651 49.504215 9.509508 0.416544
347.454651 49.504223 7.823934 0.413725
347.523499 49.417645 6.160081 0.678431
347.454651 49.504223 4.487045 0.424632
347.454651 49.504223 2.828423 0.416544
347.454651 49.504223 1.171577 0.431495
341.283203 57.262932 -0.000010 0.535539
331.123749 70.035416 0.000063 0.540074
326.762329 75.518562 0.000056 0.539828
324.333344 78.572289 0.000029 0.523529
322.782532 80.521980 0.000037 0.547181
321.704620 81.877098 0.000046 0.545833
320.910553 82.875374 0.000023 0.528309
347.005554 49.504211 14.611176 0.419485
347.005554 49.504211 12.873831 0.412868
347.072083 49.419342 11.180505 0.678431
347.005554 49.504211 9.468217 0.418873
347.005554 49.504215 7.791914 0.406618
347.072083 49.419342 6.137031 0.678431
347.005554 49.504211 4.473371 0.389338
347.005554 49.504215 2.823869 0.403676
347.005554 49.504215 1.176131 0.400735
341.060181 57.086796 -0.000010 0.538971
330.989960 69.930038 0.000081 0.533824
326.666931 75.443512 0.000079 0.517647
324.259460 78.513962 0.000031 0.553922
322.722290 80.474403 0.000033 0.552206
321.653900 81.837006 0.000041 0.533211
320.866730 82.840912 0.000050 0.519118
346.561310 49.504215 14.542824 0.410907
346.561310 49.504215 12.814894 0.389828
346.625610 49.421017 11.130361 0.678431
346.561310 49.504219 9.427738 0.412377
346.561310 49.504215 7.760521 0.407843
346.625610 49.421024 6.114434 0.678431
346.561310 49.504219 4.459966 0.397181
346.561310 49.504219 2.819402 0.357721
346.561310 49.504219 1.180597 0.350735
340.835876 56.912216 -0.000009 0.541544
330.855591 69.825462 0.000082 0.537868
326.571167 75.368958 0.000080 0.526716
324.185211 78.456116 0.000026 0.518505
322.661743 80.427261 0.000032 0.578799
321.602875 81.797333 0.000051 0.541176
320.822784 82.806664 0.000046 0.552574
346.121857 49.504215 14.475812 0.401225
346.121857 49.504215 12.757116 0.409559
346.183960 49.422688 11.081201 0.678431
346.121857 49.504223 9.388056 0.389338
346.121857 49.504223 7.729745 0.408333
346.183960 49.422688 6.092282 0.678431
346.121857 49.504230 4.446822 0.408211
346.121857 49.504219 2.815026 0.400000
346.121857 49.504215 1.184975 0.400000
340.610413 56.739185 -0.000010 0.534314
330.720551 69.721710 0.000072 0.534436
326.475037 75.294868 0.000049 0.534436
324.110504 78.398827 0.000028 0.541667
322.600830 80.380600 0.000044 0.567402
321.551575 81.757988 0.000054 0.568015
320.778564 82.772736 0.000048 0.490074
345.694946 49.493690 14.413411 0.410294
345.694977 49.493687 12.703310 0.405637
345.729980 49.447067 11.027832 0.478922
345.694946 49.493687 9.351105 0.331373
345.694977 49.493687 7.701087 0.398897
345.729980 49.447063 6.068233 0.493505
345.694946 49.493690 4.434585 0.362255
345.694946 49.493687 2.810949 0.400368
345.694946 49.493687 1.189052 0.359314
340.383698 56.567757 -0.000009 0.541789
330.584930 69.618736 0.000045 0.532843
326.378296 75.221611 0.000044 0.527451
324.035309 78.342216 0.000060 0.539951
322.539673 80.334267 0.000032 0.538848
321.500031 81.718948 0.000041 0.537377
320.734100 82.739120 0.000050 0.547672
345.694946 48.912048 14.530228 0.407721
345.694946 48.912052 12.804034 0.407476
345.774963 48.803913 11.126554 0.678309
345.694946 48.912048 9.420280 0.412868
345.694946 48.912056 7.754735 0.440441
345.774963 48.803913 6.112720 0.678431
345.694946 48.912052 4.457495 0.400613
345.694946 48.912048 2.818579 0.392034
345.694946 48.912048 1.181420 0.417892
340.155853 56.397873 -0.000011 0.541299
330.448303 69.517120 0.000061 0.549265
326.280884 75.149193 0.000060 0.549510
323.959869 78.285934 0.000054 0.571814
322.478149 80.288406 0.000033 0.497672
321.448212 81.680275 0.000030 0.517034
320.689423 82.705772 0.000037 0.521691
345.694946 48.319313 14.649885 0.388848
345.694946 48.319313 12.907210 0.403554
345.774963 48.209587 11.213711 0.678431
345.694946 48.319313 9.491142 0.353186
345.694946 48.319313 7.809693 0.437377
345.774963 48.209591 6.151995 0.678431
345.694946 48.319321 4.480963 0.444363
345.694946 48.319313 2.826397 0.436152
345.694946 48.319313 1.173602 0.425490
339.926788 56.229610 -0.000011 0.540196
330.311096 69.416275 0.000057 0.531863
326.183044 75.077377 0.000064 0.534191
323.884033 78.230194 0.000050 0.515809
322.416290 80.242966 0.000029 0.528064
321.396149 81.642006 0.000030 0.515931
320.644470 82.672783 0.000042 0.522549
345.694946 47.715141 14.772477 0.436152
345.694946 47.715134 13.012915 0.432475
345.774963 47.603783 11.303001 0.678431
345.694946 47.715141 9.563740 0.432353
345.694946 47.715137 7.865995 0.417034
345.774963 47.603783 6.192234 0.678431
345.694946 47.715137 4.505007 0.423162
345.694946 47.715141 2.834406 0.407843
345.694946 47.715141 1.165594 0.441422
339.696564 56.062954 -0.000011 0.536274
330.173218 69.316376 0.000051 0.541789
326.084778 75.006119 0.000051 0.561275
323.807770 78.175011 0.000052 0.533701
322.354187 80.197952 0.000025 0.544730
321.343781 81.604088 0.000028 0.571078
320.599365 82.640076 0.000036 0.500245
345.694946 47.099094 14.898107 0.403431
345.774963 46.986080 13.151142 0.678431
345.694946 47.099094 11.369310 0.409559
345.694946 47.099094 9.638136 0.415686
345.694946 47.099091 7.923693 0.394730
345.774963 46.986088 6.233467 0.673774
345.694946 47.099098 4.529646 0.422304
345.694946 47.099091 2.842613 0.407598
345.694946 47.099094 1.157387 0.404289
339.465179 55.897907 -0.000011 0.535172
330.034454 69.217674 0.000069 0.531740
325.985870 74.935814 0.000076 0.531250
323.731140 78.120369 0.000055 0.544485
322.291687 80.153397 0.000025 0.531495
321.291138 81.566551 0.000029 0.540196
320.553955 82.607750 0.000049 0.542892
345.694946 46.470783 15.026871 0.406985
345.720551 46.434082 13.241926 0.494730
345.694946 46.470776 11.462849 0.405760
345.694946 46.470783 9.714390 0.438113
345.694946 46.470779 7.982831 0.416667
345.720551 46.434086 6.267931 0.466544
345.694946 46.470783 4.554899 0.399877
345.694946 46.470779 2.851025 0.402206
345.694946 46.470779 1.148975 0.446814
339.232666 55.734486 -0.000011 0.542770
329.895233 69.119629 0.000056 0.530515
325.886627 74.865944 0.000064 0.537255
323.654114 78.066223 0.000051 0.540441
322.228882 80.109314 0.000035 0.546446
321.238220 81.529411 0.000038 0.551838
320.508362 82.575684 0.000042 0.559314
345.694946 45.829773 15.158879 0.413113
345.774963 45.713352 13.376593 0.678431
345.694946 45.829777 11.558738 0.408946
345.694946 45.829773 9.792562 0.392034
345.694946 45.829777 8.043457 0.425123
345.774963 45.713360 6.319057 0.678431
345.694946 45.829769 4.580791 0.409681
345.694946 45.829773 2.859648 0.432966
345.694946 45.829773 1.140351 0.407108
338.998993 55.572689 -0.000011 0.538235
329.755035 69.022957 0.000082 0.533824
325.786743 74.796982 0.000082 0.534559
323.576752 78.012634 0.000051 0.547426
322.165802 80.065620 0.000032 0.535784
321.185089 81.492599 0.000035 0.508333
320.462524 82.543953 0.000045 0.534681
345.694977 45.175598 15.294246 0.403676
345.774963 45.057419 13.493627 0.678431
345.694977 45.175606 11.657070 0.413480
345.694977 45.175598 9.872727 0.391667
345.694977 45.175594 8.105628 0.365931
345.774963 45.057419 6.363490 0.678431
345.694977 45.175610 4.607338 0.422917
345.694977 45.175602 2.868492 0.429534
345.694977 45.175602 1.131508 0.408088
338.764191 55.412537 -0.000011 0.532108
329.614471 68.926872 0.000070 0.543015
325.686554 74.728493 0.000069 0.533211
323.498993 77.959587 0.000048 0.532475
322.102448 80.022301 0.000016 0.534559
321.131714 81.456116 0.000020 0.543505
320.416534 82.512474 0.000024 0.564706
345.694977 44.507793 15.433093 0.394240
345.720581 44.469379 13.592490 0.498529
345.694977 44.507801 11.757927 0.399877
345.694977 44.507801 9.954948 0.411765
345.720581 44.469391 8.174705 0.490564
345.720551 44.469395 6.401021 0.469240
345.694946 44.507805 4.634569 0.405882
345.694946 44.507805 2.877563 0.437500
345.694946 44.507809 1.122437 0.393260
338.528290 55.254013 -0.000011 0.541299
329.473206 68.831772 0.000057 0.545466
325.585907 74.660706 0.000055 0.555025
323.420868 77.907089 0.000050 0.523284
322.038635 79.979713 0.000061 0.516422
321.078033 81.420067 0.000023 0.549755
320.370239 82.481415 0.000033 0.564951
345.774994 43.704048 15.612041 0.678431
345.774994 43.704037 13.736818 0.678431
345.694977 43.825867 11.861400 0.407230
345.694977 43.825863 10.039304 0.429657
345.774963 43.704056 8.251579 0.678431
345.774963 43.704056 6.455813 0.678431
345.694977 43.825878 4.662506 0.424877
345.694977 43.825874 2.886867 0.402206
345.694977 43.825874 1.113132 0.400490
338.291260 55.097145 -0.000011 0.534191
329.331116 68.737976 0.000075 0.531495
325.484711 74.593681 0.000050 0.533456
323.342407 77.855118 0.000046 0.529044
321.974670 79.937294 0.000046 0.539338
321.024139 81.384377 0.000019 0.497426
320.323730 82.450668 0.000039 0.490196
345.774994 43.005596 15.758604 0.678431
345.694946 43.129288 13.831370 0.427206
345.694946 43.129288 11.967579 0.435172
345.694946 43.129288 10.125860 0.399755
345.774963 43.005608 8.318892 0.678431
345.655975 43.189560 6.485827 0.343750
345.694946 43.129292 4.691174 0.409804
345.694946 43.129292 2.896417 0.419730
345.694946 43.129292 1.103583 0.380637
338.053162 54.941936 -0.000011 0.538235
329.188507 68.644936 0.000070 0.533333
325.383118 74.527321 0.000038 0.545833
323.263550 77.803734 0.000048 0.551225
321.910400 79.895393 0.000048 0.528799
320.969971 81.349106 0.000027 0.526961
320.277069 82.420212 0.000033 0.541054
345.720581 42.377316 15.883677 0.456005
345.694977 42.417503 13.960738 0.389338
345.694977 42.417500 12.076568 0.397181
345.694977 42.417507 10.214711 0.405882
345.720581 42.377316 8.376332 0.459069
345.694977 42.417507 6.540825 0.409681
345.694977 42.417515 4.720599 0.423529
345.694977 42.417503 2.906219 0.406863
345.694977 42.417503 1.093781 0.425858
337.814026 54.788391 -0.000012 0.539461
329.045197 68.552979 0.000072 0.546324
325.280945 74.461761 0.000040 0.535784
323.184296 77.752937 0.000059 0.524632
321.845795 79.853996 0.000060 0.545466
320.915558 81.314194 0.000031 0.533824
320.230133 82.390129 0.000042 0.527328
345.774994 41.562382 16.063503 0.678431
345.694977 41.689938 14.093563 0.408088
345.694977 41.689957 12.188467 0.418260
345.694977 41.689941 10.305938 0.409314
345.774994 41.562386 8.458923 0.678431
345.694977 41.689945 6.591251 0.415196
345.694977 41.689957 4.750811 0.402451
345.694977 41.689949 2.916283 0.408456
345.694977 41.689949 1.083717 0.410907
337.573792 54.636509 -0.000012 0.535294
328.901123 68.462173 0.000091 0.531127
325.178253 74.397102 0.000066 0.534436
323.104706 77.702667 0.000062 0.549387
321.780945 79.813004 0.000061 0.538848
320.860931 81.279617 0.000025 0.523039
320.183044 82.360291 0.000028 0.542279
345.774963 40.816460 16.222132 0.670588
345.694977 40.946007 14.229973 0.410784
345.694977 40.946007 12.303390 0.393627
345.694977 40.946003 10.399625 0.404289
345.774963 40.816460 8.531775 0.678431
345.694977 40.946018 6.643037 0.385049
345.694977 40.946014 4.781840 0.400245
345.694977 40.946018 2.926618 0.392402
345.694977 40.946018 1.073383 0.404779
337.332489 54.486328 -0.000012 0.537377
328.756775 68.371887 0.000062 0.538971
325.075348 74.332756 0.000037 0.525980
323.024872 77.652847 0.000048 0.566789
321.715851 79.772362 0.000042 0.528186
320.806061 81.245445 0.000020 0.528554
320.135742 82.330803 0.000015 0.571691
345.694977 40.185059 16.346512 0.422917
345.694977 40.185070 14.370103 0.411152
345.694977 40.185070 12.421443 0.401348
345.694946 40.185070 10.495866 0.407230
345.774963 40.053463 8.606616 0.678431
345.694977 40.185066 6.696240 0.436029
345.694946 40.185074 4.813714 0.389461
345.694977 40.185070 2.937236 0.415441
345.694946 40.185074 1.062766 0.399265
337.090149 54.337822 -0.000012 0.531127
328.611969 68.282265 -0.000001 0.538358
324.971771 74.269463 0.000054 0.540441
322.944641 77.603584 0.000033 0.545588
321.650421 79.732277 0.000044 0.529657
320.750916 81.211678 0.000023 0.526838
320.088196 82.301704 0.000025 0.557353
345.694946 39.406448 16.513515 0.407108
345.694946 39.406441 14.514104 0.404779
345.694946 39.406441 12.542760 0.410539
345.694946 39.406448 10.594766 0.382843
345.720581 39.363625 8.671340 0.461029
345.694946 39.406441 6.750906 0.405147
345.694946 39.406448 4.846467 0.403431
345.694946 39.406441 2.948145 0.388603
345.694946 39.406441 1.051855 0.412745
336.846771 54.191013 -0.000012 0.535049
328.466156 68.194321 0.000000 0.530637
324.867737 74.206970 0.000080 0.534926
322.864014 77.555038 0.000046 0.552696
321.584625 79.692757 0.000068 0.554289
320.695526 81.178406 0.000052 0.544608
320.040466 82.272942 0.000033 0.556127
345.694977 38.609440 16.685177 0.434804
345.694946 38.609447 14.662114 0.405147
345.694946 38.609451 12.667455 0.429044
345.774994 38.473610 10.719807 0.678431
345.774994 38.473610 8.762573 0.678431
345.694946 38.609451 6.807097 0.430270
345.694946 38.609447 4.880135 0.419118
345.694946 38.609451 2.959359 0.405024
345.694946 38.609451 1.040640 0.408701
336.602386 54.045910 -0.000012 0.536397
328.319763 68.107376 -0.000001 0.526103
324.763428 74.144913 0.000067 0.530637
322.783020 77.507042 0.000057 0.532843
321.518646 79.653587 0.000070 0.525490
320.639893 81.145447 0.000065 0.576961
319.992493 82.244522 0.000043 0.542525
345.694977 37.793324 16.861679 0.415564
345.694977 37.793324 14.814301 0.399142
345.694977 37.793324 12.795669 0.374387
345.774963 37.655281 10.824614 0.678431
345.774963 37.655281 8.843855 0.678431
345.694977 37.793320 6.864876 0.400858
345.694946 37.793331 4.914751 0.402206
345.694977 37.793324 2.970891 0.398775
345.694977 37.793320 1.029110 0.433333
336.356995 53.902519 -0.000012 0.540809
328.172699 68.021477 0.000000 0.525613
324.658661 74.083679 0.000068 0.535172
322.701813 77.459480 0.000043 0.540931
321.452423 79.614792 0.000051 0.546691
320.584106 81.112778 0.000053 0.520956
319.944397 82.216354 0.000029 0.570588
355.487061 19.789547 21.993856 0.417034
355.487061 19.789555 19.239454 0.396814
355.487061 19.789562 16.523731 0.436520
355.487061 19.789555 13.840169 0.397181
355.532684 19.709541 11.193140 0.678431
355.532684 19.709557 8.552412 0.678431
355.532684 19.709534 5.925828 0.678309
355.532684 19.709549 3.307675 0.678431
355.487061 19.789562 0.693834 0.408946
336.110626 53.760841 -0.000012 0.539828
328.025085 67.936584 -0.000001 0.536520
324.553436 74.023155 0.000063 0.540564
322.620209 77.412537 0.000040 0.517892
321.385925 79.576546 0.000053 0.531618
