# This PCD file was generated using the MATLABÂ® pcwrite function
# from Computer Vision ToolboxÂ®.
# .PCD v.7 - Point Cloud Data file format
VERSION .7
FIELDS x y z intensity
SIZE 4 4 4 4
TYPE F F F F
COUNT 1 1 1 1
WIDTH 1285
HEIGHT 1
VIEWPOINT 0 0 0 1 0 0 0
POINTS 1285
DATA ascii
255.919449 92.020515 3.242663 0.504534
255.782227 92.000237 2.737716 0.511152
nan nan nan 0.000000
nan nan nan 0.000000
281.200531 95.757607 -0.000009 0.535417
265.056519 93.371170 -0.000001 0.535172
258.125397 92.346603 -0.000006 0.550123
254.265076 91.775963 -0.000004 0.528186
251.800354 91.411629 0.000039 0.331740
250.087646 91.158455 0.000007 0.334926
248.825668 90.971901 0.000007 0.339216
256.137878 91.944405 5.847636 0.505637
257.074585 92.076195 5.521872 0.505515
256.257935 91.961296 4.817019 0.502328
254.899933 91.770233 4.093091 0.505392
255.511292 91.856247 3.694304 0.512990
255.964813 91.920052 3.245167 0.505882
256.921753 92.054688 2.793507 0.509191
257.222198 92.096962 2.269278 0.505882
nan nan nan 0.000000
281.241180 95.476311 -0.000011 0.533824
265.080872 93.202637 -0.000005 0.540809
258.142731 92.226471 -0.000006 0.535294
254.278503 91.682800 -0.000004 0.536765
251.811493 91.335701 0.000008 0.337745
250.096878 91.094467 0.000007 0.329657
248.833633 90.916733 0.000007 0.329412
nan nan nan 0.000000
nan nan nan 0.000000
256.277649 91.854881 4.817939 0.513113
254.944321 91.676781 4.097732 0.501593
255.562592 91.759369 3.698635 0.517157
256.035583 91.822548 3.249832 0.528064
256.464630 91.879860 2.770089 0.504167
257.275909 91.988235 2.269907 0.505882
nan nan nan 0.000000
281.279755 95.194717 -0.000009 0.538113
265.103943 93.033920 -0.000001 0.543627
258.159210 92.106232 -0.000006 0.526348
254.291290 91.589546 -0.000004 0.523407
251.821930 91.259674 0.000008 0.337132
250.105652 91.030418 0.000007 0.336397
248.841202 90.861504 0.000007 0.334559
256.753601 91.806107 5.995922 0.515441
256.649597 91.792953 5.422796 0.503799
256.297363 91.748398 4.818997 0.516299
254.988815 91.582886 4.102480 0.504044
255.624771 91.663330 3.704304 0.502206
256.064728 91.718971 3.251105 0.508088
257.080383 91.847443 2.799883 0.505882
nan nan nan 0.000000
nan nan nan 0.000000
281.316467 94.912888 -0.000012 0.539706
265.126038 92.865074 -0.000010 0.531373
258.174866 91.985870 -0.000006 0.530147
254.303436 91.496201 -0.000004 0.546201
251.831802 91.183586 0.000008 0.331740
250.113998 90.966309 0.000007 0.332108
248.848389 90.806236 0.000007 0.331005
256.758789 91.694565 5.993808 0.508333
256.654877 91.682159 5.421011 0.511152
256.303467 91.640198 4.817697 0.505760
255.033432 91.488564 4.107340 0.507230
255.179794 91.506035 3.651288 0.505270
256.063995 91.611610 3.249969 0.506373
257.160797 91.742561 2.803176 0.508333
nan nan nan 0.000000
nan nan nan 0.000000
281.351074 94.630783 -0.000010 0.536152
265.146790 92.696053 -0.000007 0.527819
258.189667 91.865402 -0.000007 0.544118
254.314926 91.402779 -0.000004 0.526716
251.841187 91.107422 0.000008 0.338113
250.121887 90.902145 0.000007 0.341667
248.855194 90.750908 0.000007 0.332966
256.764008 91.583138 5.991893 0.507598
256.516663 91.555351 5.388198 0.494118
256.337158 91.535194 4.821588 0.508946
255.078140 91.393784 4.112313 0.508701
255.763992 91.470818 3.717584 0.511642
255.929932 91.489456 3.237899 0.502941
256.345978 91.536186 2.762245 0.505147
264.746643 92.479759 2.392232 0.522672
nan nan nan 0.000000
281.383881 94.348473 -0.000012 0.536274
265.166351 92.526901 -0.000005 0.542279
258.203644 91.744843 -0.000007 0.549142
254.325760 91.309273 -0.000004 0.526716
251.850021 91.031197 0.000006 0.336029
250.129333 90.837929 0.000007 0.342157
248.861618 90.695534 0.000007 0.334681
256.354309 91.428146 5.885668 0.505882
256.470062 91.440323 5.375507 0.505882
256.357178 91.428452 4.823113 0.499510
255.123016 91.298546 4.117400 0.508088
255.643585 91.353340 3.702351 0.510049
255.419357 91.329735 3.194863 0.508824
257.494751 91.548187 2.818415 0.524142
257.492828 91.547981 2.272578 0.511029
nan nan nan 0.000000
281.414459 94.065903 -0.000005 0.537623
265.184692 92.357605 -0.000001 0.532843
258.216766 91.624184 -0.000008 0.536765
254.335938 91.215698 -0.000005 0.540686
251.858322 90.954910 0.000006 0.332353
250.136322 90.773659 0.000006 0.336275
248.867630 90.640121 0.000006 0.329534
255.663681 91.251503 5.709081 0.506127
256.423553 91.326126 5.363016 0.500245
256.377319 91.321587 4.824791 0.507230
256.365723 91.320450 4.301123 0.515074
255.280609 91.213890 3.659182 0.523775
256.026855 91.287170 3.244065 0.504657
257.232513 91.405571 2.804888 0.530392
257.097656 91.392326 2.265887 0.531985
nan nan nan 0.000000
281.443298 93.783150 -0.000009 0.535294
265.202057 92.188210 -0.000011 0.531250
258.229065 91.503433 -0.000006 0.537990
254.345459 91.122055 -0.000004 0.557353
251.866089 90.878563 0.000005 0.325123
250.142868 90.709335 0.000007 0.334559
248.873276 90.584663 0.000006 0.335907
257.744751 91.337410 6.230081 0.507598
256.676208 91.239998 5.415589 0.481863
256.397552 91.214600 4.826623 0.513848
255.213120 91.106628 4.127923 0.508701
255.363235 91.120308 3.667632 0.502696
255.284973 91.113182 3.182160 0.508088
256.982574 91.267929 2.792028 0.512623
257.601959 91.324394 2.273998 0.519118
nan nan nan 0.000000
281.470032 93.500198 -0.000006 0.535539
265.218109 92.018677 -0.000009 0.541789
258.240479 91.382599 -0.000006 0.518505
254.354340 91.028343 -0.000003 0.536274
251.872681 90.802116 0.000120 0.333333
250.148956 90.644981 0.000006 0.328431
248.878525 90.529175 0.000006 0.337255
255.873810 91.061707 5.757187 0.504902
255.484650 91.028969 5.155242 0.505147
256.417969 91.107483 4.828618 0.506618
256.396820 91.105705 4.302826 0.514706
255.591843 91.037979 3.693004 0.503186
255.456909 91.026634 3.195586 0.506005
257.793091 91.223167 2.831501 0.506373
257.656250 91.211655 2.274722 0.506250
nan nan nan 0.000000
281.292084 93.200005 0.009989 1.000000
265.232941 91.849037 -0.000006 0.550368
258.251099 91.261696 -0.000006 0.543382
254.362549 90.934570 -0.000004 0.542034
251.879440 90.725685 0.000110 0.339461
250.154602 90.580582 0.000006 0.325858
248.883408 90.473648 0.000006 0.342034
255.893372 90.958183 5.759985 0.505515
256.686890 91.019363 5.413894 0.510539
255.352142 90.916458 4.632519 0.521324
255.303818 90.912735 4.138916 0.526348
255.182480 90.903381 3.644819 0.506373
255.030502 90.891663 3.159846 0.510784
257.810089 91.105965 2.831871 0.508211
259.242188 91.216370 2.300596 0.512132
nan nan nan 0.000000
281.517883 92.933777 -0.000017 0.333088
265.246582 91.679298 -0.000003 0.545466
258.260864 91.140717 -0.000007 0.537868
254.370117 90.840752 -0.000005 0.536642
251.885666 90.649200 0.000100 0.339828
250.159805 90.516144 0.000005 0.333456
248.887878 90.418076 0.000006 0.332475
255.912964 90.854515 5.762978 0.505270
254.870117 90.781433 5.018794 0.507475
255.046280 90.793777 4.575375 0.507843
255.386765 90.817642 4.150153 0.516054
255.437698 90.821205 3.673406 0.503064
254.980118 90.789139 3.155108 0.510784
258.447662 91.032135 2.862842 0.518137
259.150635 91.081398 2.298940 0.505515
nan nan nan 0.000000
281.538727 92.650330 -0.000015 0.332475
265.259186 91.509483 -0.000011 0.527451
258.269775 91.019669 -0.000007 0.563235
254.377045 90.746872 -0.000006 0.521201
251.891357 90.572685 0.000090 0.336520
250.164551 90.451668 0.000005 0.332843
248.891953 90.362488 0.000006 0.335049
255.932648 90.750671 5.766167 0.505760
254.577774 90.665222 4.954125 0.508578
254.853012 90.682579 4.538944 0.502083
258.992737 90.943657 4.685113 0.510294
255.729355 90.737846 3.706246 0.507843
254.178604 90.640045 3.088722 0.522549
258.364502 90.904030 2.858346 0.512623
266.483276 91.416054 2.419030 0.508211
nan nan nan 0.000000
281.557678 92.366745 -0.000019 0.331985
265.270477 91.339569 -0.000010 0.526348
258.277802 90.898567 -0.000007 0.529167
254.383286 90.652954 -0.000006 0.547426
251.896347 90.496117 0.000108 0.333946
250.168854 90.387169 0.000005 0.332966
248.895676 90.306870 0.000006 0.331373
255.676025 90.631149 5.700221 0.506985
257.915527 90.756699 5.674916 0.520588
256.084076 90.654022 4.762238 0.511275
255.192474 90.604042 4.119396 0.504167
255.156082 90.601997 3.639485 0.517279
254.360046 90.557373 3.103170 0.510662
258.278290 90.777031 2.853749 0.511152
266.357635 91.229958 2.416797 0.519485
nan nan nan 0.000000
281.574493 92.083023 -0.000015 0.332598
265.280548 91.169586 -0.000008 0.542402
258.285034 90.777412 -0.000007 0.521691
254.388885 90.558990 -0.000006 0.537255
251.901459 90.419548 0.000008 0.333456
250.172684 90.322632 0.000005 0.339828
248.898987 90.251228 0.000006 0.337745
255.795380 90.533752 5.728792 0.505882
255.731613 90.530624 5.201319 0.533211
257.125397 90.599007 4.950933 0.512990
255.456573 90.517128 4.157839 0.507843
254.420975 90.466324 3.554215 0.505882
254.610138 90.475601 3.123296 0.524387
257.434082 90.614151 2.811912 0.515564
266.234009 91.045868 2.414618 0.509191
nan nan nan 0.000000
281.589508 91.799202 -0.000020 0.331863
265.289459 90.999527 -0.000005 0.545956
258.291382 90.656204 -0.000006 0.547549
254.393829 90.464996 -0.000005 0.547181
251.905579 90.342926 -0.000009 0.337990
250.176071 90.258072 0.000005 0.329779
248.901917 90.195564 0.000004 0.325245
255.679260 90.424858 5.698498 0.506373
256.143524 90.444382 5.289342 0.516299
258.192291 90.530556 5.144291 0.523407
255.429428 90.414345 4.153124 0.512255
254.611847 90.379951 3.575698 0.501471
254.623718 90.380455 3.124053 0.504412
262.197571 90.699036 3.045876 0.518260
nan nan nan 0.000000
nan nan nan 0.000000
281.602448 91.515274 -0.000020 0.332108
265.297150 90.829422 -0.000002 0.546201
258.296906 90.534958 -0.000006 0.553922
254.398102 90.370964 -0.000005 0.539216
251.908859 90.266251 0.000028 0.340441
250.179031 90.193489 0.000004 0.335539
248.904449 90.139877 0.000005 0.338480
255.680878 90.321762 5.697906 0.506373
256.144470 90.338028 5.288662 0.505882
255.555283 90.317360 4.663327 0.506373
255.354126 90.310310 4.141366 0.525735
255.212524 90.305336 3.644418 0.493015
254.696960 90.287262 3.129761 0.506618
254.946884 90.296021 2.689172 0.510417
nan nan nan 0.000000
nan nan nan 0.000000
264.495972 90.630928 0.841422 0.556985
265.303894 90.659264 -0.000013 0.538971
258.301575 90.413681 -0.000006 0.551961
254.401733 90.276901 -0.000006 0.542402
251.911926 90.189575 0.000011 0.329902
250.181519 90.128899 0.000004 0.337010
248.906601 90.084175 0.000005 0.331250
255.208069 90.205383 5.578611 0.519608
255.842896 90.223213 5.222778 0.506618
255.738510 90.220276 4.696093 0.511275
255.279434 90.207390 4.129811 0.508088
254.833801 90.194878 3.600470 0.509436
254.707672 90.191330 3.130390 0.517402
255.106781 90.202545 2.696878 0.507721
264.490051 90.466057 2.385735 0.592892
264.418182 90.464035 1.615442 0.551716
264.417328 90.464012 0.845544 0.574265
264.369965 90.462685 0.077037 0.548162
258.305420 90.292366 -0.000006 0.537132
254.404709 90.182823 -0.000006 0.530147
251.914444 90.112885 -0.000006 0.338113
250.183563 90.064278 0.000005 0.338603
248.908356 90.028465 0.000004 0.331373
258.347748 90.171860 6.364618 0.511275
255.600159 90.113899 5.169786 0.531863
255.842667 90.119011 4.714588 0.508211
255.205521 90.105568 4.118478 0.508456
254.700470 90.094910 3.584853 0.505882
255.008423 90.101418 3.154861 0.511887
259.234619 90.190575 2.899593 0.522304
256.992859 90.143280 2.262958 0.569730
256.953522 90.142448 1.737686 0.570098
256.911133 90.141556 1.214579 0.587010
256.880707 90.140915 0.691586 0.642524
256.942047 90.142212 0.157216 0.571569
254.407013 90.088722 -0.000006 0.558088
251.916412 90.036171 -0.000022 0.330025
250.184753 89.999641 0.000089 0.319485
248.909729 89.972740 0.000004 0.338358
255.692673 90.012733 5.698958 0.505882
256.148743 90.019173 5.287889 0.546814
256.552887 90.024872 4.843496 0.575613
255.839203 90.014801 4.212225 0.515074
254.566483 89.996834 3.569243 0.505024
254.872482 90.001152 3.143572 0.495466
256.960938 90.030632 2.787771 0.594363
256.940643 90.030342 2.262070 0.559681
256.882813 90.029533 1.738876 0.577696
256.908936 90.029900 1.214784 0.599877
256.871094 90.029366 0.692535 0.541912
256.826294 90.028732 0.170758 0.556127
254.408691 89.994614 -0.000006 0.533824
251.917877 89.959457 -0.000043 0.331863
250.185822 89.935005 0.000106 0.337868
248.910706 89.917007 0.000004 0.341299
255.708069 89.909744 5.702538 0.506250
255.627380 89.909164 5.175043 0.508211
255.533264 89.908501 4.657753 0.520221
255.983948 89.911713 4.233532 0.532475
254.430313 89.900635 3.553461 0.512623
254.678131 89.902405 3.127551 0.513971
255.043915 89.905006 2.693533 0.516544
266.526611 89.986916 2.418920 0.511029
256.965088 89.918716 1.737549 0.589706
281.637329 90.094688 -0.000018 0.332108
265.318237 89.978287 -0.000013 0.533088
256.875244 89.918068 0.165265 0.604412
254.409683 89.900482 -0.000006 0.528186
251.918640 89.882713 -0.000034 0.329902
250.186539 89.870361 0.000096 0.329167
248.911301 89.861267 0.000004 0.336152
255.607712 89.806541 5.677308 0.506005
255.155792 89.806473 5.073107 0.515686
258.100891 89.806915 5.124882 0.513113
256.067535 89.806610 4.245874 0.500368
254.907822 89.806435 3.608355 0.507966
254.636642 89.806389 3.124121 0.501103
258.681610 89.806999 2.872223 0.506127
258.930328 89.807045 2.294604 0.506495
nan nan nan 0.000000
281.638367 89.810471 -0.000017 0.331985
265.318848 89.808006 -0.000011 0.544976
258.312286 89.806953 -0.000006 0.537990
254.410004 89.806358 -0.000005 0.526471
251.918884 89.805977 -0.000026 0.330025
250.186829 89.805717 0.000086 0.340686
248.911514 89.805527 0.000004 0.337990
255.615097 89.703995 5.679244 0.503554
255.606903 89.704056 5.170611 0.501716
255.912796 89.701958 4.726807 0.516667
255.439133 89.705193 4.152710 0.514338
255.330139 89.705940 3.656976 0.505882
258.450928 89.684624 3.436908 0.475000
259.724121 89.675934 2.923460 0.512377
nan nan nan 0.000000
nan nan nan 0.000000
281.637390 89.526260 -0.000017 0.332475
265.318207 89.637718 -0.000007 0.544853
258.311859 89.685577 -0.000006 0.537868
254.409698 89.712234 -0.000005 0.516912
251.918594 89.729248 -0.000021 0.335049
250.186646 89.741074 0.000077 0.331373
248.911331 89.749786 0.000004 0.334069
255.280457 89.606071 5.595674 0.502819
255.691483 89.600388 5.189111 0.510662
255.633301 89.601196 4.676143 0.510784
255.401093 89.604401 4.147222 0.514828
254.524307 89.616508 3.564384 0.512377
254.371307 89.618622 3.102468 0.504657
258.812775 89.557274 2.878751 0.506618
259.065063 89.553795 2.296837 0.505882
nan nan nan 0.000000
281.634460 89.242050 -0.000016 0.331373
265.316437 89.467445 -0.000005 0.534559
258.310608 89.564209 -0.000006 0.531985
254.408737 89.618103 -0.000005 0.524265
251.917892 89.652512 -0.000038 0.333578
250.186234 89.676430 0.000025 0.338603
248.910736 89.694046 0.000006 0.334069
255.355988 89.504265 5.615034 0.500490
255.772400 89.495605 5.206975 0.514828
257.247589 89.464928 4.970261 0.526103
255.362946 89.504112 4.141822 0.504412
254.861115 89.514549 3.603328 0.509069
254.824402 89.515312 3.139762 0.507721
258.357788 89.441833 2.856501 0.507721
266.328827 89.276070 2.415762 0.538603
nan nan nan 0.000000
281.426117 88.962112 0.009979 1.000000
265.313599 89.297180 -0.000013 0.533824
258.308533 89.442863 -0.000007 0.537500
254.407120 89.523994 -0.000006 0.545221
251.916428 89.575790 -0.000012 0.329534
250.185211 89.611794 0.000003 0.337132
248.909775 89.638313 0.000006 0.337868
255.432114 89.401352 5.634724 0.506985
255.707596 89.393692 5.193518 0.499020
257.238525 89.351166 4.969113 0.531005
254.704651 89.421562 4.044499 0.506495
255.045151 89.412102 3.624780 0.515686
255.510468 89.399178 3.196231 0.506740
258.396393 89.319000 2.858545 0.503554
259.200989 89.296646 2.299148 0.517157
nan nan nan 0.000000
281.419159 88.679390 0.009985 1.000000
265.309448 89.126945 -0.000011 0.540931
258.305573 89.321526 -0.000007 0.529657
254.404831 89.429886 -0.000006 0.516912
251.914505 89.499069 -0.000003 0.331740
250.183716 89.547157 -0.000013 0.336520
248.908417 89.582588 0.000006 0.334681
255.392349 89.301369 5.625551 0.504779
255.673584 89.291595 5.186864 0.520466
256.195648 89.273438 4.779888 0.506373
255.296539 89.304703 4.132795 0.536887
255.136246 89.310272 3.635621 0.568137
255.476059 89.298462 3.193668 0.506373
258.500580 89.193298 2.863853 0.506373
259.294464 89.165695 2.300744 0.505882
nan nan nan 0.000000
281.410217 88.396736 0.009989 1.000000
265.304138 88.956741 -0.000013 0.531373
258.301758 89.200203 -0.000007 0.550613
254.401886 89.335808 -0.000005 0.549020
251.912140 89.422371 -0.000008 0.332598
250.181625 89.482544 -0.000001 0.334804
248.906677 89.526871 0.000005 0.337132
255.629272 89.190346 5.685920 0.505882
255.568192 89.192894 5.164934 0.520833
257.218353 89.123978 4.966879 0.508578
255.258286 89.205841 4.127687 0.516299
255.305344 89.203865 3.655529 0.516667
255.440948 89.198204 3.191107 0.501716
259.098724 89.045456 2.893494 0.494975
nan nan nan 0.000000
nan nan nan 0.000000
281.399506 88.114151 0.009984 1.000000
265.297607 88.786583 -0.000011 0.534069
258.297150 89.078926 -0.000007 0.521814
254.398270 89.241745 -0.000005 0.560172
251.909286 89.345695 -0.000025 0.340686
250.179123 89.417946 0.000008 0.337868
248.904541 89.471176 0.000005 0.327083
255.672318 89.085388 5.697878 0.506250
255.621078 89.087891 5.177371 0.506250
255.766144 89.080818 4.703267 0.529289
255.447708 89.096344 4.156490 0.514338
255.195541 89.108643 3.643404 0.518873
255.402695 89.098541 3.188342 0.512868
258.485229 88.948242 2.863601 0.502451
263.709229 88.693535 2.373248 0.517402
nan nan nan 0.000000
281.386810 87.831635 0.009980 1.000000
265.289856 88.616470 -0.000009 0.536887
258.291656 88.957680 -0.000007 0.540319
254.394028 89.147720 -0.000005 0.564216
251.905640 89.269043 0.000010 0.336029
250.176147 89.353371 0.000018 0.327083
248.902039 89.415482 0.000005 0.342279
255.755569 88.977524 5.720113 0.496446
255.710800 88.980019 5.197941 0.526348
255.758469 88.977364 4.702855 0.514828
255.181122 89.009560 4.117671 0.520221
255.224442 89.007141 3.647333 0.504534
255.713593 88.979866 3.214309 0.509559
258.528656 88.822906 2.866053 0.501716
nan nan nan 0.000000
nan nan nan 0.000000
281.372101 87.549217 0.009977 1.000000
265.280945 88.446419 -0.000007 0.532108
258.285309 88.836472 -0.000007 0.530882
254.389114 89.053719 -0.000006 0.536152
251.901718 89.192413 -0.000003 0.330270
250.173065 89.288795 -0.000045 0.343382
248.898773 89.359840 0.000095 0.335172
255.839218 88.868393 5.742646 0.522672
255.707062 88.876686 5.198453 0.539461
255.689453 88.877792 4.691390 0.504534
255.489502 88.890343 4.164383 0.505760
255.242691 88.905830 3.650119 0.480392
255.740753 88.874573 3.217042 0.508088
258.582062 88.696236 2.869040 0.504167
263.900879 88.362419 2.376681 0.512623
nan nan nan 0.000000
281.558258 87.254189 -0.000010 0.331863
265.270996 88.276428 -0.000015 0.530025
258.278137 88.715317 -0.000007 0.542892
254.383530 88.959755 -0.000005 0.534804
251.897095 89.115807 0.000009 0.337377
250.169113 89.224266 -0.000016 0.334681
248.895401 89.304207 0.000110 0.330637
255.923172 88.757965 5.765459 0.513971
255.697144 88.773735 5.197786 0.505882
255.488251 88.788322 4.655935 0.505760
255.373901 88.796295 4.148194 0.513113
255.204056 88.808144 3.646427 0.505882
258.392944 88.585640 3.435599 0.504779
263.375580 88.237976 3.105505 0.519730
263.730286 88.213226 2.374057 0.512868
nan nan nan 0.000000
281.336700 86.984741 0.009976 1.000000
265.259674 88.106514 -0.000012 0.525980
258.270111 88.594208 -0.000006 0.531127
254.377319 88.865837 -0.000005 0.527206
251.891968 89.039246 0.000019 0.333456
250.164795 89.159760 -0.000007 0.332230
248.891754 89.248589 0.000102 0.335784
256.374481 88.618057 5.880762 0.512377
255.689621 88.670654 5.197789 0.524510
255.323700 88.698746 4.627268 0.504167
255.179718 88.709808 4.120404 0.510907
255.093842 88.716400 3.634555 0.517892
255.111649 88.715027 3.166493 0.527328
264.424316 87.999870 3.157744 0.506863
nan nan nan 0.000000
nan nan nan 0.000000
281.316071 86.702690 0.009974 1.000000
265.247192 87.936684 -0.000009 0.521814
258.261230 88.473160 -0.000006 0.522549
254.370438 88.771950 -0.000005 0.516299
251.886459 88.962708 0.000000 0.339461
250.160034 89.095291 -0.000000 0.333824
248.887711 89.192993 0.000093 0.333333
256.451141 88.503082 5.902215 0.578676
255.683167 88.567459 5.198184 0.507230
255.116592 88.614952 4.590925 0.504412
255.527008 88.580551 4.173289 0.523652
255.024307 88.622688 3.627442 0.529289
256.963196 88.460167 3.319498 0.522181
256.219727 88.522484 2.753915 0.518015
nan nan nan 0.000000
nan nan nan 0.000000
281.293365 86.420807 0.009976 1.000000
265.233612 87.766945 -0.000012 0.543750
258.251526 88.352180 -0.000006 0.548162
254.362900 88.678131 -0.000006 0.542647
251.880325 88.886215 0.000000 0.335784
250.154938 89.030838 -0.000015 0.338235
248.883240 89.137428 0.000096 0.335172
256.468506 88.392303 5.908960 0.506373
255.672531 88.464630 5.197831 0.530270
255.512405 88.479172 4.664820 0.507230
255.515305 88.478912 4.172871 0.504289
255.442566 88.485512 3.676751 0.515319
256.892303 88.353798 3.314467 0.524510
257.130981 88.332123 2.799325 0.504534
256.832886 88.359200 2.261353 0.505882
nan nan nan 0.000000
281.268677 86.139091 0.009980 1.000000
265.218689 87.597313 -0.000002 0.533333
258.240936 88.231277 -0.000003 0.538725
254.354721 88.584351 -0.000006 0.537745
251.873581 88.809776 0.000010 0.334191
250.149277 88.966438 -0.000010 0.330147
248.878708 89.081879 0.000016 0.326716
256.542633 88.275581 5.930194 0.509436
256.649445 88.265129 5.411938 0.523039
255.714493 88.356659 4.703526 0.526103
255.563858 88.371399 4.181542 0.497426
255.442688 88.383263 3.677870 0.498652
256.370789 88.292404 3.272366 0.521814
256.457001 88.283974 2.766583 0.497304
256.712189 88.258987 2.259541 0.512868
nan nan nan 0.000000
281.242035 85.857552 0.009985 1.000000
265.202637 87.427788 0.000001 0.540196
258.229523 88.110443 -0.000000 0.530515
254.345871 88.490646 -0.000006 0.543260
251.866302 88.733391 0.000025 0.329289
250.143188 88.902077 -0.000005 0.333211
248.873489 89.026382 0.000013 0.329657
256.559357 88.163689 5.937190 0.505882
256.510040 88.168869 5.384081 0.519608
256.479248 88.172096 4.845355 0.512500
255.315475 88.294235 4.146040 0.504412
255.905807 88.232277 3.732629 0.513848
256.007538 88.221603 3.243318 0.518750
256.566925 88.162895 2.772556 0.509559
256.598663 88.159569 2.257857 0.506127
nan nan nan 0.000000
281.415833 85.554962 -0.000009 0.332721
265.185425 87.258362 0.000004 0.538603
258.217255 87.989693 0.000001 0.537623
254.336380 88.396996 -0.000006 0.553064
251.858627 88.657036 0.000010 0.331985
250.136734 88.837753 -0.000021 0.341544
248.867920 88.970917 -0.000002 0.331005
256.631042 88.045242 5.958241 0.504779
255.653473 88.154747 5.200490 0.521324
256.370209 88.074455 4.827547 0.526593
256.659363 88.042068 4.348260 0.503186
255.203949 88.205093 3.652695 0.500245
254.496307 88.284363 3.119572 0.506373
256.531128 88.056435 2.771373 0.512868
256.269989 88.085678 2.252640 0.518260
nan nan nan 0.000000
281.385071 85.272415 -0.000005 0.331618
265.167084 87.089073 0.000001 0.535784
258.204163 87.869026 -0.000001 0.556373
254.326233 88.303413 -0.000006 0.531495
251.850449 88.580742 -0.000006 0.336520
250.129776 88.773483 -0.000026 0.338113
248.861816 88.915512 0.000021 0.335172
256.585754 87.939537 5.950010 0.507598
256.570068 87.941406 5.402431 0.512745
256.319855 87.971199 4.820603 0.506863
255.158981 88.109451 4.126020 0.507843
255.708405 88.044014 3.712471 0.500980
255.134262 88.112396 3.173154 0.511397
256.447510 87.956001 2.767858 0.506005
nan nan nan 0.000000
nan nan nan 0.000000
281.352509 84.990067 -0.000008 0.333333
265.147644 86.919899 -0.000008 0.535294
258.190338 87.748444 -0.000009 0.540809
254.315414 88.209915 -0.000006 0.523284
251.841660 88.504509 -0.000008 0.334314
250.122314 88.709267 -0.000017 0.331373
248.855392 88.860138 0.000029 0.331495
nan nan nan 0.000000
nan nan nan 0.000000
255.682022 87.942604 4.706040 0.513480
255.077774 88.018845 4.115700 0.506373
255.651581 87.946442 3.707349 0.517770
255.953140 87.908394 3.241836 0.521201
256.578033 87.829544 2.774979 0.504534
256.256439 87.870117 2.252837 0.532843
nan nan nan 0.000000
281.317810 84.707977 -0.000002 0.332108
265.126892 86.750885 -0.000005 0.535539
258.175537 87.627975 -0.000008 0.550123
254.303970 88.116486 -0.000006 0.538113
251.832214 88.428352 0.000010 0.333456
250.114517 88.645088 -0.000029 0.325980
248.848663 88.804810 0.000014 0.334559
nan nan nan 0.000000
256.514740 87.726875 5.396381 0.527451
257.865875 87.546806 5.109371 0.506005
255.000168 87.928734 4.106003 0.509069
256.087372 87.783836 3.759472 0.495466
255.888321 87.810364 3.237598 0.499265
256.598175 87.715759 2.776679 0.509926
256.150543 87.775414 2.251318 0.508456
nan nan nan 0.000000
281.281219 84.426125 -0.000002 0.331985
265.104980 86.582024 -0.000004 0.536887
258.159912 87.507622 -0.000007 0.535172
254.291855 88.023132 -0.000006 0.553431
251.822464 88.352242 -0.000013 0.327206
250.106033 88.581001 0.000006 0.337990
248.841461 88.749535 0.000021 0.330637
nan nan nan 0.000000
256.490814 87.619385 5.394404 0.498529
255.665100 87.735298 4.707969 0.506495
254.916290 87.840424 4.095450 0.500368
256.009979 87.686882 3.752162 0.505882
256.285706 87.648170 3.271687 0.499877
256.618011 87.601524 2.778405 0.506127
nan nan nan 0.000000
nan nan nan 0.000000
281.242798 84.144531 -0.000006 0.332108
265.081909 86.413300 -0.000005 0.531618
258.143463 87.387367 -0.000008 0.543260
254.279099 87.929871 -0.000006 0.549387
251.812027 88.276222 -0.000005 0.335172
250.097305 88.516945 -0.000002 0.334926
248.834061 88.694283 -0.000016 0.337377
nan nan nan 0.000000
256.472321 87.511200 5.393783 0.520711
255.658539 87.631241 4.709487 0.498897
255.378769 87.672508 4.166903 0.535784
256.562225 87.497940 3.818142 0.514461
257.317017 87.386597 3.358439 0.508333
256.005829 87.580017 2.748787 0.507353
nan nan nan 0.000000
nan nan nan 0.000000
281.202271 83.863220 -0.000004 0.331618
265.057617 86.244751 -0.000003 0.528922
258.126160 87.267242 -0.000006 0.542647
254.265686 87.836708 -0.000006 0.553799
251.801117 88.200256 -0.000010 0.326593
250.088013 88.452965 0.000015 0.345711
248.826187 88.639107 -0.000034 0.333701
nan nan nan 0.000000
256.429169 87.406868 5.387936 0.502819
nan nan nan 0.000000
255.296478 87.582047 4.156840 0.497917
255.868362 87.493599 3.739289 0.513113
256.265503 87.432182 3.272629 0.508824
256.891846 87.335312 2.793622 0.510417
nan nan nan 0.000000
nan nan nan 0.000000
281.159882 83.582184 -0.000007 0.332721
265.032135 86.076385 -0.000000 0.546078
258.108002 87.147232 -0.000004 0.529534
254.251617 87.743637 -0.000006 0.523529
251.789551 88.124397 0.000008 0.329289
250.078400 88.389038 0.000006 0.335539
248.817825 88.583992 -0.000026 0.332966
nan nan nan 0.000000
nan nan nan 0.000000
nan nan nan 0.000000
nan nan nan 0.000000
255.793365 87.398811 3.732472 0.504044
256.686432 87.254311 3.309000 0.508701
nan nan nan 0.000000
nan nan nan 0.000000
nan nan nan 0.000000
281.115540 83.301437 -0.000012 0.332230
265.005585 85.908188 -0.000003 0.543627
258.089050 87.027344 -0.000006 0.552206
254.236908 87.650665 -0.000006 0.545956
251.777557 88.048607 0.000008 0.331250
250.068298 88.325180 0.000006 0.341299
248.809097 88.528931 -0.000022 0.336029
nan nan nan 0.000000
nan nan nan 0.000000
nan nan nan 0.000000
nan nan nan 0.000000
255.719131 87.304726 3.725814 0.507108
256.708160 87.137596 3.312321 0.510294
256.716003 87.136276 2.786658 0.524265
nan nan nan 0.000000
nan nan nan 0.000000
281.069031 83.021057 -0.000006 0.332721
264.977783 85.740196 -0.000002 0.521936
258.069244 86.907608 -0.000003 0.531127
254.221542 87.557800 -0.000006 0.540441
251.765182 87.972878 -0.000019 0.333088
250.057724 88.261414 0.000013 0.325735
248.799973 88.473946 -0.000014 0.334559
nan nan nan 0.000000
nan nan nan 0.000000
nan nan nan 0.000000
nan nan nan 0.000000
nan nan nan 0.000000
260.513000 86.353844 3.630684 0.510172
256.742157 87.018166 2.788909 0.514828
nan nan nan 0.000000
nan nan nan 0.000000
281.021118 82.740898 -0.000027 0.332353
264.948853 85.572372 -0.000005 0.541299
258.048615 86.787994 -0.000008 0.549020
254.205521 87.465034 -0.000004 0.545221
251.752029 87.897278 0.000001 0.334559
250.046738 88.197701 0.000013 0.335907
248.790543 88.419006 -0.000028 0.335417
nan nan nan 0.000000
nan nan nan 0.000000
nan nan nan 0.000000
nan nan nan 0.000000
261.467468 86.037666 4.402383 0.508088
260.499237 86.215210 3.631583 0.505882
256.768158 86.899406 2.791200 0.500000
nan nan nan 0.000000
nan nan nan 0.000000
280.970825 82.461166 -0.000027 0.332721
264.918671 85.404785 -0.000002 0.540564
258.027130 86.668549 -0.000005 0.545588
254.188873 87.372391 -0.000004 0.523775
251.738495 87.821747 -0.000006 0.332230
250.035309 88.134071 0.000006 0.328922
248.780655 88.364151 -0.000021 0.341299
nan nan nan 0.000000
nan nan nan 0.000000
262.332092 85.724442 5.964892 0.511887
nan nan nan 0.000000
260.928497 85.991974 4.342402 0.507966
260.469147 86.079529 3.631205 0.496936
260.936829 85.990387 3.000713 0.506495
nan nan nan 0.000000
nan nan nan 0.000000
280.918549 82.181801 -0.000024 0.331495
264.887390 85.237389 -0.000005 0.539951
258.004852 86.549232 -0.000008 0.534191
254.171585 87.279869 -0.000005 0.526593
251.724304 87.746330 0.000010 0.336765
250.023453 88.070518 0.000003 0.337868
248.770233 88.309387 0.000025 0.338725
nan nan nan 0.000000
260.747253 85.882935 6.363722 0.521324
260.859131 85.860794 5.697059 0.515686
260.797668 85.872955 5.004659 0.524020
260.531158 85.925682 4.298985 0.509681
260.479889 85.935829 3.634318 0.507353
261.107727 85.811607 3.010628 0.509069
nan nan nan 0.000000
nan nan nan 0.000000
280.864227 81.902817 -0.000018 0.332721
264.854919 85.070236 -0.000003 0.537255
257.981689 86.430092 -0.000006 0.548162
254.153625 87.187469 -0.000005 0.510417
251.709930 87.670952 -0.000038 0.333456
250.011230 88.007034 -0.000022 0.334191
248.759659 88.254662 0.000010 0.335539
nan nan nan 0.000000
nan nan nan 0.000000
260.866852 85.714409 5.703703 0.506495
261.335052 85.618378 5.090262 0.515686
260.554688 85.778442 4.304984 0.520098
260.595825 85.770004 3.646321 0.515686
260.510040 85.787605 2.982077 0.506127
262.433563 85.393059 2.359257 0.506863
nan nan nan 0.000000
280.808044 81.624207 -0.000015 0.332230
264.821320 84.903305 -0.000004 0.546078
257.957764 86.311111 -0.000009 0.542034
254.135056 87.095192 -0.000006 0.528309
251.694672 87.595749 -0.000019 0.333824
249.998337 87.943687 0.000009 0.327206
248.748749 88.199997 -0.000014 0.331005
nan nan nan 0.000000
260.587708 85.628426 6.341015 0.505515
260.876526 85.567085 5.710898 0.506373
260.798157 85.583733 5.013347 0.508946
260.453400 85.656960 4.296432 0.519975
260.452759 85.657089 3.636730 0.519363
260.109497 85.729996 2.963394 0.514216
261.450409 85.445198 2.343334 0.506005
nan nan nan 0.000000
280.750031 81.345978 -0.000020 0.331740
264.786469 84.736610 -0.000002 0.531985
257.932922 86.192299 -0.000006 0.537868
254.115799 87.003052 -0.000006 0.535049
251.678558 87.520714 0.000061 0.339951
249.985138 87.880402 0.000004 0.342034
248.737320 88.145439 -0.000006 0.338848
260.342957 85.538536 6.979426 0.509069
260.504059 85.503143 6.329068 0.502574
260.608276 85.480247 5.666527 0.507721
260.727539 85.454041 5.007174 0.511765
260.387817 85.528679 4.292177 0.513726
259.966339 85.621284 3.598364 0.509069
260.401245 85.525734 2.979522 0.519485
261.531342 85.277443 2.345208 0.512500
nan nan nan 0.000000
280.490997 81.111893 0.009991 1.000000
264.750580 84.570160 -0.000005 0.537990
257.907257 86.073677 -0.000002 0.533211
254.095932 86.911041 -0.000006 0.540319
251.662384 87.445709 0.000055 0.318627
249.971558 87.817200 -0.000011 0.334191
248.725571 88.090950 -0.000013 0.329289
260.364288 85.391380 6.992677 0.498652
260.423431 85.377953 6.317970 0.508946
260.542664 85.350883 5.660006 0.506985
260.795990 85.293373 5.022280 0.506005
260.628937 85.331299 4.324195 0.506740
260.071442 85.457863 3.609696 0.518627
260.084259 85.454964 2.965083 0.506250
261.611603 85.108200 2.347094 0.506127
nan nan nan 0.000000
280.627960 80.790802 -0.000015 0.532475
264.713531 84.403954 -0.000014 0.529657
257.880737 85.955231 0.000001 0.545711
254.075424 86.819176 -0.000006 0.534436
251.645645 87.370827 0.000059 0.329779
249.957458 87.754105 -0.000010 0.340686
248.713364 88.036560 -0.000000 0.333333
260.380981 85.244553 7.005006 0.510539
260.342773 85.253510 6.307036 0.511275
260.482025 85.220871 5.654574 0.505882
260.771301 85.153061 5.023390 0.510172
260.941498 85.113167 4.364876 0.514583
260.036407 85.325310 3.609342 0.515196
260.681427 85.174133 2.996769 0.517279
261.458466 84.992004 2.345078 0.510907
nan nan nan 0.000000
280.563934 80.513901 -0.000008 0.534436
264.675262 84.238014 -0.000016 0.521814
257.853516 85.836960 -0.000001 0.547059
254.054245 86.727463 -0.000005 0.514583
251.628387 87.296051 0.000059 0.324755
249.942810 87.691139 0.000018 0.335049
248.661987 87.991348 0.009998 1.000000
260.397552 85.097031 7.017608 0.506985
260.254028 85.131729 6.294479 0.504167
261.140625 84.917381 5.783943 0.530270
260.405914 85.095001 4.972661 0.509314
261.115814 84.923370 4.389441 0.514706
259.228638 85.379639 3.543875 0.504657
260.427673 85.089752 2.985603 0.524020
261.770111 84.765190 2.350900 0.507843
nan nan nan 0.000000
280.498199 80.237381 -0.000012 0.536152
264.635834 84.072357 -0.000014 0.528922
257.825378 85.718895 0.000002 0.540931
254.032455 86.635895 -0.000005 0.545466
251.610611 87.221405 0.000059 0.338113
249.927841 87.628242 0.000013 0.336397
248.649139 87.937393 0.009997 1.000000
261.957123 84.564316 7.428811 0.506127
259.848175 85.089798 6.211511 0.512745
260.336182 84.968201 5.639587 0.521691
260.779572 84.857727 5.034876 0.525123
262.098907 84.528984 4.510092 0.514583
259.289246 85.229065 3.551645 0.517279
259.837708 85.092407 2.957423 0.510049
261.078766 84.783173 2.339843 0.507966
nan nan nan 0.000000
280.430481 79.961357 -0.000013 0.536642
264.595245 83.906982 -0.000016 0.543382
257.796448 85.601021 -0.000000 0.537623
254.010010 86.544479 -0.000005 0.538113
251.592224 87.146912 0.000076 0.337132
249.912399 87.565468 0.000023 0.335907
248.635925 87.883530 0.009997 1.000000
260.430084 84.799942 7.043508 0.516299
260.097626 84.885246 6.274575 0.506495
260.931061 84.671394 5.757761 0.511520
261.306763 84.574982 5.120975 0.514461
260.521118 84.776581 4.327137 0.517647
259.736420 84.977928 3.592242 0.525490
259.607239 85.011078 2.947427 0.504534
261.959900 84.407394 2.355330 0.502451
nan nan nan 0.000000
280.360748 79.685829 -0.000011 0.537623
264.553558 83.741875 -0.000019 0.539828
257.766815 85.483322 -0.000015 0.529657
253.986938 86.453217 -0.000006 0.514461
251.573410 87.072517 0.000079 0.336887
249.896774 87.502731 -0.000030 0.337132
248.622314 87.829758 0.009996 1.000000
261.704407 84.318077 7.382823 0.518627
260.714508 84.579453 6.420153 0.525245
260.938171 84.520401 5.765936 0.522426
261.246338 84.439026 5.117380 0.508578
259.212830 84.975983 4.175704 0.502083
259.447510 84.914001 3.570638 0.507843
261.863068 84.276184 3.063770 0.508946
nan nan nan 0.000000
nan nan nan 0.000000
280.289215 79.410767 -0.000013 0.535662
264.510590 83.577095 -0.000015 0.538971
257.736237 85.365868 -0.000014 0.530025
253.963226 86.362129 -0.000007 0.532108
251.554337 86.998192 0.000030 0.329902
249.880417 87.440193 -0.000011 0.335049
248.608353 87.776085 0.009996 1.000000
260.459808 84.500565 7.069855 0.531863
260.624084 84.455956 6.408187 0.506985
260.593933 84.464142 5.708079 0.503922
260.859680 84.391983 5.063783 0.520343
259.289185 84.818428 4.188879 0.508701
260.385864 84.520638 3.653304 0.499632
263.312469 83.725967 3.139544 0.506985
nan nan nan 0.000000
nan nan nan 0.000000
280.215637 79.136223 -0.000010 0.536397
264.466583 83.412598 -0.000018 0.542647
257.704865 85.248619 -0.000016 0.524020
253.938873 86.271202 -0.000006 0.543382
251.534592 86.924042 0.000010 0.338603
249.863708 87.377739 -0.000015 0.340319
248.632538 87.712044 -0.000002 0.342157
261.453491 84.076584 7.338024 0.505392
259.718597 84.560692 6.213627 0.506127
261.021240 84.197205 5.795934 0.506005
261.123596 84.168640 5.110320 0.517524
259.359070 84.661018 4.201435 0.498652
259.717255 84.561066 3.599567 0.512255
263.146332 83.604218 3.133262 0.509191
nan nan nan 0.000000
nan nan nan 0.000000
280.140228 78.862190 -0.000013 0.533578
264.421326 83.248436 -0.000013 0.533701
257.672668 85.131592 -0.000018 0.545711
253.913895 86.180450 -0.000006 0.547181
251.514160 86.850082 0.000023 0.338358
249.846558 87.315407 -0.000020 0.334681
248.617722 87.658302 0.000002 0.333824
260.580475 84.172012 7.121090 0.509436
260.368439 84.232780 6.367955 0.511642
260.598450 84.166862 5.723412 0.506495
262.834045 83.526176 5.380403 0.510907
259.425079 84.503128 4.213686 0.506005
259.332581 84.529640 3.569914 0.504167
259.662201 84.435173 2.957448 0.510172
nan nan nan 0.000000
nan nan nan 0.000000
280.062958 78.588684 -0.000016 0.532108
264.375031 83.084564 -0.000016 0.540319
257.639648 85.014809 -0.000018 0.529779
253.888290 86.089874 -0.000006 0.518015
251.493332 86.776222 0.000011 0.321078
249.828964 87.253197 -0.000019 0.334436
248.602463 87.604691 0.000023 0.335049
260.675079 83.995407 7.156182 0.512868
261.838776 83.653107 6.707837 0.506985
259.968231 84.203331 5.611434 0.509559
259.562103 84.322792 4.881350 0.516422
260.320557 84.099686 4.325558 0.508824
259.236877 84.418449 3.564922 0.509559
260.262604 84.116745 2.990135 0.510539
263.083679 83.286911 2.377928 0.505882
nan nan nan 0.000000
279.983643 78.315750 -0.000013 0.536765
264.327515 82.921036 -0.000013 0.543260
257.605713 84.898270 -0.000009 0.537010
253.862030 85.999481 -0.000005 0.516667
251.471924 86.702530 0.000012 0.337990
249.810898 87.191132 -0.000005 0.333088
248.586945 87.551155 0.000016 0.331005
260.594849 83.869522 7.145921 0.510294
260.069031 84.028183 6.318387 0.506127
259.959167 84.061325 5.617237 0.516544
259.796387 84.110451 4.923651 0.512377
260.367767 83.938042 4.336072 0.521201
259.804413 84.108032 3.616786 0.530147
258.934509 84.370529 2.924046 0.514583
261.246277 83.672943 2.347310 0.592647
nan nan nan 0.000000
261.134125 83.706787 0.963081 0.552451
261.208710 83.684280 0.262938 0.616299
257.571075 84.781952 -0.000010 0.538358
253.835144 85.909271 -0.000005 0.524510
251.450089 86.628975 0.000000 0.335907
249.792511 87.129150 -0.000025 0.324632
248.571106 87.497711 -0.000003 0.336397
260.525757 83.740768 7.138796 0.513235
259.172638 84.159401 6.124950 0.501838
259.967133 83.913589 5.626477 0.511887
261.208740 83.529465 5.149195 0.556250
259.278473 84.126648 4.209890 0.509804
259.304565 84.118568 3.577340 0.513113
258.894226 84.245529 2.923949 0.510539
261.137665 83.551437 2.346191 0.587010
261.073120 83.571411 1.654914 0.549755
261.070313 83.572281 0.964148 0.541544
261.040894 83.581383 0.273631 0.537132
257.535553 84.665894 -0.000004 0.546691
253.807648 85.819252 -0.000005 0.535662
251.427658 86.555588 0.000000 0.335784
249.773438 87.067375 0.000015 0.326348
248.554855 87.444397 -0.000014 0.336275
260.129425 83.716164 7.045903 0.510294
259.128510 84.033516 6.123982 0.514951
260.195953 83.695084 5.678089 0.478309
258.914398 84.101395 4.799061 0.516789
260.284027 83.667152 4.336081 0.512255
259.372986 83.956009 3.586674 0.515196
258.848389 84.122322 2.923609 0.550858
nan nan nan 0.000000
nan nan nan 0.000000
279.734497 77.500336 -0.000014 0.536520
261.078827 83.415169 0.266591 0.610049
257.499268 84.550072 -0.000006 0.533333
253.779510 85.729431 -0.000006 0.536029
251.404770 86.482338 -0.000008 0.340931
249.753952 87.005737 0.000052 0.338358
248.538193 87.391205 -0.000010 0.322672
260.569305 83.425446 7.173069 0.506127
259.079559 83.909248 6.122121 0.512010
259.628632 83.730942 5.577804 0.506863
258.692719 84.034874 4.770770 0.510907
259.330139 83.827881 4.225941 0.506740
259.244141 83.855804 3.579128 0.615931
258.648163 84.049362 2.915337 0.517892
nan nan nan 0.000000
nan nan nan 0.000000
279.647644 77.229706 -0.000014 0.529779
264.126221 82.270340 -0.000014 0.539583
257.462219 84.434486 -0.000010 0.526838
253.750748 85.639801 -0.000006 0.552941
251.380981 86.409386 0.000056 0.335417
249.734100 86.944214 0.000073 0.337990
248.521118 87.338135 -0.000001 0.334191
260.163605 83.408409 7.077855 0.504289
259.030853 83.785027 6.120503 0.509191
259.258698 83.709274 5.515093 0.505392
258.491974 83.964203 4.745749 0.517402
259.107727 83.759460 4.204095 0.508088
258.859314 83.842064 3.549502 0.528554
259.399597 83.662437 2.956342 0.516912
263.105164 82.430382 2.382454 0.534069
nan nan nan 0.000000
279.558899 76.959702 -0.000012 0.541422
264.073059 82.108566 -0.000015 0.531618
257.424347 84.319168 -0.000013 0.548897
253.721359 85.550377 -0.000006 0.536274
251.357162 86.336441 0.000031 0.331618
249.714005 86.882767 0.000052 0.334559
248.503662 87.285194 0.000010 0.342524
260.202759 83.245590 7.100155 0.506250
258.984558 83.660088 6.119630 0.529902
259.566528 83.462074 5.582520 0.507843
259.007385 83.652328 4.832963 0.505882
261.361664 82.851265 4.483167 0.514828
258.973480 83.663864 3.563035 0.508088
258.626556 83.781906 2.918476 0.506127
nan nan nan 0.000000
nan nan nan 0.000000
279.468231 76.690338 -0.000010 0.536520
264.018768 81.947159 -0.000018 0.538848
257.385681 84.204124 -0.000015 0.539461
253.691360 85.461159 -0.000006 0.537745
251.332596 86.263741 0.000049 0.329902
249.693420 86.821487 0.000048 0.337255
248.485886 87.232368 0.000014 0.323529
261.178528 82.755455 7.371220 0.510907
260.215607 83.090614 6.411062 0.522304
259.840607 83.221130 5.643945 0.507108
261.099701 82.782883 5.168409 0.507108
261.244049 82.732643 4.474814 0.525490
258.852356 83.565117 3.556277 0.506250
258.605408 83.651070 2.919585 0.508578
nan nan nan 0.000000
nan nan nan 0.000000
279.375793 76.421570 -0.000013 0.533578
263.963287 81.786171 -0.000010 0.538358
257.346130 84.089386 -0.000008 0.538848
253.660721 85.372154 -0.000007 0.515931
251.307663 86.191177 0.000043 0.331250
249.672394 86.760361 0.000048 0.331740
248.467850 87.179626 -0.000015 0.336642
260.306183 82.907021 7.152505 0.502941
258.895935 83.408951 6.119383 0.515931
259.897003 83.052666 5.663796 0.503186
259.757568 83.102295 4.964879 0.507475
259.863434 83.064606 4.312319 0.509926
258.728638 83.468506 3.549338 0.502819
258.585876 83.519302 2.920830 0.506373
nan nan nan 0.000000
nan nan nan 0.000000
279.281342 76.153503 -0.000009 0.533333
263.906769 81.625526 -0.000012 0.539828
257.305786 83.974915 -0.000002 0.536397
253.629471 85.283371 -0.000006 0.516422
251.282196 86.118790 0.000040 0.335662
249.650864 86.699402 0.000064 0.335294
248.449326 87.127052 -0.000010 0.332721
260.712769 82.606308 7.273833 0.510784
258.847473 83.284897 6.118607 0.502206
259.532288 83.035759 5.602402 0.505024
259.593140 83.013618 4.946387 0.508824
259.531891 83.035904 4.277547 0.505882
259.047974 83.211960 3.581099 0.536029
262.933014 81.798584 3.150401 0.509681
nan nan nan 0.000000
nan nan nan 0.000000
279.185150 75.886070 -0.000011 0.543382
263.849152 81.465294 -0.000015 0.528186
257.264709 83.860710 -0.000005 0.562132
253.597595 85.194801 -0.000005 0.528431
251.256134 86.046616 0.000055 0.337132
249.628967 86.638580 0.000064 0.335539
248.430405 87.074615 0.000003 0.333333
260.889801 82.383690 7.334697 0.514828
259.646759 82.845749 6.313364 0.516667
259.648712 82.845039 5.634255 0.505147
259.818726 82.781822 4.989662 0.524755
260.686981 82.459076 4.425167 0.505882
259.143250 83.032928 3.593496 0.509804
259.709534 82.822418 2.984412 0.505882
nan nan nan 0.000000
nan nan nan 0.000000
279.087067 75.619308 -0.000013 0.538113
263.790314 81.305496 -0.000010 0.548529
257.222839 83.746788 -0.000006 0.540686
253.565094 85.106461 -0.000005 0.517892
251.229660 85.974594 0.000055 0.332843
249.606781 86.577858 0.000034 0.327328
248.411240 87.022270 -0.000015 0.337255
260.821747 82.250488 7.330481 0.507966
259.479431 82.760162 6.286029 0.509191
259.479980 82.759949 5.610964 0.519485
260.558380 82.350487 5.114872 0.505515
260.094330 82.526672 4.358611 0.505147
259.233521 82.853523 3.605601 0.493015
nan nan nan 0.000000
nan nan nan 0.000000
nan nan nan 0.000000
278.987091 75.353256 -0.000010 0.538971
263.730377 81.146095 -0.000008 0.562868
257.180115 83.633179 -0.000006 0.539216
253.532013 85.018341 -0.000006 0.537255
251.202820 85.902710 0.000025 0.333824
249.584213 86.517288 -0.000002 0.318260
248.391632 86.970093 -0.000015 0.331250
nan nan nan 0.000000
260.410248 82.250687 6.513145 0.519853
259.340820 82.665291 5.593495 0.510539
259.780029 82.495010 4.999399 0.519363
259.901733 82.447838 4.341171 0.494240
259.325775 82.671127 3.618021 0.508088
258.876770 82.845215 2.945765 0.501471
nan nan nan 0.000000
nan nan nan 0.000000
278.885345 75.087875 -0.000014 0.537132
263.669403 80.987106 -0.000008 0.529289
257.136688 83.519844 -0.000009 0.519853
253.498291 84.930458 -0.000006 0.537377
251.175293 85.831085 0.000033 0.337255
249.561005 86.456947 0.000008 0.339828
248.371658 86.918053 -0.000015 0.336152
260.798706 81.940056 7.353205 0.522304
260.357483 82.114677 6.513250 0.515686
259.179443 82.580887 5.571753 0.516299
259.905182 82.293671 5.027574 0.511029
259.345367 82.515228 4.278746 0.509804
259.675049 82.384743 3.653252 0.516912
259.566223 82.427803 2.984784 0.505392
nan nan nan 0.000000
nan nan nan 0.000000
278.781708 74.823227 -0.000015 0.532721
263.607330 80.828537 -0.000010 0.548897
257.092438 83.406830 -0.000010 0.516912
253.463943 84.842812 -0.000006 0.536520
251.147278 85.759644 0.000041 0.337500
249.537415 86.396751 0.000010 0.333578
248.351273 86.866173 0.000001 0.331373
260.921143 81.729706 7.401246 0.499755
260.554596 81.877739 6.571775 0.512623
260.690063 81.823013 5.878176 0.496936
259.889130 82.146484 5.033471 0.507475
259.543823 82.285934 4.309740 0.505882
259.404633 82.342148 3.633959 0.505760
260.970032 81.709961 3.061912 0.507353
260.894073 81.740631 2.352378 0.502574
nan nan nan 0.000000
278.676147 74.559341 -0.000013 0.536152
263.544037 80.670448 -0.000006 0.534926
257.047333 83.294151 -0.000003 0.542402
253.429016 84.755409 -0.000006 0.547672
251.118881 85.688354 0.000022 0.333456
249.513367 86.336739 0.000020 0.333211
248.330643 86.814384 -0.000017 0.335662
nan nan nan 0.000000
260.758759 81.633797 6.632508 0.511152
260.771912 81.628380 5.905338 0.541912
259.878998 81.996254 5.040494 0.523775
259.382538 82.200806 4.296257 0.509314
259.300964 82.234390 3.629426 0.516176
259.316101 82.228165 2.977062 0.506618
260.763580 81.631798 2.351073 0.513603
nan nan nan 0.000000
278.568817 74.296165 -0.000014 0.531495
263.479797 80.512749 -0.000012 0.542770
257.001526 83.181747 -0.000010 0.548039
253.393448 84.668259 -0.000005 0.551348
251.089874 85.617310 0.000023 0.333333
249.489029 86.276855 0.000003 0.333824
248.309586 86.762779 -0.000015 0.337623
nan nan nan 0.000000
nan nan nan 0.000000
260.804810 81.452026 5.923193 0.515441
260.350342 81.642982 5.125180 0.508333
259.512115 81.995209 4.319106 0.526961
259.166718 82.140335 3.622223 0.506618
260.470734 81.592392 3.041432 0.511275
260.585846 81.544029 2.348939 0.516422
nan nan nan 0.000000
278.459656 74.033737 -0.000016 0.539338
263.414398 80.355522 -0.000013 0.540196
256.954926 83.069679 -0.000013 0.543015
253.357300 84.581352 -0.000005 0.551225
251.060516 85.546417 0.000001 0.332843
249.464233 86.217155 -0.000005 0.338603
248.288116 86.711342 0.000002 0.342647
nan nan nan 0.000000
nan nan nan 0.000000
nan nan nan 0.000000
259.857513 81.694099 5.054922 0.495588
259.487854 81.852478 4.322955 0.509681
260.023712 81.622910 3.703485 0.507843
258.919769 82.095856 2.961629 0.511765
260.857361 81.265747 2.354808 0.511397
nan nan nan 0.000000
278.348694 73.772087 -0.000018 0.536765
263.347870 80.198769 -0.000011 0.543995
256.907471 82.957962 -0.000009 0.520098
253.320526 84.494698 -0.000006 0.525735
251.030441 85.475822 0.000022 0.337745
249.438873 86.157677 0.000017 0.324265
248.266190 86.660088 0.000043 0.326593
nan nan nan 0.000000
nan nan nan 0.000000
nan nan nan 0.000000
260.253967 81.364090 5.128328 0.506618
260.515442 81.249901 4.458972 0.513480
259.400574 81.736778 3.652882 0.505392
260.068176 81.445236 3.026099 0.506127
260.379395 81.309319 2.347346 0.510172
nan nan nan 0.000000
278.235809 73.511246 -0.000015 0.534314
