# This PCD file was generated using the MATLABÂ® pcwrite function
# from Computer Vision ToolboxÂ®.
# .PCD v.7 - Point Cloud Data file format
VERSION .7
FIELDS x y z intensity
SIZE 4 4 4 4
TYPE F F F F
COUNT 1 1 1 1
WIDTH 1293
HEIGHT 1
VIEWPOINT 0 0 0 1 0 0 0
POINTS 1293
DATA ascii
250.720200 134.484390 1.405761 1.405761
250.720200 134.484406 0.216007 0.216007
256.606232 124.116081 0.000014 0.000014
260.065247 118.022980 0.000019 0.000019
261.991638 114.629608 -0.000006 -0.000006
263.248688 112.415321 0.009996 0.009996
264.076385 110.957306 -0.000001 -0.000001
264.706177 109.847916 -0.000002 -0.000002
250.720215 135.004318 11.209667 11.209667
250.720215 135.004318 9.940922 9.940922
250.720215 135.004318 8.689993 8.689993
250.720200 135.004318 7.453877 7.453877
250.720215 135.004318 6.229709 6.229709
250.720215 135.004318 5.014726 5.014726
250.720215 135.004318 3.806250 3.806250
250.720200 135.004318 2.601653 2.601653
250.720200 135.004318 1.398347 1.398347
250.720215 135.004318 0.193751 0.193751
256.754578 124.199661 0.000011 0.000011
260.170990 118.082573 0.000013 0.000013
262.073639 114.675812 -0.000009 -0.000009
263.288422 112.500755 -0.000003 -0.000003
264.132690 110.989029 -0.000001 -0.000001
264.754761 109.875259 -0.000001 -0.000001
250.720215 135.537415 11.326477 11.326477
250.720215 135.537415 10.041641 10.041641
250.720215 135.537399 8.774843 8.774843
250.720215 135.537415 7.523050 7.523050
250.720215 135.537399 6.283356 6.283356
250.720215 135.537415 5.052962 5.052962
250.720215 135.537415 3.829158 3.829158
250.720215 135.537399 2.609284 2.609284
250.720215 135.537399 1.390716 1.390716
250.720215 135.537415 0.170841 0.170841
256.903534 124.282196 0.000009 0.000009
260.277130 118.141396 0.000011 0.000011
262.156006 114.721420 -0.000008 -0.000008
263.355530 112.537949 -0.000004 -0.000004
264.189270 111.020355 -0.000002 -0.000002
264.803497 109.902267 -0.000003 -0.000003
nan nan nan 0.000000
295.470428 53.262703 14.186540 0.725735
295.470428 53.262703 12.266797 0.728554
295.470428 53.262703 10.369795 0.719608
295.470428 53.262703 8.491123 0.721569
295.432373 53.333195 6.619980 0.192157
295.470428 53.262703 4.771961 0.725245
295.470428 53.262703 2.923328 0.723652
295.470428 53.262703 1.076673 0.727083
288.000336 67.087997 0.000036 0.538971
280.243073 81.444778 -0.000009 0.335172
276.912384 87.609032 -0.000007 0.332966
275.057373 91.042198 -0.000006 0.336152
273.873108 93.233978 -0.000004 0.348897
273.049988 94.757355 -0.000002 0.330270
272.443573 95.879700 -0.000003 0.337500
nan nan nan 0.000000
295.024384 53.262707 14.141038 0.718260
295.024384 53.262707 12.228466 0.744118
295.024384 53.262707 10.338545 0.698039
295.024384 53.262695 8.466888 0.729412
294.986908 53.333195 6.602731 0.219730
295.024384 53.262703 4.761612 0.728676
295.024384 53.262707 2.919880 0.715196
295.024384 53.262707 1.080120 0.738235
287.749847 66.953720 0.000033 0.539338
280.092957 81.364365 -0.000008 0.335539
276.805389 87.551720 -0.000006 0.335172
274.974396 90.997742 -0.000006 0.334191
273.805481 93.197739 -0.000004 0.335907
272.993011 94.726814 -0.000003 0.337868
272.394409 95.853371 -0.000002 0.333824
nan nan nan 0.000000
294.581604 53.262699 14.096463 0.729657
294.581604 53.262699 12.190912 0.733824
294.581604 53.262699 10.307930 0.721569
294.581604 53.262699 8.443146 0.720098
294.544769 53.333199 6.585833 0.171201
294.581604 53.262711 4.751472 0.733333
294.581604 53.262699 2.916502 0.718137
294.581604 53.262699 1.083497 0.709804
287.498413 66.821190 0.000030 0.533946
279.942291 81.284973 -0.000009 0.333211
276.697998 87.495171 -0.000003 0.331740
274.891113 90.953865 -0.000006 0.331985
273.737579 93.161964 -0.000006 0.338848
272.935822 94.696686 -0.000003 0.323407
272.345123 95.827385 -0.000002 0.325980
nan nan nan 0.000000
294.142029 53.262707 14.052798 0.709804
294.142029 53.262707 12.154123 0.729412
294.142029 53.262695 10.277940 0.735662
294.142029 53.262703 8.419888 0.721324
294.105865 53.333187 6.569279 0.131005
294.142029 53.262703 4.741540 0.730760
294.142029 53.262703 2.913194 0.700858
294.142029 53.262703 1.086806 0.724755
287.245972 66.690666 0.000042 0.536887
279.791107 81.206650 -0.000010 0.331740
276.590210 87.439362 -0.000001 0.332966
274.807556 90.910568 -0.000006 0.323897
273.669434 93.126671 -0.000006 0.325000
272.878418 94.666946 -0.000003 0.330760
272.295624 95.801758 -0.000002 0.344240
nan nan nan 0.000000
293.705658 53.262688 14.010036 0.723897
293.705627 53.262695 12.118097 0.741176
293.705627 53.262699 10.248567 0.718750
293.713013 53.248058 8.398994 0.727328
293.670044 53.333191 6.553066 0.129412
293.705627 53.262699 4.731812 0.709804
293.705627 53.262699 2.909955 0.721569
293.705627 53.262699 1.090046 0.710049
286.992706 66.561699 0.000040 0.528799
279.639343 81.129379 -0.000011 0.332721
276.482056 87.384308 0.000000 0.336275
274.723663 90.867859 -0.000006 0.338725
273.601044 93.091858 -0.000005 0.343015
272.820801 94.637611 -0.000003 0.329902
272.245972 95.776459 -0.000003 0.331127
nan nan nan 0.000000
293.272308 53.262691 13.968151 0.757598
293.272308 53.262695 12.082811 0.709804
293.307922 53.190941 10.231685 0.723897
293.298950 53.208996 8.381694 0.725245
293.237335 53.333206 6.537186 0.129412
293.272278 53.262707 4.722285 0.725858
293.272308 53.262703 2.906780 0.725858
293.272308 53.262703 1.093220 0.729412
286.738556 66.434471 0.000038 0.534681
279.487091 81.053177 -0.000010 0.335049
276.373535 87.329994 0.000002 0.336029
274.639465 90.825737 -0.000006 0.333946
273.532410 93.057510 -0.000005 0.338113
272.762970 94.608688 -0.000003 0.339951
272.196075 95.751511 -0.000002 0.341422
nan nan nan 0.000000
292.807587 53.333191 13.910200 0.135907
292.841919 53.262695 12.048260 0.741176
292.868103 53.209000 10.200496 0.720833
292.868103 53.209000 8.359825 0.735662
292.807587 53.333199 6.521638 0.129412
292.841949 53.262703 4.712955 0.717647
292.841949 53.262707 2.903672 0.740564
292.841949 53.262707 1.096327 0.718995
286.483582 66.308975 0.000033 0.538235
279.334259 80.978050 -0.000010 0.332108
276.264587 87.276443 0.000001 0.331127
274.555023 90.784203 -0.000006 0.325490
273.463562 93.023651 -0.000005 0.329902
272.704987 94.580162 -0.000003 0.330882
272.146057 95.726921 -0.000001 0.334436
nan nan nan 0.000000
292.399902 53.293190 13.879680 0.200735
292.440216 53.209000 12.025262 0.726348
292.440216 53.209000 10.172886 0.738971
292.440216 53.208996 8.338414 0.721569
292.380768 53.333202 6.506416 0.095711
292.414490 53.262703 4.703822 0.724877
292.414520 53.262703 2.900630 0.723652
292.414520 53.262703 1.099369 0.733333
286.227661 66.185295 0.000030 0.539706
279.180939 80.903976 -0.000010 0.333456
276.155304 87.223640 0.000001 0.331495
274.470276 90.743263 -0.000006 0.333333
273.394470 92.990273 -0.000006 0.329044
272.646759 94.552048 -0.000003 0.323162
272.095886 95.702675 -0.000002 0.318873
nan nan nan 0.000000
291.956757 53.333195 13.830847 0.090441
292.015167 53.209003 11.992108 0.735172
292.015167 53.209007 10.145858 0.741176
292.015167 53.209007 8.317453 0.732353
291.956757 53.333195 6.491512 0.210539
292.015167 53.209003 4.697797 0.738603
291.989929 53.262703 2.897653 0.709804
291.989929 53.262703 1.102348 0.728064
285.970764 66.063736 0.000045 0.537255
279.027069 80.830986 -0.000009 0.333211
276.045685 87.171616 0.000000 0.333946
274.385193 90.702911 -0.000006 0.331985
273.325134 92.957375 -0.000006 0.340564
272.588379 94.524330 -0.000003 0.325858
272.045502 95.678780 -0.000001 0.335907
nan nan nan 0.000000
291.535553 53.333202 13.792421 0.146446
291.592896 53.209003 11.959655 0.752941
291.592896 53.209000 10.119404 0.704044
291.592896 53.209000 8.296936 0.727696
291.555664 53.289684 6.480855 0.449877
291.592896 53.209003 4.689034 0.722549
291.568085 53.262695 2.894736 0.709804
291.568085 53.262695 1.105263 0.738480
285.713165 65.943665 0.000043 0.534804
278.872711 80.759064 -0.000009 0.334436
275.935638 87.120346 0.000000 0.333824
274.299896 90.663162 -0.000005 0.330392
273.255585 92.924973 -0.000006 0.331250
272.529755 94.497017 -0.000003 0.342034
271.994995 95.655235 -0.000001 0.345466
nan nan nan 0.000000
291.117035 53.333199 13.754818 0.111029
291.173340 53.208992 11.927899 0.752941
291.173340 53.208992 10.093513 0.701716
291.173340 53.208996 8.276855 0.727328
291.173340 53.208992 6.473831 0.715441
291.173340 53.209000 4.680460 0.728064
291.149017 53.262699 2.891883 0.729412
291.149017 53.262699 1.108116 0.729167
285.454742 65.825363 0.000039 0.525245
278.717834 80.688248 -0.000007 0.333088
275.825287 87.069847 -0.000001 0.332353
274.214294 90.624008 -0.000005 0.334436
273.185822 92.893044 -0.000006 0.338235
272.470978 94.470131 -0.000004 0.338848
271.944305 95.632057 0.000000 0.338971
nan nan nan 0.000000
290.701202 53.333199 13.718025 0.094853
290.756439 53.209000 11.896822 0.725858
290.756439 53.208992 10.068178 0.715564
290.756439 53.209003 8.257208 0.747426
290.756439 53.208996 6.459827 0.710172
290.756439 53.209000 4.672070 0.722917
290.732544 53.262699 2.889091 0.717157
290.732544 53.262699 1.110908 0.720711
285.195496 65.708878 0.000036 0.541422
278.562500 80.618507 -0.000005 0.333946
275.714539 87.020126 -0.000002 0.333701
274.128418 90.585457 -0.000003 0.331005
273.115814 92.861603 -0.000007 0.339093
272.411987 94.443649 -0.000002 0.338725
271.893433 95.609215 -0.000001 0.348775
nan nan nan 0.000000
290.287903 53.333199 13.682026 0.228064
290.342133 53.209000 11.866420 0.736029
290.342133 53.209000 10.043393 0.711765
290.342133 53.208996 8.237986 0.721569
290.342133 53.209000 6.446126 0.728309
290.342133 53.208996 4.663862 0.726103
290.318665 53.262691 2.886360 0.711642
290.318665 53.262691 1.113640 0.727941
284.935455 65.594215 0.000034 0.535539
278.406677 80.549820 -0.000006 0.331250
275.603516 86.971176 -0.000003 0.333088
274.042267 90.547501 -0.000002 0.328309
273.045593 92.830658 -0.000006 0.326838
272.352844 94.417572 -0.000002 0.339583
271.842438 95.586731 -0.000000 0.336887
nan nan nan 0.000000
289.877136 53.333202 13.646815 0.136765
289.930298 53.209003 11.836680 0.730270
289.930328 53.209000 10.019148 0.717892
289.930298 53.209003 8.219185 0.729412
289.930298 53.209003 6.432725 0.731250
289.930298 53.209003 4.655832 0.748529
289.907318 53.262695 2.883690 0.722304
289.907318 53.262695 1.116311 0.720466
284.674438 65.481705 0.000049 0.531127
278.250366 80.482254 -0.000005 0.331250
275.492096 86.922997 -0.000004 0.333701
273.955872 90.510147 -0.000002 0.333578
272.975159 92.800209 -0.000006 0.337255
272.293518 94.391922 -0.000001 0.325735
271.791290 95.564613 0.000000 0.331618
nan nan nan 0.000000
289.468781 53.333199 13.612381 0.148162
289.468781 53.333202 11.783086 0.170711
289.520966 53.208992 9.995441 0.709804
289.520935 53.209000 8.200796 0.714338
289.520935 53.208996 6.419619 0.729412
289.520966 53.208992 4.647980 0.733456
289.498413 53.262691 2.881076 0.710294
289.498383 53.262695 1.118923 0.729412
284.412842 65.370697 0.000047 0.538725
278.093597 80.415779 -0.000003 0.333578
275.380371 86.875595 -0.000005 0.333211
273.869232 90.473389 -0.000002 0.327696
272.883209 92.820938 0.009998 1.000000
272.233978 94.366676 -0.000002 0.335539
271.739960 95.542854 0.000001 0.333824
nan nan nan 0.000000
289.062866 53.333199 13.578711 0.128922
289.062866 53.333206 11.754717 0.182475
289.113983 53.209007 9.972258 0.757966
289.113983 53.209000 8.182817 0.737377
289.114014 53.208996 6.406806 0.734681
289.114014 53.208996 4.640303 0.721569
289.091888 53.262703 2.878521 0.741176
289.091888 53.262703 1.121478 0.724265
284.150452 65.261475 0.000043 0.540074
277.936401 80.350380 -0.000004 0.333946
275.268311 86.828979 -0.000005 0.332843
273.756653 90.499588 0.010000 1.000000
272.812714 92.791611 0.009997 1.000000
272.174286 94.341858 -0.000001 0.325980
271.688477 95.521446 0.000001 0.320098
nan nan nan 0.000000
288.659241 53.333195 13.545796 0.137255
288.659241 53.333199 11.726992 0.204289
288.709351 53.209003 9.949594 0.722059
288.709381 53.209000 8.165243 0.721569
288.709381 53.209003 6.394277 0.699142
288.709381 53.209000 4.632796 0.712010
288.687683 53.262695 2.876025 0.711397
288.687683 53.262695 1.123975 0.709804
283.887268 65.154121 0.000040 0.534069
277.778687 80.286095 -0.000003 0.332966
275.155914 86.783142 -0.000007 0.331495
273.669922 90.464226 0.009999 1.000000
272.742004 92.762779 0.009997 1.000000
272.114410 94.317444 -0.000001 0.333946
271.636871 95.500404 0.000001 0.333824
nan nan nan 0.000000
288.257904 53.333191 13.513630 0.155882
288.257904 53.333191 11.699891 0.203922
288.307037 53.208996 9.927447 0.727941
288.307007 53.209007 8.148064 0.727451
288.307037 53.209000 6.382036 0.727574
288.307037 53.209003 4.625463 0.698039
288.307007 53.209011 2.874528 0.715196
288.307007 53.209011 1.125471 0.711642
283.623383 65.048622 0.000039 0.537255
277.620605 80.222885 -0.000005 0.331863
275.043243 86.738091 -0.000007 0.335662
273.607758 90.366753 -0.000005 0.330637
272.691345 92.683327 -0.000005 0.334436
272.054382 94.293457 -0.000000 0.335539
271.585114 95.479713 -0.000000 0.338235
nan nan nan 0.000000
287.858765 53.333191 13.482199 0.169240
287.858765 53.333199 11.673412 0.221936
287.906891 53.209000 9.905807 0.726225
287.906891 53.209000 8.131283 0.721691
287.906891 53.209000 6.370073 0.714583
287.906891 53.209000 4.618294 0.726471
287.886078 53.262703 2.871200 0.733088
287.886078 53.262703 1.128801 0.722181
283.358765 64.944931 0.000036 0.533946
277.462006 80.160820 -0.000003 0.332843
274.930206 86.693848 -0.000007 0.337623
273.520111 90.332428 -0.000005 0.339461
272.619873 92.655357 -0.000005 0.341789
271.994202 94.269890 -0.000000 0.317157
271.533203 95.459389 0.000000 0.334559
nan nan nan 0.000000
287.461792 53.333199 13.451492 0.188603
287.461792 53.333199 11.647545 0.203922
287.508911 53.209003 9.884665 0.718137
287.508911 53.209000 8.114886 0.716667
287.508911 53.209003 6.358387 0.722549
287.508911 53.209003 4.611293 0.729412
287.488556 53.262695 2.868870 0.731373
287.488556 53.262695 1.131131 0.721814
283.093262 64.843498 0.000053 0.535172
277.303009 80.099815 -0.000005 0.333211
274.816864 86.650383 -0.000007 0.330025
273.432129 90.298973 0.000035 0.574510
272.548157 92.628143 0.000047 0.514951
271.917389 94.290024 0.010000 1.000000
271.481171 95.439430 -0.000000 0.329779
nan nan nan 0.000000
287.066925 53.333199 13.421512 0.174265
287.066925 53.333199 11.622283 0.206250
287.113037 53.208996 9.864022 0.723284
287.113037 53.209000 8.098875 0.722549
287.113037 53.208996 6.346976 0.721569
287.113037 53.209007 4.604455 0.721569
287.093109 53.262691 2.866594 0.741176
287.093109 53.262703 1.133405 0.729412
282.827240 64.743477 0.000048 0.539461
277.143616 80.039955 -0.000004 0.334191
274.703278 86.607704 -0.000008 0.333701
273.344025 90.265846 0.000028 0.547672
272.476318 92.601151 0.000044 0.536520
271.857178 94.267410 0.010001 1.000000
271.428986 95.419830 -0.000002 0.327696
nan nan nan 0.000000
286.674042 53.333191 13.392239 0.163480
286.674042 53.333195 11.597622 0.203922
286.719208 53.209003 9.843864 0.693260
286.719208 53.209003 8.083244 0.728799
286.719208 53.209007 6.335834 0.729412
286.719208 53.209007 4.597779 0.714093
286.699677 53.262695 2.864374 0.731863
286.699677 53.262695 1.135626 0.728431
282.560516 64.645355 0.000045 0.537255
276.983795 79.981194 -0.000005 0.331373
274.589355 86.565834 -0.000008 0.334191
273.255676 90.233360 0.000027 0.547426
272.404297 92.574661 0.000041 0.514828
271.796783 94.245216 0.010001 1.000000
271.376648 95.400589 -0.000003 0.347181
nan nan nan 0.000000
286.283203 53.333187 13.363667 0.174265
286.283203 53.333191 11.573551 0.160784
286.327393 53.209003 9.824193 0.689583
286.327393 53.209003 8.067987 0.729412
286.327393 53.209000 6.324961 0.716789
286.327393 53.209000 4.591265 0.726471
286.308319 53.262695 2.862206 0.711152
286.308289 53.262699 1.137795 0.718505
282.293091 64.549103 0.000042 0.537623
276.823517 79.923569 -0.000005 0.334069
274.475159 86.524750 -0.000008 0.336765
273.167114 90.201477 0.000023 0.526348
272.332092 92.548676 0.000039 0.514461
271.751801 94.179825 0.000001 0.337500
271.324219 95.381729 -0.000000 0.340931
nan nan nan 0.000000
285.894318 53.333199 13.335788 0.199387
285.894287 53.333195 11.550066 0.139706
285.937500 53.209000 9.804999 0.715196
285.937500 53.209000 8.053102 0.723897
285.937500 53.209003 6.314350 0.717402
285.937500 53.209000 4.584909 0.728309
285.918823 53.262691 2.860090 0.716054
285.918823 53.262691 1.139910 0.733333
282.024994 64.454735 0.000040 0.539583
276.662903 79.867058 -0.000005 0.333946
274.360626 86.484467 -0.000008 0.330392
273.078339 90.170212 0.000019 0.533824
272.259705 92.523178 0.000033 0.542892
271.690796 94.158371 0.000000 0.321569
271.271637 95.363220 -0.000001 0.318750
nan nan nan 0.000000
285.507294 53.333199 13.308598 0.268260
285.507294 53.333199 11.527158 0.164583
285.549530 53.209000 9.786278 0.721569
285.549530 53.209003 8.038582 0.725245
285.549530 53.209003 6.303999 0.721569
285.549530 53.209003 4.578707 0.736274
285.531250 53.262699 2.858027 0.724510
285.531250 53.262699 1.141973 0.729412
281.756287 64.362228 0.000036 0.547426
276.501862 79.811661 -0.000004 0.333701
274.245880 86.444984 -0.000008 0.332966
272.989349 90.139565 0.000015 0.562010
272.187164 92.498184 0.000027 0.539461
271.629669 94.137451 0.000026 0.549632
271.218903 95.345085 -0.000003 0.325000
nan nan nan 0.000000
285.163361 53.209003 13.310349 0.727819
285.122070 53.333191 11.504822 0.181740
285.163361 53.209003 9.768021 0.712500
285.163361 53.208992 8.024426 0.719485
285.163361 53.209003 6.293909 0.721814
285.163361 53.209000 4.572662 0.698775
285.145508 53.262695 2.856015 0.752941
285.145508 53.262703 1.143984 0.723774
281.486755 64.272041 0.000057 0.541789
276.340485 79.757362 -0.000006 0.331618
274.103424 86.488808 0.009994 1.000000
272.900085 90.109695 0.000034 0.553554
272.114410 92.473839 0.000048 0.532721
271.568359 94.116920 0.000043 0.497181
271.166077 95.327324 -0.000003 0.331495
nan nan nan 0.000000
284.778992 53.209000 13.284445 0.741667
284.738678 53.333199 11.483050 0.160784
284.778992 53.208992 9.750231 0.721814
284.778992 53.209000 8.010626 0.732966
284.778992 53.208996 6.284075 0.717279
284.778992 53.209003 4.566770 0.709681
284.761566 53.262703 2.854055 0.729412
284.761566 53.262703 1.145945 0.721569
281.216766 64.183289 0.000053 0.530025
276.178680 79.704231 -0.000006 0.332475
273.988647 86.451126 0.009994 1.000000
272.810638 90.080299 0.000031 0.565564
272.041504 92.449883 0.000045 0.540931
271.506927 94.096733 0.000040 0.565319
271.113129 95.309921 -0.000003 0.336765
nan nan nan 0.000000
284.396362 53.208996 13.259203 0.738725
284.356995 53.333195 11.461840 0.180392
284.396362 53.208992 9.732897 0.729412
284.396362 53.209000 7.997181 0.723284
284.396362 53.209000 6.274492 0.705760
284.396362 53.208996 4.561028 0.727696
284.379333 53.262695 2.852145 0.721691
284.379333 53.262695 1.147855 0.725735
280.946167 64.096397 0.000049 0.536887
276.016571 79.652214 -0.000007 0.332843
273.899933 86.331352 -0.000009 0.333333
272.721039 90.051521 0.000025 0.546814
271.968445 92.426422 0.000042 0.535294
271.445374 94.076988 0.000038 0.522181
271.048004 95.330978 0.010000 1.000000
nan nan nan 0.000000
284.015411 53.208992 13.234625 0.731373
283.976990 53.333199 11.441182 0.207353
284.015411 53.208992 9.716015 0.722181
284.015411 53.209000 7.984088 0.721569
284.015411 53.209003 6.265159 0.716422
284.015411 53.209007 4.555437 0.719608
283.998810 53.262695 2.850283 0.734436
283.998810 53.262703 1.149716 0.738113
280.674927 64.011421 0.000046 0.537010
275.854034 79.601334 -0.000007 0.333211
273.784119 86.295090 -0.000010 0.333701
272.631226 90.023361 0.000020 0.546691
271.895264 92.403336 0.000011 0.535172
271.383698 94.057640 0.000031 0.574265
270.995056 95.314400 0.010000 1.000000
nan nan nan 0.000000
283.636108 53.209007 13.210692 0.729412
283.598663 53.333195 11.421074 0.184314
283.636108 53.209003 9.699575 0.726348
283.636108 53.209007 7.971343 0.684314
283.636108 53.209003 6.256077 0.699755
283.636108 53.209000 4.549994 0.729412
283.619904 53.262695 2.848473 0.743505
283.619904 53.262695 1.151527 0.709804
280.403168 63.928349 0.000042 0.537377
275.691193 79.551590 -0.000008 0.332230
273.667908 86.260071 0.000043 0.522549
272.541199 89.995834 0.000016 0.523407
271.821869 92.380913 0.000010 0.549632
271.321869 94.038734 0.000026 0.535662
270.942017 95.298195 0.009997 1.000000
nan nan nan 0.000000
283.258392 53.209003 13.187410 0.722426
283.221893 53.333191 11.401508 0.154167
283.258392 53.208996 9.683587 0.729412
283.258392 53.209000 7.958941 0.700980
283.258392 53.209003 6.247236 0.710539
283.258392 53.209000 4.544699 0.718627
283.242615 53.262703 2.846712 0.739706
283.242615 53.262703 1.153289 0.727819
280.130768 63.847191 0.000040 0.536152
275.527985 79.502983 -0.000008 0.330637
273.551575 86.225426 0.000041 0.549755
272.450989 89.968964 0.000014 0.534191
271.748352 92.358994 0.000006 0.533211
271.259918 94.020279 0.000025 0.541667
270.888855 95.282356 0.009996 1.000000
nan nan nan 0.000000
282.882263 53.208996 13.164767 0.720711
282.846680 53.333199 11.382480 0.172549
282.882263 53.208996 9.668036 0.736397
282.882263 53.209000 7.946882 0.726716
282.882263 53.209003 6.238639 0.699387
282.882263 53.209007 4.539547 0.729412
282.866852 53.262699 2.844998 0.712255
282.866852 53.262707 1.155002 0.728186
279.857727 63.768421 0.000063 0.537377
275.364471 79.455521 -0.000008 0.334926
273.434967 86.191765 0.000062 0.528676
272.360535 89.942856 0.000034 0.513113
271.674591 92.337708 0.000026 0.557108
271.197815 94.002335 0.000042 0.547304
270.846588 95.228516 -0.000005 0.330025
nan nan nan 0.000000
282.507568 53.209003 13.142757 0.719485
282.472961 53.333195 11.363983 0.172549
282.507568 53.209000 9.652918 0.711642
282.507568 53.209003 7.935156 0.723897
282.507568 53.209003 6.230283 0.699632
282.507568 53.209003 4.534541 0.727328
282.492615 53.262703 2.843332 0.741176
282.492615 53.262703 1.156669 0.742525
279.584229 63.691029 0.000058 0.532230
275.200562 79.409195 -0.000008 0.332108
273.318207 86.158745 0.000060 0.551593
272.269989 89.917244 0.000032 0.540564
271.600769 92.316841 0.000025 0.530270
271.135590 93.984741 0.000040 0.578309
270.792938 95.213356 -0.000005 0.340441
nan nan nan 0.000000
282.134369 53.208996 13.121377 0.713480
282.100677 53.333191 11.346013 0.175368
282.134369 53.209007 9.638231 0.703922
282.134369 53.209007 7.923766 0.706005
282.134369 53.209000 6.222168 0.729412
282.134369 53.209000 4.529677 0.732966
282.119812 53.262695 2.841714 0.729412
282.119812 53.262695 1.158287 0.740196
279.310242 63.615562 0.000055 0.534559
275.036407 79.364059 -0.000006 0.333211
273.201202 86.126495 0.000055 0.513726
272.179230 89.892235 0.000027 0.545343
271.526794 92.296440 0.000017 0.524755
271.073273 93.967583 0.000037 0.539461
270.739197 95.198578 -0.000004 0.292034
nan nan nan 0.000000
281.762573 53.209000 13.100616 0.721446
281.729828 53.333195 11.328568 0.160784
281.762573 53.209003 9.623975 0.699387
281.762573 53.209000 7.912710 0.715319
281.762573 53.209007 6.214284 0.715564
281.762573 53.208996 4.524955 0.719485
281.748413 53.262703 2.840142 0.699142
281.748413 53.262699 1.159858 0.723407
279.035706 63.542034 0.000051 0.537500
274.871918 79.320015 -0.000008 0.332843
273.083954 86.095108 0.000054 0.532843
272.088318 89.867874 0.000022 0.543382
271.452667 92.276596 0.000016 0.525245
271.010803 93.950851 0.000033 0.564461
270.685303 95.184372 0.000051 0.548774
nan nan nan 0.000000
281.392181 53.209003 13.080471 0.738848
281.360321 53.333202 11.311638 0.163480
281.392181 53.209000 9.610140 0.729657
281.392181 53.209003 7.901980 0.705392
281.392181 53.209003 6.206637 0.727819
281.392181 53.209000 4.520373 0.721569
281.378418 53.262699 2.838617 0.713113
281.378418 53.262699 1.161382 0.722794
278.760681 63.470383 0.000048 0.535417
274.707092 79.277176 -0.000004 0.334314
272.966522 86.064507 0.000049 0.558824
271.997253 89.844139 0.000017 0.533701
271.378387 92.257233 0.000008 0.524510
270.948273 93.934540 0.000026 0.514093
270.631378 95.170311 0.000044 0.515196
nan nan nan 0.000000
281.023071 53.208996 13.060938 0.725245
280.992126 53.333202 11.295222 0.191544
281.023071 53.209000 9.596724 0.726103
281.023071 53.209000 7.891576 0.719240
281.023071 53.208996 6.199222 0.772059
281.023071 53.209000 4.515930 0.723529
281.009705 53.262691 2.837140 0.729167
281.009705 53.262691 1.162861 0.712010
278.485138 63.400696 0.000045 0.538358
274.541992 79.235451 -0.000005 0.331005
272.848846 86.034760 0.000047 0.553431
271.906006 89.821060 0.000015 0.530270
271.304016 92.238419 0.000006 0.543015
270.885590 93.918694 0.000024 0.534681
270.577332 95.156647 0.000041 0.507843
nan nan nan 0.000000
280.655243 53.208996 13.042012 0.721078
280.625244 53.333199 11.279320 0.206005
280.655243 53.209000 9.583725 0.726471
280.655243 53.209003 7.881493 0.720711
280.655243 53.209000 6.192037 0.697549
280.655243 53.209003 4.511626 0.729412
280.642273 53.262695 2.835707 0.709804
280.642273 53.262695 1.164294 0.725613
278.209137 63.332897 0.000040 0.535662
274.376617 79.194855 -0.000006 0.332721
272.730988 86.005760 0.000038 0.522794
271.814484 89.798904 0.000055 0.561029
271.229523 92.220093 -0.000002 0.547549
270.822815 93.903252 0.000016 0.509069
270.523193 95.143333 0.000034 0.496201
nan nan nan 0.000000
280.288666 53.208988 13.023686 0.702574
280.288666 53.208992 11.287129 0.709804
280.288666 53.209000 9.571138 0.729412
280.288635 53.209003 7.871734 0.722917
280.288635 53.209003 6.185078 0.721569
280.288635 53.209000 4.507458 0.712500
280.276093 53.262699 2.834319 0.725000
280.276093 53.262703 1.165681 0.732721
277.932526 63.267624 0.000067 0.533578
274.210938 79.155464 -0.000005 0.333701
272.612885 85.977898 0.000064 0.537500
271.722900 89.777275 0.000080 0.536642
271.154846 92.202461 0.000023 0.528309
270.759918 93.888412 0.000041 0.517647
270.468964 95.130539 0.000061 0.585662
nan nan nan 0.000000
279.923279 53.209003 13.005955 0.709559
279.923279 53.208992 11.272191 0.713971
279.923279 53.209000 9.558961 0.738113
279.923279 53.209000 7.862289 0.738848
279.923279 53.208996 6.178348 0.727696
279.923279 53.209000 4.503424 0.710539
279.923279 53.209003 2.833879 0.718382
279.923279 53.209003 1.166121 0.752941
277.655609 63.203720 0.000064 0.528186
274.045013 79.117203 -0.000005 0.335784
272.494598 85.950607 0.000062 0.541667
271.631195 89.756126 0.000079 0.550490
271.080048 92.185211 0.000021 0.566299
270.696899 93.873878 0.000040 0.547672
270.414642 95.118004 0.000058 0.572794
nan nan nan 0.000000
279.559052 53.209000 12.988818 0.721569
279.559052 53.209000 11.257753 0.734314
279.559052 53.209003 9.547190 0.726961
279.559052 53.209007 7.853161 0.721691
279.559052 53.208996 6.171842 0.728309
279.559052 53.208996 4.499525 0.716667
279.559052 53.209000 2.832580 0.726348
279.547272 53.262695 1.168319 0.729412
277.378265 63.141678 0.000058 0.538848
273.878815 79.080078 -0.000007 0.333456
272.376160 85.924141 0.000059 0.539093
271.539337 89.735580 0.000074 0.540564
271.005157 92.168465 0.000015 0.542647
270.633820 93.859772 0.000036 0.549142
270.360260 95.105843 0.000053 0.525490
279.195923 53.209000 14.725337 0.704657
279.195923 53.208996 12.972268 0.729412
279.195923 53.209000 11.243809 0.752696
279.195923 53.209000 9.535824 0.763603
279.195923 53.209000 7.844346 0.724142
279.195923 53.208996 6.165559 0.743260
279.195923 53.209000 4.495760 0.736397
279.195923 53.209011 2.831327 0.722672
279.184540 53.262703 1.169572 0.722181
277.100464 63.081619 0.000053 0.539338
273.712372 79.044151 -0.000006 0.331863
272.257538 85.898483 0.000054 0.545956
271.447327 89.715683 0.000069 0.535662
270.930145 92.152237 0.000010 0.539338
270.570648 93.846092 0.000027 0.542892
270.305756 95.094055 0.000049 0.531740
278.833923 53.209000 14.706819 0.702819
278.833923 53.208996 12.956300 0.735417
278.833893 53.208996 11.230358 0.732843
278.833893 53.209003 9.524856 0.734314
278.833893 53.209007 7.835840 0.721691
278.833893 53.209003 6.159497 0.731618
278.833893 53.209000 4.492129 0.719363
278.712830 53.799637 2.820251 0.716054
278.822906 53.262695 1.170780 0.729289
276.822235 63.023499 0.000050 0.531618
273.545685 79.009331 -0.000010 0.332966
272.138733 85.873680 0.000052 0.538725
271.355194 89.696449 0.000067 0.557230
270.855042 92.136543 0.000005 0.503554
270.507355 93.832878 0.000025 0.515686
270.251190 95.082649 0.000041 0.534436
278.472900 53.208992 14.688972 0.728309
278.472900 53.209000 12.940909 0.722672
278.472900 53.209000 11.217392 0.728309
278.472900 53.209003 9.514287 0.729412
278.472900 53.209003 7.827643 0.731250
278.472900 53.209000 6.153653 0.731127
278.472900 53.209000 4.488629 0.731005
278.462280 53.262703 2.828054 0.737377
278.462280 53.262703 1.171945 0.721569
276.543640 62.967319 0.000046 0.537255
273.378754 78.975739 -0.000009 0.332230
272.019745 85.849686 0.000046 0.558211
271.262909 89.677849 0.000063 0.522426
270.779846 92.121361 -0.000002 0.553186
270.444000 93.820084 0.000016 0.556127
270.196533 95.071632 0.000038 0.539828
278.102661 53.262684 14.658101 0.727574
278.112885 53.209000 12.926098 0.732843
278.112885 53.208996 11.204912 0.737500
278.112885 53.208996 9.504112 0.733946
278.112885 53.209003 7.819751 0.711397
278.112885 53.209003 6.148030 0.726225
278.112885 53.209007 4.485259 0.729044
278.102661 53.262699 2.826934 0.750368
278.102661 53.262699 1.173066 0.712377
276.264679 62.913139 0.000044 0.538603
273.211578 78.943306 -0.000008 0.334191
271.900635 85.826530 0.000043 0.546324
271.170502 89.659889 0.000060 0.551348
270.704529 92.106728 -0.000004 0.559804
270.380493 93.807770 0.000017 0.536520
270.141846 95.061012 0.000039 0.504412
277.743988 53.262688 14.641600 0.710294
277.753845 53.209003 12.911854 0.733333
277.753845 53.209007 11.192911 0.723162
277.753845 53.209007 9.494329 0.730025
277.753845 53.209000 7.812166 0.733333
277.753845 53.208996 6.142622 0.729412
277.753845 53.209003 4.482019 0.721569
277.743988 53.262688 2.825856 0.734681
277.743988 53.262688 1.174145 0.712623
275.985291 62.860874 0.000040 0.537745
273.044189 78.911987 -0.000012 0.333456
271.781311 85.804207 0.000039 0.539093
271.078003 89.642586 0.000057 0.524020
270.629028 92.092888 0.000043 0.542402
270.316956 93.795868 0.000011 0.517402
270.087036 95.050743 0.000031 0.543382
277.386261 53.262688 14.625757 0.720466
277.395691 53.209003 12.898177 0.752941
277.395691 53.209000 11.181392 0.727328
277.395691 53.209003 9.484940 0.733333
277.395691 53.209000 7.804883 0.729412
277.395691 53.208992 6.137431 0.737990
277.395691 53.209007 4.478909 0.749020
277.386261 53.262699 2.824820 0.732476
277.386261 53.262699 1.175180 0.727574
275.705444 62.811188 0.000068 0.536642
272.876587 78.881889 -0.000011 0.331740
271.661804 85.782990 0.000068 0.538480
270.985321 89.626144 0.000086 0.529167
270.553467 92.079483 0.000071 0.516054
270.253326 93.784561 0.000037 0.509069
270.032166 95.041008 0.000059 0.521078
277.029388 53.262691 14.610564 0.721936
277.038452 53.208992 12.885068 0.728186
277.038452 53.209000 11.170346 0.742157
277.038452 53.208996 9.475934 0.731127
277.017487 53.333210 7.783406 0.136642
277.038452 53.209003 6.132454 0.729044
277.038452 53.209007 4.475925 0.731495
277.029388 53.262695 2.823828 0.722059
277.029388 53.262695 1.176171 0.718505
275.425415 62.762810 0.000064 0.538113
272.708771 78.852966 -0.000010 0.332353
271.542206 85.762344 0.000064 0.539338
270.892578 89.610100 0.000079 0.528309
270.477844 92.066422 0.000067 0.532353
270.189636 93.773552 0.000033 0.542279
269.977264 95.031380 0.000020 0.538113
276.673340 53.262699 14.596025 0.741176
276.682037 53.209007 12.872515 0.733333
276.682037 53.208996 11.159773 0.732108
276.682037 53.209003 9.467314 0.738848
276.661957 53.333191 7.776741 0.141176
276.682037 53.209000 6.127688 0.729412
276.682037 53.209000 4.473071 0.733333
276.673340 53.262695 2.822878 0.729289
276.673340 53.262695 1.177121 0.721569
275.145020 62.716351 0.000058 0.537010
272.540771 78.825150 -0.000014 0.332966
271.422485 85.742485 0.000056 0.534926
270.799713 89.594719 0.000074 0.539216
270.402130 92.053856 0.000058 0.562010
270.125854 93.762970 0.000025 0.532843
269.922272 95.022278 0.000017 0.529534
276.318115 53.262691 14.582131 0.727451
276.326416 53.208992 12.860524 0.740564
276.326416 53.208996 11.149669 0.733333
276.326416 53.209000 9.459078 0.729902
276.307220 53.333199 7.770367 0.139338
276.326416 53.209007 6.123135 0.734436
276.326416 53.209000 4.470343 0.722426
276.318115 53.262699 2.821971 0.732476
276.318115 53.262699 1.178029 0.725613
274.864319 62.671906 0.000054 0.538480
272.372589 78.798584 -0.000013 0.334069
271.302612 85.723511 0.000054 0.539461
270.706726 89.579987 0.000068 0.536152
270.326385 92.041855 0.000055 0.517892
270.061981 93.752876 0.000023 0.550735
269.867218 95.013535 0.000009 0.544240
275.963684 53.262688 14.568882 0.728922
275.971588 53.208996 12.849087 0.729412
275.971588 53.209000 11.140032 0.752941
275.971558 53.209011 9.451220 0.720956
275.953278 53.333202 7.764290 0.171691
275.971558 53.209003 6.118793 0.721324
275.971558 53.209000 4.467742 0.729412
275.963654 53.262699 2.821105 0.729412
275.963654 53.262699 1.178895 0.729902
274.583282 62.629387 0.000050 0.533333
272.204193 78.773178 -0.000011 0.331618
271.182617 85.705353 0.000049 0.536274
270.613678 89.565918 0.000065 0.545833
270.250488 92.030388 0.000051 0.551225
269.998077 93.743187 0.000015 0.539583
269.812103 95.005196 0.000003 0.583578
275.609924 53.262695 14.556268 0.733333
275.609924 53.262707 12.826485 0.718382
275.617462 53.209007 11.130858 0.749020
275.617462 53.209003 9.443745 0.721569
275.600037 53.333195 7.758507 0.105882
275.617462 53.209003 6.114659 0.721569
275.617462 53.209003 4.465266 0.721814
275.609924 53.262707 2.820280 0.721569
275.609924 53.262711 1.179719 0.713358
274.302002 62.588871 0.000047 0.540441
272.035675 78.748878 -0.000017 0.333824
271.062500 85.688057 0.000045 0.530270
270.520538 89.552498 0.000061 0.545466
270.174530 92.019447 0.000048 0.528064
269.934082 93.734215 0.000066 0.524755
269.756927 94.997253 -0.000001 0.546324
275.256897 53.262695 14.544290 0.736029
275.256897 53.262695 12.816160 0.729044
275.264038 53.208992 11.122151 0.741176
275.264038 53.208992 9.436646 0.709069
275.247528 53.333199 7.753012 0.105882
275.264038 53.209000 6.110734 0.721569
275.264038 53.208996 4.462915 0.709804
275.256897 53.262703 2.819498 0.729412
275.256897 53.262703 1.180502 0.725000
274.020416 62.550327 0.000044 0.537255
271.866913 78.725830 -0.000016 0.333088
270.942230 85.671585 0.000042 0.538358
270.427246 89.539742 0.000060 0.560294
270.098541 92.009041 0.000046 0.551471
269.869995 93.725449 0.000063 0.547426
269.701691 94.989685 -0.000004 0.469363
274.904510 53.262699 14.532948 0.699632
274.904510 53.262684 12.806383 0.721569
274.911285 53.208996 11.113902 0.731985
274.911285 53.209007 9.429920 0.724877
274.895630 53.333199 7.747811 0.147181
274.911285 53.209007 6.107018 0.698039
274.911285 53.209007 4.460687 0.748407
274.911285 53.209007 2.819643 0.737377
274.904510 53.262699 1.181243 0.720098
273.738556 62.513729 0.000041 0.540686
271.698059 78.703964 -0.000014 0.333578
270.821869 85.655952 0.000038 0.547549
270.333923 89.527618 0.000056 0.523039
270.022430 91.999161 0.000042 0.512010
269.805878 93.717125 0.000059 0.512745
269.646423 94.982506 -0.000008 0.512500
274.552734 53.262688 14.522236 0.701593
274.552734 53.262688 12.797146 0.714338
274.559143 53.208996 11.106113 0.729412
274.559143 53.209007 9.423568 0.729289
274.544342 53.333206 7.742898 0.147304
274.559113 53.208992 6.103508 0.704167
274.559143 53.209000 4.458584 0.724632
274.559143 53.209007 2.818944 0.709804
274.552734 53.262707 1.181942 0.721569
273.456390 62.479805 0.000072 0.537745
271.529053 78.683212 -0.000018 0.331740
270.701385 85.641449 0.000067 0.538603
270.240479 89.516380 0.000087 0.519608
269.946259 91.989975 0.000068 0.519485
269.741730 93.709389 0.000085 0.541176
269.591034 94.976051 0.000072 0.547304
274.201569 53.262695 14.512150 0.709804
274.201569 53.262695 12.788448 0.722426
274.207581 53.208992 11.098781 0.716054
274.207550 53.209007 9.417587 0.712868
274.193665 53.333206 7.738272 0.094118
274.207550 53.209003 6.100203 0.698039
274.207550 53.209000 4.456604 0.725735
274.207550 53.209000 2.818282 0.716912
274.201569 53.262703 1.182601 0.729412
273.174072 62.447132 0.000067 0.531618
271.359863 78.663689 -0.000018 0.332598
270.580811 85.627502 0.000064 0.534926
270.146973 89.505554 0.000082 0.531495
269.870026 91.981155 0.000063 0.548039
269.677521 93.701973 0.000085 0.532966
269.535706 94.969643 0.000067 0.529289
273.850922 53.262688 14.502692 0.709804
273.850922 53.262691 12.780293 0.747304
273.856567 53.208996 11.091899 0.725368
273.856567 53.208992 9.411983 0.729412
273.843536 53.333199 7.733935 0.172549
273.856567 53.208996 6.097103 0.719118
273.856567 53.208996 4.454746 0.739338
273.856567 53.209000 2.817664 0.725000
273.850922 53.262695 1.183219 0.721691
272.891541 62.416462 0.000064 0.537132
271.190582 78.645370 -0.000017 0.332966
270.460144 85.614403 0.000060 0.546201
270.053406 89.495392 0.000078 0.524387
269.793732 91.972870 0.000060 0.528064
269.613220 93.694984 0.000079 0.513235
269.480255 94.963631 0.000065 0.560049
273.500824 53.262695 14.493853 0.710049
273.500793 53.262699 12.772671 0.730637
273.506042 53.208996 11.085474 0.719730
273.506042 53.209003 9.406744 0.728064
273.493896 53.333206 7.729881 0.189093
273.506042 53.209000 6.094207 0.721569
273.506042 53.209007 4.453012 0.697304
273.506042 53.209000 2.817086 0.729412
273.500793 53.262707 1.183796 0.723529
272.608795 62.387730 0.000060 0.535662
271.021179 78.628212 -0.000017 0.334191
270.339417 85.602112 0.000054 0.542525
269.959747 89.485870 0.000073 0.526348
269.717407 91.965103 0.000054 0.522794
269.548920 93.688446 0.000074 0.567892
269.424805 94.957993 0.000060 0.525490
273.151154 53.262688 14.485639 0.714951
273.151154 53.262695 12.765587 0.720588
273.156036 53.209000 11.079497 0.725245
273.156036 53.209007 9.401871 0.721569
273.144775 53.333202 7.726112 0.175245
273.156036 53.209003 6.091515 0.721936
273.156036 53.209007 4.451397 0.713358
273.156036 53.209003 2.816549 0.731618
273.151184 53.262707 1.184333 0.730637
272.325806 62.360973 0.000055 0.541667
270.851624 78.612221 -0.000018 0.334681
270.218567 85.590683 0.000049 0.542525
269.866028 89.477005 0.000068 0.543137
269.640991 91.957886 0.000051 0.533824
269.484558 93.682350 0.000067 0.562010
269.369324 94.952751 0.000057 0.506863
nan nan nan 0.000000
273.065430 50.113987 13.441467 0.725490
273.065460 50.113998 11.639094 0.726471
273.065430 50.114014 9.858068 0.723039
272.833954 52.880501 7.774888 0.190931
273.065430 50.114029 6.343685 0.721078
273.065430 50.114044 4.602482 0.728064
273.007324 50.808365 2.855472 0.738480
273.007324 50.808361 1.144527 0.715196
272.042694 62.336166 0.000049 0.533946
270.681976 78.597420 -0.000018 0.333211
270.097687 85.580132 0.000047 0.541912
269.772278 89.468819 0.000067 0.535172
269.564545 91.951210 0.000049 0.531495
269.420166 93.676743 0.000069 0.484681
269.313812 94.947899 0.000055 0.574020
nan nan nan 0.000000
273.007355 46.032879 14.319088 0.720466
273.007355 46.032898 12.378461 0.727574
273.007355 46.032917 10.460823 0.732476
273.007355 46.032887 8.561724 0.730025
273.007355 46.032887 6.676869 0.724877
273.007355 46.032917 4.802109 0.709926
273.007355 46.032898 2.933370 0.722181
273.007355 46.032906 1.066631 0.708824
271.759430 62.313343 0.000044 0.538480
270.512238 78.583817 -0.000018 0.332108
269.976715 85.570381 0.000042 0.541054
269.678436 89.461273 0.000063 0.542034
269.488068 91.945038 0.000041 0.530515
269.355713 93.671539 0.000062 0.533456
269.258209 94.943413 0.000048 0.562623
nan nan nan 0.000000
nan nan nan 0.000000
273.065460 39.466263 13.570896 0.721324
273.026489 40.025558 11.349768 0.726103
272.876526 42.179630 9.002729 0.525490
273.007355 40.300743 7.145631 0.726961
273.007355 40.300755 5.082963 0.733578
273.007355 40.300728 3.026920 0.718137
273.065460 39.466183 0.959390 0.725123
271.475952 62.292549 0.000040 0.537745
270.342407 78.571419 -0.000016 0.333824
269.855652 85.561501 0.000039 0.534436
269.584564 89.454369 0.000057 0.540441
269.411530 91.939423 0.000039 0.518382
269.291229 93.666824 0.000060 0.563971
269.202667 94.939331 0.000043 0.513603
nan nan nan 0.000000
nan nan nan 0.000000
272.833954 36.059902 14.186579 0.167770
272.833954 36.059658 11.934892 0.153799
272.833954 36.059772 9.704907 0.182598
272.599121 39.809704 7.183598 0.117647
272.599121 39.809700 5.105711 0.134436
272.914368 34.775654 3.117037 0.160294
273.065460 32.362907 0.843405 0.721936
271.192322 62.274475 0.000074 0.536642
270.172485 78.560173 -0.000017 0.331495
269.734528 85.553772 0.000071 0.543137
269.490631 89.448395 0.000091 0.521569
269.334961 91.934540 0.000071 0.541176
269.226746 93.662689 0.000088 0.526226
269.147003 94.935768 0.000073 0.557230
nan nan nan 0.000000
nan nan nan 0.000000
nan nan nan 0.000000
273.065460 23.477062 13.800129 0.731618
273.007385 24.521400 11.031162 0.724142
272.157104 39.809700 7.181459 0.129412
272.157104 39.809700 5.104429 0.124387
272.438660 34.747181 3.117042 0.129412
273.065460 23.477087 0.698250 0.722426
270.908630 62.257637 0.000071 0.537623
270.002502 78.550110 -0.000017 0.333578
269.613373 85.546577 0.000068 0.528431
269.396698 89.442810 0.000088 0.539706
269.258362 91.929985 0.000066 0.537745
269.162201 93.658867 0.000087 0.558088
269.091400 94.932472 0.000070 0.526471
nan nan nan 0.000000
nan nan nan 0.000000
nan nan nan 0.000000
nan nan nan 0.000000
nan nan nan 0.000000
271.715424 39.809708 7.179574 0.117647
271.715424 39.809704 5.103299 0.121201
271.962769 34.721977 3.117049 0.143382
nan nan nan 0.000000
270.624817 62.242767 0.000066 0.534926
269.832458 78.541245 -0.000018 0.333946
269.492188 85.540222 0.000063 0.540441
269.302734 89.437592 0.000040 0.538603
269.181732 91.925949 0.000059 0.514583
269.097656 93.655464 0.000080 0.529289
269.035706 94.929543 0.000064 0.566667
nan nan nan 0.000000
nan nan nan 0.000000
nan nan nan 0.000000
nan nan nan 0.000000
nan nan nan 0.000000
271.376312 37.351891 7.379647 0.130147
271.389984 37.023643 5.239310 0.135049
271.486694 34.700054 3.117056 0.276103
nan nan nan 0.000000
270.340912 62.229870 0.000062 0.536765
269.662354 78.533585 -0.000016 0.332108
269.370941 85.534714 0.000058 0.536029
269.208679 89.433327 0.000037 0.535539
269.105103 91.922478 0.000057 0.534191
269.033081 93.652557 0.000080 0.522059
268.980042 94.927025 0.000062 0.526716
nan nan nan 0.000000
nan nan nan 0.000000
nan nan nan 0.000000
nan nan nan 0.000000
nan nan nan 0.000000
nan nan nan 0.000000
271.404907 23.292021 5.913443 0.211520
271.388123 23.776505 3.295618 0.189951
nan nan nan 0.000000
270.056885 62.218952 0.000058 0.534681
269.487946 78.649101 0.009993 1.000000
269.249664 85.530045 0.000053 0.540809
269.114624 89.429703 0.000031 0.549142
269.028412 91.919525 0.000051 0.505392
268.968475 93.650055 0.000073 0.549020
268.924316 94.924889 0.000058 0.534926
nan nan nan 0.000000
nan nan nan 0.000000
nan nan nan 0.000000
nan nan nan 0.000000
nan nan nan 0.000000
nan nan nan 0.000000
nan nan nan 0.000000
nan nan nan 0.000000
nan nan nan 0.000000
269.772858 62.210056 0.000055 0.536642
269.318573 78.643845 0.009995 1.000000
269.128357 85.526260 0.000052 0.522304
269.020538 89.426758 0.000029 0.538235
268.951691 91.917122 0.000048 0.530515
268.903870 93.648041 0.000071 0.520833
268.868622 94.923134 0.000053 0.554412
nan nan nan 0.000000
nan nan nan 0.000000
nan nan nan 0.000000
nan nan nan 0.000000
nan nan nan 0.000000
nan nan nan 0.000000
nan nan nan 0.000000
nan nan nan 0.000000
nan nan nan 0.000000
269.488708 62.203083 0.000050 0.538113
269.151733 78.517670 -0.000018 0.333456
269.007019 85.523239 0.000041 0.547917
268.926453 89.424438 0.000022 0.516667
268.875000 91.915237 0.000042 0.550858
268.839233 93.646439 0.000063 0.521446
268.812897 94.921761 0.000048 0.513848
nan nan nan 0.000000
nan nan nan 0.000000
nan nan nan 0.000000
nan nan nan 0.000000
nan nan nan 0.000000
nan nan nan 0.000000
nan nan nan 0.000000
nan nan nan 0.000000
nan nan nan 0.000000
269.204529 62.198128 0.000046 0.533701
268.981445 78.514786 -0.000015 0.334559
268.885681 85.521133 0.000038 0.514951
268.832336 89.422783 0.000016 0.536887
268.798279 91.913887 0.000036 0.534559
268.774597 93.645309 0.000059 0.557230
268.757172 94.920784 0.000043 0.510294
nan nan nan 0.000000
nan nan nan 0.000000
nan nan nan 0.000000
nan nan nan 0.000000
nan nan nan 0.000000
nan nan nan 0.000000
nan nan nan 0.000000
nan nan nan 0.000000
nan nan nan 0.000000
268.920349 62.195969 0.000083 0.535172
268.811188 78.513039 -0.000016 0.332353
268.764313 85.520218 0.000074 0.528431
268.738190 89.422073 0.000053 0.517524
268.721527 91.913300 0.000070 0.517770
268.709930 93.644814 0.000094 0.537868
268.701416 94.920357 0.000076 0.535907
nan nan nan 0.000000
nan nan nan 0.000000
nan nan nan 0.000000
nan nan nan 0.000000
nan nan nan 0.000000
nan nan nan 0.000000
nan nan nan 0.000000
nan nan nan 0.000000
nan nan nan 0.000000
268.636139 62.194988 0.000079 0.534681
268.640900 78.513313 0.000051 0.537010
268.642944 85.519798 0.000072 0.529412
268.644073 89.421738 0.000048 0.522917
268.644806 91.913025 0.000067 0.579657
268.645294 93.644585 0.000088 0.509804
268.645691 94.920158 0.000071 0.511029
nan nan nan 0.000000
nan nan nan 0.000000
nan nan nan 0.000000
nan nan nan 0.000000
nan nan nan 0.000000
nan nan nan 0.000000
nan nan nan 0.000000
nan nan nan 0.000000
nan nan nan 0.000000
268.351959 62.195972 0.000075 0.535294
268.470642 78.513908 0.000047 0.538725
268.521576 85.520210 0.000067 0.545956
268.549927 89.422066 0.000043 0.538113
268.568085 91.913315 0.000066 0.542402
268.580658 93.644814 0.000085 0.525245
268.589966 94.920364 0.000070 0.561397
nan nan nan 0.000000
nan nan nan 0.000000
nan nan nan 0.000000
nan nan nan 0.000000
nan nan nan 0.000000
nan nan nan 0.000000
nan nan nan 0.000000
nan nan nan 0.000000
nan nan nan 0.000000
268.067749 62.198860 0.000066 0.537010
268.300354 78.515663 0.000041 0.547794
268.400208 85.521461 0.000060 0.541422
268.455841 89.423050 0.000039 0.543873
268.491364 91.914101 0.000058 0.550858
268.516022 93.645470 0.000076 0.513113
268.534210 94.920914 0.000058 0.517279
nan nan nan 0.000000
nan nan nan 0.000000
nan nan nan 0.000000
nan nan nan 0.000000
nan nan nan 0.000000
nan nan nan 0.000000
nan nan nan 0.000000
nan nan nan 0.000000
nan nan nan 0.000000
267.783600 62.203819 0.000062 0.536520
268.130096 78.518631 0.000036 0.541299
268.278870 85.523590 0.000057 0.537010
268.361725 89.424667 0.000032 0.525000
268.414642 91.915428 0.000052 0.515441
268.451416 93.646591 0.000071 0.514951
268.478455 94.921890 0.000055 0.514583
nan nan nan 0.000000
nan nan nan 0.000000
nan nan nan 0.000000
nan nan nan 0.000000
nan nan nan 0.000000
nan nan nan 0.000000
nan nan nan 0.000000
nan nan nan 0.000000
nan nan nan 0.000000
267.499481 62.210758 0.000058 0.535662
267.959869 78.522797 0.000033 0.541544
268.157532 85.526550 0.000053 0.543015
268.267609 89.426979 0.000029 0.519975
268.337921 91.917313 0.000051 0.525123
268.386780 93.648193 0.000071 0.512500
268.422760 94.923271 0.000055 0.535907
nan nan nan 0.000000
nan nan nan 0.000000
nan nan nan 0.000000
nan nan nan 0.000000
nan nan nan 0.000000
nan nan nan 0.000000
nan nan nan 0.000000
nan nan nan 0.000000
nan nan nan 0.000000
267.215393 62.219711 0.000054 0.535662
267.789673 78.528152 0.000030 0.531863
268.036224 85.530350 0.000047 0.528431
268.173523 89.429939 0.000025 0.534804
268.261200 91.919724 0.000046 0.542647
268.322144 93.650223 0.000067 0.518627
268.367065 94.925034 0.000054 0.493382
nan nan nan 0.000000
nan nan nan 0.000000
nan nan nan 0.000000
nan nan nan 0.000000
nan nan nan 0.000000
nan nan nan 0.000000
nan nan nan 0.000000
nan nan nan 0.000000
nan nan nan 0.000000
266.931396 62.230587 0.000049 0.536765
267.619507 78.534660 0.000023 0.531127
267.914948 85.535004 0.000042 0.540809
268.079498 89.433540 0.000020 0.527451
268.184540 91.922653 0.000039 0.533946
268.257538 93.652687 0.000060 0.549020
268.311340 94.927124 0.000038 0.517279
nan nan nan 0.000000
nan nan nan 0.000000
nan nan nan 0.000000
nan nan nan 0.000000
nan nan nan 0.000000
