# This PCD file was generated using the MATLABÂ® pcwrite function
# from Computer Vision ToolboxÂ®.
# .PCD v.7 - Point Cloud Data file format
VERSION .7
FIELDS x y z intensity
SIZE 4 4 4 4
TYPE F F F F
COUNT 1 1 1 1
WIDTH 1298
HEIGHT 1
VIEWPOINT 0 0 0 1 0 0 0
POINTS 1298
DATA ascii
nan nan nan nan
nan nan nan nan
nan nan nan nan
nan nan nan nan
246.938553 142.480820 6.521187 6.521187
250.099854 140.232819 3.442510 3.442510
250.011765 140.295456 0.555722 0.555722
288.762421 112.739792 0.000011 0.000011
302.061920 103.282501 0.000012 0.000012
307.771851 99.222168 0.000007 0.000007
310.952087 96.960693 0.000021 0.000021
312.982269 95.517006 0.000014 0.000014
314.393372 94.513588 0.000009 0.000009
315.433075 93.774269 0.000023 0.000023
nan nan nan nan
nan nan nan nan
nan nan nan nan
nan nan nan nan
nan nan nan nan
nan nan nan nan
246.905487 143.296997 6.545859 6.545859
248.802872 141.927734 3.475914 3.475914
249.809250 141.201477 0.544393 0.544393
288.927948 112.970840 0.000011 0.000011
302.161102 103.420929 0.000012 0.000012
307.842529 99.320831 0.000006 0.000006
311.006897 97.037209 0.000022 0.000022
313.026947 95.579391 0.000013 0.000013
314.431091 94.566086 0.000029 0.000029
315.465454 93.819603 0.000012 0.000012
nan nan nan nan
nan nan nan nan
nan nan nan nan
nan nan nan nan
nan nan nan nan
nan nan nan nan
246.871750 144.122421 6.571044 6.571044
250.099228 141.758820 3.457132 3.457132
250.011795 141.822861 0.541096 0.541096
289.095276 113.200577 0.000024 0.000024
302.261414 103.558517 0.000032 0.000032
307.914032 99.418892 0.000027 0.000027
311.062347 97.113266 0.000041 0.000041
313.072174 95.641388 0.000033 0.000033
314.469147 94.618340 0.000039 0.000039
315.498291 93.864639 0.000032 0.000032
nan nan nan nan
nan nan nan nan
nan nan nan nan
nan nan nan nan
nan nan nan nan
nan nan nan nan
246.837311 144.957306 6.596755 6.596755
250.011810 142.598267 3.466439 3.466439
250.011810 142.598267 0.533563 0.533563
289.263733 113.429466 0.000008 0.000008
302.362274 103.695724 0.000008 0.000008
307.985962 99.516647 0.000010 0.000010
311.118103 97.189102 0.000017 0.000017
313.117645 95.703217 0.000012 0.000012
314.507477 94.670403 0.000024 0.000024
315.531342 93.909554 0.000009 0.000009
nan nan nan nan
nan nan nan nan
nan nan nan nan
nan nan nan nan
nan nan nan nan
nan nan nan nan
246.802124 145.801956 6.623007 6.623007
250.011810 143.381821 3.474120 3.474120
250.011810 143.381821 0.525879 0.525879
289.434052 113.657005 0.000008 0.000008
302.464294 103.832047 0.000008 0.000008
308.058777 99.613739 0.000024 0.000024
311.174500 97.264465 0.000016 0.000016
313.163727 95.764580 0.000032 0.000032
314.546204 94.722168 0.000024 0.000024
315.564758 93.954178 0.000009 0.000009
nan nan nan nan
nan nan nan nan
nan nan nan nan
nan nan nan nan
nan nan nan nan
nan nan nan nan
246.766220 146.656586 6.649803 6.649803
250.011780 144.173660 3.481959 3.481959
250.011780 144.173645 0.518041 0.518041
289.606140 113.883186 0.000020 0.000020
302.567413 103.967567 0.000020 0.000020
308.132294 99.710335 0.000035 0.000035
311.231506 97.339386 0.000027 0.000027
313.210175 95.825645 0.000043 0.000043
314.585327 94.773636 0.000027 0.000027
315.598541 93.998489 0.000038 0.000038
nan nan nan nan
nan nan nan nan
nan nan nan nan
nan nan nan nan
nan nan nan nan
nan nan nan nan
246.729538 147.521484 6.677166 6.677166
250.011780 144.973984 3.489952 3.489952
250.011795 144.973984 0.510049 0.510049
289.779602 114.108330 0.000020 0.000020
302.671326 104.102455 0.000019 0.000019
308.206329 99.806480 0.000034 0.000034
311.288940 97.413940 0.000026 0.000026
313.256989 95.886459 0.000035 0.000035
314.624786 94.824844 0.000027 0.000027
315.632538 94.042671 0.000030 0.000030
nan nan nan nan
nan nan nan nan
nan nan nan nan
nan nan nan nan
nan nan nan nan
nan nan nan nan
246.692108 148.396912 6.705102 6.705102
249.163589 146.450897 3.515771 3.515771
250.099854 145.713684 0.503728 0.503728
289.954407 114.332436 0.000004 0.000004
302.776062 104.236732 0.000003 0.000003
308.280975 99.902176 0.000019 0.000019
311.346802 97.488190 0.000004 0.000004
313.304138 95.946968 0.000019 0.000019
314.664520 94.875839 0.000004 0.000004
315.666809 94.086632 0.000009 0.000009
nan nan nan nan
nan nan nan nan
nan nan nan nan
nan nan nan nan
nan nan nan nan
nan nan nan nan
246.653885 149.283218 6.733629 6.733629
249.371765 147.112259 3.519829 3.519829
250.099854 146.530701 0.495421 0.495421
290.131195 114.554977 0.000016 0.000016
302.881989 104.370064 0.000015 0.000015
308.356415 99.997253 0.000023 0.000023
311.405426 97.561813 0.000035 0.000035
313.351868 96.007072 0.000023 0.000023
314.704803 94.926407 0.000033 0.000033
315.701477 94.130287 0.000017 0.000017
nan nan nan nan
nan nan nan nan
nan nan nan nan
nan nan nan nan
nan nan nan nan
nan nan nan nan
246.614868 150.180603 6.762759 6.762759
250.011795 147.428177 3.514907 3.514907
250.011795 147.428192 0.485093 0.485093
290.309357 114.776413 0.000016 0.000016
302.988861 104.502632 0.000029 0.000029
308.432526 100.091820 0.000022 0.000022
311.464447 97.635155 0.000034 0.000034
313.399963 96.066864 0.000023 0.000023
314.745300 94.976776 0.000032 0.000032
315.736450 94.173668 0.000036 0.000036
nan nan nan nan
nan nan nan nan
nan nan nan nan
nan nan nan nan
nan nan nan nan
nan nan nan nan
246.574997 151.089447 6.792503 6.792503
250.011795 148.264771 3.523562 3.523562
250.011780 148.264771 0.476436 0.476436
290.489166 114.996536 0.000022 0.000022
303.096588 104.634506 0.000036 0.000036
308.509308 100.185814 0.000028 0.000028
311.523987 97.708061 0.000039 0.000039
313.448517 96.126297 0.000029 0.000029
314.786163 95.026871 0.000031 0.000031
315.771698 94.216858 0.000036 0.000036
nan nan nan nan
nan nan nan nan
nan nan nan nan
nan nan nan nan
nan nan nan nan
nan nan nan nan
246.534286 152.010071 6.822885 6.822885
250.011795 149.111008 3.532393 3.532393
250.011780 149.111023 0.467606 0.467606
290.670227 115.215591 0.000013 0.000013
303.205078 104.765755 0.000026 0.000026
308.586609 100.279381 0.000017 0.000017
311.583923 97.780617 0.000027 0.000027
313.497375 96.185448 0.000016 0.000016
314.827332 95.076706 0.000021 0.000021
315.807220 94.259811 0.000030 0.000030
nan nan nan nan
nan nan nan nan
nan nan nan nan
nan nan nan nan
nan nan nan nan
nan nan nan nan
246.492737 152.942749 6.853910 6.853910
250.011810 149.967133 3.541401 3.541401
250.011780 149.967148 0.458597 0.458597
290.853058 115.433182 0.000018 0.000018
303.314667 104.896095 0.000035 0.000035
308.664734 100.372276 0.000026 0.000026
311.644531 97.852661 0.000038 0.000038
313.546844 96.244125 0.000042 0.000042
314.868927 95.126198 0.000025 0.000025
315.843109 94.302490 0.000033 0.000033
nan nan nan nan
nan nan nan nan
nan nan nan nan
nan nan nan nan
nan nan nan nan
nan nan nan nan
246.450256 153.887878 6.885603 6.885603
249.082108 151.630768 3.570636 3.570636
250.099854 150.757950 0.451304 0.451304
291.037140 115.649765 0.000004 0.000004
303.424957 105.025856 0.000021 0.000021
308.743286 100.464767 0.000012 0.000012
311.705444 97.924393 0.000022 0.000022
313.596497 96.302612 0.000026 0.000026
314.910858 95.175407 0.000028 0.000028
315.879181 94.344971 0.000019 0.000019
nan nan nan nan
nan nan nan nan
nan nan nan nan
nan nan nan nan
nan nan nan nan
nan nan nan nan
nan nan nan nan
249.394241 152.247360 3.573365 3.573365
250.099869 151.633591 0.441939 0.441939
291.223083 115.864700 0.000015 0.000015
303.536316 105.154655 0.000030 0.000030
308.822815 100.556473 0.000037 0.000037
311.767029 97.995613 0.000027 0.000027
313.646698 96.360664 0.000030 0.000030
314.953156 95.224319 0.000033 0.000033
315.915649 94.387138 0.000022 0.000022
nan nan nan nan
nan nan nan nan
nan nan nan nan
nan nan nan nan
nan nan nan nan
nan nan nan nan
nan nan nan nan
250.011780 152.597687 3.569541 3.569541
250.011795 152.597672 0.430460 0.430460
291.410309 116.078522 0.000013 0.000013
303.648468 105.282768 0.000027 0.000027
308.902740 100.647797 0.000032 0.000032
311.829041 98.066422 0.000024 0.000024
313.697235 96.418404 0.000025 0.000025
314.995728 95.272964 0.000028 0.000028
315.952362 94.429047 0.000032 0.000032
nan nan nan nan
nan nan nan nan
nan nan nan nan
nan nan nan nan
nan nan nan nan
nan nan nan nan
nan nan nan nan
250.011765 153.496155 3.579305 3.579305
250.011780 153.496140 0.420695 0.420695
291.599518 116.290596 0.000044 0.000044
303.761688 105.409996 0.000037 0.000037
308.983429 100.738472 0.000043 0.000043
311.891571 98.136757 0.000032 0.000032
313.748230 96.475739 0.000035 0.000035
315.038666 95.321281 0.000032 0.000032
315.989410 94.470703 0.000040 0.000040
nan nan nan nan
nan nan nan nan
nan nan nan nan
nan nan nan nan
nan nan nan nan
nan nan nan nan
nan nan nan nan
250.011780 154.405884 3.589271 3.589271
250.011780 154.405884 0.410731 0.410731
291.789734 116.501778 0.000041 0.000041
303.875580 105.536568 0.000030 0.000030
309.064606 100.828690 0.000034 0.000034
311.954651 98.206635 0.000046 0.000046
313.799561 96.532768 0.000028 0.000028
315.081909 95.369324 0.000026 0.000026
316.026703 94.512138 0.000032 0.000032
nan nan nan nan
nan nan nan nan
nan nan nan nan
nan nan nan nan
nan nan nan nan
nan nan nan nan
nan nan nan nan
250.099838 155.246216 3.597481 3.597481
250.011780 155.327240 0.400561 0.400561
291.981262 116.711746 0.000030 0.000030
303.990326 105.662369 0.000018 0.000018
309.146393 100.918358 0.000024 0.000024
312.018036 98.276184 0.000031 0.000031
313.851379 96.589394 0.000035 0.000035
315.125488 95.417068 0.000020 0.000020
316.064331 94.553268 0.000037 0.000037
nan nan nan nan
nan nan nan nan
nan nan nan nan
nan nan nan nan
nan nan nan nan
nan nan nan nan
nan nan nan nan
nan nan nan nan
249.810013 156.448776 0.385665 0.385665
292.174408 116.920242 0.000029 0.000029
304.106018 105.787323 0.000013 0.000013
309.228851 101.007416 0.000017 0.000017
312.082001 98.345238 0.000029 0.000029
313.903473 96.645714 0.000027 0.000027
315.169495 95.464447 0.000034 0.000034
316.102173 94.594185 0.000028 0.000028
nan nan nan nan
nan nan nan nan
nan nan nan nan
nan nan nan nan
nan nan nan nan
nan nan nan nan
nan nan nan nan
nan nan nan nan
nan nan nan nan
292.368927 117.127457 0.000023 0.000023
304.222595 105.911446 0.000010 0.000010
309.311951 101.095871 0.000018 0.000018
312.146423 98.413872 0.000022 0.000022
313.955994 96.701660 0.000021 0.000021
315.213745 95.511589 0.000025 0.000025
316.140350 94.634819 0.000023 0.000023
nan nan nan nan
nan nan nan nan
nan nan nan nan
nan nan nan nan
nan nan nan nan
nan nan nan nan
nan nan nan nan
nan nan nan nan
nan nan nan nan
292.564972 117.333229 0.000022 0.000022
304.340057 106.034744 0.000009 0.000009
309.395660 101.183746 0.000016 0.000016
312.211365 98.482040 0.000016 0.000016
314.008911 96.757240 0.000014 0.000014
315.258301 95.558411 0.000019 0.000019
316.178741 94.675201 0.000013 0.000013
362.725739 49.461628 16.254494 0.521691
362.681946 49.504215 14.277570 0.389093
362.681946 49.504223 12.343488 0.418750
362.681946 49.504219 10.432315 0.400613
362.820587 49.369343 8.561861 0.294608
362.681946 49.504219 6.661110 0.397794
362.681946 49.504219 4.792666 0.364828
362.681946 49.504219 2.930225 0.370466
362.681946 49.504219 1.069776 0.404657
351.117920 60.756298 -0.000010 0.537623
339.421021 72.137680 0.000070 0.535417
334.399750 77.023521 0.000048 0.552083
331.603058 79.744766 0.000047 0.512377
329.817566 81.482094 0.000055 0.556495
328.576599 82.689590 0.000060 0.530760
327.662415 83.579117 0.000030 0.537990
362.260864 49.362171 16.188761 0.678431
362.116913 49.504223 14.190404 0.373652
362.116913 49.504223 12.270055 0.385417
362.116913 49.504223 10.372450 0.413725
362.260864 49.362175 8.516449 0.678431
362.116943 49.504215 6.628018 0.432598
362.116913 49.504230 4.772840 0.439216
362.116913 49.504219 2.923620 0.431740
362.116913 49.504223 1.076380 0.442034
350.919037 60.553284 -0.000010 0.543505
339.301941 72.015991 0.000061 0.527819
334.314880 76.936768 0.000037 0.547304
331.537109 79.677582 0.000057 0.518137
329.763916 81.427231 0.000042 0.552819
328.531372 82.643372 0.000049 0.477574
327.623322 83.539352 0.000050 0.486887
361.699646 49.364346 16.088648 0.678431
361.559845 49.504223 14.105052 0.406618
361.559845 49.504219 12.198150 0.353554
361.559845 49.504219 10.313829 0.403922
361.699646 49.364349 8.470470 0.678431
361.559845 49.504223 6.595615 0.415931
361.559845 49.504223 4.753426 0.424632
361.559845 49.504230 2.917152 0.407353
361.559845 49.504230 1.082847 0.431985
350.718689 60.351692 -0.000008 0.535049
339.181793 71.895309 0.000075 0.546814
334.229248 76.850731 0.000046 0.535907
331.470734 79.610863 0.000065 0.529044
329.709717 81.372894 0.000067 0.550613
328.485809 82.597527 0.000051 0.590809
327.584015 83.499840 0.000059 0.562010
361.146301 49.366375 15.990655 0.678431
361.010437 49.504227 14.021467 0.401838
361.010468 49.504215 12.127731 0.382598
361.010437 49.504227 10.256421 0.402206
361.146301 49.366379 8.425465 0.673774
361.010437 49.504223 6.563882 0.369118
361.010437 49.504230 4.734413 0.430515
361.010437 49.504227 2.910820 0.406495
361.010437 49.504230 1.089180 0.427819
350.516998 60.151463 -0.000010 0.534314
339.061066 71.775246 0.000062 0.540319
334.143036 76.765289 0.000055 0.542034
331.403961 79.544510 0.000056 0.540319
329.655304 81.318794 0.000053 0.559314
328.439972 82.551949 0.000040 0.573652
327.544464 83.460541 0.000047 0.594853
360.600586 49.368412 15.894674 0.678431
360.468597 49.504219 13.939611 0.389706
360.468597 49.504219 12.058770 0.414461
360.468597 49.504230 10.200199 0.408456
360.600586 49.368412 8.381384 0.678431
360.468597 49.504227 6.532805 0.404534
360.468597 49.504230 4.715794 0.402206
360.468597 49.504227 2.904619 0.428186
360.468597 49.504227 1.095382 0.389583
350.313812 59.952675 -0.000009 0.537500
338.939270 71.656219 0.000070 0.526838
334.056274 76.680443 0.000063 0.541667
331.336700 79.478699 0.000060 0.499142
329.600464 81.265137 0.000057 0.514828
328.393768 82.506737 0.000042 0.536642
327.504608 83.421616 0.000068 0.563603
360.062256 49.370445 15.800665 0.678431
359.934021 49.504227 13.859431 0.394485
359.934052 49.504219 11.991221 0.439951
359.934052 49.504227 10.145136 0.417770
360.062225 49.370445 8.338207 0.678431
359.934021 49.504227 6.502366 0.416544
359.934021 49.504227 4.697556 0.419853
359.934052 49.504219 2.898544 0.373774
359.934052 49.504219 1.101456 0.378431
350.109314 59.755306 -0.000009 0.541544
338.816681 71.538055 0.000080 0.527328
333.969025 76.596077 0.000049 0.548529
331.269012 79.413254 0.000046 0.535417
329.545288 81.211800 0.000044 0.498897
328.347229 82.461876 0.000051 0.558578
327.464508 83.382866 0.000053 0.493260
359.531097 49.372463 15.708575 0.678431
359.531097 49.372471 13.820049 0.539461
359.406586 49.504223 11.925056 0.432843
359.406586 49.504223 10.091195 0.369118
359.531097 49.372471 8.295914 0.678431
359.531097 49.372471 6.487413 0.621324
359.406586 49.504223 4.679692 0.439583
359.406586 49.504227 2.892592 0.403799
359.406586 49.504227 1.107407 0.390441
349.903473 59.559364 -0.000009 0.534191
338.693237 71.420746 0.000089 0.527083
333.881042 76.512466 0.000059 0.549020
331.200836 79.348381 0.000049 0.526226
329.489655 81.158928 0.000053 0.563971
328.300354 82.417320 0.000055 0.548774
327.424164 83.344444 0.000056 0.476716
358.919983 49.467827 15.586394 0.487623
358.919983 49.467823 13.714705 0.488848
358.886047 49.504219 11.860238 0.375000
358.886047 49.504227 10.038352 0.406373
358.919983 49.467823 8.239801 0.464338
358.919983 49.467827 6.447421 0.481373
358.886047 49.504227 4.662191 0.401348
358.886047 49.504227 2.886764 0.401838
358.886047 49.504227 1.113236 0.449387
349.696228 59.364849 -0.000010 0.532353
338.569153 71.304146 0.000081 0.538848
333.792664 76.429314 0.000044 0.535172
331.132233 79.283928 0.000041 0.545098
329.433685 81.106453 0.000061 0.534559
328.253296 82.373032 0.000040 0.524142
327.383545 83.306252 0.000040 0.507108
358.372223 49.504223 15.486513 0.425245
358.489716 49.376392 13.666080 0.678431
358.372223 49.504223 11.796736 0.407843
358.372223 49.504227 9.986584 0.395343
358.489685 49.376404 8.213902 0.678431
358.489685 49.376396 6.428959 0.678431
358.372223 49.504230 4.645047 0.385907
358.372223 49.504227 2.881053 0.411275
358.372223 49.504227 1.118948 0.397426
349.487640 59.171806 -0.000009 0.540196
338.444153 71.188522 0.000085 0.544730
333.703400 76.347061 0.000073 0.547181
331.063049 79.220139 0.000069 0.537500
329.377350 81.054344 0.000066 0.538971
328.205811 82.329140 0.000044 0.538848
327.342621 83.268402 0.000043 0.552941
357.864960 49.504223 15.400864 0.369485
357.897949 49.467819 13.565340 0.500613
357.864960 49.504223 11.734515 0.407843
357.864960 49.504219 9.935863 0.391299
357.864960 49.504223 8.154593 0.423529
357.897949 49.467823 6.390714 0.473897
357.864960 49.504227 4.628248 0.424877
357.864960 49.504219 2.875457 0.412623
357.864960 49.504223 1.124542 0.410662
349.277679 58.980225 -0.000009 0.537132
338.318481 71.073608 0.000070 0.531250
333.613861 76.265160 0.000059 0.547794
330.993591 79.156593 0.000050 0.546569
329.320770 81.002548 0.000046 0.542770
328.158142 82.285484 0.000022 0.529289
327.301422 83.230843 0.000046 0.548652
357.364075 49.504223 15.316936 0.419240
357.474915 49.380180 13.518293 0.678431
357.364075 49.504219 11.673553 0.410172
357.364075 49.504219 9.886164 0.416176
357.364075 49.504223 8.116047 0.403799
357.474915 49.380180 6.372854 0.678431
357.364075 49.504223 4.611789 0.427083
357.364075 49.504227 2.869974 0.411275
357.364075 49.504230 1.130025 0.396078
349.066406 58.790104 -0.000010 0.533088
338.191895 70.959740 0.000073 0.533456
333.523590 76.183990 0.000062 0.545343
330.923553 79.093666 0.000058 0.515809
329.263702 80.951248 0.000054 0.517647
328.109924 82.242424 0.000075 0.545343
327.260010 83.193565 0.000051 0.553799
356.869385 49.504227 15.234696 0.414093
356.901489 49.467827 13.421935 0.509069
356.869385 49.504219 11.613813 0.420466
356.869385 49.504223 9.837460 0.384926
356.869385 49.504223 8.078278 0.381618
356.901489 49.467823 6.336272 0.476961
356.869415 49.504219 4.595659 0.448529
356.869385 49.504223 2.864601 0.417647
356.869385 49.504223 1.135398 0.382843
348.853821 58.601467 -0.000010 0.542770
338.064423 70.846817 0.000084 0.538113
333.432770 76.103508 0.000072 0.544976
330.853149 79.031212 0.000062 0.559069
329.206299 80.900330 0.000055 0.517524
328.061554 82.199524 0.000077 0.522917
327.218292 83.156578 0.000053 0.525613
356.380798 49.504227 15.154104 0.394240
356.485260 49.383953 13.376375 0.678431
356.380798 49.504223 11.555270 0.380147
356.380798 49.504227 9.789735 0.383211
356.380798 49.504223 8.041264 0.402941
356.485260 49.383953 6.318975 0.678431
356.380798 49.504223 4.579854 0.444363
356.380798 49.504219 2.859337 0.434681
356.380798 49.504219 1.140663 0.419363
348.639923 58.414299 -0.000010 0.535539
337.936401 70.734543 0.000068 0.534681
333.341400 76.023613 0.000075 0.538480
330.782410 78.969147 0.000043 0.561642
329.148529 80.849815 0.000059 0.547059
328.012970 82.156891 0.000059 0.515931
327.176392 83.119820 0.000036 0.580024
355.898071 49.504219 15.075124 0.407230
355.999573 49.385727 13.307563 0.673652
355.898071 49.504215 11.497898 0.409681
355.898071 49.504223 9.742960 0.392892
355.898071 49.504223 8.004990 0.445466
355.999573 49.385727 6.292852 0.678431
355.898071 49.504223 4.564363 0.409191
355.898071 49.504215 2.854178 0.407966
355.898071 49.504223 1.145823 0.366912
348.424744 58.228634 -0.000012 0.533701
337.807465 70.623329 0.000069 0.538235
333.249481 75.944359 0.000079 0.520956
330.711121 78.907669 0.000045 0.568382
329.090393 80.799706 0.000062 0.499020
327.964020 82.114662 0.000058 0.518505
327.134186 83.083405 0.000033 0.540564
355.421051 49.504227 14.997707 0.401961
355.519592 49.387589 13.240089 0.678431
355.421051 49.504227 11.441663 0.391544
355.421051 49.504227 9.697121 0.392157
355.421051 49.504227 7.969436 0.409436
355.519592 49.387589 6.267235 0.678431
355.421051 49.504223 4.549180 0.404902
355.421051 49.504227 2.849119 0.404902
355.421051 49.504223 1.150880 0.420956
348.208252 58.044495 -0.000011 0.542525
337.677673 70.513107 0.000080 0.564706
333.157013 75.865776 0.000087 0.543015
330.639404 78.846703 0.000049 0.544608
329.031952 80.750015 0.000068 0.533088
327.914764 82.072784 0.000060 0.524510
327.091644 83.047386 0.000064 0.526838
354.949677 49.504219 14.921837 0.398529
355.045319 49.389351 13.173981 0.678431
354.949677 49.504219 11.386546 0.404289
354.949677 49.504227 9.652188 0.406127
354.949677 49.504219 7.934590 0.414583
355.045319 49.389347 6.242138 0.678431
354.949677 49.504223 4.534300 0.410294
354.949677 49.504227 2.844163 0.403431
354.949677 49.504223 1.155837 0.395588
347.990479 57.861877 -0.000011 0.540441
337.547119 70.403793 0.000091 0.532598
333.063934 75.787865 0.000098 0.542525
330.567261 78.786263 0.000056 0.527696
328.973145 80.700722 0.000072 0.522304
327.865204 82.031273 0.000067 0.530515
327.048950 83.011574 0.000066 0.557721
354.483704 49.504227 14.847466 0.419608
354.576599 49.391106 13.109178 0.678431
354.576599 49.391102 11.359154 0.674265
354.483704 49.504223 9.608146 0.389216
354.483704 49.504230 7.900434 0.344976
354.576599 49.391106 6.217535 0.678431
354.483704 49.504230 4.519712 0.365319
354.483704 49.504230 2.839305 0.403186
354.483704 49.504230 1.160695 0.363480
347.771393 57.680779 -0.000011 0.533211
337.416138 70.295006 0.000061 0.533578
332.970551 75.710327 0.000067 0.534436
330.494812 78.726166 0.000033 0.547794
328.914063 80.651726 0.000047 0.539216
327.815399 81.990067 0.000063 0.569730
327.006012 82.976036 0.000060 0.532721
354.023071 49.504230 14.774565 0.394240
354.023102 49.504227 13.014711 0.396078
354.113220 49.392849 11.305637 0.678431
354.023071 49.504230 9.564975 0.407598
354.023071 49.504223 7.866953 0.440931
354.113220 49.392849 6.193420 0.678431
354.023071 49.504227 4.505417 0.408824
354.023071 49.504227 2.834542 0.359069
354.023071 49.504227 1.165457 0.403309
347.551147 57.501156 -0.000014 0.532230
337.284058 70.187523 0.000071 0.544976
332.876404 75.633728 0.000079 0.543382
330.421722 78.666847 0.000063 0.542525
328.854584 80.603287 0.000058 0.557476
327.765259 81.949249 0.000072 0.525490
326.962769 82.940826 0.000063 0.521446
353.567627 49.504223 14.703101 0.443382
353.567627 49.504223 12.953094 0.391789
353.655090 49.394592 11.253177 0.678431
353.567627 49.504230 9.522655 0.408333
353.567627 49.504223 7.834134 0.444975
353.655090 49.394588 6.169780 0.678431
353.567627 49.504223 4.491400 0.408333
353.567627 49.504230 2.829874 0.402328
353.567627 49.504230 1.170127 0.387990
347.329590 57.323124 -0.000014 0.534681
337.151276 70.080910 0.000075 0.544730
332.781799 75.557724 0.000081 0.534436
330.348328 78.607918 0.000066 0.554044
328.794769 80.555206 0.000054 0.542279
327.714874 81.908775 0.000076 0.562990
326.919312 82.905930 0.000067 0.539828
353.117188 49.504223 14.633047 0.425980
353.117188 49.504223 12.892688 0.438603
353.202087 49.396313 11.201747 0.678431
353.117188 49.504227 9.481170 0.412010
353.117188 49.504230 7.801958 0.432108
353.202087 49.396313 6.146605 0.678431
353.117188 49.504223 4.477661 0.420711
353.117188 49.504219 2.825298 0.435049
353.117188 49.504223 1.174703 0.370711
347.106781 57.146660 -0.000014 0.532598
337.017731 69.975266 0.000084 0.543995
332.686615 75.482452 0.000093 0.524020
330.274384 78.549667 0.000104 0.503799
328.734558 80.507607 0.000063 0.508701
327.664185 81.868652 0.000079 0.569608
326.875610 82.871338 0.000075 0.541054
352.671692 49.504227 14.564369 0.407843
352.671722 49.504219 12.833476 0.434314
352.755890 49.395649 11.151876 0.288848
352.671692 49.504227 9.440500 0.407598
352.671692 49.504227 7.770416 0.407843
352.755890 49.395638 6.124132 0.294608
352.671692 49.504234 4.464191 0.407598
352.671692 49.504227 2.820810 0.403064
352.671692 49.504230 1.179189 0.421569
346.882782 56.971737 -0.000014 0.531863
336.883698 69.870239 0.000062 0.540441
332.591064 75.407593 0.000070 0.545343
330.200348 78.491577 0.000073 0.514093
328.674164 80.460266 0.000038 0.550490
327.613312 81.828773 0.000054 0.514583
326.831665 82.837029 0.000072 0.545343
352.231018 49.504230 14.497037 0.413603
352.231018 49.504219 12.775421 0.407598
352.310883 49.399662 11.101916 0.678431
352.230988 49.504230 9.400626 0.420711
352.231018 49.504223 7.739495 0.403309
352.310883 49.399670 6.101616 0.678431
352.231018 49.504230 4.450985 0.399755
352.231018 49.504223 2.816412 0.404657
352.231018 49.504223 1.183588 0.415196
346.657593 56.798370 -0.000015 0.532598
336.748749 69.766426 0.000065 0.532843
332.494934 75.333542 0.000065 0.532843
330.125702 78.434189 0.000077 0.548284
328.613312 80.413559 0.000060 0.544240
327.562073 81.789322 0.000049 0.547304
326.787506 82.803032 0.000073 0.509926
351.794952 49.504227 14.431031 0.404044
351.794952 49.504223 12.718506 0.399877
351.822388 49.467823 11.038314 0.499510
351.794952 49.504227 9.361539 0.333088
351.794952 49.504223 7.709180 0.381127
351.822388 49.467827 6.072957 0.494730
351.794952 49.504223 4.438040 0.420343
351.794952 49.504223 2.812100 0.440686
351.794952 49.504227 1.187900 0.398162
346.431122 56.626625 -0.000014 0.535662
336.612885 69.663750 0.000089 0.532230
332.398193 75.260223 0.000070 0.547304
330.050751 78.377312 0.000079 0.540931
328.552124 80.367203 0.000064 0.514828
327.510590 81.750259 0.000050 0.537377
326.743103 82.769333 0.000068 0.535784
351.363495 49.504227 14.366316 0.403186
351.363495 49.504227 12.662705 0.401593
351.438690 49.402920 11.005968 0.678431
351.363495 49.504227 9.323215 0.437745
351.363495 49.504230 7.679458 0.431373
351.438690 49.402916 6.058380 0.678431
351.363495 49.504234 4.425348 0.415809
351.363495 49.504227 2.807872 0.399755
351.363495 49.504227 1.192128 0.407843
346.203491 56.456440 -0.000013 0.538848
336.476471 69.561852 0.000095 0.531985
332.300995 75.187569 0.000072 0.549142
329.975342 78.320984 0.000084 0.552083
328.490692 80.321274 0.000068 0.533824
327.458801 81.711563 0.000053 0.519608
326.698486 82.735962 0.000071 0.496446
350.936493 49.504230 14.302865 0.422181
350.936493 49.504227 12.607998 0.431250
351.009399 49.404530 10.959397 0.678431
350.936493 49.504227 9.285641 0.405147
350.936493 49.504227 7.650318 0.418995
351.009399 49.404533 6.037392 0.678431
350.936493 49.504227 4.412904 0.369975
350.936493 49.504230 2.803726 0.450613
350.936493 49.504227 1.196273 0.398897
345.974670 56.287846 -0.000013 0.539951
336.339325 69.460953 0.000107 0.541176
332.203217 75.115654 0.000085 0.533824
329.899536 78.265160 0.000087 0.520343
328.428894 80.275772 0.000071 0.527941
327.406647 81.673332 0.000086 0.538480
326.653595 82.702911 0.000074 0.548652
350.513824 49.504223 14.240659 0.400123
350.513824 49.504223 12.554358 0.415809
350.584534 49.406120 10.913738 0.678431
350.513824 49.504223 9.248801 0.380392
350.513794 49.504230 7.621747 0.405270
350.584534 49.406136 6.016816 0.678431
350.513824 49.504219 4.400704 0.383578
350.513794 49.504230 2.799662 0.407476
350.513794 49.504230 1.200337 0.394975
345.744690 56.120857 -0.000014 0.536397
336.201477 69.360931 0.000110 0.530515
332.104980 75.044380 0.000089 0.559804
329.823364 78.209885 0.000091 0.564461
328.366791 80.230698 0.000073 0.556618
327.354340 81.635361 0.000088 0.543750
326.608429 82.670242 0.000101 0.562868
350.095367 49.504223 14.179667 0.391912
350.095367 49.504223 12.501772 0.416422
350.163910 49.407730 10.868966 0.678431
350.095367 49.504227 9.212684 0.419730
350.095367 49.504227 7.593736 0.407476
350.163910 49.407730 5.996642 0.678431
350.095367 49.504230 4.388741 0.414951
350.095367 49.504227 2.795679 0.404167
350.095367 49.504227 1.204321 0.406495
345.513550 55.955494 -0.000012 0.535784
336.063171 69.261620 0.000086 0.542279
332.006287 74.973724 0.000084 0.555882
329.746918 78.154984 0.000066 0.539951
328.304474 80.185928 0.000047 0.536765
327.301849 81.597610 0.000054 0.516789
326.563171 82.637703 0.000067 0.529534
349.681061 49.504227 14.119871 0.418627
349.681061 49.504223 12.450210 0.384069
349.747498 49.409294 10.825074 0.674142
349.681061 49.504227 9.177273 0.406005
349.681061 49.504230 7.566273 0.426961
349.747467 49.409306 5.976862 0.673652
349.681061 49.504227 4.377013 0.405024
349.681061 49.504234 2.791772 0.418382
349.681061 49.504234 1.208228 0.418260
345.281219 55.791714 -0.000013 0.544976
335.923981 69.163551 0.000090 0.525245
331.907104 74.903824 0.000089 0.548407
329.669952 78.100769 0.000071 0.515074
328.241669 80.141838 0.000075 0.581985
327.249023 81.560387 0.000059 0.548774
326.517578 82.605606 0.000071 0.528676
349.270752 49.504230 14.061239 0.416912
349.270752 49.504227 12.399658 0.408088
349.335144 49.410831 10.782044 0.678431
349.270752 49.504230 9.142553 0.418873
349.270752 49.504227 7.539347 0.407108
349.335144 49.410835 5.957471 0.673039
349.270752 49.504227 4.365516 0.406005
349.270752 49.504227 2.787941 0.402083
349.270752 49.504227 1.212058 0.380515
345.047791 55.629581 -0.000012 0.536274
335.784088 69.066460 0.000095 0.542279
331.807373 74.834625 0.000094 0.534926
329.592560 78.047203 0.000095 0.555515
328.178528 80.098213 0.000109 0.539583
327.195892 81.523521 0.000063 0.549877
326.471802 82.573822 0.000079 0.566422
348.864410 49.504230 14.003758 0.401961
348.864410 49.504223 12.350095 0.388480
348.926788 49.412384 10.739849 0.678431
348.864410 49.504230 9.108510 0.407598
348.864410 49.504227 7.512948 0.413725
348.926788 49.412384 5.938458 0.678431
348.864410 49.504227 4.354241 0.409191
348.864410 49.504230 2.784187 0.419853
348.864410 49.504230 1.215813 0.407721
344.813232 55.469074 -0.000013 0.537132
335.643616 68.970245 0.000089 0.529167
331.707214 74.766121 0.000098 0.551961
329.514862 77.994080 0.000101 0.548652
328.115204 80.054901 0.000113 0.589706
327.142578 81.486984 0.000054 0.562377
326.425812 82.542328 0.000071 0.500858
348.461884 49.504227 13.947403 0.406005
348.461884 49.504219 12.301502 0.402574
348.522339 49.413895 10.698485 0.678431
348.461884 49.504223 9.075138 0.398775
348.461884 49.504223 7.487064 0.403431
348.522339 49.413891 5.919817 0.678431
348.461884 49.504227 4.343188 0.436274
348.461884 49.504230 2.780505 0.436397
348.461884 49.504230 1.219495 0.419730
344.577576 55.310211 -0.000013 0.539583
335.502441 68.875046 0.000087 0.541299
331.606567 74.698265 0.000095 0.525000
329.436829 77.941444 0.000096 0.553186
328.051605 80.011955 0.000100 0.522181
327.088989 81.450844 0.000052 0.530760
326.379639 82.511124 0.000057 0.548407
348.063110 49.504234 13.892146 0.402574
348.063110 49.504234 12.253857 0.420098
348.121643 49.415390 10.657932 0.678431
348.063110 49.504234 9.042417 0.394730
348.063110 49.504230 7.461689 0.414216
348.121643 49.415394 5.901542 0.678431
348.063110 49.504230 4.332351 0.365564
348.063080 49.504242 2.776896 0.415319
348.063080 49.504242 1.223104 0.401838
344.340790 55.152985 -0.000013 0.538235
335.360535 68.780907 0.000092 0.529167
331.505493 74.631088 0.000089 0.532108
329.358398 77.889412 0.000100 0.539338
327.987701 79.969536 0.000105 0.550735
327.035065 81.415161 0.000075 0.529657
326.333191 82.480301 0.000061 0.552083
347.667999 49.504223 13.837977 0.405024
347.667999 49.504227 12.207151 0.409559
347.667999 49.504219 10.599223 0.410784
347.667999 49.504219 9.010338 0.366299
347.667999 49.504227 7.436808 0.376593
347.723572 49.418556 5.883460 0.291667
347.667999 49.504227 4.321728 0.354534
347.667999 49.504234 2.773357 0.398529
347.667999 49.504234 1.226644 0.396446
344.102966 54.997421 -0.000014 0.537132
335.217957 68.687782 0.000100 0.545833
331.403870 74.564720 0.000097 0.553309
329.279572 77.837936 0.000109 0.554167
327.923492 79.927513 0.000100 0.533824
326.980957 81.379814 0.000082 0.547917
326.286530 82.449814 0.000067 0.562255
347.331299 49.418358 13.810396 0.621446
347.276428 49.504223 12.161362 0.368137
347.276428 49.504219 10.560645 0.399265
347.276428 49.504223 8.978888 0.403676
347.276428 49.504223 7.412417 0.402451
347.331299 49.418358 5.866059 0.678431
347.276428 49.504234 4.311312 0.404289
347.276428 49.504230 2.769887 0.395098
347.276428 49.504230 1.230113 0.392279
343.864014 54.843517 -0.000015 0.536887
335.074799 68.595627 0.000103 0.543627
331.301819 74.499031 0.000102 0.527819
329.200470 77.786942 0.000104 0.534436
327.858948 79.885994 0.000107 0.507230
326.926575 81.344833 0.000086 0.502451
326.239594 82.419708 0.000091 0.520466
346.941437 49.419834 13.757784 0.678431
346.888336 49.504223 12.116470 0.376961
346.888336 49.504227 10.522824 0.449387
346.888336 49.504230 8.948055 0.406618
346.888336 49.504223 7.388508 0.389828
346.941437 49.419838 5.848835 0.678431
346.888336 49.504230 4.301100 0.400245
346.888336 49.504230 2.766485 0.401961
346.888336 49.504230 1.233515 0.401593
343.623962 54.691319 -0.000014 0.536029
334.931030 68.504395 0.000100 0.553186
331.199371 74.434006 0.000098 0.549632
329.121002 77.736519 0.000100 0.518015
327.794159 79.844887 0.000102 0.544608
326.871948 81.310280 0.000107 0.527083
326.192535 82.389839 0.000086 0.551225
346.555023 49.421284 13.706208 0.678431
346.503662 49.504223 12.072462 0.400123
346.503632 49.504230 10.485749 0.391912
346.539764 49.445930 8.928005 0.414583
346.503632 49.504230 7.365067 0.411152
346.555023 49.421291 5.831952 0.678431
346.503632 49.504230 4.291090 0.369240
346.503632 49.504230 2.763151 0.383946
346.503632 49.504234 1.236848 0.406373
343.382874 54.540768 -0.000014 0.539338
334.786560 68.414268 0.000106 0.522794
331.096405 74.369766 0.000104 0.529289
329.041199 77.686615 0.000093 0.519363
327.729065 79.804260 0.000107 0.544363
326.817108 81.276070 0.000111 0.549510
326.145294 82.360298 0.000080 0.502819
346.171997 49.422729 13.655646 0.678431
346.122284 49.504230 12.029320 0.407966
346.122284 49.504230 10.449404 0.425368
346.171997 49.422733 8.902363 0.678431
346.122284 49.504234 7.342087 0.351225
346.171997 49.422729 5.815402 0.678431
346.122284 49.504234 4.281277 0.408088
346.122284 49.504230 2.759883 0.414216
346.122284 49.504230 1.240117 0.409191
343.140778 54.391918 -0.000014 0.534436
334.641541 68.325043 0.000103 0.538603
330.993042 74.306175 0.000100 0.526471
328.961029 77.637291 0.000087 0.517279
327.663727 79.764000 0.000091 0.566667
326.762024 81.242195 0.000108 0.532721
326.097778 82.331085 0.000074 0.529657
345.766022 49.467823 13.593328 0.493260
345.744141 49.504227 11.987034 0.402451
345.744141 49.504227 10.413781 0.411029
345.766022 49.467815 8.865459 0.463603
345.744141 49.504230 7.319563 0.378309
345.766022 49.467823 5.795002 0.489583
345.744141 49.504227 4.271660 0.368260
345.744141 49.504230 2.756680 0.410662
345.744141 49.504230 1.243321 0.395466
342.897614 54.244751 -0.000014 0.535172
334.495728 68.237076 0.000121 0.526961
330.889160 74.243362 0.000105 0.506740
328.880463 77.588661 0.000106 0.501838
327.598053 79.724350 0.000108 0.535784
326.706696 81.208740 0.000112 0.527696
326.050079 82.302277 0.000091 0.565809
345.774963 48.817558 13.734416 0.678431
345.695007 48.952904 12.083899 0.398407
345.695007 48.952900 10.495387 0.392402
345.695007 48.952908 8.925686 0.409804
345.695007 48.952904 7.371159 0.436887
345.774963 48.817558 5.841186 0.678431
345.695007 48.952908 4.293693 0.400368
345.695007 48.952908 2.764017 0.363725
345.695007 48.952908 1.235982 0.413971
342.653473 54.099274 -0.000015 0.537132
334.349579 68.149742 0.000103 0.548039
330.784912 74.181236 0.000101 0.527574
328.799591 77.540474 0.000103 0.556495
327.532135 79.685066 0.000106 0.502941
326.651184 81.175636 0.000107 0.571936
326.002228 82.273705 0.000076 0.550980
345.694977 48.304607 13.835121 0.394363
345.694977 48.304600 12.204690 0.357843
345.695007 48.304596 10.597148 0.394608
345.694977 48.304607 9.008646 0.377328
345.694977 48.304604 7.435497 0.393873
345.774994 48.167068 5.887197 0.678431
345.694977 48.304604 4.321167 0.438235
345.694977 48.304607 2.773170 0.431005
345.694977 48.304607 1.226830 0.428554
342.408264 53.955532 -0.000014 0.535784
334.202698 68.063583 0.000100 0.542525
330.680237 74.119827 0.000098 0.533578
328.718414 77.492844 0.000099 0.500490
327.465942 79.646233 0.000101 0.498652
326.595428 81.142929 0.000105 0.487745
325.954163 82.245506 0.000072 0.586765
345.694977 47.640530 13.979205 0.397059
345.694977 47.640533 12.328922 0.402819
345.774994 47.500751 10.731116 0.678431
345.694977 47.640533 9.093970 0.438971
345.694977 47.640541 7.501669 0.445588
345.774994 47.500763 5.934521 0.678431
345.694977 47.640533 4.349425 0.395098
345.694977 47.640530 2.782583 0.407843
345.694977 47.640530 1.217417 0.411642
342.162109 53.813484 -0.000014 0.539828
334.055206 67.978455 0.000097 0.540441
330.575134 74.059143 0.000094 0.554044
328.636841 77.445900 0.000114 0.558456
327.399445 79.607964 0.000117 0.542034
326.539459 81.110619 0.000103 0.539338
325.905731 82.217873 0.000138 0.560907
345.695007 46.960068 14.127431 0.396814
345.695007 46.960064 12.456732 0.419118
345.774994 46.818005 10.839150 0.678431
345.694977 46.960072 9.181749 0.400980
345.695007 46.960064 7.569746 0.400980
345.774994 46.817997 5.983208 0.678431
345.695007 46.960068 4.378496 0.398162
345.695007 46.960068 2.792267 0.399020
345.695007 46.960068 1.207734 0.386887
341.914917 53.673210 -0.000013 0.536642
333.907318 67.894073 0.000067 0.535294
330.469604 73.999168 0.000085 0.537010
328.555084 77.399254 0.000085 0.517157
327.332794 79.569962 0.000091 0.543137
326.483246 81.078659 0.000093 0.539828
325.857300 82.190262 0.000110 0.565931
345.694977 46.262520 14.279982 0.403799
345.694977 46.262516 12.588264 0.411642
345.774994 46.118099 10.950339 0.678431
345.694977 46.262524 9.272087 0.423039
345.694977 46.262520 7.639807 0.404902
345.774994 46.118107 6.033311 0.678431
345.694977 46.262520 4.408415 0.398897
345.694977 46.262520 2.802232 0.403431
345.694977 46.262520 1.197768 0.415931
341.666779 53.534603 -0.000013 0.535172
333.758179 67.811897 0.000147 0.536274
330.363464 73.940323 0.000130 0.527819
328.472748 77.353630 0.000131 0.551103
327.265686 79.532745 0.000134 0.548652
326.426697 81.047325 0.000138 0.534069
325.808594 82.163185 0.000141 0.536765
345.694977 45.547165 14.437029 0.395833
345.694977 45.547173 12.723674 0.417892
345.732269 45.478722 11.048562 0.240319
345.694977 45.547176 9.365088 0.415196
345.694977 45.547173 7.711934 0.407108
345.732269 45.478718 6.077573 0.234436
345.694977 45.547161 4.439218 0.400368
345.694977 45.547173 2.812490 0.405392
345.694977 45.547173 1.187508 0.398529
341.417664 53.397751 -0.000014 0.539706
333.608978 67.729874 0.000143 0.545343
330.257111 73.881851 0.000125 0.537377
328.390289 77.308304 0.000129 0.578309
327.198425 79.495789 0.000130 0.516544
326.370056 81.016182 0.000135 0.496446
325.759766 82.136337 0.000138 0.557476
345.694977 44.813244 14.598769 0.408211
345.694977 44.813240 12.863137 0.404534
345.774994 44.663933 11.182691 0.678431
345.694977 44.813236 9.460871 0.387745
345.694977 44.813244 7.786215 0.424020
345.774994 44.663929 6.138017 0.678431
345.694977 44.813244 4.470938 0.421201
345.694977 44.813244 2.823058 0.432353
345.694977 44.813240 1.176942 0.408824
341.167633 53.262638 -0.000014 0.538358
333.459198 67.648888 0.000139 0.532966
330.150391 73.824127 0.000122 0.538113
328.307465 77.263519 0.000122 0.521569
327.130920 79.459290 0.000126 0.550980
326.313232 80.985374 0.000115 0.515931
325.710724 82.109833 0.000134 0.541912
345.695007 44.059933 14.765403 0.442402
345.695007 44.059929 13.006814 0.402451
345.774994 43.908104 11.304140 0.678431
345.695007 44.059929 9.559549 0.390931
345.695007 44.059925 7.862747 0.393995
345.774994 43.908096 6.192745 0.678431
345.695007 44.059933 4.503619 0.424510
345.695007 44.059937 2.833944 0.405392
345.695007 44.059940 1.166057 0.411520
340.916626 53.129284 -0.000014 0.534436
333.308838 67.568962 0.000136 0.532598
330.043213 73.767159 0.000118 0.541176
328.224365 77.219322 0.000118 0.544363
327.063232 79.423195 0.000107 0.511152
326.256165 80.955025 0.000110 0.548652
325.661530 82.083611 0.000115 0.516544
345.695007 43.286388 14.937145 0.395221
345.774994 43.131950 13.192459 0.678431
345.695007 43.286392 11.397667 0.430270
345.695007 43.286388 9.661254 0.398775
345.695007 43.286396 7.941620 0.364216
345.774994 43.131947 6.249153 0.675123
345.695007 43.286407 4.537301 0.431985
345.695007 43.286396 2.845163 0.418627
345.695007 43.286396 1.154837 0.419975
340.664734 52.997688 -0.000013 0.538358
333.157867 67.490242 0.000147 0.546078
329.935577 73.711060 0.000131 0.535539
328.140961 77.175728 0.000115 0.535172
326.995178 79.387718 0.000119 0.555515
326.198822 80.925156 0.000126 0.563113
325.612091 82.057846 0.000127 0.518627
345.694977 42.491718 15.114213 0.408088
345.720612 42.441441 13.319757 0.489093
345.694977 42.491714 11.526293 0.390441
345.694977 42.491722 9.766111 0.373284
345.694977 42.491730 8.022942 0.420098
345.720581 42.441448 6.297481 0.457966
345.694977 42.491714 4.572029 0.438113
345.694977 42.491734 2.856730 0.420588
345.694977 42.491734 1.143269 0.428309
340.411896 52.867828 -0.000014 0.534069
333.006409 67.412407 0.000144 0.529779
329.827637 73.655571 0.000126 0.528676
328.057251 77.132698 0.000110 0.552941
326.926941 79.352646 0.000114 0.509069
326.141327 80.895599 0.000120 0.541667
325.562561 82.032310 0.000106 0.530147
345.695007 41.674946 15.296857 0.394363
345.774994 41.515064 13.503666 0.678799
345.695007 41.674934 11.658968 0.416299
345.695007 41.674950 9.874270 0.401471
345.695007 41.674946 8.106826 0.388603
345.774994 41.515072 6.367300 0.678431
345.695007 41.674946 4.607850 0.400368
345.695007 41.674953 2.868662 0.405515
345.695007 41.674953 1.131337 0.415931
340.158173 52.739761 -0.000014 0.536152
332.854523 67.335449 0.000122 0.546324
329.719391 73.600731 0.000106 0.522059
327.973236 77.090256 0.000105 0.530392
326.858459 79.318054 0.000112 0.543015
326.083649 80.866447 0.000115 0.556250
325.512817 82.007187 0.000105 0.549387
345.695007 40.835079 15.485320 0.377206
345.774994 40.672356 13.666717 0.678431
345.695007 40.835068 11.795870 0.398652
345.695007 40.835075 9.985880 0.403554
345.774994 40.672363 8.214240 0.678431
345.774994 40.672367 6.429201 0.678431
345.695007 40.835075 4.644813 0.406250
345.695007 40.835075 2.880975 0.404044
345.695007 40.835075 1.119025 0.394485
339.903564 52.613464 -0.000014 0.536642
332.701904 67.259941 0.000136 0.538113
329.610596 73.546890 0.000118 0.517279
327.888855 77.048531 0.000122 0.541176
326.789673 79.284019 0.000125 0.511152
326.025726 80.837708 0.000112 0.546078
325.462860 81.982460 0.000118 0.505392
345.775024 39.805370 15.725961 0.678431
345.729370 39.899803 13.812391 0.459191
345.695007 39.970997 11.937201 0.407230
345.695007 39.970997 10.101097 0.414216
345.775024 39.805378 8.303900 0.678431
345.695007 39.971001 6.478023 0.411887
345.695007 39.970993 4.682973 0.400858
345.695007 39.971008 2.893686 0.404412
345.695007 39.971008 1.106314 0.406618
339.648071 52.488937 -0.000014 0.533946
332.548859 67.185287 0.000131 0.540074
329.501526 73.493690 0.000113 0.529657
327.804260 77.007256 0.000116 0.560539
326.720764 79.250305 0.000104 0.559436
325.967621 80.809372 0.000109 0.574142
325.412750 81.958092 0.000131 0.501961
345.774994 38.912949 15.927587 0.678554
345.695007 39.081573 13.968578 0.444608
345.695007 39.081573 12.083171 0.403922
345.695007 39.081581 10.220096 0.398162
345.774994 38.912956 8.396500 0.678431
345.695007 39.081573 6.543802 0.386765
345.695007 39.081577 4.722383 0.385417
345.695007 39.081581 2.906812 0.410784
345.695007 39.081581 1.093187 0.419853
339.391724 52.366219 -0.000013 0.536397
332.395294 67.111710 0.000126 0.551103
329.392090 73.441238 0.000108 0.534681
327.719391 76.966599 0.000113 0.526348
326.651550 79.217140 0.000099 0.540196
325.909302 80.781509 0.000121 0.560907
325.362488 81.934006 0.000127 0.512868
345.774994 37.993881 16.135918 0.678431
345.695007 38.165596 14.147607 0.403922
345.695007 38.165592 12.233998 0.383578
345.695007 38.165600 10.343056 0.439828
345.774994 37.993893 8.492177 0.678431
345.695007 38.165596 6.611769 0.398407
345.695007 38.165592 4.763106 0.401103
345.695007 38.165604 2.920377 0.404534
345.695007 38.165604 1.079623 0.400980
339.134521 52.245274 -0.000014 0.531863
332.241302 67.039085 0.000111 0.554534
329.282318 73.389496 0.000095 0.531740
327.634308 76.926346 0.000079 0.521936
326.582062 79.184601 0.000119 0.531495
325.850830 80.753937 0.000104 0.538848
325.312073 81.910240 0.000114 0.519853
353.706512 19.709578 21.126928 0.671201
353.706543 19.709547 18.491968 0.678431
353.706543 19.709547 15.893991 0.678431
353.706512 19.709555 13.326789 0.680270
353.706543 19.709555 10.784395 0.678431
353.706512 19.709562 8.261082 0.678431
353.706543 19.709555 5.751277 0.463235
353.669922 19.789555 3.248092 0.431127
353.669922 19.789555 0.751908 0.403186
338.876495 52.126125 -0.000014 0.535907
332.086639 66.967865 0.000126 0.544976
329.172058 73.338730 0.000109 0.526838
327.548798 76.886971 0.000093 0.535417
326.512390 79.152512 0.000136 0.541912
325.792084 80.726913 0.000123 0.499387
325.261414 81.886925 0.000127 0.522059
353.122131 19.709560 21.066504 0.678431
353.122162 19.709560 18.439861 0.678431
353.122162 19.709560 15.850095 0.678431
353.122162 19.709560 13.291000 0.677574
353.122131 19.709560 10.756642 0.678431
353.122162 19.709553 8.241299 0.678431
353.122131 19.709560 5.739424 0.457230
353.086243 19.789549 3.244151 0.403799
353.086243 19.789557 0.755851 0.377328
338.617615 52.008781 -0.000014 0.540931
331.931671 66.897301 0.000101 0.549020
329.061554 73.288589 0.000105 0.511765
327.463074 76.848083 0.000088 0.537377
326.442505 79.120811 0.000131 0.570711
325.733246 80.700203 0.000116 0.526348
325.210693 81.863838 0.000107 0.538358
352.541443 19.709560 21.007376 0.678431
352.541443 19.709538 18.388884 0.678431
352.541443 19.709545 15.807148 0.680392
352.541443 19.709553 13.255986 0.677451
352.541443 19.709545 10.729487 0.678431
352.541443 19.709545 8.221946 0.678431
352.541443 19.709553 5.727829 0.450735
352.506165 19.789553 3.240290 0.403676
352.506165 19.789553 0.759708 0.376471
338.357910 51.893288 -0.000013 0.536274
331.776123 66.828018 0.000095 0.552206
328.950684 73.239204 0.000098 0.529412
327.377106 76.809799 0.000084 0.533701
326.372437 79.089508 0.000108 0.531863
325.674164 80.673897 0.000112 0.523039
325.159760 81.841156 0.000101 0.575490
351.939453 19.767057 20.933847 0.398652
351.939453 19.767073 18.325474 0.398162
351.939453 19.767073 15.753727 0.427083
351.939453 19.767065 13.212442 0.427083
351.939453 19.767073 10.695716 0.427083
351.939453 19.767073 8.197872 0.398162
351.929718 19.789557 5.712202 0.407230
351.929718 19.789557 3.236517 0.411887
351.929718 19.789557 0.763483 0.421936
338.097443 51.779583 -0.000013 0.538603
331.620056 66.759949 0.000101 0.540931
328.839447 73.190689 0.000103 0.538358
327.290802 76.772179 0.000090 0.529657
326.302094 79.058830 0.000112 0.531127
325.614960 80.647980 0.000098 0.530760
325.108673 81.818878 0.000104 0.526348
351.390625 19.709558 20.892967 0.678431
351.390625 19.709558 18.290230 0.678431
351.390625 19.709551 15.724037 0.677083
351.390625 19.709558 13.188236 0.678431
351.390625 19.709558 10.676942 0.678431
351.356689 19.789543 8.177368 0.403676
351.356689 19.789543 5.701121 0.409191
351.356689 19.789543 3.232825 0.379167
351.356689 19.789543 0.767174 0.392647
337.836182 51.667667 -0.000014 0.534681
331.463562 66.692848 0.000094 0.536765
328.727966 73.142700 0.000077 0.531005
327.204346 76.735085 0.000084 0.539583
326.231598 79.028587 0.000106 0.568627
325.555542 80.622505 0.000092 0.513235
325.057434 81.796921 0.000103 0.556373
350.808533 19.737925 20.829954 0.296078
350.808533 19.737909 18.235899 0.296691
350.808533 19.737917 15.678263 0.297917
350.808533 19.737917 13.150920 0.298529
350.808533 19.737917 10.648002 0.299632
350.787048 19.789551 8.159282 0.423529
350.787048 19.789558 5.690283 0.399510
350.787048 19.789551 3.229216 0.401348
350.787048 19.789558 0.770784 0.386275
337.574158 51.557602 -0.000014 0.528676
331.306580 66.626846 0.000089 0.536520
328.616058 73.095665 0.000072 0.532230
327.117554 76.698601 0.000078 0.512623
326.160889 78.998749 0.000082 0.533333
325.495941 80.597466 0.000090 0.556985
325.006042 81.775322 0.000098 0.537255
350.253357 19.709553 20.783564 0.678431
350.253357 19.709553 18.195902 0.679902
350.253357 19.709560 15.644565 0.678431
350.253357 19.709553 13.123448 0.678431
