# This PCD file was generated using the MATLABÂ® pcwrite function
# from Computer Vision ToolboxÂ®.
# .PCD v.7 - Point Cloud Data file format
VERSION .7
FIELDS x y z intensity
SIZE 4 4 4 4
TYPE F F F F
COUNT 1 1 1 1
WIDTH 1214
HEIGHT 1
VIEWPOINT 0 0 0 1 0 0 0
POINTS 1214
DATA ascii
259.631775 91.738152 4.373364 0.504779
259.579071 91.783974 3.986784 0.505760
262.900879 88.894447 4.272764 0.498774
262.621826 89.137192 3.720074 0.430147
262.622559 89.136574 3.226061 0.505882
263.738922 88.165474 2.807275 0.506740
263.698303 88.200775 2.268019 0.513235
303.925049 53.209023 0.859520 0.728064
282.057159 72.231094 -0.000018 0.538113
269.744141 82.941757 -0.000007 0.546446
264.457733 87.540207 -0.000002 0.536029
261.513519 90.101280 -0.000000 0.556985
259.634369 91.735878 -0.000119 0.535172
258.327820 92.872375 -0.000111 0.535907
257.365173 93.709747 -0.000082 0.531618
nan nan nan 0.000000
259.067200 92.133896 4.225327 0.517647
259.511414 91.742012 3.982556 0.506740
262.822327 88.821136 4.271162 0.493505
262.515808 89.091530 3.714361 0.507966
263.468506 88.251060 3.326081 0.506005
263.650696 88.090324 2.806448 0.509926
303.048767 53.333229 3.128356 0.168260
303.189545 53.209019 0.868573 0.732476
281.869873 72.017303 -0.000018 0.540809
269.631927 82.813667 -0.000007 0.541789
264.377747 87.448906 -0.000002 0.542034
261.451477 90.030487 0.000001 0.537868
259.583679 91.678238 -0.000096 0.537132
258.285187 92.823822 -0.000087 0.538113
257.328400 93.667885 -0.000057 0.557966
nan nan nan 0.000000
259.004761 92.093246 4.221076 0.511029
262.524353 88.944267 4.730511 0.509926
259.133575 91.977989 3.551090 0.512745
262.907043 88.601891 3.785421 0.505882
262.412048 89.044762 3.218098 0.506005
263.562653 88.015327 2.805660 0.517034
302.308075 53.349995 3.119110 0.138113
302.465637 53.209015 0.877428 0.739461
281.681091 71.804825 -0.000019 0.535907
269.518829 82.686363 -0.000007 0.530025
264.297150 87.358177 -0.000003 0.537132
261.388977 89.960114 -0.000000 0.519118
259.532898 91.620712 -0.000138 0.523407
258.242371 92.775360 -0.000128 0.529779
257.291504 93.626099 -0.000098 0.544976
nan nan nan 0.000000
258.942688 92.052620 4.216990 0.503186
259.194458 91.824158 3.929609 0.507230
259.047241 91.957748 3.543585 0.517034
259.415344 91.623772 3.254292 0.506127
263.334808 88.067467 3.327950 0.508578
263.784271 87.659637 2.825446 0.506495
301.616028 53.333229 3.110882 0.099265
301.752930 53.209019 0.886093 0.732476
281.490875 71.593658 -0.000019 0.532353
269.404846 82.559860 -0.000007 0.542770
264.215881 87.268005 -0.000001 0.538358
261.325958 89.890182 -0.000000 0.529167
259.481415 91.563797 -0.000112 0.523162
258.199005 92.727402 -0.000104 0.538603
257.254089 93.584755 -0.000073 0.583824
nan nan nan 0.000000
258.880981 92.012024 4.213063 0.513358
259.106537 91.804497 3.920208 0.510662
259.389740 91.543892 3.622500 0.510049
259.378448 91.554260 3.256556 0.502083
259.366516 91.565262 2.894277 0.504412
259.685913 91.271362 2.557123 0.504657
300.916107 53.333237 3.102426 0.112868
301.051086 53.209019 0.894572 0.726838
281.299164 71.383858 -0.000019 0.536642
269.289978 82.434151 -0.000007 0.536274
264.134033 87.178413 -0.000001 0.537745
261.262482 89.820686 -0.000002 0.559804
259.429626 91.507210 -0.000096 0.538603
258.155334 92.679726 -0.000088 0.553186
257.216431 93.543640 -0.000057 0.552451
258.523560 92.247696 4.460858 0.500490
257.837616 92.887764 3.919217 0.505515
259.019531 91.784904 3.911018 0.510539
259.352692 91.474022 3.625515 0.494118
259.341431 91.484505 3.258886 0.511029
259.034119 91.771278 2.862805 0.494975
259.554993 91.285263 2.551940 0.509191
300.226746 53.333206 3.094151 0.082843
300.359833 53.209019 0.902870 0.728309
281.105988 71.175377 -0.000019 0.535539
269.174225 82.309235 -0.000007 0.539093
264.051544 87.089386 -0.000001 0.540686
261.198456 89.751663 0.000002 0.535784
259.377563 91.450783 -0.000131 0.539951
258.111511 92.632195 -0.000120 0.536397
257.178650 93.502655 -0.000092 0.472426
259.243164 91.472336 4.725214 0.508824
259.084808 91.622192 4.302692 0.505882
259.178284 91.533707 3.963374 0.508578
299.678802 53.209053 11.871674 0.744118
259.304291 91.414497 3.261285 0.507843
258.676392 92.008667 2.828098 0.510417
259.426575 91.298767 2.546889 0.512990
299.547607 53.333221 3.086053 0.073897
299.678864 53.209015 0.910990 0.727574
280.911346 70.968254 -0.000019 0.532966
269.057617 82.185158 -0.000006 0.536887
263.968414 87.000931 -0.000002 0.543137
261.134003 89.683060 0.000000 0.562745
259.324951 91.394928 -0.000114 0.526226
258.067169 92.585136 -0.000105 0.531005
257.140442 93.462082 -0.000075 0.515931
nan nan nan 0.000000
258.997131 91.603157 4.291821 0.519608
259.112579 91.492371 3.959905 0.501593
299.007813 53.209061 11.799612 0.725368
259.266937 91.344231 3.263753 0.515074
258.628357 91.957024 2.828169 0.505882
298.951874 53.262730 5.241688 0.717770
259.400085 91.216484 2.182781 0.505882
299.007813 53.209023 0.918939 0.724877
280.715302 70.762489 -0.000019 0.539461
268.940125 82.061874 -0.000006 0.545588
263.884705 86.913063 -0.000002 0.537868
261.069092 89.614914 0.000000 0.540441
259.271912 91.339462 -0.000088 0.526471
258.022491 92.538414 -0.000079 0.540809
257.101929 93.421799 -0.000049 0.553799
258.322144 92.156616 4.440071 0.507353
258.357330 92.122368 4.114527 0.505882
259.047119 91.451141 3.956553 0.503554
259.242920 91.260605 3.635567 0.516299
259.229492 91.273689 3.266291 0.505882
258.903259 91.591156 2.865224 0.507598
259.128387 91.372063 2.533826 0.506495
259.354401 91.152145 2.182975 0.504657
298.346497 53.209015 0.926722 0.745221
280.517761 70.558105 -0.000019 0.533456
268.821808 81.939415 -0.000007 0.532843
263.800354 86.825783 -0.000002 0.540196
261.003662 89.547226 0.000000 0.537745
259.218750 91.284119 -0.000130 0.551961
257.977722 92.491791 -0.000121 0.525368
257.063293 93.381599 -0.000090 0.500858
258.974609 91.417244 4.686427 0.500613
258.576477 91.810104 4.195535 0.498652
258.680664 91.707283 3.876308 0.508088
259.205292 91.189613 3.638948 0.500858
259.817383 90.585602 3.369999 0.505760
258.531921 91.854065 2.828391 0.505882
259.055878 91.337029 2.532487 0.505882
258.842834 91.547264 2.172471 0.543015
297.694611 53.209026 0.934341 0.727206
280.318878 70.355103 -0.000019 0.541054
268.702637 81.817787 -0.000007 0.531495
263.715393 86.739090 -0.000003 0.534314
260.937805 89.480003 0.000001 0.532598
259.164978 91.229401 -0.000107 0.504412
257.932404 92.445679 -0.000098 0.535049
257.024200 93.341850 -0.000065 0.548039
258.189575 92.096878 4.426942 0.497304
257.642578 92.644218 3.925476 0.502083
258.177643 92.108818 3.759881 0.506127
259.167450 91.118332 3.642423 0.500245
259.742218 90.543190 3.367307 0.505882
258.813629 91.472397 2.866834 0.505760
258.923676 91.362267 2.527006 0.495588
296.927734 53.333225 3.055325 0.098652
297.051849 53.209019 0.941802 0.721324
280.118500 70.153503 -0.000019 0.534559
268.582581 81.696999 -0.000007 0.526961
263.629852 86.653008 -0.000002 0.536029
260.871460 89.413208 -0.000002 0.540196
259.111023 91.174812 -0.000148 0.532108
257.886871 92.399765 -0.000117 0.532598
256.985046 93.302193 -0.000110 0.508333
259.076874 91.100136 4.760722 0.515319
257.603149 92.595566 3.926936 0.518627
258.145966 92.044754 3.764097 0.505882
296.417999 53.209049 11.526144 0.707966
296.295624 53.333221 9.367867 0.203922
259.020721 91.157104 2.897146 0.531373
258.804901 91.376106 2.522412 0.516544
296.365082 53.262722 3.049658 0.721569
296.418030 53.209026 0.949109 0.733456
279.916779 69.953308 -0.000019 0.536765
268.461731 81.577049 -0.000007 0.542402
263.543701 86.567513 -0.000001 0.541912
260.804626 89.346916 -0.000001 0.523775
259.056427 91.120842 -0.000123 0.534314
257.840881 92.354309 -0.000091 0.527819
256.945404 93.262993 -0.000085 0.539583
258.058716 92.037399 4.414550 0.531618
257.563599 92.546875 3.928478 0.510294
257.651825 92.456116 3.647715 0.506127
257.741425 92.363892 3.362341 0.497059
258.381500 91.705261 3.162207 0.513235
258.385956 91.700684 2.828887 0.510172
258.687744 91.390144 2.517893 0.436152
295.740662 53.262722 3.042511 0.726348
295.792847 53.209023 0.956263 0.725735
279.713654 69.754509 -0.000019 0.537255
268.340027 81.457939 -0.000007 0.548652
263.456970 86.482613 -0.000002 0.542034
260.737366 89.281082 -0.000001 0.522549
259.001526 91.067245 -0.000105 0.527206
257.794647 92.309143 -0.000075 0.538480
256.905762 93.223785 -0.000160 0.538113
257.669403 92.346375 4.291140 0.515319
257.523926 92.498161 3.930099 0.516299
257.471985 92.552391 3.612387 0.507721
257.700958 92.313469 3.363552 0.508333
258.332733 91.654228 3.162534 0.507353
258.329926 91.657150 2.828264 0.503431
259.020599 90.936424 2.545289 0.512132
295.124634 53.262726 3.035510 0.695588
295.176086 53.209023 0.963272 0.723284
279.509125 69.557144 -0.000019 0.540564
268.217468 81.339699 -0.000006 0.540319
263.369629 86.398331 -0.000002 0.546201
260.669617 89.215714 -0.000000 0.531985
258.946442 91.013809 -0.000141 0.549020
257.748230 92.264130 -0.000110 0.552941
256.865753 93.184975 -0.000196 0.554657
257.928558 91.979210 4.402509 0.514216
257.484161 92.449432 3.931801 0.495956
257.425537 92.511475 3.611952 0.507475
256.865936 93.103615 3.193258 0.497304
258.861572 90.991905 3.259671 0.518137
258.280945 91.606293 2.828517 0.506005
258.828461 91.026924 2.535561 0.501838
258.279633 91.607689 2.165317 0.506373
294.567566 53.209015 0.970136 0.722426
279.303223 69.361206 -0.000019 0.533578
268.094147 81.222290 -0.000008 0.538358
263.281708 86.314667 -0.000001 0.546078
260.601440 89.150818 -0.000001 0.525368
258.890778 90.960976 -0.000123 0.535294
257.701355 92.219620 -0.000092 0.558456
256.825348 93.146591 -0.000179 0.539706
257.530487 92.308159 4.274191 0.504902
257.896271 91.915611 4.076784 0.518015
257.379059 92.470634 3.611584 0.508456
258.237396 91.549568 3.500566 0.556985
258.234344 91.552856 3.163236 0.501838
257.988770 91.816353 2.799564 0.505024
258.782166 90.964981 2.536223 0.508578
258.230133 91.557373 2.165363 0.505882
293.966980 53.209023 0.976862 0.724020
279.096008 69.166725 -0.000019 0.534069
267.969940 81.105789 -0.000006 0.530637
263.193207 86.231621 -0.000000 0.531740
260.532806 89.086418 0.000000 0.542402
258.834747 90.908569 -0.000097 0.545098
257.654114 92.175476 -0.000065 0.551103
256.784607 93.108521 -0.000154 0.505760
256.835754 92.970467 4.034235 0.508578
257.404755 92.351295 3.935612 0.507475
257.332550 92.429863 3.611281 0.514338
257.578766 92.161919 3.367542 0.497549
258.621155 91.027565 3.237814 0.530025
258.182190 91.505280 2.829055 0.508456
293.324799 53.262737 5.048244 0.726593
293.324799 53.262730 3.015355 0.730515
293.374176 53.209015 0.983450 0.730515
278.887390 68.973679 -0.000019 0.531373
267.845001 80.990097 -0.000009 0.543382
263.104156 86.149162 -0.000004 0.550735
260.463745 89.022469 -0.000002 0.527206
258.778564 90.856270 -0.000140 0.520711
257.606812 92.131409 -0.000110 0.523529
256.743805 93.070526 -0.000197 0.543260
256.835815 92.886002 4.049869 0.510294
256.959076 92.749939 3.807132 0.508088
257.285980 92.389160 3.611043 0.510049
256.796204 92.929672 3.205172 0.518873
258.503235 91.045876 3.227111 0.505882
257.865112 91.750061 2.796705 0.530882
258.130768 91.456902 2.496775 0.516912
292.740265 53.262737 3.008909 0.741789
292.788940 53.209015 0.989906 0.739338
278.677429 68.782097 -0.000019 0.535172
267.719208 80.875320 -0.000009 0.537623
263.014496 86.067345 -0.000005 0.557353
260.394196 88.959030 -0.000001 0.536397
258.721802 90.804649 -0.000113 0.498897
257.558960 92.087921 -0.000083 0.496936
256.702576 93.033028 -0.000170 0.563725
256.836731 92.799217 4.066186 0.505882
257.325287 92.252434 3.939909 0.501716
257.410736 92.156792 3.657655 0.500980
256.800446 92.839790 3.215505 0.506005
257.825836 91.692223 3.119713 0.503309
257.803223 91.717499 2.795296 0.506127
257.488007 92.070313 2.453252 0.514093
292.163055 53.262718 3.002589 0.716789
292.211060 53.209015 0.996232 0.718505
278.466156 68.591980 -0.000019 0.536274
267.592621 80.761406 -0.000010 0.537990
262.924255 85.986168 -0.000005 0.537990
260.324249 88.896072 -0.000002 0.549877
258.664825 90.753235 -0.000135 0.546569
257.510864 92.044746 -0.000065 0.528186
256.661072 92.995796 -0.000151 0.566667
256.837433 92.711296 4.082778 0.495588
257.002441 92.524010 3.849759 0.522181
257.008545 92.517059 3.560053 0.521936
257.456207 92.008965 3.372248 0.493750
257.486786 91.974266 3.069556 0.506373
257.741974 91.684601 2.793980 0.515319
257.555054 91.896774 2.461815 0.523039
291.593018 53.262722 2.996398 0.713726
291.640289 53.209015 1.002430 0.747672
278.253571 68.403351 -0.000019 0.534804
267.465271 80.648392 -0.000009 0.534681
262.833466 85.905609 -0.000004 0.538235
260.253815 88.833595 -0.000003 0.530515
258.607574 90.702141 -0.000174 0.538725
257.462585 92.001709 -0.000101 0.540074
256.619446 92.958687 -0.000189 0.539216
256.837433 92.622780 4.099465 0.495588
256.963745 92.477371 3.851839 0.494975
256.984406 92.453606 3.565848 0.509069
257.006744 92.427895 3.281576 0.506005
256.827179 92.634567 2.962421 0.515931
257.589752 91.756752 2.781309 0.513358
257.658844 91.677231 2.473289 0.505760
257.636871 91.702515 2.157103 0.518995
291.076569 53.209015 1.008505 0.738480
278.039642 68.216217 -0.000019 0.537745
267.337128 80.536263 -0.000010 0.538725
262.742126 85.825691 -0.000005 0.534191
260.182983 88.771606 -0.000004 0.521691
258.549744 90.651695 -0.000153 0.520588
257.414215 91.958855 -0.000182 0.527696
256.577393 92.922134 -0.000139 0.507721
256.838287 92.531830 4.116856 0.510662
256.952271 92.398750 3.863076 0.511275
256.960022 92.389732 3.571749 0.496324
256.725464 92.663536 3.227859 0.500858
257.945648 91.238998 3.168033 0.529044
256.720428 92.669403 2.678087 0.506373
257.598206 91.644623 2.472558 0.505882
257.576538 91.669952 2.156861 0.496691
290.519623 53.209007 1.014456 0.732353
277.824432 68.030571 -0.000019 0.538480
267.208160 80.425049 -0.000009 0.536274
262.650208 85.746422 -0.000004 0.538848
260.111694 88.710129 -0.000003 0.535907
258.491760 90.601410 -0.000192 0.569975
257.365356 91.916489 -0.000220 0.527696
256.535248 92.885605 -0.000177 0.560662
257.080536 92.153542 4.228351 0.507843
256.918945 92.344864 3.867282 0.504534
256.940460 92.319427 3.579187 0.505882
256.983765 92.268097 3.297366 0.506863
256.819000 92.463242 2.976778 0.495711
256.700043 92.604080 2.681083 0.494485
257.893524 91.190842 2.498939 0.516544
257.516296 91.637543 2.156626 0.518260
289.923920 53.262718 1.021442 0.719608
277.607910 67.846436 -0.000019 0.533578
267.078430 80.314720 -0.000009 0.525368
262.557770 85.667786 -0.000004 0.528922
260.039978 88.649147 -0.000002 0.538235
258.433228 90.551781 -0.000171 0.529289
257.316010 91.874680 -0.000200 0.550735
256.492767 92.849548 -0.000157 0.537990
256.838226 92.347473 4.152131 0.526838
256.967621 92.192108 3.899312 0.506495
256.930450 92.236740 3.589548 0.508088
256.858185 92.323517 3.279095 0.497549
256.758972 92.442703 2.974150 0.536274
256.650238 92.573273 2.680394 0.494485
257.272369 91.826096 2.455417 0.528186
257.523773 91.524124 2.158127 0.509191
289.380676 53.262722 1.027154 0.724265
277.390137 67.663818 -0.000019 0.534926
266.947937 80.205322 -0.000008 0.545466
262.464752 85.589798 -0.000005 0.538848
259.967865 88.588684 -0.000000 0.508088
258.374359 90.502541 -0.000154 0.558456
257.266449 91.833183 -0.000185 0.550613
256.450012 92.813766 -0.000143 0.539216
256.839172 92.251823 4.170743 0.500368
256.861969 92.224014 3.879466 0.523407
256.904755 92.171913 3.595660 0.500735
256.494873 92.671249 3.205001 0.505392
256.457062 92.717316 2.927672 0.536887
257.138275 91.887444 2.749233 0.502451
257.386414 91.585129 2.468112 0.507108
257.649933 91.264130 2.162722 0.508578
288.843719 53.262718 1.032752 0.731373
277.171112 67.482727 -0.000019 0.538725
266.816711 80.096802 -0.000009 0.532475
262.371216 85.512466 -0.000005 0.543873
259.895325 88.528709 0.000000 0.537132
258.315125 90.453728 -0.000134 0.578431
257.216553 91.792068 -0.000163 0.534314
256.406982 92.778320 -0.000123 0.548529
257.077667 91.860954 4.284379 0.512010
257.040924 91.906311 3.957073 0.505760
256.949524 92.019257 3.622340 0.518015
256.209503 92.933739 3.148074 0.512377
256.429291 92.662140 2.930574 0.505882
257.378815 91.488785 2.787032 0.509314
257.357422 91.515221 2.469874 0.505270
262.504547 85.154762 2.290405 0.506127
288.356354 53.209015 1.037109 0.718873
276.950806 67.303154 -0.000019 0.535539
266.684723 79.989227 -0.000009 0.554779
262.277161 85.435791 -0.000004 0.522672
259.822357 88.469246 0.000002 0.519118
258.255768 90.405075 -0.000173 0.552451
257.166534 91.751083 -0.000201 0.490074
256.363861 92.742981 -0.000160 0.523039
256.841187 92.055290 4.209328 0.514706
256.362366 92.655479 3.739142 0.516176
256.816437 92.086304 3.597658 0.511029
256.941895 91.929024 3.332301 0.513603
257.116547 91.710098 3.065474 0.501838
256.198608 92.860756 2.638724 0.507108
257.297485 91.483299 2.469252 0.513113
263.080139 84.234589 2.308043 0.502083
287.787994 53.262733 1.043621 0.703799
276.729248 67.125137 -0.000019 0.533824
266.551971 79.882561 -0.000009 0.532721
262.182526 85.359779 -0.000003 0.529902
259.748962 88.410278 0.000001 0.560294
258.196014 90.356949 -0.000188 0.548407
257.116089 91.710663 -0.000182 0.548652
256.320465 92.708008 -0.000180 0.549510
257.625732 90.957977 4.546815 0.472304
256.959412 91.805336 3.963139 0.505760
256.214111 92.753044 3.434513 0.505760
256.075256 92.929649 3.136129 0.516299
256.395142 92.522835 2.940654 0.514583
256.200989 92.769768 2.644693 0.506005
258.976044 89.240898 2.606808 0.505637
262.343262 84.959015 2.291264 0.507353
287.268921 53.262726 1.048894 0.722059
276.506439 66.948685 -0.000018 0.539583
266.418488 79.776825 -0.000010 0.532966
262.087341 85.284439 -0.000001 0.523162
259.675201 88.351814 -0.000004 0.552451
258.135986 90.309128 -0.000226 0.521569
257.065460 91.670479 -0.000192 0.499387
256.276855 92.673264 -0.000219 0.529289
256.781219 91.931595 4.224405 0.505882
256.363068 92.471062 3.770547 0.507353
256.211884 92.666100 3.446730 0.510417
256.072479 92.845940 3.145664 0.523775
256.366821 92.466225 2.943781 0.506127
256.169556 92.720665 2.646282 0.507966
257.178955 91.418526 2.468153 0.502451
262.250519 84.875839 2.291403 0.513848
286.755524 53.262733 1.054065 0.723529
276.282410 66.773773 -0.000018 0.536520
266.284271 79.672050 -0.000009 0.537745
261.991730 85.209732 -0.000003 0.529289
259.601013 88.293892 -0.000003 0.531373
258.075409 90.261986 -0.000207 0.515686
257.014435 91.630760 -0.000172 0.532230
256.232849 92.639023 -0.000198 0.541667
256.732483 91.893265 4.224568 0.518015
256.236603 92.542320 3.741691 0.517892
256.212433 92.573936 3.460083 0.508946
256.069489 92.761024 3.155376 0.507598
256.338287 92.409225 2.946974 0.499755
257.672943 90.662354 2.855214 0.506005
257.119293 91.387032 2.467592 0.515931
257.099274 91.413177 2.155214 0.511275
286.247650 53.262733 1.059133 0.706863
276.057159 66.600433 -0.000018 0.536642
266.149323 79.568184 -0.000010 0.531740
261.895538 85.135704 -0.000003 0.524755
259.526398 88.236488 -0.000003 0.530760
258.014496 90.215317 -0.000175 0.524510
256.963104 91.591446 -0.000143 0.567524
256.188629 92.605103 -0.000173 0.499142
256.403351 92.227287 4.108079 0.491544
256.610138 91.952698 3.891907 0.516176
256.210175 92.483810 3.472899 0.506373
256.541016 92.044487 3.282330 0.521691
256.327179 92.328453 2.953606 0.517402
257.079956 91.328796 2.782291 0.512377
261.219849 85.831200 2.806797 0.510294
257.040894 91.380669 2.155061 0.499142
285.745178 53.262730 1.064102 0.693015
275.830688 66.428673 -0.000018 0.532475
266.013641 79.465279 -0.000009 0.529167
261.798828 85.062347 -0.000004 0.534804
259.451416 88.179604 -0.000002 0.543137
257.953552 90.168678 -0.000234 0.557598
256.911743 91.552162 -0.000199 0.533946
256.144287 92.571320 -0.000202 0.544730
256.613129 91.846069 4.216022 0.519853
256.361908 92.184517 3.819707 0.503676
256.616211 91.841866 3.610691 0.512500
256.065155 92.584404 3.175919 0.532966
255.929276 92.767487 2.885745 0.511275
257.020996 91.296455 2.781521 0.505882
257.001068 91.323303 2.466599 0.502819
256.981628 91.349510 2.154888 0.518137
285.247955 53.262726 1.068974 0.726348
275.603088 66.258484 -0.000018 0.536887
265.877228 79.363335 -0.000007 0.536642
261.701630 84.989670 -0.000004 0.534681
259.376007 88.123245 -0.000002 0.525735
257.891998 90.122849 -0.000207 0.567892
256.859894 91.513557 -0.000171 0.549510
256.099579 92.538025 -0.000176 0.521936
256.400848 92.031662 4.147057 0.506127
256.365051 92.080612 3.838176 0.504779
256.208618 92.294525 3.500385 0.505515
256.678741 91.651718 3.341292 0.512990
256.279755 92.197250 2.962474 0.505760
256.962280 91.264053 2.780803 0.501348
256.942688 91.290817 2.466183 0.507966
284.755859 53.262726 2.926249 0.726225
284.755859 53.262726 1.073750 0.707475
275.374268 66.089905 -0.000018 0.539093
265.740173 79.262337 -0.000007 0.532966
261.603912 84.917694 -0.000003 0.545098
259.300262 88.067413 -0.000002 0.542157
257.830078 90.077538 -0.000161 0.545221
256.807709 91.475372 -0.000126 0.532230
256.054626 92.505035 -0.000154 0.537868
256.691956 91.525391 4.292521 0.516544
256.595215 91.659630 3.940958 0.503309
256.205566 92.200241 3.513947 0.504289
256.058350 92.404510 3.196863 0.513480
256.212738 92.190292 2.958595 0.506005
256.422882 91.898773 2.712704 0.502083
260.482941 86.265442 2.768145 0.515809
261.412750 84.975288 2.281889 0.505882
284.268768 53.262733 1.078434 0.718260
275.144257 65.922913 -0.000018 0.543505
265.602325 79.162277 -0.000008 0.536765
261.505676 84.846375 -0.000004 0.526226
259.224091 88.012108 -0.000002 0.550490
257.768097 90.032257 -0.000202 0.569118
256.755493 91.437233 -0.000167 0.525123
256.009613 92.472153 -0.000194 0.535172
256.395935 91.831879 4.186938 0.506005
256.560120 91.600693 3.946899 0.510417
256.203583 92.102745 3.528162 0.522549
256.054962 92.311996 3.207732 0.504902
256.346405 91.901649 2.994547 0.506495
260.320251 86.305969 3.271613 0.506495
260.420410 86.164963 2.770373 0.514093
261.306763 84.916878 2.281657 0.506127
283.786560 53.262726 1.083025 0.772304
274.913116 65.757553 -0.000018 0.537623
265.463867 79.063202 -0.000007 0.535539
261.406982 84.775764 -0.000003 0.535907
259.147522 87.957344 -0.000002 0.553799
257.705658 89.987656 -0.000191 0.529289
256.702881 91.399658 -0.000155 0.488358
255.964172 92.439842 -0.000156 0.519608
256.379608 91.748932 4.201560 0.502083
256.527710 91.537277 3.954060 0.503922
256.483276 91.600746 3.632143 0.510172
255.900665 92.433388 3.179826 0.505882
255.913864 92.414520 2.917653 0.505882
258.762146 88.343903 3.061424 0.507843
260.391174 86.015800 2.775534 0.506495
261.199463 84.860641 2.281398 0.505637
283.309052 53.262722 1.087526 0.732966
274.680817 65.593781 -0.000018 0.533088
265.324677 78.965088 -0.000007 0.534681
261.307739 84.705841 -0.000002 0.550368
259.070587 87.903114 -0.000001 0.549510
257.642853 89.943550 -0.000166 0.531373
256.649994 91.362495 -0.000132 0.537255
255.918579 92.407784 -0.000136 0.562010
256.387878 91.628784 4.227463 0.505882
256.554321 91.387344 3.983937 0.505270
256.501678 91.463730 3.654529 0.504534
255.737335 92.572487 3.149058 0.497672
256.468292 91.512123 3.039303 0.500368
258.354004 88.776749 3.013182 0.498284
258.464783 88.616043 2.616630 0.506985
282.836273 53.262722 2.908059 0.726225
282.836273 53.262722 1.091940 0.729412
274.447388 65.431648 -0.000018 0.541544
265.184814 78.867950 -0.000007 0.532475
261.208099 84.636589 -0.000005 0.528676
258.993286 87.849411 -0.000003 0.538971
257.579956 89.899590 -0.000208 0.539951
256.597107 91.325302 -0.000215 0.547181
255.872894 92.375854 -0.000174 0.490196
256.367645 91.548088 4.241282 0.504534
257.176727 90.356750 4.243549 0.596814
256.461639 91.409698 3.658529 0.508701
256.049042 92.017250 3.243142 0.515196
255.906662 92.226891 2.934955 0.489583
258.652283 88.183952 3.067110 0.523039
262.649628 82.297905 2.988891 0.506618
282.367981 53.262711 2.903733 0.704167
282.367981 53.262711 1.096267 0.740196
274.212799 65.271164 -0.000018 0.536520
265.044281 78.771790 -0.000007 0.530515
261.107941 84.568047 -0.000005 0.556127
258.915588 87.796272 -0.000000 0.526961
257.516479 89.856461 -0.000161 0.494363
256.543671 91.288879 -0.000192 0.525858
255.826828 92.344452 -0.000152 0.492892
256.375397 91.424187 4.268100 0.505515
256.278534 91.568947 3.918026 0.506373
255.932739 92.085899 3.502711 0.517034
256.045837 91.916832 3.255225 0.495588
256.931641 90.592651 3.156758 0.511029
255.769714 92.329597 2.653129 0.498039
261.284088 84.086441 2.878536 0.515319
281.904114 53.262711 2.899491 0.697181
281.904114 53.262711 1.100511 0.740441
273.977142 65.112297 -0.000019 0.533456
264.903076 78.676613 -0.000008 0.541299
261.007294 84.500198 -0.000006 0.539951
258.837524 87.743660 0.000000 0.527328
257.452789 89.813644 -0.000144 0.527451
256.490021 91.252815 -0.000173 0.510172
255.780640 92.313225 -0.000174 0.537255
256.371613 91.315002 4.290364 0.517647
256.190826 91.589371 3.903874 0.497794
255.763306 92.238197 3.462575 0.506250
255.977478 91.913185 3.250069 0.518015
255.900269 92.030357 2.953339 0.507353
255.764481 92.236443 2.659256 0.502819
257.136414 90.154312 2.517484 0.577574
281.444519 53.262718 2.895331 0.702574
281.444519 53.262718 1.104669 0.733456
273.740356 64.955109 -0.000018 0.538848
264.761200 78.582428 -0.000007 0.527574
260.906189 84.433067 -0.000006 0.538480
258.759125 87.691589 -0.000001 0.538848
257.388763 89.771301 -0.000122 0.559314
256.436096 91.217140 -0.000150 0.555270
255.734161 92.282471 -0.000151 0.552696
256.038116 91.711662 4.161489 0.500123
256.106873 91.605728 3.890991 0.530515
255.630417 92.339920 3.433848 0.518382
256.233795 91.410126 3.333333 0.502941
255.894562 91.932861 2.962368 0.501961
257.061310 90.134972 2.861666 0.612868
257.040009 90.167786 2.514339 0.492770
257.046326 90.158035 2.171514 0.622059
257.048157 90.155212 1.828431 0.507108
257.033844 90.177246 1.486215 0.610539
257.013885 90.208046 1.145476 0.596569
257.009735 90.214424 0.801965 0.593260
257.031952 90.180214 0.449179 0.629779
257.038483 90.170113 0.095495 0.583946
256.382019 91.181717 -0.000161 0.522917
255.687576 92.251823 -0.000191 0.523407
255.955078 91.729729 4.146421 0.511397
256.021698 91.625473 3.877445 0.506127
255.913513 91.794785 3.545133 0.509559
256.092712 91.514328 3.309009 0.506005
257.004913 90.086975 3.210061 0.595833
256.993744 90.104416 2.860774 0.636642
256.982697 90.121727 2.514717 0.597672
256.974945 90.133850 2.171214 0.541912
256.966980 90.146324 1.829028 0.631005
256.955933 90.163605 1.487725 0.600858
256.943756 90.182632 1.146837 0.644608
256.935028 90.196335 0.804869 0.625735
256.943726 90.182663 0.456566 0.559191
256.964722 90.149803 0.099653 0.622672
256.327637 91.146759 -0.000149 0.555147
255.640640 92.221771 -0.000153 0.545588
255.872620 91.748466 4.131392 0.479289
255.938171 91.644272 3.864357 0.516176
256.208252 91.215065 3.662937 0.508211
256.015594 91.521248 3.302013 0.504412
256.982941 89.983978 3.218716 0.563235
256.965057 90.012428 2.865884 0.593627
280.124512 53.209019 4.655016 0.732721
256.931732 90.065399 2.171782 0.593137
256.911407 90.097649 1.828842 0.568873
256.902893 90.111206 1.486946 0.574020
256.898712 90.117844 1.144329 0.563603
256.883423 90.142166 0.802785 0.581005
256.884857 90.139885 0.455886 0.629167
256.896698 90.121056 0.101867 0.625123
256.272980 91.112244 -0.000121 0.520588
255.593491 92.192001 -0.000125 0.523529
255.791992 91.765770 4.117023 0.510784
257.554077 88.921745 4.547969 0.500368
256.234222 91.051987 3.690610 0.514461
255.985886 91.452858 3.308283 0.550368
257.660034 88.750732 3.380312 0.498407
259.636597 85.560516 3.291538 0.501471
279.680664 53.209015 4.643467 0.710907
279.647400 53.262703 2.879492 0.721569
279.647400 53.262711 1.120507 0.724265
272.782440 64.342918 -0.000018 0.538603
264.187286 78.215622 -0.000010 0.538603
260.497101 84.171654 -0.000005 0.512623
256.848328 90.060829 0.448808 0.622794
256.844666 90.066742 0.098499 0.545711
256.218262 91.077766 -0.000180 0.555025
255.546326 92.162285 -0.000183 0.570098
257.297089 89.184929 4.865190 0.653554
256.030243 91.261879 3.945038 0.496078
255.837433 91.577972 3.571267 0.495343
255.901520 91.472908 3.299197 0.504657
259.686920 85.266838 3.843862 0.513971
259.572418 85.454559 3.296183 0.512745
279.240662 53.209023 4.632146 0.743627
279.207886 53.262707 2.875727 0.722426
279.207886 53.262707 1.124274 0.729779
272.540283 64.194069 -0.000019 0.540564
264.042206 78.126442 -0.000009 0.530270
260.393707 84.108109 -0.000003 0.547672
258.361694 87.439545 -0.000002 0.526716
257.064941 89.565514 -0.000187 0.547426
256.163208 91.043846 -0.000196 0.558701
255.498718 92.133278 -0.000128 0.538971
257.235901 89.131683 4.868667 0.499387
257.522308 88.654663 4.593644 0.522181
255.755753 91.596893 3.560626 0.437255
256.364319 90.583359 3.447628 0.510662
255.751297 91.604332 2.985699 0.496814
259.506683 85.349640 3.300753 0.512990
278.804352 53.209015 4.621047 0.718015
278.772125 53.262718 2.872035 0.707475
278.772125 53.262718 1.127967 0.731373
272.297119 64.046928 -0.000018 0.540564
263.896515 78.038284 -0.000009 0.545711
260.289856 84.045265 -0.000004 0.540931
258.281128 87.390823 -0.000000 0.539338
256.999268 89.525833 -0.000175 0.540686
256.107880 91.010429 -0.000180 0.547549
255.451004 92.104446 -0.000117 0.528922
255.556198 91.816902 4.075480 0.506250
255.615311 91.716896 3.814647 0.505515
255.633728 91.685684 3.535381 0.507721
255.736221 91.512283 3.281566 0.517647
255.703491 91.567635 2.986512 0.498162
259.497345 85.147766 3.314582 0.505392
260.052490 84.208366 2.841227 0.509436
278.339966 53.262714 2.868416 0.722917
278.339966 53.262714 1.131585 0.740319
272.052917 63.901470 -0.000018 0.539338
263.750244 77.951134 -0.000008 0.531618
260.185577 83.983147 -0.000003 0.534681
258.200287 87.342636 -0.000003 0.529657
256.933380 89.486458 -0.000198 0.543382
256.052429 90.977150 -0.000229 0.542525
255.403229 92.075760 -0.000164 0.550368
255.479904 91.833000 4.062338 0.505147
255.537537 91.733925 3.802981 0.504657
256.198059 90.598160 3.758024 0.507230
255.655212 91.531609 3.273015 0.511642
255.814972 91.256874 3.023839 0.519853
259.345886 85.185608 3.305623 0.499387
261.237427 81.933151 2.967093 0.506985
277.911377 53.262711 2.864868 0.751716
277.911377 53.262711 1.135132 0.722059
271.807770 63.757717 -0.000019 0.533456
263.603333 77.865013 -0.000009 0.529167
260.080872 83.921753 -0.000005 0.521446
258.119080 87.295036 -0.000001 0.543015
256.867157 89.447716 -0.000182 0.547181
255.996567 90.944626 -0.000185 0.533088
255.355164 92.047508 -0.000181 0.528676
255.404602 91.848862 4.049471 0.522304
255.956055 90.885284 4.006912 0.505882
255.566254 91.566422 3.547968 0.507230
255.742523 91.258400 3.314592 0.510907
256.152374 90.542244 3.114445 0.505147
257.987457 87.335510 3.097269 0.509191
259.870819 84.044472 2.843700 0.507353
261.088043 81.917458 2.321136 0.509559
277.486267 53.262714 1.138609 0.727696
271.561584 63.615700 -0.000019 0.532230
263.455841 77.779915 -0.000009 0.543260
259.975739 83.861107 -0.000005 0.535417
258.037567 87.247986 -0.000004 0.528064
256.800568 89.409508 -0.000154 0.540931
255.940491 90.912415 -0.000160 0.548897
255.306839 92.019722 -0.000159 0.522794
255.329498 91.865852 4.036481 0.525613
255.835388 90.967339 3.978637 0.503431
255.440353 91.668961 3.520434 0.514828
255.496826 91.568672 3.256574 0.505882
256.071991 90.547096 3.109397 0.500490
257.832306 87.420700 3.084913 0.504412
259.733521 84.043968 2.840392 0.503431
260.981750 81.826981 2.321564 0.508088
277.064514 53.262718 1.142016 0.723774
271.314392 63.475403 -0.000018 0.537255
263.307739 77.695862 -0.000009 0.542034
259.870178 83.801208 -0.000003 0.539216
257.955688 87.201530 -0.000002 0.509926
256.733734 89.371811 -0.000112 0.515196
255.884247 90.880569 -0.000143 0.539461
255.258301 91.992264 -0.000143 0.535049
255.256012 91.881363 4.024116 0.524265
255.343292 91.723824 3.784166 0.519363
255.791565 90.914459 3.671455 0.514583
255.419006 91.587128 3.248555 0.505882
255.996338 90.544769 3.105386 0.508578
255.941727 90.643341 2.778625 0.495833
259.597778 84.042534 2.837203 0.545711
260.875305 81.735992 2.322015 0.505270
276.646118 53.262711 1.145354 0.720711
271.066254 63.336803 -0.000019 0.537255
263.159058 77.612839 -0.000008 0.544240
259.764221 83.742012 -0.000005 0.532108
257.873505 87.155624 -0.000004 0.530515
256.666870 89.334175 -0.000160 0.519240
255.827850 90.848991 -0.000159 0.503186
255.209671 91.965019 -0.000162 0.550613
256.936981 88.677872 4.930153 0.515809
255.382156 91.531929 3.824533 0.506740
255.687576 90.971275 3.653286 0.538358
255.734497 90.885147 3.362354 0.505392
255.477676 91.356567 2.994805 0.519853
257.072693 88.428833 2.982421 0.524877
260.583435 81.984642 2.949124 0.508824
260.768768 81.644409 2.322489 0.506250
276.230896 53.262711 1.148625 0.701716
270.817139 63.199978 -0.000019 0.533701
263.009827 77.530853 -0.000008 0.535539
259.657867 83.683578 -0.000005 0.550123
257.791016 87.110306 -0.000004 0.518505
256.599548 89.297310 -0.000141 0.571569
255.771133 90.817932 -0.000142 0.531863
255.160797 91.938240 -0.000144 0.554779
255.111603 91.911995 4.000072 0.509436
255.800369 90.626450 4.039527 0.506495
255.583801 91.030670 3.634801 0.507721
255.535721 91.120430 3.317632 0.499877
255.843842 90.545311 3.096938 0.505637
257.050659 88.292809 2.991376 0.496814
260.698761 81.483826 2.973464 0.505760
260.662140 81.552101 2.322989 0.523897
275.847595 53.209019 1.150834 0.726348
270.567078 63.064892 -0.000018 0.539706
262.859985 77.449905 -0.000008 0.533701
259.551086 83.625885 -0.000005 0.533333
257.708191 87.065575 -0.000001 0.556005
256.531982 89.260941 -0.000118 0.561887
255.714188 90.787292 -0.000118 0.570098
255.111786 91.911682 -0.000164 0.562010
255.669342 90.733704 4.326268 0.510172
255.662125 90.747391 4.002454 0.505147
255.085739 91.841484 3.461995 0.497181
255.191147 91.641449 3.225398 0.525000
255.765701 90.550804 3.092163 0.502083
256.929260 88.342178 2.983130 0.517402
259.373535 83.702484 2.846664 0.508211
260.443726 81.671021 2.319593 0.515196
275.409821 53.262699 1.154970 0.724510
270.316101 62.931519 -0.000018 0.539583
262.709595 77.369995 -0.000010 0.531250
259.443878 83.568939 -0.000005 0.519975
257.625061 87.021400 -0.000004 0.528922
256.464264 89.224815 -0.000144 0.556250
255.657181 90.756836 -0.000149 0.519363
255.062546 91.885559 -0.000151 0.571814
256.891968 88.232162 5.023459 0.503676
255.581024 90.763283 3.991299 0.502574
255.332642 91.242790 3.579352 0.517402
255.431305 91.052345 3.319349 0.505637
255.474884 90.968201 3.034112 0.528186
256.930756 88.157288 2.996624 0.512990
256.845398 88.322075 2.588003 0.508824
260.445404 81.371376 2.323952 0.520956
275.003845 53.262699 1.158047 0.698039
270.064148 62.799942 -0.000018 0.538113
262.558685 77.291161 -0.000009 0.540074
259.336304 83.512756 -0.000004 0.534436
257.541626 86.977829 -0.000003 0.552083
256.396393 89.189026 -0.000196 0.571201
255.599976 90.726685 -0.000201 0.537377
255.013138 91.859680 -0.000170 0.544485
256.511871 88.792992 4.855000 0.497672
255.574966 90.633286 4.015678 0.507721
255.298309 91.176689 3.587198 0.502696
255.332947 91.108681 3.305250 0.506373
255.480270 90.819298 3.049633 0.514338
256.800385 88.226349 2.986704 0.501471
258.773438 84.350830 2.804822 0.504779
256.759460 88.306725 2.195442 0.503922
274.600769 53.262707 1.161059 0.727819
269.811371 62.670105 -0.000018 0.534804
262.407196 77.213379 -0.000009 0.549877
259.228333 83.457314 -0.000003 0.531740
257.457916 86.934837 -0.000001 0.540931
256.328064 89.154099 -0.000171 0.567034
255.542358 90.697365 -0.000149 0.554289
254.963516 91.834297 -0.000148 0.534436
254.950424 91.735893 4.020675 0.507598
255.500977 90.635582 4.008035 0.505882
255.589935 90.457779 3.727885 0.498284
255.527603 90.582367 3.387957 0.516299
255.445892 90.745651 3.055415 0.515074
255.556000 90.525574 2.772424 0.495956
256.713470 88.212326 2.589866 0.501103
274.227386 53.209015 2.836973 0.719118
274.200562 53.262711 1.164011 0.723529
269.557617 62.542027 -0.000018 0.532598
262.255188 77.136642 -0.000009 0.528064
259.119995 83.402611 -0.000005 0.540686
257.373871 86.892403 -0.000004 0.530882
256.259430 89.119728 -0.000129 0.530515
255.484589 90.668304 -0.000132 0.549877
254.913727 91.809242 -0.000131 0.540441
255.319138 90.858292 4.258651 0.511275
255.317886 90.860832 3.946882 0.517647
255.197052 91.106606 3.590358 0.513480
255.454971 90.582031 3.383215 0.507966
255.397217 90.699478 3.057685 0.513358
256.569855 88.314407 2.971788 0.504657
256.846405 87.751884 2.613034 0.512623
273.829498 53.209019 2.834078 0.724632
273.803101 53.262711 1.166901 0.726103
269.302979 62.415756 -0.000018 0.535662
262.102631 77.060974 -0.000009 0.536029
259.011261 83.348694 -0.000004 0.550368
257.289551 86.850586 -0.000003 0.536274
256.190613 89.085716 -0.000111 0.543382
255.426651 90.639633 -0.000118 0.543382
254.863708 91.784607 -0.000093 0.530270
255.429688 90.484726 4.354896 0.503431
255.414871 90.515343 4.023135 0.509314
255.218628 90.921661 3.622328 0.512377
255.257858 90.840446 3.335948 0.505882
256.147980 88.997536 3.271528 0.504412
255.407288 90.531075 2.766639 0.506250
256.583618 88.095665 2.592196 0.505760
273.408386 53.262707 2.830270 0.729657
273.408386 53.262707 1.169730 0.721569
269.047516 62.291237 -0.000018 0.537990
261.949524 76.986389 -0.000008 0.536765
258.902161 83.295509 -0.000006 0.539338
257.204926 86.809357 -0.000002 0.547181
256.121796 89.051796 -0.000170 0.517279
255.368607 90.611183 -0.000149 0.573284
254.813690 91.759995 -0.000147 0.544240
255.342651 90.514984 4.338649 0.503064
255.313049 90.577400 4.001551 0.505392
255.128494 90.966431 3.607899 0.503799
255.310806 90.582184 3.373893 0.494730
256.072754 88.976112 3.270014 0.513480
258.718292 83.399887 3.411274 0.504902
256.481171 88.115318 2.589151 0.505515
256.751007 87.546494 2.206546 0.504044
273.016327 53.262718 1.172500 0.725245
268.791138 62.168503 -0.000019 0.535172
261.795929 76.912941 -0.000001 0.332475
258.792694 83.243103 -0.000005 0.533578
257.120026 86.768723 0.000000 0.512745
256.052612 89.018585 -0.000186 0.544976
255.310211 90.583389 -0.000120 0.519485
254.763443 91.735863 -0.000162 0.512377
255.303879 90.443947 4.350616 0.511029
255.208557 90.648491 3.978054 0.517892
255.097580 90.886650 3.618644 0.510172
255.221954 90.619728 3.363247 0.494363
256.151154 88.625374 3.310366 0.507598
256.668152 87.515701 3.034342 0.501716
258.491882 83.601379 2.831863 0.507966
273.007355 52.446098 2.839531 0.708824
273.007355 52.446098 1.160469 0.724387
268.533936 62.047585 -0.000018 0.535539
261.641785 76.840553 0.000005 0.334191
258.682861 83.191452 -0.000006 0.518750
257.034851 86.728676 -0.000001 0.541544
255.983139 88.985992 -0.000174 0.535784
255.251770 90.555771 -0.000147 0.524387
254.712967 91.712196 -0.000150 0.544363
254.997345 90.956543 4.201858 0.522917
255.161438 90.597794 3.983728 0.499877
255.152222 90.617966 3.667197 0.498897
254.810303 91.365425 3.237222 0.503064
255.340317 90.206772 3.106094 0.538480
256.379669 87.934639 2.993240 0.504534
256.138092 88.462776 2.566560 0.507721
273.007355 51.585083 2.852323 0.727574
273.007355 51.585083 1.147677 0.725123
268.275879 61.928455 -0.000018 0.536274
261.487213 76.769089 -0.000004 0.333578
258.572662 83.140587 -0.000006 0.539461
256.949371 86.689209 -0.000002 0.540196
255.913361 88.954063 -0.000127 0.551593
255.193024 90.528748 -0.000127 0.695833
254.662308 91.688995 -0.000103 0.508824
254.918442 90.982437 4.187792 0.515931
255.076660 90.630074 3.969820 0.505882
255.061966 90.662827 3.652983 0.499142
255.092789 90.594170 3.358723 0.501225
255.843887 88.921410 3.264691 0.516176
273.065430 50.568020 6.348689 0.725245
255.977341 88.624222 2.556076 0.506618
256.204224 88.118927 2.194290 0.509559
273.007355 50.697388 1.134446 0.724877
268.017029 61.811119 -0.000018 0.535662
261.282196 76.810013 0.009993 1.000000
258.462097 83.090485 -0.000005 0.528064
256.863647 86.650345 -0.000003 0.530760
255.843582 88.922089 -0.000185 0.517524
255.134186 90.501930 -0.000158 0.533088
254.611603 91.665779 -0.000160 0.556618
254.864441 90.953728 4.188866 0.513358
254.995560 90.656197 3.957547 0.512377
254.982315 90.686272 3.643194 0.527083
255.027710 90.583244 3.356280 0.496201
255.192657 90.208939 3.098908 0.494730
256.269653 87.764885 3.002242 0.502574
273.065460 49.649826 4.646697 0.725245
256.232758 87.848595 2.198522 0.512745
273.007355 49.781635 1.120754 0.728799
267.757355 61.695610 -0.000018 0.531005
261.127350 76.741150 0.009993 1.000000
258.351196 83.041168 -0.000003 0.533088
256.777649 86.612083 -0.000004 0.539706
255.773438 88.890968 -0.000171 0.564093
255.075104 90.475716 -0.000142 0.565319
254.560593 91.643280 -0.000117 0.497181
254.995102 90.497810 4.306623 0.519485
254.907745 90.699860 3.941317 0.517524
254.901306 90.714790 3.632542 0.490564
254.956177 90.587845 3.351410 0.510172
255.136642 90.170494 3.100383 0.506250
255.137222 90.169128 2.784420 0.511275
256.183167 87.749893 2.599461 0.506005
256.165131 87.791550 2.198935 0.507843
273.007355 48.836433 1.106580 0.726838
267.496857 61.581909 -0.000018 0.537990
261.020508 76.561386 -0.000010 0.333701
258.239990 82.992615 -0.000004 0.567892
256.691376 86.574432 -0.000002 0.558211
255.702988 88.860504 -0.000124 0.498162
255.015823 90.449928 -0.000126 0.568260
254.509552 91.620895 -0.000140 0.528676
255.721329 88.620735 4.810455 0.517157
254.826797 90.730034 3.928442 0.503309
254.821320 90.742928 3.622107 0.525245
255.068817 90.159348 3.416418 0.490441
254.823486 90.737877 3.026199 0.506127
255.039871 90.227615 2.776869 0.501103
273.007355 47.860184 4.726267 0.727819
256.097382 87.733978 2.199365 0.495466
273.007355 47.860172 1.091894 0.754044
267.235565 61.470043 -0.000018 0.535662
260.863983 76.494331 -0.000012 0.332721
258.128418 82.944832 -0.000004 0.545466
256.604858 86.537384 -0.000003 0.570588
255.632431 88.830368 -0.000110 0.561152
254.956451 90.424339 -0.000157 0.510172
254.458282 91.598991 -0.000128 0.549020
255.586990 88.739731 4.769945 0.521446
254.746964 90.759659 3.915866 0.501103
254.930511 90.318344 3.701028 0.494853
254.863541 90.479340 3.360864 0.510417
254.792023 90.651321 3.033978 0.512132
255.073807 89.973755 2.797139 0.507843
273.007355 46.851223 4.771968 0.709804
256.029480 87.675781 2.199812 0.493137
273.007355 46.851227 1.076671 0.718627
266.973541 61.359970 -0.000018 0.539828
260.706970 76.428398 -0.000011 0.332353
258.016479 82.897842 -0.000004 0.537010
256.518036 86.500946 -0.000000 0.537623
255.561722 88.800522 -0.000137 0.519975
254.896790 90.399391 -0.000138 0.534559
254.406830 91.577576 -0.000082 0.506985
255.500107 88.748398 4.759650 0.499387
255.271500 89.309059 4.248706 0.499755
254.657059 90.816124 3.598332 0.506863
254.894119 90.234703 3.396146 0.505882
254.768097 90.543755 3.044374 0.473162
254.849091 90.345146 2.761964 0.507230
273.007355 45.807838 4.819365 0.709804
273.007355 45.807835 2.939116 0.731985
273.007355 45.807835 1.060883 0.715809
266.633881 61.440250 0.009982 1.000000
260.549530 76.363541 -0.000013 0.331005
257.904266 82.851624 -0.000005 0.538235
256.431030 86.465103 -0.000002 0.526471
255.490860 88.771004 -0.000194 0.536765
254.837067 90.374649 -0.000166 0.555392
254.355362 91.556145 -0.000138 0.505882
nan nan nan 0.000000
255.231796 89.212585 4.264815 0.506127
254.823669 90.233894 3.707920 0.521078
254.983566 89.833786 3.456260 0.496078
254.735092 90.455566 3.052360 0.515319
255.784851 87.828537 2.982035 0.500000
273.007355 44.728115 4.868552 0.719485
273.007355 44.728111 2.955502 0.710049
273.007355 44.728111 1.044498 0.729534
266.447205 61.145309 -0.000022 0.333456
260.391602 76.299850 -0.000010 0.332966
257.791718 82.806198 -0.000004 0.547672
256.343719 86.429871 -0.000001 0.520466
255.419693 88.742363 -0.000177 0.531740
254.777100 90.350525 -0.000150 0.568873
254.303711 91.535172 -0.000166 0.524632
255.330872 88.758720 4.741519 0.510172
255.127670 89.277748 4.243456 0.503064
254.764801 90.204559 3.708942 0.516667
254.709839 90.344933 3.370818 0.505882
254.688492 90.399475 3.056387 0.501103
254.493729 90.896866 2.709143 0.504902
273.007355 43.609962 4.919634 0.709804
273.007355 43.609985 2.972517 0.709804
273.007355 43.609985 1.027484 0.729412
266.182922 61.040779 -0.000021 0.332475
260.233246 76.237206 -0.000010 0.333333
257.678864 82.761543 -0.000005 0.530882
256.256195 86.395241 -0.000003 0.527328
255.348221 88.714371 -0.000133 0.549265
254.716904 90.326935 -0.000104 0.549265
254.251785 91.514847 -0.000119 0.496569
255.283432 88.669014 4.758178 0.495221
254.666641 90.277412 4.006158 0.506005
254.639297 90.348663 3.676242 0.518873
254.975159 89.472900 3.505654 0.517524
254.597824 90.456825 3.046468 0.511152
273.007324 42.451256 6.961614 0.709804
273.007355 42.451279 4.972710 0.732843
273.007355 42.451279 2.990196 0.719853
273.007355 42.451279 1.009804 0.723652
265.917877 60.938095 -0.000021 0.332721
260.074463 76.175674 -0.000011 0.333701
257.565704 82.717697 -0.000005 0.537010
256.168427 86.361206 -0.000006 0.544730
255.276688 88.686653 -0.000131 0.561887
254.656662 90.303398 -0.000146 0.534804
254.199829 91.494705 -0.000118 0.551838
nan nan nan 0.000000
254.954849 89.325401 4.220481 0.495098
254.550751 90.401558 3.661527 0.505882
254.530548 90.455353 3.346002 0.498407
254.656677 90.119415 3.085161 0.511275
273.007355 41.249512 7.053740 0.731863
273.007355 41.249512 5.027908 0.744608
273.007355 41.249527 3.008582 0.717279
273.065430 41.094849 0.988714 0.729779
265.652130 60.837265 -0.000020 0.331373
259.915253 76.115250 -0.000011 0.332353
257.452209 82.674622 -0.000005 0.543137
256.080444 86.327835 -0.000002 0.555760
255.204849 88.659645 -0.000087 0.553431
254.596207 90.280518 -0.000132 0.521324
254.147720 91.474861 -0.000135 0.560049
255.141388 88.609825 4.759551 0.500980
255.182373 88.498299 4.405052 0.498284
254.462219 90.457672 3.646345 0.494118
254.442673 90.510803 3.333751 0.498652
254.615387 90.040878 3.091976 0.508578
273.007385 40.002243 7.149608 0.733578
273.007385 40.002247 5.085348 0.722672
273.007385 40.002251 3.027713 0.717770
273.065430 39.844242 0.969531 0.720588
265.385712 60.738285 -0.000019 0.331985
259.755646 76.055885 -0.000016 0.333211
257.338440 82.632339 -0.000006 0.533088
255.992203 86.295044 -0.000003 0.542034
255.132874 88.633026 -0.000067 0.529044
254.535522 90.258209 -0.000086 0.537500
254.095444 91.455498 -0.000122 0.538358
nan nan nan 0.000000
254.786041 89.370644 4.198731 0.511765
254.377075 90.507683 3.632500 0.512377
254.584091 89.932076 3.421601 0.500613
254.578339 89.948174 3.100541 0.492647
255.020035 88.719994 2.891431 0.505882
272.610657 39.809723 5.087578 0.128431
273.047211 38.595909 3.049567 0.700858
273.065430 38.545242 0.949554 0.711642
265.118591 60.641186 -0.000019 0.332721
259.595642 75.997704 -0.000016 0.332721
257.224396 82.590866 -0.000007 0.539216
255.903717 86.262886 -0.000002 0.514583
255.060913 88.606270 -0.000169 0.546201
254.474838 90.235878 -0.000139 0.518873
254.043182 91.436096 -0.000215 0.494118
255.003860 88.537270 4.764993 0.507108
255.085907 88.304031 4.437483 0.506250
254.662766 89.506844 3.821499 0.483578
254.583771 89.731392 3.449631 0.499510
254.256317 90.662300 3.010723 0.513235
254.957275 88.669731 2.893590 0.497549
272.145538 39.809715 5.079920 0.117770
273.007355 37.359928 3.068404 0.727328
273.065430 37.194794 0.928733 0.734681
264.850830 60.545944 -0.000018 0.332353
259.435181 75.940620 -0.000016 0.333824
257.110016 82.550201 -0.000005 0.558456
255.815079 86.231300 -0.000009 0.571569
254.988632 88.580589 -0.000162 0.539093
254.413895 90.214340 -0.000110 0.522304
253.990631 91.417526 -0.000185 0.537500
nan nan nan 0.000000
254.619644 89.417366 4.177287 0.494118
254.581100 89.529427 3.812735 0.506127
254.438766 89.943260 3.412879 0.511642
254.173996 90.712990 3.002105 0.505270
271.682709 39.809708 7.128079 0.119240
271.682709 39.809708 5.072449 0.128431
273.007324 35.958565 3.090061 0.726103
273.065430 35.789688 0.907015 0.730025
264.582397 60.452579 -0.000017 0.332966
259.274353 75.884682 -0.000015 0.332966
256.995392 82.510330 -0.000005 0.550368
255.726151 86.200394 -0.000006 0.541544
254.916077 88.555588 -0.000122 0.531863
254.352783 90.193184 -0.000091 0.527941
