# This PCD file was generated using the MATLABÂ® pcwrite function
# from Computer Vision ToolboxÂ®.
# .PCD v.7 - Point Cloud Data file format
VERSION .7
FIELDS x y z intensity
SIZE 4 4 4 4
TYPE F F F F
COUNT 1 1 1 1
WIDTH 1274
HEIGHT 1
VIEWPOINT 0 0 0 1 0 0 0
POINTS 1274
DATA ascii
nan nan nan 0.000000
nan nan nan 0.000000
nan nan nan 0.000000
nan nan nan 0.000000
nan nan nan 0.000000
nan nan nan 0.000000
311.347137 54.324791 -0.000012 0.535907
302.966553 68.328041 -0.000004 0.526716
299.368469 74.340141 -0.000000 0.528554
297.364441 77.688683 0.000025 0.536765
296.085083 79.826370 0.000035 0.553064
295.195984 81.311966 0.000002 0.586765
294.540863 82.406654 0.000018 0.508333
nan nan nan 0.000000
nan nan nan 0.000000
nan nan nan 0.000000
nan nan nan 0.000000
nan nan nan 0.000000
nan nan nan 0.000000
nan nan nan 0.000000
nan nan nan 0.000000
nan nan nan 0.000000
311.102753 54.179665 -0.000012 0.538603
302.820129 68.241112 -0.000004 0.537010
299.264099 74.278175 -0.000000 0.525368
297.283569 77.640480 0.000000 0.569118
296.019135 79.787132 0.000024 0.540196
295.140472 81.278870 -0.000022 0.570956
294.492981 82.378120 -0.000005 0.530515
nan nan nan 0.000000
nan nan nan 0.000000
nan nan nan 0.000000
nan nan nan 0.000000
nan nan nan 0.000000
nan nan nan 0.000000
nan nan nan 0.000000
nan nan nan 0.000000
nan nan nan 0.000000
310.857361 54.036293 -0.000012 0.540809
302.673096 68.155190 -0.000004 0.537377
299.159332 74.216942 0.000000 0.524632
297.202271 77.593086 0.000016 0.531250
295.952881 79.748436 0.000027 0.561397
295.084595 81.246315 -0.000005 0.530147
294.444794 82.350052 0.000009 0.533088
nan nan nan 0.000000
nan nan nan 0.000000
nan nan nan 0.000000
nan nan nan 0.000000
nan nan nan 0.000000
nan nan nan 0.000000
nan nan nan 0.000000
nan nan nan 0.000000
nan nan nan 0.000000
310.610992 53.894604 -0.000012 0.535049
302.525482 68.070320 -0.000004 0.543750
299.054108 74.156425 -0.000001 0.538480
297.120667 77.546165 0.000016 0.528309
295.886414 79.710121 0.000014 0.562500
295.028564 81.214119 0.000001 0.533824
294.396515 82.322174 -0.000016 0.530637
nan nan nan 0.000000
nan nan nan 0.000000
nan nan nan 0.000000
nan nan nan 0.000000
nan nan nan 0.000000
nan nan nan 0.000000
nan nan nan 0.000000
nan nan nan 0.000000
nan nan nan 0.000000
310.363586 53.754654 -0.000012 0.538603
302.377258 67.986458 -0.000004 0.536642
298.948456 74.096680 -0.000000 0.542402
297.038727 77.499825 0.000018 0.538358
295.819641 79.672272 -0.000000 0.521936
294.972290 81.182274 -0.000001 0.548407
294.348022 82.294769 -0.000003 0.528799
nan nan nan 0.000000
nan nan nan 0.000000
nan nan nan 0.000000
nan nan nan 0.000000
nan nan nan 0.000000
nan nan nan 0.000000
nan nan nan 0.000000
nan nan nan 0.000000
nan nan nan 0.000000
310.115265 53.616421 -0.000012 0.540564
302.228485 67.903633 -0.000005 0.531618
298.842407 74.037643 -0.000001 0.556373
296.956451 77.454147 0.000035 0.506618
295.752563 79.635033 0.000017 0.563480
294.915741 81.150970 0.000032 0.542034
294.299255 82.267723 0.000014 0.472549
nan nan nan 0.000000
nan nan nan 0.000000
nan nan nan 0.000000
nan nan nan 0.000000
nan nan nan 0.000000
nan nan nan 0.000000
nan nan nan 0.000000
nan nan nan 0.000000
nan nan nan 0.000000
309.865967 53.479935 -0.000012 0.532598
302.079102 67.821861 -0.000005 0.536397
298.735931 73.979362 -0.000001 0.530147
296.873962 77.408768 0.000005 0.538358
295.685211 79.598206 0.000020 0.542402
294.859039 81.119873 0.000019 0.506373
294.250397 82.240852 -0.000014 0.557966
nan nan nan 0.000000
nan nan nan 0.000000
nan nan nan 0.000000
nan nan nan 0.000000
nan nan nan 0.000000
nan nan nan 0.000000
nan nan nan 0.000000
nan nan nan 0.000000
nan nan nan 0.000000
309.615692 53.345200 -0.000012 0.541789
301.929199 67.741112 -0.000006 0.538113
298.629059 73.921822 -0.000001 0.548284
296.791016 77.364250 0.000023 0.520221
295.617615 79.561913 0.000038 0.496324
294.802094 81.089294 0.000037 0.503064
294.201324 82.214493 0.000003 0.563603
nan nan nan 0.000000
nan nan nan 0.000000
nan nan nan 0.000000
nan nan nan 0.000000
nan nan nan 0.000000
nan nan nan 0.000000
nan nan nan 0.000000
nan nan nan 0.000000
nan nan nan 0.000000
309.364532 53.212204 -0.000012 0.536274
301.778687 67.661469 -0.000003 0.540319
298.521790 73.865021 -0.000002 0.521446
296.707947 77.320023 -0.000009 0.514216
295.549927 79.525772 -0.000010 0.537377
294.745056 81.058861 -0.000009 0.556863
294.152069 82.188354 -0.000012 0.522672
nan nan nan 0.000000
nan nan nan 0.000000
nan nan nan 0.000000
nan nan nan 0.000000
nan nan nan 0.000000
nan nan nan 0.000000
nan nan nan 0.000000
nan nan nan 0.000000
nan nan nan 0.000000
309.112427 53.080959 -0.000013 0.534559
301.627625 67.582840 -0.000004 0.540074
298.414154 73.808990 -0.000000 0.547059
296.624329 77.276772 0.000027 0.538725
295.481812 79.490433 0.000008 0.534191
294.687653 81.029083 0.000010 0.563235
294.102570 82.162750 0.000024 0.561029
nan nan nan 0.000000
nan nan nan 0.000000
nan nan nan 0.000000
nan nan nan 0.000000
nan nan nan 0.000000
nan nan nan 0.000000
nan nan nan 0.000000
nan nan nan 0.000000
nan nan nan 0.000000
308.859406 52.951488 -0.000013 0.534559
301.476044 67.505257 -0.000005 0.528676
298.306122 73.753677 -0.000003 0.537255
296.540497 77.234009 0.000045 0.522059
295.413483 79.455559 0.000026 0.547794
294.630035 80.999786 0.000045 0.527328
294.052887 82.137428 0.000045 0.575368
nan nan nan 0.000000
nan nan nan 0.000000
nan nan nan 0.000000
nan nan nan 0.000000
nan nan nan 0.000000
nan nan nan 0.000000
nan nan nan 0.000000
nan nan nan 0.000000
nan nan nan 0.000000
308.605499 52.823792 -0.000013 0.537377
301.323914 67.428757 -0.000004 0.538603
298.197693 73.699165 -0.000001 0.525245
296.456482 77.191513 0.000012 0.550000
295.345032 79.420837 -0.000023 0.568873
294.572357 80.970589 0.000011 0.536887
294.003204 82.112213 -0.000004 0.539828
nan nan nan 0.000000
nan nan nan 0.000000
nan nan nan 0.000000
nan nan nan 0.000000
nan nan nan 0.000000
nan nan nan 0.000000
nan nan nan 0.000000
nan nan nan 0.000000
nan nan nan 0.000000
308.350708 52.697849 -0.000013 0.534069
301.171265 67.353302 -0.000005 0.534314
298.088867 73.645370 -0.000004 0.528431
296.372101 77.149818 0.000014 0.553064
295.276184 79.386940 -0.000003 0.534559
294.514404 80.941971 0.000016 0.548652
293.953186 82.087585 0.000017 0.523529
nan nan nan 0.000000
nan nan nan 0.000000
nan nan nan 0.000000
nan nan nan 0.000000
nan nan nan 0.000000
nan nan nan 0.000000
nan nan nan 0.000000
nan nan nan 0.000000
nan nan nan 0.000000
308.095032 52.573708 -0.000014 0.537010
301.018066 67.278938 -0.000003 0.536642
297.979706 73.592369 -0.000002 0.538358
296.287476 77.108604 -0.000003 0.544240
295.207153 79.353416 -0.000004 0.533701
294.456268 80.913666 -0.000000 0.539828
293.903015 82.063232 0.000017 0.474755
nan nan nan 0.000000
307.454987 53.262711 10.598952 0.723284
307.421661 53.333206 9.230173 0.621078
307.421661 53.333206 7.894248 0.093260
nan nan nan 0.000000
307.454987 53.262711 5.264543 0.731005
nan nan nan 0.000000
nan nan nan 0.000000
307.454987 53.262714 1.348490 0.729412
307.838501 52.451340 -0.000014 0.536397
300.864380 67.205643 -0.000002 0.527941
297.870148 73.540123 -0.000001 0.532966
296.202515 77.068085 -0.000001 0.529289
295.137878 79.320404 -0.000000 0.555392
294.397949 80.885834 -0.000001 0.524632
293.852753 82.039192 0.000002 0.511765
nan nan nan 0.000000
307.148560 53.262699 10.570880 0.720098
307.115845 53.333206 9.206568 0.243750
307.115845 53.333210 7.875005 0.121201
307.191498 53.170189 6.576986 0.723039
307.148560 53.262707 5.253884 0.727206
307.173492 53.209007 3.952447 0.718995
307.173492 53.209007 2.650351 0.735784
307.148560 53.262707 1.350618 0.723529
307.173492 53.209007 0.047551 0.727083
300.710144 67.133392 -0.000003 0.527206
297.760223 73.488632 -0.000002 0.525613
296.117279 77.028175 0.000001 0.540441
295.068329 79.287956 0.000021 0.528554
294.339325 80.858574 0.000038 0.548039
293.802246 82.015625 0.000024 0.569363
nan nan nan 0.000000
306.844116 53.262707 10.543402 0.736274
306.811981 53.333214 9.183462 0.237623
306.811981 53.333210 7.856170 0.117647
306.868561 53.209007 6.557406 0.719608
306.844116 53.262711 5.243453 0.721569
306.868561 53.209000 3.946189 0.674387
306.868561 53.209007 2.648267 0.722917
306.844116 53.262707 1.352699 0.730147
306.868561 53.209003 0.053811 0.722059
300.555450 67.062256 -0.000002 0.534314
297.649963 73.437912 -0.000003 0.527083
296.031799 76.988739 -0.000017 0.555760
294.998718 79.255707 -0.000016 0.523529
294.280609 80.831482 0.000021 0.542034
293.751648 81.992195 -0.000013 0.519118
nan nan nan 0.000000
306.541565 53.262703 10.516514 0.729412
306.510071 53.333210 9.160856 0.254902
306.510071 53.333210 7.837740 0.135172
306.565613 53.209007 6.543064 0.728064
306.541565 53.262707 5.233246 0.730515
306.565582 53.209007 3.940064 0.747917
306.565582 53.209011 2.646225 0.748529
306.541565 53.262714 1.354737 0.726961
306.565582 53.209007 0.059936 0.725980
300.400269 66.992188 -0.000001 0.542034
297.539368 73.387978 -0.000002 0.531985
295.945953 76.950119 0.000004 0.558701
294.928711 79.224236 0.000006 0.560784
294.221680 80.804901 0.000023 0.521078
293.700806 81.969337 0.000010 0.612990
nan nan nan 0.000000
306.240936 53.262699 10.490209 0.733333
306.209991 53.333206 9.138737 0.211765
306.209991 53.333206 7.819708 0.145833
306.264526 53.209007 6.529029 0.705882
306.240936 53.262707 5.223258 0.729167
306.264526 53.209003 3.934072 0.721569
306.264526 53.209007 2.644229 0.723529
306.240936 53.262707 1.356730 0.734314
306.264526 53.209003 0.065929 0.733333
300.244568 66.923203 -0.000001 0.534191
297.428375 73.338814 -0.000000 0.527083
295.859833 76.912148 0.000029 0.542770
294.858521 79.193253 0.000027 0.525000
294.162567 80.778717 0.000027 0.542770
293.649811 81.946831 0.000031 0.491789
nan nan nan 0.000000
305.942139 53.262699 10.464477 0.725858
305.911774 53.333206 9.117100 0.178922
305.918060 53.318592 7.804430 0.197917
305.965271 53.209007 6.515303 0.696201
305.942139 53.262703 5.213490 0.740931
305.965271 53.209003 3.928209 0.733333
305.911774 53.333210 2.640064 0.671691
305.942139 53.262711 1.358680 0.752941
305.965271 53.209003 0.071791 0.725613
300.088409 66.855286 -0.000003 0.538113
297.317108 73.290390 -0.000003 0.528799
295.773560 76.874489 0.000008 0.553554
294.788208 79.162560 0.000008 0.520221
294.103333 80.752785 -0.000011 0.554289
293.598724 81.924538 0.000012 0.577083
305.769623 52.968002 11.867815 0.663358
305.645142 53.262703 10.439309 0.735049
305.612915 53.338970 9.094803 0.285907
305.615356 53.333210 7.784817 0.146446
305.667786 53.209007 6.501878 0.702819
305.645142 53.262711 5.203934 0.728554
305.667786 53.209007 3.922476 0.725490
305.615356 53.333210 2.638162 0.185662
305.645142 53.262711 1.360587 0.729412
305.667786 53.209007 0.077524 0.720098
299.931763 66.788483 -0.000002 0.536274
297.205414 73.242790 -0.000002 0.543873
295.686920 76.837700 0.000032 0.533578
294.717560 79.132576 0.000031 0.496201
294.043854 80.727509 0.000010 0.532353
293.547485 81.902672 0.000013 0.558701
305.471924 52.967999 11.839041 0.661765
305.349854 53.262703 10.414700 0.709804
305.320648 53.333210 9.075248 0.171201
305.320648 53.333210 7.767947 0.116789
305.372101 53.209011 6.488750 0.721569
305.349854 53.262703 5.194593 0.740074
305.372101 53.209011 3.916870 0.712377
305.320648 53.333206 2.636300 0.139951
305.349854 53.262707 1.362451 0.736274
305.372101 53.209011 0.083130 0.727083
299.774689 66.722740 -0.000005 0.536274
297.093475 73.195953 -0.000002 0.528431
295.600220 76.801132 -0.000009 0.553431
294.646851 79.102760 -0.000008 0.547917
293.984283 80.702400 -0.000028 0.540931
293.496094 81.881027 -0.000025 0.505147
nan nan nan 0.000000
305.078125 53.209003 10.403158 0.739093
305.027679 53.333206 9.055018 0.220466
305.027679 53.333202 7.751459 0.132230
305.078125 53.209007 6.475917 0.724510
305.078125 53.209003 5.190211 0.726348
305.078125 53.209011 3.911388 0.733333
305.027679 53.333206 2.634481 0.101961
305.078125 53.209003 1.363325 0.767770
305.078125 53.209011 0.088610 0.727328
299.617157 66.658134 -0.000004 0.529534
296.981171 73.149895 -0.000002 0.535662
295.513092 76.765419 -0.000007 0.538235
294.575806 79.073753 0.000013 0.568627
293.924377 80.678055 0.000015 0.555515
293.444489 81.859962 -0.000001 0.546569
nan nan nan 0.000000
304.764404 53.262703 10.367126 0.730515
304.736359 53.333214 9.035247 0.240809
304.736359 53.333206 7.735341 0.105882
304.785767 53.209007 6.463373 0.721446
304.764404 53.262707 5.176532 0.721569
304.785767 53.209011 3.906033 0.729412
304.736359 53.333210 2.632702 0.090196
304.764404 53.262707 1.366055 0.721569
304.785767 53.209015 0.093967 0.735294
299.459137 66.594643 -0.000002 0.538358
296.868561 73.104614 -0.000003 0.550613
295.425751 76.730339 -0.000003 0.537745
294.504608 79.045151 0.000016 0.543627
293.864410 80.653961 0.000020 0.555637
293.392731 81.839264 0.000024 0.530515
307.295410 46.026203 13.622858 0.691667
304.474121 53.262703 10.344150 0.739706
304.446625 53.333210 9.015927 0.211642
304.446625 53.333206 7.719589 0.375613
304.495026 53.209011 6.451115 0.734069
304.474121 53.262703 5.167809 0.721936
304.495026 53.209007 3.900798 0.706740
304.446625 53.333210 2.630965 0.074632
304.474121 53.262711 1.367796 0.741054
304.495026 53.209007 0.099201 0.722917
299.300690 66.532242 -0.000001 0.539951
296.755646 73.060150 -0.000001 0.529534
295.338226 76.695686 -0.000027 0.550490
294.433289 79.016808 -0.000026 0.550123
293.804321 80.630089 -0.000022 0.528676
293.340881 81.818771 0.000007 0.541544
306.948669 46.026203 13.591586 0.762623
304.185394 53.262703 10.321701 0.698162
304.158478 53.333206 8.997053 0.210294
304.158478 53.333202 7.704202 0.117647
304.205902 53.209003 6.439141 0.721569
304.185394 53.262707 5.159286 0.722917
304.205902 53.209007 3.895684 0.729412
304.158478 53.333206 2.629267 0.077206
304.185394 53.262703 1.369497 0.737500
304.205902 53.209007 0.104314 0.695833
299.141815 66.470940 -0.000002 0.546446
296.642395 73.016449 -0.000003 0.537255
295.250336 76.661987 0.000001 0.545711
294.361664 78.989296 -0.000004 0.552941
293.743988 80.606918 0.000001 0.535784
293.288849 81.798767 0.000023 0.566667
306.603790 46.026203 13.561053 0.790931
303.898224 53.262711 10.299778 0.724265
303.886810 53.293213 8.986389 0.733578
303.871857 53.333210 7.689175 0.104289
303.918304 53.209003 6.427447 0.724877
303.898224 53.262707 5.150962 0.721569
303.918304 53.209003 3.890691 0.737745
303.871857 53.333210 2.627611 0.094118
303.898224 53.262714 1.371158 0.726716
303.918304 53.209003 0.109309 0.721569
298.982544 66.410728 -0.000004 0.546078
296.528870 72.973534 -0.000004 0.537623
295.162292 76.628693 -0.000001 0.525490
294.289978 78.961960 -0.000045 0.537377
293.683563 80.583885 -0.000041 0.573039
293.236786 81.778915 -0.000017 0.593873
306.260651 46.026203 13.531233 0.837377
303.612549 53.262707 10.278372 0.734681
303.586761 53.333202 8.960623 0.235294
303.586761 53.333210 7.674502 0.118015
303.632233 53.209003 6.416028 0.712745
303.612549 53.262711 5.142837 0.725858
303.632233 53.209007 3.885815 0.729289
303.586761 53.333214 2.625991 0.105882
303.612549 53.262714 1.372780 0.721569
303.632202 53.209011 0.114185 0.720098
298.822845 66.351601 -0.000008 0.537377
296.415039 72.931435 -0.000004 0.540686
295.074036 76.596046 0.000000 0.553064
294.217957 78.935455 -0.000023 0.520343
293.622864 80.561668 0.000008 0.520588
293.184509 81.759575 -0.000016 0.507230
303.412476 53.027714 11.639321 0.541667
303.328339 53.262699 10.257479 0.725368
303.303101 53.333206 8.943054 0.229167
303.303101 53.333210 7.660180 0.107475
303.347534 53.209015 6.404881 0.729167
303.328339 53.262703 5.134905 0.709804
303.347534 53.209011 3.881054 0.728186
303.303101 53.333210 2.624412 0.105882
303.328339 53.262707 1.374363 0.709926
303.347534 53.209011 0.118945 0.728186
298.662720 66.293655 -0.000007 0.533211
296.300903 72.890152 -0.000000 0.548039
294.985504 76.564018 0.000001 0.530270
294.145721 78.909599 0.000028 0.543627
293.562012 80.539772 0.000033 0.522917
293.132050 81.740685 0.000007 0.534559
305.579651 46.026199 13.473730 0.807843
303.045532 53.262699 10.237090 0.728922
303.020844 53.333199 8.925911 0.232966
303.020813 53.333210 7.646204 0.103064
303.064331 53.209007 6.394005 0.729412
303.045532 53.262707 5.127164 0.709804
303.064331 53.209007 3.876410 0.733333
303.020813 53.333214 2.622870 0.074142
303.045502 53.262707 1.375907 0.721446
303.064331 53.209007 0.123589 0.734804
298.502197 66.236816 -0.000006 0.530147
296.186493 72.849640 0.000000 0.524142
294.896790 76.532593 0.000000 0.539828
294.073425 78.883759 -0.000016 0.552206
293.501129 80.517998 -0.000011 0.523039
293.079559 81.721916 -0.000036 0.539828
305.241608 46.026203 13.446025 0.802451
302.782501 53.209007 10.229459 0.733088
302.739960 53.333206 8.909187 0.212255
302.774048 53.233639 7.648184 0.704044
302.782501 53.209007 6.383396 0.729167
302.764099 53.262707 5.119614 0.709804
302.782501 53.209007 3.871879 0.729412
302.739960 53.333206 2.621367 0.066667
302.764099 53.262707 1.377415 0.721814
302.782501 53.209007 0.128119 0.729412
298.341309 66.181068 -0.000009 0.533824
296.071808 72.809914 -0.000001 0.555025
294.807831 76.501778 -0.000002 0.560417
294.000885 78.858780 0.000009 0.504779
293.440063 80.496857 -0.000009 0.557230
293.026825 81.703873 0.000014 0.526103
304.905243 46.026203 13.419014 0.807843
302.502014 53.209000 10.210037 0.729412
302.460449 53.333206 8.892881 0.235294
302.502014 53.209003 7.638706 0.721569
302.502014 53.209003 6.373052 0.720956
302.484039 53.262699 5.112252 0.709804
302.502014 53.209007 3.867461 0.728799
302.460419 53.333206 2.619900 0.077451
302.484039 53.262703 1.378884 0.723162
302.502014 53.209007 0.132537 0.729412
298.179993 66.126465 -0.000010 0.539951
295.956848 72.771011 0.000000 0.533088
294.718689 76.471603 -0.000002 0.553064
293.928223 78.834068 -0.000011 0.529779
293.378815 80.476151 -0.000005 0.557843
292.974030 81.686028 0.000021 0.533211
304.570435 46.026196 13.392681 0.807598
302.222778 53.209007 10.191102 0.733578
302.182220 53.333206 8.876984 0.329044
302.222778 53.209000 7.625704 0.727083
302.222778 53.208996 6.362967 0.728309
302.205261 53.262703 5.105073 0.709804
302.222778 53.209000 3.863155 0.729412
302.195282 53.293205 2.619159 0.401838
302.205261 53.262703 1.380316 0.740564
302.222778 53.209000 0.136844 0.729412
298.018341 66.073013 -0.000008 0.543627
295.841583 72.732903 0.000000 0.534804
294.629303 76.442062 0.000000 0.549632
293.855408 78.809845 -0.000036 0.568015
293.317505 80.455734 -0.000031 0.549877
292.921143 81.668434 -0.000004 0.525858
304.237091 46.026207 13.367017 0.708333
301.944885 53.209000 10.172653 0.754044
301.905212 53.333206 8.861497 0.219608
301.944855 53.209003 7.613030 0.728799
301.944885 53.209000 6.353140 0.727574
301.927734 53.262695 5.098080 0.709804
301.944885 53.209000 3.858959 0.747181
301.905212 53.333202 2.617076 0.035662
301.927734 53.262703 1.381712 0.715564
301.944885 53.209000 0.141041 0.729412
297.856293 66.020683 -0.000007 0.534559
295.726105 72.695602 0.000001 0.535294
294.539734 76.413132 0.000002 0.522917
293.782349 78.786392 -0.000011 0.568750
293.255951 80.435860 -0.000030 0.532843
292.868103 81.651299 -0.000005 0.575368
303.905304 46.026199 13.342026 0.640931
301.668182 53.209007 10.154685 0.715319
301.629486 53.333210 8.846409 0.251471
301.668182 53.209003 7.600691 0.730270
301.668182 53.209003 6.343568 0.715686
301.651459 53.262703 5.091268 0.709804
301.668182 53.209007 3.854872 0.726716
301.629486 53.333199 2.615721 0.083088
301.651459 53.262703 1.383072 0.733333
301.668182 53.209007 0.145128 0.721936
297.693878 65.969460 -0.000009 0.534804
295.610382 72.659058 -0.000006 0.531005
294.449982 76.384811 -0.000002 0.524877
293.709167 78.763359 -0.000004 0.543627
293.194305 80.416466 -0.000023 0.528554
292.814911 81.634567 0.000004 0.530760
303.574921 46.026203 13.317693 0.611765
301.392700 53.209003 10.137189 0.722059
301.354950 53.333210 8.831722 0.228554
301.392700 53.209003 7.588675 0.720098
301.392700 53.209007 6.334250 0.725490
301.376373 53.262703 5.084636 0.709804
301.392700 53.209003 3.850892 0.741176
301.354950 53.333214 2.614399 0.094118
301.376373 53.262707 1.384395 0.776226
301.392700 53.209003 0.149107 0.710294
297.531097 65.919441 -0.000005 0.531985
295.494354 72.623367 -0.000006 0.538725
294.359985 76.357140 -0.000001 0.552206
293.635803 78.740791 -0.000004 0.528922
293.132538 80.397316 -0.000053 0.553186
292.761658 81.618073 -0.000024 0.514338
303.245941 46.026203 13.294014 0.613725
301.118378 53.209011 10.120164 0.718505
301.081604 53.333202 8.817429 0.192157
301.118378 53.209011 7.576981 0.698039
301.118378 53.209003 6.325181 0.698407
301.102478 53.262703 5.078182 0.709804
301.118378 53.209003 3.847020 0.715564
301.081604 53.333206 2.613114 0.098039
301.102478 53.262703 1.385683 0.729412
301.118378 53.209003 0.152980 0.740196
297.367981 65.870522 -0.000004 0.537132
295.378113 72.588509 -0.000004 0.558456
294.269836 76.330101 -0.000000 0.547181
293.562256 78.718895 0.000025 0.553922
293.070587 80.378860 -0.000027 0.550858
292.708191 81.602257 0.000029 0.565196
300.845184 53.209011 11.398340 0.752941
300.845184 53.209003 10.103605 0.718627
300.809326 53.333206 8.803526 0.203922
300.845184 53.209007 7.565608 0.705147
300.845184 53.209003 6.316361 0.701471
300.829681 53.262703 5.071905 0.729412
300.845184 53.209007 3.843253 0.723039
300.809326 53.333214 2.611864 0.101225
300.829681 53.262711 1.386935 0.724265
300.845184 53.209011 0.156747 0.733211
297.204559 65.822739 -0.000003 0.550368
295.261597 72.554443 -0.000004 0.536029
294.179504 76.303680 -0.000000 0.547426
293.488617 78.697388 0.000031 0.549755
293.008484 80.360878 0.000011 0.561520
292.654694 81.586655 0.000040 0.515809
300.573090 53.209003 11.379670 0.750245
300.573090 53.209000 10.087508 0.711642
300.538177 53.333202 8.790010 0.197549
300.573090 53.209007 7.554550 0.729044
300.573090 53.209011 6.307786 0.745221
300.558014 53.262699 5.065803 0.723652
300.573090 53.209003 3.839591 0.726348
300.538177 53.333214 2.610648 0.094118
300.558014 53.262703 1.388154 0.714706
300.573090 53.209003 0.160409 0.733824
297.040802 65.776093 -0.000003 0.532353
295.144867 72.521202 -0.000003 0.538235
294.088959 76.277901 0.000000 0.551103
293.414856 78.676224 0.000003 0.524755
292.946350 80.343040 -0.000018 0.551838
292.601135 81.571274 0.000010 0.574265
300.302094 53.209007 11.361527 0.741176
300.302094 53.209003 10.071864 0.727206
300.273773 53.312435 8.780795 0.418627
300.302094 53.209003 7.543808 0.703431
300.302094 53.209007 6.299455 0.739828
300.287384 53.262703 5.059872 0.708211
300.302094 53.209003 3.836033 0.728676
300.268097 53.333206 2.609467 0.319730
300.287384 53.262699 1.389337 0.726961
300.302094 53.209003 0.163966 0.715931
296.876709 65.730560 -0.000005 0.535907
295.027954 72.488747 -0.000006 0.538358
293.998260 76.252724 -0.000003 0.542034
293.340881 78.655754 0.000010 0.537500
292.884033 80.325798 -0.000010 0.541544
292.547424 81.556290 -0.000011 0.513358
300.032074 53.209007 11.343912 0.744853
300.032074 53.209007 10.056672 0.721691
299.999054 53.333202 8.764124 0.206618
300.032074 53.209007 7.533375 0.711642
300.032074 53.209007 6.291363 0.733333
300.017822 53.262703 5.054114 0.709804
300.032074 53.209007 3.832578 0.727819
299.999054 53.333210 2.608319 0.082353
300.017822 53.262711 1.390486 0.721569
300.032074 53.209011 0.167422 0.719975
296.712280 65.686188 -0.000007 0.533211
294.910736 72.457123 -0.000007 0.541789
293.907410 76.228203 -0.000002 0.540931
293.266815 78.635765 0.000010 0.560294
292.821594 80.309090 0.000018 0.547304
292.493591 81.541878 0.000015 0.537623
299.763092 53.209003 11.326815 0.728554
299.763092 53.209000 10.041934 0.730270
299.730957 53.333202 8.751747 0.203676
299.763092 53.209003 7.523252 0.731495
299.763092 53.209007 6.283511 0.729412
299.749207 53.262699 5.048525 0.726838
299.763092 53.209003 3.829225 0.731250
299.730957 53.333214 2.607207 0.075123
299.749207 53.262703 1.391601 0.736029
299.763092 53.209003 0.170775 0.729167
296.547577 65.642975 -0.000007 0.542525
294.793365 72.426338 -0.000006 0.519730
293.816345 76.204323 -0.000002 0.525368
293.192657 78.616013 -0.000041 0.527696
292.759155 80.292320 -0.000063 0.494118
292.439728 81.527542 -0.000033 0.562623
299.495087 53.209007 11.310232 0.721569
299.495087 53.209000 10.027635 0.729412
299.463867 53.333206 8.739741 0.218995
299.495087 53.209011 7.513430 0.737500
299.495087 53.209011 6.275894 0.740319
299.481598 53.262707 5.043106 0.740809
299.495087 53.209007 3.825972 0.722549
299.463867 53.333210 2.606127 0.082353
299.481598 53.262707 1.392683 0.726838
299.495087 53.209007 0.174027 0.726103
296.382568 65.600922 -0.000006 0.531373
294.675751 72.396362 -0.000005 0.550613
293.725128 76.181084 -0.000001 0.539461
293.118256 78.597214 -0.000014 0.522426
292.696472 80.276482 -0.000034 0.551593
292.385681 81.513885 -0.000005 0.557353
299.227997 53.209007 11.294161 0.712132
299.227997 53.209003 10.013777 0.725980
299.197723 53.333206 8.728109 0.193015
299.227997 53.209007 7.503913 0.721569
299.227997 53.209000 6.268516 0.729412
299.214905 53.262699 5.037854 0.729167
299.227997 53.209000 3.822820 0.717770
299.197723 53.333206 2.605081 0.082353
299.214905 53.262703 1.393731 0.749755
299.227997 53.209000 0.177179 0.729412
296.217255 65.560043 -0.000004 0.537500
294.557922 72.367203 -0.000005 0.522917
293.633759 76.158470 -0.000000 0.527696
293.043823 78.578613 -0.000046 0.543382
292.633759 80.260818 -0.000065 0.540441
292.331604 81.500259 -0.000065 0.548407
298.961823 53.209003 11.278597 0.698039
298.961823 53.209000 10.000358 0.726225
298.932465 53.333199 8.716843 0.224510
298.961823 53.209000 7.494696 0.712745
298.961823 53.209003 6.261365 0.741789
298.949158 53.262695 5.032767 0.728064
298.961823 53.209003 3.819768 0.733456
298.932465 53.333210 2.604067 0.086520
298.949127 53.262703 1.394746 0.741176
298.961823 53.209003 0.180231 0.729412
296.051697 65.520302 -0.000004 0.537500
294.439880 72.338882 -0.000004 0.520343
293.542206 76.136505 0.000000 0.540931
292.969208 78.560730 -0.000039 0.560172
292.570892 80.245750 -0.000058 0.510294
292.277405 81.487267 -0.000058 0.571936
298.696533 53.209007 11.263536 0.710172
298.696503 53.209003 9.987370 0.689461
298.668060 53.333206 8.705939 0.254902
298.696533 53.209000 7.485778 0.733333
298.696503 53.209007 6.254448 0.733333
298.684204 53.262703 5.027843 0.695956
298.696533 53.209000 3.816815 0.752941
298.668060 53.333210 2.603087 0.082353
298.684204 53.262707 1.395729 0.733946
298.696533 53.209000 0.183185 0.721569
295.885834 65.481705 -0.000003 0.532598
294.321686 72.311378 -0.000003 0.530760
293.450562 76.115166 -0.000000 0.535784
292.894470 78.543350 -0.000037 0.558088
292.507813 80.231468 0.000024 0.499877
292.223083 81.474754 -0.000028 0.532598
298.432068 53.209007 11.248973 0.724020
298.432068 53.209003 9.974815 0.724755
298.404541 53.333210 8.695396 0.223529
298.432068 53.209003 7.477154 0.749755
298.432068 53.209003 6.247762 0.732598
298.420166 53.262707 5.023084 0.698039
298.432068 53.209000 3.813959 0.746446
298.404541 53.333210 2.602139 0.539461
298.420166 53.262711 1.396680 0.724510
298.432068 53.209003 0.186041 0.733946
295.719727 65.444206 -0.000008 0.534191
294.203308 72.284668 -0.000007 0.544485
293.358734 76.094460 -0.000002 0.529289
292.819580 78.526520 -0.000029 0.547672
292.444763 80.217293 0.000033 0.531127
292.168701 81.462532 -0.000021 0.533088
298.168457 53.209000 11.234907 0.728309
298.168457 53.209003 9.962685 0.729412
298.141815 53.333206 8.685215 0.223529
298.168457 53.209003 7.468824 0.728554
298.168457 53.209003 6.241301 0.711887
298.156921 53.262703 5.018485 0.719363
298.168457 53.209003 3.811200 0.738848
298.141815 53.333206 2.601223 0.085417
298.156921 53.262703 1.397597 0.726471
298.168457 53.209007 0.188800 0.731618
295.553345 65.407967 -0.000007 0.521936
294.084686 72.258820 -0.000006 0.527941
293.266724 76.074417 -0.000001 0.526471
292.744659 78.509995 -0.000062 0.531005
292.381622 80.203377 0.000000 0.544363
292.114258 81.450661 -0.000019 0.538480
297.905579 53.209000 11.221332 0.729289
297.905579 53.209003 9.950981 0.735049
297.879883 53.333202 8.675387 0.222059
297.905579 53.209007 7.460784 0.720588
297.905579 53.209003 6.235066 0.750245
297.894470 53.262707 5.014048 0.731005
297.905579 53.209007 3.808537 0.736029
297.879883 53.333210 2.600339 0.082353
297.894501 53.262707 1.398482 0.722794
297.905579 53.209007 0.191463 0.721569
295.386719 65.372856 -0.000005 0.533946
293.965942 72.233803 -0.000006 0.540564
293.174652 76.055016 -0.000001 0.545221
292.669525 78.494324 -0.000034 0.538848
292.318329 80.190178 0.000028 0.543382
292.059692 81.439285 0.000010 0.537255
297.643494 53.209000 11.208243 0.721569
297.643494 53.209007 9.939694 0.719975
297.618683 53.333206 8.665912 0.278431
297.618683 53.333214 7.434246 0.196936
297.643494 53.209000 6.229055 0.721569
297.632782 53.262703 5.009769 0.725123
297.643494 53.209007 3.805970 0.720711
297.618683 53.333206 2.599487 0.088725
297.632782 53.262699 1.399336 0.731005
297.643494 53.209007 0.194030 0.741544
295.219849 65.338898 -0.000007 0.545466
293.847015 72.209595 -0.000006 0.551838
293.082428 76.036247 -0.000001 0.535417
292.594299 78.479073 -0.000025 0.535662
292.254974 80.177330 0.000038 0.584681
292.005066 81.428200 0.000019 0.565931
297.382172 53.209003 11.195641 0.729412
297.382172 53.209007 9.928827 0.710172
297.358246 53.333202 8.656790 0.223529
297.358246 53.333210 7.426807 0.212745
297.382172 53.209003 6.223267 0.733456
297.371826 53.262703 5.005651 0.726593
297.382172 53.209007 3.803498 0.698529
297.358246 53.333206 2.598667 0.078676
297.371826 53.262703 1.400158 0.737255
297.382172 53.209007 0.196502 0.734314
295.052734 65.306122 -0.000006 0.527941
293.727905 72.186279 -0.000001 0.547426
292.990051 76.018120 -0.000001 0.547549
292.519043 78.464104 -0.000062 0.560294
292.191620 80.164597 -0.000026 0.532721
291.950378 81.417336 -0.000017 0.572549
297.121521 53.209003 11.183518 0.736520
297.121521 53.208996 9.918379 0.723284
297.098480 53.333210 8.648013 0.318873
297.098480 53.333210 7.419653 0.173284
297.121521 53.209003 6.217699 0.728064
297.111542 53.262695 5.001688 0.741667
297.121521 53.209003 3.801120 0.738603
297.098480 53.333210 2.597877 0.092157
297.111542 53.262707 1.400949 0.729412
297.121521 53.209003 0.198879 0.729779
294.885437 65.274490 -0.000007 0.541667
293.608643 72.163757 0.000000 0.534559
292.897522 76.000664 0.000001 0.554167
292.443604 78.450111 -0.000015 0.518995
292.128052 80.152626 -0.000018 0.561887
291.895630 81.406906 -0.000036 0.575000
296.861511 53.209003 11.171876 0.721569
296.861511 53.209000 9.908338 0.721569
296.839417 53.333210 8.639585 0.290564
296.839417 53.333210 7.412783 0.149142
296.861511 53.209003 6.212353 0.725735
296.851959 53.262703 4.997883 0.729289
296.861511 53.209007 3.798837 0.721078
296.839417 53.333210 2.597120 0.074877
296.851959 53.262703 1.401708 0.741299
296.861511 53.209007 0.201162 0.730025
294.717865 65.244072 -0.000005 0.527574
293.489227 72.142059 0.000001 0.545833
292.804962 75.983841 0.000001 0.540319
292.368073 78.436554 0.000015 0.511642
292.064423 80.141220 0.000014 0.528309
291.840759 81.397049 -0.000009 0.553676
296.602173 53.209000 11.160709 0.728431
296.602173 53.209003 9.898708 0.741176
296.580963 53.333202 8.631501 0.253064
296.580963 53.333206 7.406194 0.159926
296.602173 53.209000 6.207223 0.729412
296.592987 53.262703 4.994232 0.726348
296.602173 53.209003 3.796647 0.729412
296.602173 53.209000 2.598454 0.709804
296.592987 53.262699 1.402437 0.733333
296.602173 53.209007 0.203352 0.746201
294.550110 65.214828 -0.000003 0.539828
293.369659 72.121201 0.000003 0.535907
292.712219 75.967659 0.000002 0.538113
292.292511 78.423050 -0.000043 0.575490
292.000793 80.129829 -0.000046 0.538725
291.785858 81.387245 -0.000066 0.548039
296.343475 53.209007 11.150010 0.729044
296.343475 53.209007 9.889484 0.713848
296.323120 53.333210 8.623758 0.316422
296.323120 53.333214 7.399880 0.160049
296.343475 53.209003 6.202311 0.728186
296.334686 53.262699 4.990737 0.716299
296.343475 53.209007 3.794549 0.721814
296.343475 53.209003 2.597756 0.726225
296.334686 53.262699 1.403135 0.734926
296.343475 53.209011 0.205450 0.718750
294.382172 65.186676 -0.000006 0.542892
293.249969 72.101143 -0.000002 0.531373
292.619385 75.952103 -0.000001 0.541544
292.216797 78.410568 -0.000010 0.557230
291.937012 80.119308 -0.000013 0.519730
291.730896 81.378174 -0.000031 0.549510
296.085358 53.209003 11.139786 0.721569
296.085358 53.209007 9.880669 0.749142
296.076935 53.262695 8.629341 0.717402
296.065887 53.333210 7.393846 0.101961
296.085358 53.209007 6.197615 0.722672
296.076935 53.262699 4.987395 0.727696
296.085358 53.209003 3.792544 0.721569
296.085358 53.209000 2.597088 0.722059
296.076935 53.262703 1.403801 0.745343
296.085358 53.209003 0.207456 0.723897
294.214020 65.159767 -0.000005 0.547549
293.130096 72.081947 -0.000002 0.536642
292.526428 75.937210 -0.000002 0.536274
292.141022 78.398598 0.000021 0.522794
291.873169 80.109230 0.000018 0.533578
291.675812 81.369492 0.000001 0.517647
295.827789 53.209000 11.130028 0.726961
295.827789 53.209000 9.872257 0.727451
295.819763 53.262691 8.622265 0.719730
295.809235 53.333202 7.388087 0.094118
295.827789 53.209000 6.193134 0.728064
295.819763 53.262695 4.984204 0.720466
295.827789 53.209000 3.790629 0.741054
295.827789 53.209003 2.596450 0.721569
295.819763 53.262695 1.404438 0.719608
295.827789 53.209000 0.209369 0.736029
294.045715 65.134003 -0.000005 0.546201
293.010132 72.063599 0.000000 0.523039
292.433380 75.922974 -0.000002 0.538358
292.065216 78.386665 -0.000039 0.542892
291.809296 80.099167 -0.000043 0.543260
291.620758 81.360825 -0.000059 0.525490
295.570740 53.209000 11.120737 0.709804
295.570740 53.209007 9.864243 0.722426
295.563141 53.262691 8.615522 0.740686
295.558777 53.293209 7.388596 0.741176
295.570740 53.209007 6.188864 0.698039
295.563141 53.262695 4.981168 0.709804
295.570740 53.209007 3.788807 0.729412
295.570740 53.209007 2.595843 0.718015
295.563141 53.262703 1.405044 0.736642
295.570740 53.209007 0.211192 0.727083
293.877197 65.109406 -0.000006 0.537745
292.890045 72.046082 -0.000001 0.555637
292.340240 75.909378 -0.000003 0.542647
291.989258 78.375755 -0.000008 0.527206
291.745300 80.089844 -0.000043 0.560539
291.565552 81.353027 0.000005 0.484191
295.314240 53.209007 11.111904 0.720221
295.314240 53.209003 9.856628 0.752328
295.306976 53.262695 8.609118 0.729412
295.297455 53.333202 7.377393 0.192157
295.314240 53.209007 6.184809 0.729412
295.306976 53.262703 4.978281 0.724020
295.314240 53.209007 3.787076 0.698407
295.314240 53.209007 2.595266 0.708333
295.306976 53.262707 1.405621 0.722549
295.314240 53.209007 0.212924 0.718750
293.708527 65.086021 -0.000005 0.570711
292.769836 72.029404 0.000000 0.529902
292.247009 75.896454 -0.000002 0.536765
291.913239 78.365265 0.000003 0.558701
291.681274 80.081001 -0.000032 0.513113
291.510345 81.345421 0.000019 0.491299
295.058228 53.209007 11.103533 0.721691
295.058228 53.209003 9.849411 0.735294
295.051331 53.262703 8.603045 0.732230
295.042297 53.333210 7.372451 0.188971
295.058228 53.209007 6.180965 0.725245
295.051331 53.262707 4.975545 0.732353
295.058228 53.209007 3.785433 0.733701
295.058228 53.209007 2.594720 0.721569
295.051331 53.262711 1.406167 0.723039
295.058228 53.209007 0.214566 0.715196
293.539703 65.063812 -0.000004 0.545956
292.649475 72.013573 0.000001 0.557108
292.153687 75.884178 0.000000 0.539951
291.837158 78.355225 -0.000001 0.539093
291.617188 80.072372 -0.000075 0.528309
291.455109 81.337990 -0.000022 0.537868
294.802643 53.209007 11.095622 0.724632
294.802643 53.209003 9.842590 0.723897
294.796143 53.262699 8.597306 0.729412
294.787628 53.333206 7.367782 0.191176
294.802643 53.209003 6.177331 0.718137
294.796143 53.262703 4.972958 0.729412
294.802643 53.209007 3.783882 0.728922
294.802643 53.209007 2.594202 0.737990
294.796143 53.262707 1.406682 0.740441
294.802643 53.209007 0.216118 0.728554
293.370697 65.042770 -0.000004 0.539093
292.529022 71.998573 0.000001 0.545833
292.060272 75.872543 0.000000 0.546569
291.761017 78.345802 0.000009 0.544853
291.553040 80.064430 -0.000064 0.527083
291.399750 81.331161 -0.000006 0.500490
294.547485 53.209003 11.088167 0.737745
294.547485 53.209015 9.836159 0.712377
294.541382 53.262695 8.591900 0.723284
294.533356 53.333210 7.363382 0.192157
294.547485 53.209003 6.173908 0.725245
294.541382 53.262703 4.970522 0.721201
294.547485 53.209003 3.782419 0.729779
294.547485 53.209003 2.593715 0.698039
294.541382 53.262699 1.407169 0.722426
294.547485 53.209003 0.217579 0.721569
293.201599 65.022919 -0.000003 0.549142
292.408508 71.984428 0.000003 0.541789
291.966797 75.861565 0.000000 0.532475
291.684784 78.337036 0.000043 0.560294
291.488800 80.057045 -0.000029 0.553064
291.344391 81.324776 0.000023 0.532230
294.292755 53.209000 11.081166 0.711520
294.292755 53.209003 9.830122 0.721569
294.287018 53.262699 8.586821 0.724632
294.279480 53.333206 7.359250 0.154412
294.292755 53.209007 6.170691 0.719485
294.287018 53.262695 4.968235 0.752328
294.292755 53.209003 3.781046 0.729167
294.292755 53.209003 2.593258 0.733946
294.287018 53.262703 1.407625 0.741176
294.292755 53.209003 0.218953 0.734559
293.032318 65.004173 -0.000007 0.536887
292.287842 71.971069 -0.000002 0.535049
291.873230 75.851219 -0.000003 0.537623
291.608521 78.328384 0.000000 0.521691
291.424561 80.049759 -0.000070 0.555882
291.289001 81.318504 -0.000015 0.526961
294.038422 53.209007 11.074615 0.723407
294.038422 53.209000 9.824476 0.727328
294.033051 53.262695 8.582070 0.723407
294.026001 53.333210 7.355387 0.142525
294.038422 53.209007 6.167683 0.725123
294.033051 53.262699 4.966093 0.741176
294.038422 53.209003 3.779762 0.718873
294.038422 53.209003 2.592830 0.726103
294.033051 53.262703 1.408053 0.723529
294.038422 53.209003 0.220237 0.724387
292.862946 64.986664 -0.000008 0.533211
292.167145 71.958595 -0.000002 0.532721
291.779602 75.841537 -0.000003 0.532230
291.532196 78.320564 0.000013 0.517157
291.360260 80.043167 -0.000060 0.544853
291.233551 81.312828 -0.000002 0.555637
293.784424 53.209000 11.068521 0.722794
293.784424 53.209003 9.819218 0.723529
293.779419 53.262703 8.577648 0.729412
293.772888 53.333206 7.351788 0.151593
293.784424 53.209007 6.164884 0.741789
293.779419 53.262699 4.964100 0.720956
293.784424 53.209000 3.778566 0.721936
293.784424 53.209003 2.592432 0.712377
293.779419 53.262703 1.408450 0.729412
293.784424 53.209000 0.221433 0.730637
292.693451 64.970360 -0.000006 0.537500
292.046326 71.946960 -0.000002 0.543627
291.685883 75.832504 -0.000005 0.528922
291.455811 78.313400 0.000047 0.541789
291.295898 80.037132 -0.000026 0.525368
291.178040 81.307602 0.000028 0.549755
293.530731 53.209000 11.062871 0.734926
293.530731 53.209007 9.814348 0.726961
293.526123 53.262703 8.573551 0.740319
293.520081 53.333206 7.348454 0.136152
293.530731 53.209007 6.162290 0.740931
293.526123 53.262703 4.962254 0.729289
293.530731 53.209007 3.777458 0.729412
293.530731 53.209007 2.592063 0.737745
293.526123 53.262703 1.408819 0.715686
293.530731 53.209007 0.222541 0.722304
292.523865 64.955231 -0.000006 0.534559
291.925446 71.936180 -0.000002 0.538480
291.592163 75.824158 -0.000003 0.528186
291.379364 78.306221 -0.000018 0.538971
291.231537 80.031075 -0.000092 0.537990
291.122559 81.302238 -0.000074 0.557843
293.277344 53.209003 11.057670 0.722672
293.277344 53.209000 9.809868 0.729412
293.273132 53.262699 8.569780 0.718015
293.267609 53.333202 7.345387 0.219118
293.277344 53.209003 6.159903 0.740809
293.273132 53.262703 4.960555 0.727083
293.277344 53.209000 3.776440 0.729167
293.277344 53.209003 2.591723 0.732476
293.273132 53.262695 1.409158 0.738848
293.277344 53.209000 0.223560 0.725245
292.354126 64.941292 -0.000006 0.529902
291.804474 71.926239 -0.000001 0.542157
291.498352 75.816444 -0.000002 0.507966
291.302887 78.300117 0.000016 0.542157
291.167084 80.025940 -0.000058 0.540441
291.066986 81.297829 -0.000037 0.566176
293.024261 53.209000 11.052918 0.742157
293.024261 53.209003 9.805769 0.729412
293.020416 53.262703 8.566332 0.731740
293.015350 53.333206 7.342581 0.166299
293.024261 53.209003 6.157718 0.729412
293.020416 53.262703 4.959001 0.725858
293.024261 53.209000 3.775507 0.723652
293.024261 53.208996 2.591413 0.736397
293.020416 53.262703 1.409468 0.736642
293.024261 53.209003 0.224493 0.733211
292.184326 64.928535 -0.000004 0.533946
291.683411 71.917145 -0.000000 0.531250
291.404480 75.809395 -0.000001 0.540686
291.226349 78.294449 0.000031 0.553431
291.102570 80.021675 0.000068 0.526716
291.011414 81.293686 -0.000026 0.545833
292.771454 53.209000 11.048614 0.726103
292.771454 53.209007 9.802053 0.727206
292.767975 53.262703 8.563208 0.728799
292.763397 53.333206 7.340039 0.135907
292.771454 53.208996 6.155742 0.733333
292.767975 53.262703 4.957593 0.712500
292.771454 53.209003 3.774662 0.726838
292.771454 53.209003 2.591132 0.724755
292.767975 53.262699 1.409749 0.741176
292.771454 53.209003 0.225337 0.726838
292.014435 64.916954 -0.000004 0.542647
291.562347 71.908897 0.000001 0.539338
291.310577 75.802986 -0.000002 0.533456
291.149811 78.288971 -0.000016 0.529657
291.038086 80.017067 0.000023 0.555147
290.955811 81.289719 -0.000071 0.539706
292.518829 53.209000 11.044749 0.721569
292.518829 53.209000 9.798724 0.721569
292.518829 53.209000 8.570194 0.733701
292.511658 53.333202 7.337761 0.105882
292.518829 53.209003 6.153967 0.721814
292.518829 53.209000 4.960741 0.734804
292.518829 53.209003 3.773904 0.732108
292.518829 53.209003 2.590879 0.726103
292.518829 53.209003 1.409121 0.746324
292.518829 53.209003 0.226095 0.729412
291.844482 64.906555 -0.000005 0.537377
291.441223 71.901482 -0.000000 0.530147
291.216614 75.797279 0.000004 0.549142
291.073212 78.284355 -0.000002 0.536765
290.973541 80.013184 0.000037 0.538113
290.900146 81.286369 -0.000057 0.511765
292.266418 53.209000 11.041330 0.727451
292.266418 53.209000 9.795778 0.727083
292.263702 53.262699 8.557928 0.725245
292.260132 53.333206 7.335743 0.094118
292.266418 53.209007 6.152398 0.730760
292.263702 53.262699 4.955214 0.721569
292.266418 53.209007 3.773233 0.724265
292.266418 53.209003 2.590656 0.721201
292.263702 53.262699 1.410224 0.717892
292.266418 53.209007 0.226765 0.739951
291.674438 64.897362 -0.000004 0.546569
291.320007 71.894936 0.000001 0.527328
291.122620 75.792206 0.000005 0.534681
290.996613 78.280411 0.000033 0.502574
290.908997 80.009857 0.000072 0.547549
290.844513 81.283493 -0.000024 0.539093
292.014191 53.209000 11.038358 0.733701
292.014191 53.208996 9.793213 0.725980
292.011841 53.262699 8.555769 0.728064
292.008759 53.333206 7.333987 0.086275
292.014191 53.209003 6.151030 0.732843
292.011841 53.262703 4.954241 0.721569
292.014191 53.209003 3.772650 0.727696
292.014191 53.209000 2.590461 0.731985
292.011841 53.262699 1.410418 0.721569
292.014191 53.209003 0.227349 0.750735
291.504303 64.889351 -0.000004 0.541299
291.198761 71.889214 0.000001 0.542279
291.028595 75.787773 0.000005 0.544608
290.919952 78.276428 -0.000034 0.527819
290.844452 80.006500 0.000005 0.572794
290.788818 81.280594 -0.000093 0.477819
291.760132 53.262707 11.022361 0.724877
291.762115 53.209000 9.791027 0.721569
291.760132 53.262699 8.553932 0.730025
291.757538 53.333199 7.332491 0.124142
291.762115 53.209003 6.149867 0.709804
291.760132 53.262703 4.953413 0.724265
291.762115 53.209007 3.772153 0.734559
291.762115 53.209003 2.590296 0.722549
291.760132 53.262707 1.410584 0.737868
291.762115 53.209007 0.227847 0.728309
291.334167 64.882523 -0.000003 0.529289
291.077484 71.884338 0.000001 0.556250
290.934540 75.784004 0.000006 0.539583
290.843262 78.273544 0.000001 0.532966
290.779846 80.004074 0.000042 0.547181
290.733124 81.278511 -0.000052 0.528186
291.508575 53.262703 11.020273 0.726716
291.510162 53.209000 9.789224 0.722794
291.508575 53.262699 8.552416 0.721569
291.506470 53.333199 7.331257 0.140196
291.510162 53.209000 6.148907 0.730392
291.508575 53.262699 4.952729 0.702451
291.510162 53.209000 3.771743 0.721569
291.510162 53.209003 2.590159 0.732353
291.508575 53.262707 1.410720 0.734191
291.510162 53.209003 0.228257 0.728064
291.164001 64.876823 -0.000008 0.539461
290.956177 71.880295 -0.000002 0.542157
290.840485 75.780853 0.000002 0.527574
290.766571 78.271194 0.000037 0.495343
290.715210 80.002098 0.000077 0.530882
290.677399 81.276810 -0.000017 0.528064
291.257111 53.262703 11.018625 0.721324
291.258301 53.209000 9.787802 0.725735
291.257111 53.262703 8.551217 0.729412
291.255524 53.333202 7.330283 0.129412
291.258301 53.209000 6.148149 0.728554
291.257111 53.262707 4.952189 0.698039
291.258301 53.209003 3.771419 0.724020
291.258301 53.209003 2.590051 0.752941
291.257111 53.262707 1.410827 0.710907
291.258301 53.209003 0.228580 0.721814
290.993774 64.872368 -0.000007 0.527819
290.834869 71.877121 -0.000002 0.549020
290.746368 75.778389 0.000002 0.531618
290.689880 78.268799 -0.000033 0.553064
290.650604 80.000084 0.000008 0.548897
290.621674 81.275085 -0.000084 0.529167
291.005707 53.262699 11.017417 0.727574
291.006561 53.209003 9.786757 0.734191
291.005707 53.262699 8.550339 0.737990
291.004639 53.333210 7.329568 0.154044
291.006561 53.209003 6.147593 0.752941
291.005707 53.262699 4.951794 0.719608
291.006561 53.209003 3.771183 0.730515
291.006561 53.209000 2.589973 0.732108
291.005707 53.262695 1.410906 0.723162
291.006561 53.209003 0.228817 0.730760
290.823486 64.869102 -0.000007 0.536397
290.713501 71.874779 -0.000004 0.539706
290.652252 75.776588 0.000003 0.531863
290.613159 78.267532 0.000005 0.534069
290.585968 79.999023 0.000046 0.550858
290.565948 81.274147 -0.000050 0.518995
290.754395 53.262703 11.016648 0.741176
290.754852 53.209003 9.786093 0.710784
290.754395 53.262707 8.549780 0.722794
290.753754 53.333206 7.329114 0.110539
290.754852 53.209003 6.147239 0.739583
290.754395 53.262703 4.951543 0.721569
290.754852 53.209003 3.771031 0.722426
290.754852 53.209003 2.589921 0.723407
290.754395 53.262703 1.410957 0.726961
290.754852 53.209003 0.228968 0.722549
290.653229 64.867027 -0.000006 0.537255
290.592163 71.873314 -0.000001 0.527206
290.558136 75.775429 0.000001 0.525368
290.536438 78.266678 0.000019 0.500245
290.521301 79.998291 0.000059 0.556740
290.510223 81.273521 -0.000035 0.524632
290.503082 53.262695 11.016320 0.732843
290.503174 53.208996 9.785810 0.710539
290.503082 53.262699 8.549541 0.725245
290.502960 53.333206 7.328921 0.094118
290.503174 53.209003 6.147087 0.729902
290.503082 53.262695 4.951436 0.719608
290.503174 53.209003 3.770966 0.724265
290.503174 53.209000 2.589901 0.741176
290.503082 53.262695 1.410978 0.727574
290.503174 53.209003 0.229033 0.740319
290.482941 64.866142 -0.000006 0.533701
290.470795 71.872681 -0.000001 0.538235
290.463989 75.774948 0.000003 0.558824
290.459686 78.265999 -0.000031 0.523652
290.456665 79.997734 0.000011 0.531985
290.454498 81.273048 -0.000083 0.549265
290.251801 53.262691 11.016432 0.727696
290.251495 53.208996 9.785904 0.740931
290.251801 53.262695 8.549623 0.729412
290.252167 53.333202 7.328986 0.125490
290.251495 53.209000 6.147138 0.736274
290.251801 53.262699 4.951472 0.721569
290.251495 53.209003 3.770988 0.729412
290.251495 53.209000 2.589908 0.729412
290.251801 53.262699 1.410971 0.729412
290.251495 53.209003 0.229011 0.721569
290.312653 64.866470 -0.000004 0.535539
290.349426 71.872902 -0.000000 0.536520
290.369873 75.775124 0.000005 0.535417
290.382965 78.266243 -0.000012 0.528431
290.392029 79.997932 0.000030 0.514583
290.398743 81.273216 -0.000064 0.562868
290.000488 53.262699 11.016981 0.733701
289.999817 53.209000 9.786379 0.721936
290.000488 53.262707 8.550022 0.711152
290.001343 53.333202 7.329311 0.116667
289.999817 53.209003 6.147391 0.721691
290.000488 53.262703 4.951652 0.729657
289.999817 53.209003 3.771095 0.723897
289.999817 53.209007 2.589944 0.703431
290.000488 53.262707 1.410935 0.715441
289.999817 53.209003 0.228903 0.710417
290.142365 64.867958 -0.000004 0.544363
290.228058 71.873970 0.000001 0.529534
290.275757 75.775948 0.000004 0.536765
