# This PCD file was generated using the MATLABÂ® pcwrite function
# from Computer Vision ToolboxÂ®.
# .PCD v.7 - Point Cloud Data file format
VERSION .7
FIELDS x y z intensity
SIZE 4 4 4 4
TYPE F F F F
COUNT 1 1 1 1
WIDTH 1194
HEIGHT 1
VIEWPOINT 0 0 0 1 0 0 0
POINTS 1194
DATA ascii
337.234955 200.417725 -0.000025 0.557353
338.392944 198.212051 -0.000046 0.534681
339.197815 196.678955 -0.000049 0.530760
339.790894 195.549316 -0.000019 0.552696
334.541534 205.841492 6.893951 0.678431
334.541534 205.841476 6.219744 0.781005
334.541534 205.841492 5.555014 0.678431
334.541534 205.841492 4.898151 0.678431
334.541534 205.841492 4.247637 0.678431
334.541534 205.841492 3.602002 0.720221
334.609344 205.710159 2.952567 0.720956
334.541534 205.841492 2.319714 0.678431
334.541534 205.841492 1.680286 0.678431
334.545776 205.833282 1.040626 0.771201
334.565063 205.795929 0.402201 0.613971
335.528778 203.928680 -0.000005 0.543995
337.318329 200.461441 -0.000068 0.553676
338.460968 198.247574 -0.000063 0.560907
339.255127 196.708878 -0.000067 0.557230
339.840240 195.575195 -0.000060 0.492402
334.695129 205.840195 6.876133 0.678431
334.695160 205.840164 6.204381 0.750123
334.695129 205.840195 5.542070 0.678431
334.695160 205.840195 4.887599 0.678431
334.695129 205.840195 4.239453 0.678431
334.695160 205.840179 3.596170 0.750368
334.761993 205.708374 2.949072 0.699142
334.695129 205.840195 2.318550 0.678431
334.695129 205.840195 1.681450 0.678431
334.700623 205.829407 1.044261 0.749632
334.718262 205.794617 0.408018 0.619730
335.636841 203.983948 -0.000002 0.533578
337.402130 200.504272 -0.000060 0.536152
338.529297 198.282471 -0.000055 0.501225
339.312714 196.738251 -0.000049 0.544730
339.889893 195.600555 -0.000050 0.576471
334.847656 205.838913 6.858680 0.678431
334.847656 205.838882 6.189332 0.730515
334.847656 205.838913 5.529392 0.678431
334.847656 205.838913 4.877264 0.678431
334.847656 205.838898 4.231438 0.678431
334.847656 205.838882 3.590456 0.750980
334.913269 205.707245 2.945683 0.677574
334.847656 205.838898 2.317410 0.678431
334.847656 205.838898 1.682590 0.678431
334.854309 205.825577 1.047820 0.744853
334.870361 205.793335 0.413716 0.662868
335.745270 204.038483 -0.000002 0.527574
337.486267 200.546509 -0.000050 0.534681
338.597870 198.316925 -0.000046 0.532966
339.370483 196.767258 -0.000041 0.461397
339.939697 195.625549 -0.000035 0.559804
334.999054 205.837631 6.841588 0.678431
334.999084 205.837601 6.174594 0.726225
334.999084 205.837616 5.516975 0.678431
334.999084 205.837631 4.867142 0.678431
334.999084 205.837631 4.223588 0.678431
334.999084 205.837616 3.584861 0.776471
335.063477 205.706131 2.942365 0.700980
334.999084 205.837631 2.316293 0.678431
334.999084 205.837631 1.683707 0.678431
335.006805 205.821823 1.051306 0.743627
335.021393 205.792053 0.419297 0.664951
335.854095 204.092239 -0.000001 0.533578
337.570618 200.588318 -0.000069 0.519485
338.666626 198.350998 -0.000063 0.541422
339.428436 196.795959 -0.000051 0.519485
339.989655 195.650299 -0.000050 0.569485
335.149445 205.836349 6.824849 0.678431
335.149445 205.836319 6.160161 0.753064
335.149445 205.836349 5.504817 0.678431
335.149445 205.836349 4.857229 0.678431
335.149445 205.836349 4.215899 0.678431
335.149445 205.836334 3.579383 0.762868
335.212616 205.705017 2.939115 0.702328
335.149445 205.836349 2.315199 0.678431
335.149445 205.836349 1.684800 0.678431
335.158203 205.818130 1.054718 0.747549
335.171356 205.790787 0.424762 0.645956
335.963287 204.145264 -0.000000 0.542402
337.655487 200.629044 -0.000002 0.534559
338.735687 198.384445 -0.000046 0.563725
339.486603 196.824142 -0.000041 0.543015
340.039825 195.674606 -0.000042 0.560907
335.298767 205.835068 6.808459 0.678431
335.298798 205.835037 6.146029 0.772181
335.298767 205.835068 5.492911 0.678431
335.298767 205.835068 4.847524 0.678431
335.298767 205.835068 4.208373 0.678431
335.298767 205.835052 3.574017 0.716667
335.360687 205.704071 2.935942 0.717402
335.298767 205.835068 2.314129 0.678431
335.298767 205.835068 1.685871 0.678431
335.308502 205.814499 1.058058 0.748162
335.319885 205.790375 0.430034 0.750858
336.072815 204.197540 -0.000005 0.544363
337.740417 200.669571 -0.000004 0.533578
338.805023 198.417389 -0.000028 0.506740
339.544983 196.851913 -0.000024 0.510049
340.090179 195.698517 -0.000016 0.540686
335.447113 205.833817 6.792413 0.678431
335.447113 205.833786 6.132194 0.691299
335.447113 205.833817 5.481255 0.678431
335.447113 205.833817 4.838021 0.678431
335.447113 205.833817 4.201003 0.678431
335.447113 205.833801 3.568764 0.726225
335.507599 205.703476 2.932854 0.703922
335.447113 205.833817 2.313081 0.678431
335.447113 205.833817 1.686919 0.678431
335.457733 205.810928 1.061326 0.768382
335.466675 205.791641 0.435046 0.735539
336.182709 204.249023 -0.000003 0.547304
337.825684 200.709503 -0.000005 0.526471
338.874451 198.450073 -0.000056 0.542892
339.603485 196.879425 -0.000051 0.541422
340.140625 195.722260 -0.000042 0.519853
335.594452 205.832581 6.776706 0.678431
335.594482 205.832550 6.118650 0.697181
335.594452 205.832581 5.469845 0.678431
335.594452 205.832581 4.828719 0.678431
335.594452 205.832565 4.193789 0.678431
335.594482 205.832565 3.563622 0.761152
335.653534 205.702896 2.929833 0.728309
335.594452 205.832581 2.312055 0.678431
335.594452 205.832581 1.687945 0.678431
335.605927 205.807404 1.064526 0.778922
335.612549 205.792862 0.439954 0.745833
336.292999 204.299744 -0.000005 0.537377
337.911194 200.748840 -0.000008 0.549387
338.944183 198.482040 -0.000036 0.578799
339.662231 196.906403 -0.000039 0.511520
340.191284 195.745483 -0.000025 0.550123
335.740875 205.831329 6.761333 0.678431
335.740845 205.831299 6.105393 0.754167
335.740875 205.831314 5.458677 0.678431
335.740875 205.831329 4.819615 0.678431
335.740875 205.831314 4.186729 0.678431
335.740875 205.831314 3.558590 0.762255
335.798553 205.702332 2.926876 0.709804
335.740875 205.831329 2.311050 0.678431
335.740875 205.831314 1.688950 0.678431
335.753113 205.803940 1.067656 0.738358
335.757538 205.794022 0.444759 0.720343
336.403595 204.349686 -0.000004 0.534069
337.996979 200.787582 -0.000006 0.553799
339.014099 198.513718 -0.000056 0.538480
339.721161 196.933060 -0.000050 0.577328
340.242065 195.768494 -0.000042 0.542647
335.886292 205.830093 6.746287 0.678431
335.886322 205.830063 6.092422 0.714338
335.886292 205.830093 5.447749 0.678431
335.886292 205.830093 4.810706 0.678431
335.886292 205.830093 4.179819 0.678431
335.886322 205.830078 3.553666 0.753186
335.942627 205.701767 2.923982 0.694608
335.886292 205.830093 2.310067 0.678431
335.886292 205.830093 1.689933 0.678431
335.899292 205.800537 1.070719 0.763848
335.901642 205.795135 0.449463 0.788480
336.514587 204.398834 -0.000001 0.534926
338.083038 200.825699 -0.000004 0.550000
339.084259 198.544754 -0.000045 0.544976
339.780243 196.959213 -0.000040 0.524877
340.293060 195.791000 -0.000024 0.525490
336.046143 205.793381 6.721889 0.705760
336.046143 205.793365 6.071390 0.703922
336.046143 205.793381 5.430026 0.758701
336.046143 205.793381 4.796258 0.758578
336.046143 205.793381 4.168614 0.745956
336.046143 205.793381 3.545681 0.767524
336.088593 205.694839 2.920811 0.704044
336.046143 205.793365 2.308473 0.761765
336.046143 205.793381 1.691527 0.749510
336.046143 205.793381 1.073918 0.766667
336.044952 205.796219 0.454066 0.773529
336.625885 204.447220 -0.000000 0.538848
338.169373 200.863220 -0.000002 0.546078
339.154663 198.575287 -0.000034 0.534804
339.839600 196.984894 -0.000018 0.551838
340.344208 195.813187 -0.000012 0.568873
336.193756 205.782120 6.704787 0.606373
336.193756 205.782120 6.056644 0.705024
336.193756 205.782120 5.417603 0.626225
336.193756 205.782120 4.786129 0.647917
336.193756 205.782120 4.160760 0.631740
336.193756 205.782120 3.540082 0.641299
336.221130 205.717316 2.919272 0.703064
336.193756 205.782120 2.307357 0.625490
336.193756 205.782120 1.692644 0.663480
336.193756 205.782120 1.077272 0.645343
336.193756 205.782120 0.459918 0.625245
336.737549 204.494843 -0.000002 0.518995
338.255920 200.900162 -0.000004 0.531863
339.225220 198.605499 -0.000055 0.548039
339.899017 197.010345 -0.000040 0.569730
340.395386 195.835281 -0.000074 0.577451
336.336182 205.780914 6.690740 0.703064
336.336182 205.780914 6.044533 0.676225
336.336182 205.780914 5.407399 0.642157
336.336182 205.780914 4.777811 0.622672
336.336182 205.780914 4.154308 0.613848
336.336182 205.780914 3.535484 0.672794
336.353210 205.739838 2.917789 0.691054
336.336182 205.780914 2.306438 0.649755
336.336182 205.780914 1.693561 0.667157
336.336182 205.780914 1.080027 0.656985
336.336182 205.780914 0.464516 0.664093
336.849518 204.541626 0.000005 0.533946
338.342773 200.936447 0.000002 0.520466
339.296051 198.634995 -0.000033 0.559314
339.958679 197.035248 -0.000027 0.564951
340.446808 195.856766 -0.000064 0.537010
336.509979 205.700470 6.655581 0.636397
336.509918 205.700607 6.014251 0.639338
336.473724 205.789749 5.399392 0.750980
336.473724 205.789749 4.771284 0.754779
336.473724 205.789734 4.149246 0.686275
336.473724 205.789734 3.531876 0.714583
336.484894 205.762222 2.916351 0.682966
336.473724 205.789734 2.305718 0.772426
336.473724 205.789734 1.694282 0.771814
336.509949 205.700562 1.086917 0.637990
336.510376 205.699493 0.476111 0.638848
336.961823 204.587692 0.000005 0.545221
338.429871 200.972168 -0.000000 0.533946
339.367004 198.664291 -0.000065 0.553064
340.018372 197.060089 -0.000104 0.529657
340.498352 195.878021 -0.000093 0.535907
336.526184 206.010651 6.726157 0.795833
336.614563 205.788559 6.023443 0.733088
336.610596 205.798584 5.391597 0.819730
336.610596 205.798584 4.764929 0.818995
336.594513 205.838959 4.149316 0.752328
336.594513 205.838943 3.531925 0.742770
336.616150 205.784546 2.914963 0.694730
336.526184 206.010651 2.308752 0.784804
336.526184 206.010651 1.691248 0.792157
336.526184 206.010651 1.073081 0.773039
336.614563 205.788559 0.472522 0.771201
337.074402 204.633011 -0.000001 0.546078
338.517212 201.007294 -0.000002 0.545588
339.438232 198.692856 -0.000053 0.535294
340.078369 197.084152 -0.000089 0.560784
340.550110 195.898727 -0.000073 0.531495
336.787872 205.702057 6.630212 0.650000
336.754608 205.787369 6.012119 0.781250
336.738983 205.827499 5.387929 0.678431
336.738983 205.827499 4.761939 0.678431
336.735046 205.837570 4.143241 0.752083
336.735046 205.837555 3.527594 0.725123
336.746979 205.806976 2.913633 0.694975
336.656830 206.038208 2.308388 0.678431
336.656830 206.038208 1.691612 0.678431
336.787872 205.702042 1.091899 0.650000
336.754608 205.787369 0.476822 0.794608
337.187317 204.677475 0.000001 0.539828
338.604797 201.041779 0.000000 0.532721
339.509583 198.721039 -0.000066 0.530025
340.138580 197.107712 -0.000060 0.503799
340.601990 195.919067 -0.000050 0.548039
336.924866 205.705063 6.618563 0.654289
336.893890 205.786179 6.001053 0.783211
336.878571 205.826309 5.378584 0.678431
336.878571 205.826309 4.754321 0.678431
336.874695 205.836380 4.137329 0.717034
336.874725 205.836365 3.523381 0.755392
336.893890 205.786179 2.910082 0.763726
336.798126 206.037003 2.307538 0.678431
336.798126 206.037003 1.692462 0.678431
336.924835 205.705170 1.094177 0.661029
336.893890 205.786179 0.481023 0.800123
337.300568 204.721161 0.000001 0.541176
338.692627 201.075653 0.000001 0.561029
339.581116 198.748840 -0.000100 0.546324
340.198822 197.131119 -0.000091 0.561887
340.653961 195.939255 -0.000075 0.594608
336.938629 206.035812 6.694845 0.678431
337.032410 205.785004 5.990242 0.773897
337.017395 205.825150 5.369454 0.678431
337.017395 205.825150 4.746878 0.678431
337.013611 205.835205 4.131554 0.745466
337.013641 205.835190 3.519264 0.700123
337.032410 205.785004 2.907624 0.755147
336.938629 206.035812 2.306707 0.678431
336.938629 206.035812 1.693293 0.678431
336.938629 206.035812 1.079222 0.678431
337.032410 205.785004 0.485127 0.773162
337.414124 204.764084 -0.000002 0.532843
338.780670 201.108948 -0.000001 0.525490
339.652924 198.775894 -0.000086 0.552696
340.259338 197.153931 -0.000078 0.530760
340.706116 195.958893 -0.000061 0.540686
337.089386 206.004532 6.674392 0.760539
337.202484 205.695511 5.959367 0.717034
337.155487 205.823959 5.360538 0.678431
337.155518 205.823959 4.739609 0.678431
337.151794 205.834015 4.125913 0.686152
337.151794 205.834000 3.515244 0.702328
337.170197 205.783844 2.905222 0.754902
337.089386 206.004532 2.305371 0.782353
337.089386 206.004532 1.694629 0.758946
337.089386 206.004532 1.083233 0.766789
337.210846 205.672760 0.498835 0.678431
337.527924 204.806183 -0.000001 0.535662
338.868927 201.141602 0.000000 0.532966
339.724915 198.802444 -0.000073 0.539951
340.320007 197.176254 -0.000056 0.568873
340.758423 195.978195 -0.000049 0.522794
337.212433 206.047455 6.674016 0.139216
337.341339 205.687393 5.947509 0.711642
337.292847 205.822800 5.351831 0.678431
337.292847 205.822800 4.732511 0.678431
337.289246 205.832855 4.120404 0.704779
337.289246 205.832840 3.511318 0.765074
337.307251 205.782684 2.902876 0.754779
337.212433 206.047455 2.305346 0.116789
337.212433 206.047455 1.694654 0.112377
337.212433 206.047455 1.083307 0.141054
337.347168 205.671112 0.502768 0.678431
337.642059 204.847504 -0.000003 0.546201
338.957458 201.173615 0.000001 0.535294
339.797028 198.828690 -0.000098 0.534681
340.380768 197.198364 -0.000081 0.522917
340.810822 195.997253 -0.000072 0.572304
337.473511 205.696060 6.569211 0.646324
337.477203 205.685486 5.937330 0.678799
337.429504 205.821655 5.343332 0.678431
337.429504 205.821655 4.725583 0.678431
337.425995 205.831696 4.115027 0.730392
337.425995 205.831680 3.507486 0.732230
337.443542 205.781525 2.900587 0.740809
337.355743 206.032288 2.304329 0.678431
337.355774 206.032288 1.695671 0.678431
337.473511 205.696060 1.103861 0.647304
337.482788 205.669464 0.506607 0.678431
337.756470 204.888031 -0.000003 0.564338
339.046173 201.205048 0.000001 0.543995
339.869385 198.854248 -0.000086 0.543015
340.441742 197.219879 -0.000067 0.562500
340.863373 196.015808 -0.000059 0.505024
337.607819 205.696869 6.558396 0.647059
337.612030 205.684586 5.927617 0.704167
337.575806 205.790421 5.329251 0.828554
337.575806 205.790421 4.714104 0.822549
337.562073 205.830536 4.109780 0.736397
337.562073 205.830521 3.503746 0.727206
337.579224 205.780365 2.898352 0.748039
337.493378 206.031113 2.303574 0.678431
337.493378 206.031113 1.696426 0.678431
337.607788 205.696945 1.105979 0.665196
337.617767 205.667847 0.510353 0.674877
337.871155 204.927765 -0.000004 0.525858
339.135132 201.235870 -0.000003 0.535907
339.941925 198.879288 -0.000071 0.536520
340.502838 197.240936 -0.000043 0.513726
340.916077 196.033966 -0.000035 0.562377
337.630341 206.029953 6.635615 0.678431
337.746429 205.683060 5.917996 0.724020
337.714233 205.779236 5.319250 0.758701
337.714233 205.779236 4.705949 0.777206
337.714233 205.779236 4.098577 0.769730
337.714233 205.779236 3.495761 0.788113
337.714233 205.779221 2.896173 0.748039
337.630341 206.029953 2.302838 0.678431
337.630341 206.029953 1.697163 0.678431
337.630341 206.029938 1.090838 0.678431
337.751434 205.668030 0.513853 0.647059
337.986115 204.966644 -0.000003 0.537990
339.224274 201.266052 -0.000003 0.539951
340.014648 198.903793 -0.000055 0.552941
340.564026 197.261826 -0.000081 0.530147
340.968811 196.051956 -0.000069 0.554412
337.848846 205.777328 6.558351 0.732108
337.879944 205.682159 5.908759 0.685907
337.848846 205.777267 5.311217 0.753799
337.848846 205.777267 4.699402 0.708824
337.848846 205.777267 4.093498 0.764951
337.848877 205.777252 3.492141 0.718505
337.848846 205.777328 2.894008 0.749877
337.848846 205.777328 2.297790 0.728922
337.848846 205.777328 1.702210 0.741176
337.848846 205.777328 1.105992 0.774020
337.848846 205.777328 0.507853 0.740564
338.101349 205.004761 -0.000002 0.546936
339.313660 201.295593 -0.000002 0.528799
340.087555 198.927765 -0.000030 0.563235
340.625427 197.282013 -0.000054 0.535417
341.021790 196.069351 -0.000043 0.545711
337.982330 205.776871 6.547963 0.774020
338.012878 205.681213 5.899741 0.696446
337.982330 205.776871 5.303684 0.743627
337.982330 205.776871 4.693260 0.744485
337.982330 205.776871 4.088736 0.744853
337.982330 205.776855 3.488746 0.740686
337.982330 205.776855 2.891971 0.721814
337.982330 205.776871 2.297111 0.741422
337.982330 205.776871 1.702889 0.777941
337.982330 205.776871 1.108029 0.729167
337.982361 205.776855 0.511255 0.791176
338.216858 205.042053 -0.000001 0.548652
339.403229 201.324509 -0.000000 0.521936
340.160522 198.951538 -0.000066 0.542157
340.686981 197.301849 -0.000048 0.575123
341.074738 196.086792 -0.000124 0.532230
338.099854 205.825882 6.550821 0.770221
338.145325 205.679855 5.890856 0.692647
338.102966 205.815826 5.303848 0.678431
338.102966 205.815826 4.693393 0.678431
338.102966 205.815826 4.088839 0.678431
338.099854 205.825867 3.489681 0.762500
338.115448 205.775726 2.889952 0.742034
338.102966 205.815826 2.297126 0.678431
338.102966 205.815826 1.702874 0.678431
338.131348 205.724701 1.112675 0.932230
338.099854 205.825851 0.510320 0.738725
338.332581 205.078552 -0.000003 0.539216
339.492981 201.352829 -0.000001 0.558701
340.233734 198.974533 -0.000051 0.534191
340.748657 197.321228 -0.000033 0.518995
341.127899 196.103500 -0.000108 0.531005
338.232758 205.824753 6.540763 0.723407
338.277069 205.678879 5.882293 0.711887
338.235809 205.814713 5.296545 0.678431
338.235809 205.814713 4.687440 0.678431
338.235809 205.814713 4.084222 0.678431
338.232758 205.824738 3.486389 0.715319
338.247986 205.774612 2.887984 0.717157
338.235809 205.814713 2.296469 0.678431
338.235809 205.814713 1.703531 0.678431
338.263519 205.723404 1.114645 0.907598
338.232758 205.824722 0.513612 0.748897
338.448608 205.114227 -0.000002 0.538848
339.582977 201.380493 -0.000000 0.536029
340.307129 198.996948 -0.000023 0.555025
340.810486 197.340149 -0.000015 0.498652
341.181213 196.119827 -0.000092 0.534314
338.365082 205.823624 6.530969 0.767157
338.408295 205.677582 5.873878 0.697059
338.368042 205.813583 5.289435 0.678431
338.368042 205.813583 4.681643 0.678431
338.368042 205.813583 4.079726 0.678431
338.365082 205.823608 3.483182 0.745343
338.379913 205.773499 2.886069 0.746569
338.368042 205.813583 2.295830 0.678431
338.368042 205.813583 1.704170 0.678431
338.395142 205.722122 1.116563 0.936887
338.365082 205.823593 0.516818 0.742892
338.564880 205.149094 -0.000001 0.536029
339.673126 201.407547 0.000001 0.527941
340.380585 199.019150 -0.000053 0.522181
340.872345 197.358856 -0.000044 0.516176
341.234589 196.135956 -0.000123 0.532108
338.496826 205.822510 6.521438 0.758333
338.538910 205.676620 5.865762 0.695098
338.499725 205.812469 5.282516 0.678431
338.499725 205.812469 4.676002 0.678431
338.499725 205.812469 4.075352 0.678431
338.496826 205.822495 3.480062 0.756373
338.511292 205.772369 2.884205 0.736642
338.499725 205.812469 2.295208 0.678431
338.499725 205.812469 1.704792 0.678431
338.526184 205.720840 1.118430 0.933088
338.496826 205.822479 0.519938 0.734681
338.681366 205.183167 -0.000000 0.534559
339.763458 201.433960 0.000001 0.551838
340.454254 199.040604 -0.000036 0.534191
340.934357 197.377136 -0.000074 0.494118
341.288116 196.151550 -0.000107 0.532230
338.628021 205.821396 6.512166 0.750613
338.669067 205.675400 5.857806 0.708824
338.630859 205.811371 5.275785 0.678431
338.630859 205.811356 4.670515 0.678431
338.630859 205.811356 4.071095 0.678431
338.628021 205.821381 3.477027 0.721936
338.642120 205.771271 2.882392 0.717525
338.630859 205.811356 2.294602 0.678431
338.630859 205.811356 1.705398 0.678431
338.656647 205.719574 1.120246 0.917892
338.628021 205.821365 0.522973 0.731740
338.798096 205.216415 -0.000000 0.535172
339.854004 201.459747 0.000001 0.519118
340.528076 199.061539 -0.000019 0.526716
340.996552 197.394791 -0.000058 0.528309
341.341736 196.166763 -0.000091 0.509681
338.758698 205.820282 6.503152 0.743137
338.798615 205.674408 5.850121 0.726103
338.761475 205.810257 5.269239 0.678431
338.761475 205.810257 4.665180 0.678431
338.761475 205.810257 4.066958 0.678431
338.758728 205.820267 3.474076 0.756373
338.770782 205.776245 2.880939 0.748775
338.761475 205.810242 2.294014 0.678431
338.761475 205.810257 1.705986 0.678431
338.786530 205.718643 1.121994 0.908088
338.758728 205.820251 0.525924 0.733456
338.915039 205.248871 -0.000004 0.538725
339.944702 201.484909 -0.000002 0.519608
340.601959 199.082260 -0.000060 0.554412
341.058807 197.412231 -0.000098 0.505024
341.395477 196.181595 -0.000075 0.531985
338.888885 205.819183 6.494390 0.786152
338.927704 205.673248 5.842615 0.719730
338.891571 205.809143 5.262880 0.678431
338.891571 205.809143 4.659995 0.678431
338.891571 205.809143 4.062937 0.678431
338.888885 205.819168 3.471209 0.705882
338.900177 205.776764 2.879308 0.754044
338.891571 205.809143 2.293441 0.678431
338.891571 205.809143 1.706558 0.678431
338.915924 205.717636 1.123699 0.908824
338.888885 205.819153 0.528791 0.701226
339.032227 205.280472 -0.000002 0.541422
340.035553 201.509430 -0.000003 0.540686
340.676056 199.102158 -0.000041 0.538971
341.121246 197.429001 -0.000082 0.536642
341.449280 196.196060 -0.000060 0.549387
339.018555 205.818085 6.485881 0.698652
339.056274 205.672211 5.835356 0.698775
339.021118 205.808060 5.256704 0.678431
339.021118 205.808060 4.654961 0.678431
339.021118 205.808060 4.059032 0.678431
339.018555 205.818069 3.468423 0.781740
339.029114 205.777267 2.877724 0.766912
339.021118 205.808044 2.292886 0.678431
339.021118 205.808060 1.707114 0.678431
339.044800 205.716614 1.125353 0.922794
339.018555 205.818069 0.531577 0.762500
339.149597 205.311279 -0.000001 0.535172
340.126648 201.533310 -0.000002 0.524510
340.750366 199.121475 -0.000013 0.538113
341.183838 197.445221 -0.000043 0.544730
341.503235 196.210098 -0.000033 0.522426
339.147736 205.816986 6.477624 0.723407
339.184387 205.671097 5.828290 0.730025
339.150238 205.806961 5.250708 0.678431
339.150238 205.806961 4.650072 0.678431
339.150238 205.806946 4.055241 0.678431
339.147736 205.816971 3.465721 0.755515
339.157593 205.777710 2.876186 0.756373
339.150238 205.806946 2.292347 0.678431
339.150238 205.806946 1.707653 0.678431
339.173218 205.715607 1.126959 0.932966
339.147736 205.816956 0.534280 0.761765
339.267212 205.341248 -0.000002 0.523407
340.217834 201.556564 -0.000001 0.537990
340.824646 199.140656 -0.000055 0.535784
341.246429 197.461395 -0.000087 0.526226
341.557220 196.224030 -0.000072 0.552696
339.276459 205.815887 6.469612 0.736765
339.312012 205.670044 5.821443 0.699632
339.278870 205.805862 5.244893 0.678431
339.278870 205.805862 4.645331 0.678431
339.278870 205.805862 4.051565 0.678431
339.276459 205.815887 3.463099 0.705270
339.285675 205.778122 2.874694 0.787377
339.278900 205.805862 2.291824 0.678431
339.278900 205.805862 1.708176 0.678431
339.301147 205.714600 1.128518 0.923774
339.276459 205.815872 0.536902 0.770956
339.385071 205.370407 -0.000001 0.535662
340.309204 201.579163 -0.000001 0.524510
340.899139 199.158981 -0.000036 0.525000
341.309204 197.476822 -0.000065 0.533578
341.611359 196.237305 -0.000046 0.500000
339.404724 205.814804 6.461847 0.732721
339.439178 205.668976 5.814808 0.689583
339.407074 205.804779 5.239255 0.678431
339.407074 205.804779 4.640735 0.678431
339.407074 205.804779 4.048000 0.678431
339.404724 205.814789 3.460557 0.731740
339.413300 205.778488 2.873248 0.762010
339.407074 205.804779 2.291317 0.678431
339.407074 205.804779 1.708683 0.678431
339.428650 205.713608 1.130027 0.937132
339.404724 205.814789 0.539443 0.751593
339.503082 205.398727 -0.000000 0.529902
340.400757 201.601151 -0.000001 0.514951
340.973785 199.176804 -0.000019 0.532108
341.372101 197.491852 -0.000049 0.532843
341.665588 196.250244 -0.000027 0.572059
339.532532 205.813721 6.454328 0.771324
339.565948 205.667831 5.808365 0.707843
339.534821 205.803696 5.233795 0.678431
339.534821 205.803696 4.636284 0.678431
339.534821 205.803696 4.044548 0.678431
339.532532 205.813721 3.458094 0.753799
339.540527 205.778809 2.871847 0.731618
339.534821 205.803696 2.290826 0.678431
339.534821 205.803696 1.709174 0.678431
339.555725 205.712585 1.131490 0.936397
339.532532 205.813705 0.541905 0.711397
339.621246 205.426270 -0.000005 0.529534
340.492401 201.622482 -0.000003 0.533088
341.048431 199.194702 -0.000114 0.571569
341.435028 197.506699 -0.000092 0.579167
341.719818 196.263046 -0.000069 0.556618
339.659943 205.812637 6.447047 0.715319
339.692261 205.666824 5.802154 0.685662
339.662140 205.802612 5.228510 0.678431
339.662140 205.802612 4.631976 0.678431
339.662140 205.802612 4.041207 0.678431
339.659943 205.812637 3.455712 0.739461
339.667358 205.779099 2.870491 0.787377
339.662140 205.802612 2.290351 0.678431
339.662140 205.802612 1.709650 0.678431
339.682312 205.711594 1.132905 0.921324
339.659943 205.812622 0.544288 0.735294
339.739655 205.452957 -0.000006 0.533701
340.584229 201.643173 -0.000002 0.530392
341.123291 199.211472 -0.000096 0.545833
341.498108 197.520828 -0.000075 0.512745
341.774231 196.275238 -0.000052 0.579779
339.786926 205.811569 6.440007 0.724632
339.818176 205.665817 5.796146 0.692279
339.789063 205.801544 5.223400 0.678431
339.789063 205.801544 4.627810 0.678431
339.789063 205.801544 4.037976 0.678431
339.786926 205.811569 3.453407 0.701961
339.793823 205.779343 2.869179 0.739216
339.789063 205.801544 2.289891 0.678431
339.789063 205.801544 1.710109 0.678431
339.808563 205.710571 1.134276 0.914583
339.786926 205.811554 0.546592 0.728064
339.858276 205.478790 -0.000003 0.537132
340.676239 201.663208 0.000000 0.527206
341.198303 199.227661 -0.000067 0.538848
341.561310 197.534470 -0.000044 0.546078
341.828705 196.286987 -0.000022 0.515809
339.923889 205.760391 6.420392 0.741054
339.943726 205.664642 5.790309 0.689338
339.923889 205.760391 5.211015 0.751348
339.923889 205.760391 4.617714 0.795833
339.923889 205.760391 4.030147 0.731985
339.923889 205.760391 3.446987 0.748284
339.923889 205.760391 2.866951 0.697059
339.923889 205.760391 2.288777 0.766912
339.923889 205.760391 1.711223 0.741789
339.923889 205.760391 1.133049 0.749632
339.923889 205.760391 0.553012 0.737745
339.977020 205.503830 -0.000005 0.542647
340.768311 201.682617 0.000001 0.537990
341.273468 199.243149 -0.000002 0.551103
341.624512 197.548004 -0.000092 0.466789
341.883209 196.298660 -0.000067 0.566789
340.051697 205.749420 6.411314 0.600000
340.068878 205.663666 5.784716 0.691176
340.051697 205.749420 5.204422 0.613848
340.051697 205.749420 4.612339 0.676716
340.051697 205.749420 4.025977 0.652451
340.051697 205.749420 3.444016 0.657475
340.051697 205.749420 2.865171 0.640809
340.051697 205.749420 2.288184 0.622304
340.051697 205.749420 1.711816 0.650368
340.051697 205.749420 1.134829 0.615441
340.051697 205.749420 0.555984 0.643260
340.095947 205.528015 -0.000003 0.541054
340.860565 201.701370 0.000001 0.536520
341.348694 199.258438 -0.000001 0.572917
341.687866 197.560806 -0.000073 0.555147
341.937866 196.309692 -0.000046 0.545711
340.177124 205.748367 6.405007 0.638726
340.193665 205.662415 5.779259 0.718750
340.177124 205.748352 5.199840 0.612377
340.177124 205.748352 4.608603 0.673652
340.177124 205.748352 4.023080 0.648162
340.177124 205.748352 3.441951 0.658946
340.177124 205.748352 2.863933 0.626471
340.177124 205.748352 2.287772 0.623529
340.177124 205.748352 1.712228 0.660049
340.177124 205.748352 1.136067 0.619363
340.177124 205.748352 0.558049 0.661029
340.215057 205.551346 0.000001 0.536397
340.952911 201.719498 0.000001 0.527574
341.423981 199.273193 0.000001 0.544976
341.751343 197.573105 -0.000040 0.551471
341.992584 196.320343 -0.000026 0.555392
340.302216 205.747086 6.398878 0.748162
340.318085 205.661484 5.774071 0.717647
340.302307 205.746689 5.195313 0.699632
340.302307 205.746704 4.604915 0.704779
340.320984 205.645996 4.008436 0.647059
340.320984 205.645920 3.431506 0.635539
340.302246 205.746994 2.862726 0.730392
340.302246 205.747009 2.287370 0.770343
340.302246 205.747009 1.712630 0.721691
340.302246 205.746994 1.137273 0.743873
340.302246 205.746994 0.560063 0.763848
340.334320 205.573898 -0.000001 0.525980
341.045441 201.737000 -0.000002 0.540564
341.499390 199.287460 -0.000001 0.540931
341.814850 197.585327 -0.000087 0.531005
342.047333 196.330826 -0.000060 0.532230
340.422668 205.769928 6.399111 0.815196
340.442169 205.660538 5.769079 0.718873
340.391327 205.945999 5.228098 0.763971
340.391327 205.945999 4.631639 0.778064
340.440247 205.671280 4.008845 0.654657
340.440247 205.671280 3.431804 0.588480
340.422699 205.769775 2.862769 0.761642
340.422699 205.769775 2.287384 0.719853
340.422699 205.769775 1.712616 0.740319
340.422699 205.769775 1.137231 0.730025
340.422699 205.769775 0.559992 0.741667
340.453735 205.595612 -0.000002 0.546201
341.138000 201.753830 -0.000001 0.552451
341.574860 199.301178 -0.000002 0.498774
341.878479 197.596802 -0.000067 0.560539
342.102203 196.340729 -0.000043 0.565564
340.541016 205.805283 6.402740 0.755024
340.565979 205.659210 5.764202 0.688480
340.516998 205.945831 5.224135 0.785049
340.506805 206.005569 4.637402 0.678431
340.564026 205.670654 4.006325 0.658211
340.564026 205.670654 3.430009 0.558211
340.547089 205.769791 2.861719 0.812990
340.546631 205.772583 2.287081 0.850368
340.547852 205.765213 1.713041 0.818137
340.541016 205.805298 1.136510 0.744485
340.542175 205.798492 0.559357 0.749387
340.573303 205.616486 -0.000002 0.542647
341.230743 201.770020 -0.000003 0.548039
341.650482 199.314362 -0.000002 0.543505
341.942169 197.607834 -0.000049 0.559926
342.157135 196.350235 -0.000024 0.533824
340.665527 205.804230 6.397331 0.758701
340.689423 205.658295 5.759604 0.734804
340.639008 205.966248 5.224135 0.787132
340.632751 206.004517 4.634161 0.678431
340.632751 206.004517 4.042901 0.678431
340.632751 206.004501 3.456078 0.678431
340.671539 205.767609 2.860605 0.847794
340.667206 205.794220 2.287104 0.678431
340.672089 205.764160 1.713394 0.820343
340.665527 205.804230 1.137571 0.776838
340.666382 205.799072 0.560990 0.734069
340.692993 205.636490 0.000001 0.538113
341.323578 201.785538 -0.000000 0.536397
341.726166 199.327026 -0.000000 0.553309
342.005920 197.618668 -0.000086 0.545098
342.212067 196.359558 -0.000056 0.545711
340.789764 205.803192 6.392149 0.760539
340.812592 205.657379 5.755202 0.725613
340.761627 205.982880 5.223596 0.733701
340.758423 206.003448 4.631057 0.678431
340.758423 206.003448 4.040494 0.678431
340.758423 206.003448 3.454363 0.678431
340.795654 205.765503 2.859538 0.851593
340.791321 205.793167 2.286767 0.678431
340.796021 205.763123 1.713731 0.828186
340.789734 205.803192 1.138587 0.790441
340.790344 205.799591 0.562556 0.756005
340.812866 205.655685 0.000000 0.546078
341.416534 201.800430 -0.000003 0.539706
341.801941 199.339142 0.000002 0.544608
342.069733 197.628799 -0.000066 0.556127
342.267120 196.368301 -0.000036 0.506005
340.913696 205.802139 6.387194 0.788725
340.935455 205.656448 5.750992 0.699632
340.887482 205.977356 5.219139 0.731618
340.883789 206.002396 4.628089 0.678431
340.883789 206.002380 4.038192 0.678431
340.883789 206.002380 3.452722 0.678431
340.919495 205.763428 2.858517 0.833333
340.915161 205.792114 2.286443 0.678431
340.919678 205.762070 1.714055 0.857598
340.913666 205.802139 1.139559 0.758088
340.914001 205.800034 0.564053 0.717525
340.932831 205.674026 0.000001 0.536765
341.509583 201.814667 -0.000003 0.523529
341.877777 199.350754 0.000001 0.537500
342.133667 197.638474 -0.000044 0.544363
342.322235 196.376648 -0.000015 0.537868
341.037354 205.801086 6.382464 0.760172
341.058105 205.655075 5.746872 0.698897
341.013214 205.970520 5.214604 0.761887
341.013214 205.970520 4.620639 0.740931
341.013214 205.970520 4.032414 0.739338
341.013214 205.970520 3.448604 0.729779
341.042969 205.761414 2.857543 0.856985
341.038757 205.791061 2.286134 0.678431
341.043030 205.761032 1.714363 0.842892
341.037323 205.801102 1.140487 0.801961
341.037445 205.800430 0.565483 0.802696
341.052917 205.691544 0.000002 0.539216
341.602722 201.828262 -0.000002 0.520956
341.953705 199.361832 0.000003 0.527083
342.197632 197.647980 -0.000080 0.499510
342.377350 196.385132 -0.000126 0.563971
341.160736 205.800034 6.377957 0.733333
341.180450 205.654160 5.743048 0.694118
341.138184 205.966919 5.210831 0.729657
341.133667 206.000259 4.622555 0.678431
341.133667 206.000275 4.033900 0.678431
341.133667 206.000275 3.449663 0.678431
341.166229 205.759430 2.856616 0.850000
341.162079 205.790024 2.285839 0.678431
341.166138 205.759979 1.714657 0.820098
341.160736 205.800049 1.141371 0.747181
341.160645 205.800735 0.566845 0.739951
341.173126 205.708267 -0.000002 0.541299
341.695953 201.841217 -0.000005 0.522794
342.029724 199.372391 -0.000001 0.549265
342.261658 197.656769 -0.000060 0.566544
342.432556 196.392700 -0.000105 0.506618
341.283875 205.798996 6.373671 0.699265
341.302551 205.653244 5.739409 0.694485
341.262085 205.969177 5.208296 0.771814
341.258240 205.999207 4.619987 0.678431
341.258240 205.999207 4.031909 0.678431
341.258240 205.999207 3.448244 0.678431
341.289215 205.757507 2.855733 0.827451
341.285156 205.788971 2.285560 0.678431
341.289001 205.758942 1.714936 0.823529
341.283875 205.799011 1.142212 0.754289
341.283630 205.800995 0.568141 0.761642
341.293488 205.724075 -0.000001 0.541054
341.789276 201.853500 -0.000005 0.536029
342.105804 199.382416 -0.000002 0.534559
342.325775 197.665100 -0.000039 0.537010
342.487823 196.399902 -0.000085 0.570711
341.406799 205.797958 6.369607 0.692279
341.424408 205.652328 5.735961 0.684681
341.386200 205.968124 5.205315 0.771936
341.382568 205.998154 4.617553 0.678431
341.382568 205.998154 4.030021 0.678431
341.382568 205.998154 3.446898 0.678431
341.411926 205.755646 2.854897 0.838358
341.409180 205.778198 2.285134 0.112255
341.411652 205.757904 1.715201 0.820221
341.406799 205.797958 1.143009 0.734069
341.406403 205.801178 0.569370 0.732476
341.413940 205.739090 -0.000000 0.525613
341.882660 201.865128 -0.000004 0.530025
342.181946 199.391907 -0.000002 0.524387
342.389893 197.673340 -0.000092 0.488971
342.543152 196.406982 -0.000135 0.529289
341.531952 205.775253 6.360302 0.733824
341.546143 205.650848 5.732576 0.713726
341.510101 205.967072 5.202496 0.773284
341.506683 205.997116 4.615251 0.678431
341.544830 205.662231 3.989462 0.658824
341.544830 205.662231 3.417990 0.596201
341.533600 205.760864 2.854454 0.819240
341.533600 205.760864 2.284614 0.831618
341.533600 205.760864 1.715385 0.807843
341.531921 205.775497 1.144822 0.729412
341.531921 205.775482 0.572664 0.717770
341.534454 205.753250 -0.000000 0.543260
341.976166 201.876114 -0.000004 0.548407
342.258148 199.400848 -0.000003 0.543015
342.454132 197.680771 -0.000066 0.553064
342.598511 196.413406 -0.000114 0.539216
341.657318 205.745804 6.349527 0.751225
341.667572 205.649963 5.729504 0.727941
341.657318 205.745804 5.159540 0.773039
341.657318 205.745819 4.575749 0.789706
341.669250 205.634140 3.984681 0.636397
341.669250 205.634262 3.414592 0.669485
341.657318 205.745819 2.853053 0.730637
341.657318 205.745819 2.284148 0.761029
341.657318 205.745819 1.715852 0.729779
341.657318 205.745819 1.146947 0.730515
341.657318 205.745819 0.576209 0.717770
341.655121 205.766556 -0.000000 0.534559
342.069733 201.886429 -0.000003 0.506618
342.334442 199.409271 -0.000003 0.527696
342.518402 197.687714 -0.000034 0.539338
342.653931 196.419403 -0.000081 0.528922
341.779266 205.744675 6.346104 0.755760
341.788818 205.649048 5.726617 0.718137
341.779266 205.744659 5.157052 0.778922
341.779266 205.744675 4.573722 0.760049
341.779266 205.744675 3.996028 0.730270
341.779266 205.744659 3.422669 0.740686
341.779266 205.744675 2.852381 0.747917
341.779266 205.744675 2.283924 0.721324
341.779266 205.744675 1.716076 0.794853
341.779266 205.744675 1.147619 0.746446
341.779266 205.744659 0.577331 0.732476
341.775818 205.779022 0.000001 0.541422
342.163361 201.896103 -0.000002 0.546569
342.410767 199.417160 -0.000003 0.532598
342.582672 197.694611 -0.000088 0.528676
342.709351 196.425339 -0.000134 0.526593
341.898773 205.767487 6.348926 0.730147
341.909882 205.648117 5.723914 0.716422
341.898804 205.767319 5.159070 0.107108
341.898804 205.767303 4.575365 0.129534
341.898804 205.767319 3.997303 0.118260
341.898804 205.767303 3.423577 0.689706
341.898773 205.767502 2.852935 0.113848
341.898773 205.767502 2.284108 0.106127
341.898773 205.767502 1.715891 0.120221
341.905090 205.699585 1.150416 0.917279
341.898804 205.767471 0.576408 0.720833
341.896637 205.790649 0.000001 0.535662
342.257080 201.905106 -0.000001 0.549265
342.487152 199.424515 -0.000001 0.537132
342.647034 197.700699 -0.000066 0.519975
342.764862 196.430603 -0.000113 0.532598
342.018311 205.792648 6.352542 0.754779
342.030762 205.647202 5.721395 0.730392
342.019165 205.782639 5.159900 0.678431
342.019165 205.782639 4.576043 0.678431
342.019165 205.782639 3.997828 0.678431
342.018311 205.792648 3.424777 0.741544
342.019653 205.776840 2.852863 0.118750
342.019165 205.782639 2.284180 0.678431
342.019165 205.782639 1.715820 0.678431
342.026306 205.699020 1.150972 0.923774
342.018311 205.792633 0.575224 0.772181
342.023407 205.732819 0.007924 0.695588
342.350800 201.913467 -0.000001 0.528186
342.563599 199.431335 -0.000002 0.556740
342.711456 197.706345 -0.000044 0.531127
342.820404 196.435410 -0.000078 0.499387
342.140045 205.791641 6.349785 0.713235
342.151489 205.646271 5.719061 0.689093
342.140839 205.781616 5.157899 0.678431
342.140839 205.781601 4.574411 0.678431
342.140839 205.781601 3.996563 0.678431
342.140045 205.791626 3.423874 0.767402
342.141266 205.776321 2.852349 0.107843
342.140839 205.781601 2.284000 0.678431
342.140839 205.781601 1.716000 0.678431
342.147369 205.698456 1.151488 0.918750
342.140045 205.791611 0.576126 0.764706
342.144745 205.731827 0.009183 0.699510
342.444611 201.921188 -0.000002 0.544853
342.640076 199.437622 -0.000003 0.543015
342.775879 197.711517 -0.000020 0.571814
342.875977 196.439896 -0.000057 0.552941
342.261658 205.790604 6.347244 0.737868
342.272125 205.644684 5.716764 0.721446
342.262390 205.780579 5.156054 0.678431
342.262390 205.780579 4.572907 0.678431
342.262390 205.780579 3.995396 0.678431
342.261658 205.790588 3.423042 0.794240
342.262390 205.780579 2.852112 0.678431
342.262390 205.780579 2.283834 0.678431
342.262390 205.780579 1.716166 0.678431
342.263824 205.760498 1.148877 0.108946
342.261658 205.790588 0.576958 0.722917
342.265961 205.730820 0.010342 0.660294
342.538483 201.928284 -0.000006 0.527206
342.716583 199.443405 -0.000007 0.540809
342.840332 197.716614 -0.000072 0.509191
342.931519 196.444290 -0.000108 0.523529
342.383148 205.789566 6.344918 0.760539
342.392578 205.643753 5.714795 0.708088
342.383820 205.779556 5.154364 0.678431
342.383820 205.779556 4.571530 0.678431
342.383820 205.779556 3.994328 0.678431
342.383148 205.789551 3.422280 0.733088
342.383820 205.779556 2.851656 0.678431
342.383820 205.779556 2.283683 0.678431
342.383820 205.779556 1.716318 0.678431
342.385071 205.759903 1.149311 0.112010
342.383148 205.789551 0.577720 0.783701
342.387024 205.729828 0.011405 0.690564
342.632385 201.934677 -0.000006 0.555392
342.793152 199.448624 -0.000007 0.558701
342.904846 197.720901 -0.000050 0.551593
342.987152 196.447983 -0.000088 0.547059
342.504486 205.788528 6.342804 0.720711
342.512909 205.642822 5.713006 0.688848
342.505096 205.778519 5.152831 0.678431
342.505096 205.778534 4.570280 0.678431
342.505096 205.778519 3.993359 0.678431
342.504486 205.788528 3.421588 0.772426
342.505096 205.778534 2.851241 0.678431
342.505096 205.778534 2.283544 0.678431
342.505096 205.778534 1.716455 0.678431
342.506195 205.759277 1.149706 0.111029
342.504486 205.788513 0.578411 0.723652
342.507935 205.728821 0.012369 0.620466
342.726349 201.940399 -0.000003 0.540686
342.869751 199.453293 -0.000005 0.537132
342.969391 197.724747 -0.000026 0.502819
343.042816 196.451294 -0.000065 0.564706
342.625732 205.787521 6.340905 0.657598
342.633118 205.641876 5.711400 0.712377
342.626251 205.777496 5.151452 0.678431
342.626251 205.777496 4.569157 0.678431
342.626251 205.777496 3.992488 0.678431
342.625732 205.787506 3.420967 0.740196
342.626251 205.777496 2.850869 0.678431
342.626251 205.777496 2.283421 0.678431
342.626251 205.777496 1.716579 0.678431
342.627197 205.758606 1.150060 0.120343
342.625732 205.787506 0.579033 0.779167
342.628784 205.727798 0.013236 0.650000
342.820343 201.945480 -0.000001 0.545833
342.946350 199.457443 -0.000005 0.520588
343.033905 197.728500 -0.000083 0.523407
343.098450 196.454529 -0.000119 0.526716
342.746887 205.786484 6.339220 0.688725
342.753235 205.640915 5.709972 0.700245
342.747314 205.776474 5.150228 0.678431
342.747314 205.776474 4.568158 0.678431
342.747314 205.776474 3.991713 0.678431
342.746887 205.786484 3.420415 0.707353
342.747314 205.776474 2.850539 0.678431
342.747314 205.776474 2.283310 0.678431
342.747314 205.776474 1.716690 0.678431
342.748138 205.757889 1.150375 0.109681
342.746887 205.786469 0.579585 0.751838
342.749512 205.726807 0.014006 0.707966
342.914368 201.949890 0.000000 0.554044
343.023010 199.461060 -0.000004 0.541544
343.098511 197.731384 -0.000047 0.517524
343.154144 196.457016 -0.000086 0.570466
342.867950 205.785446 6.337745 0.751838
342.873291 205.639969 5.708724 0.675123
342.868317 205.775452 5.149158 0.678431
342.868317 205.775452 4.567286 0.678431
342.868317 205.775452 3.991037 0.678431
342.867950 205.785446 3.419933 0.734559
342.868317 205.775452 2.850250 0.678431
342.868317 205.775436 2.283214 0.678431
342.868317 205.775436 1.716786 0.678431
342.868988 205.757141 1.150650 0.106005
342.867950 205.785431 0.580067 0.779167
342.870148 205.725784 0.014679 0.646936
343.008423 201.953690 -0.000002 0.538971
343.099701 199.464142 -0.000006 0.537132
343.163086 197.733856 -0.000023 0.536887
343.209839 196.459152 -0.000061 0.534926
342.988922 205.784439 6.336484 0.738113
342.993256 205.638992 5.707656 0.693873
342.989227 205.774429 5.148243 0.678431
342.989227 205.774429 4.566540 0.678431
342.989227 205.774429 3.990459 0.678431
342.988922 205.784424 3.419520 0.742402
342.989227 205.774429 2.850003 0.678431
342.989227 205.774429 2.283132 0.678431
342.989227 205.774429 1.716868 0.678431
342.989746 205.756348 1.150885 0.133456
342.988922 205.784424 0.580480 0.747549
342.990723 205.724777 0.015256 0.671324
343.102478 201.956802 0.000000 0.532598
343.176361 199.466675 -0.000005 0.549020
343.227722 197.736267 -0.000081 0.548039
343.265564 196.461227 -0.000117 0.533946
343.109863 205.783401 6.335436 0.748162
343.113159 205.638031 5.706769 0.700123
343.110077 205.773407 5.147482 0.678431
343.110077 205.773407 4.565919 0.678431
343.110077 205.773407 3.989977 0.678431
343.109863 205.783401 3.419177 0.761275
343.110077 205.773392 2.849797 0.678431
343.110077 205.773392 2.283063 0.678431
343.110077 205.773392 1.716937 0.678431
343.110474 205.755524 1.151081 0.141912
343.109863 205.783386 0.580824 0.760662
343.111206 205.723770 0.015735 0.640319
343.196594 201.959259 0.000000 0.518015
343.253082 199.468689 -0.000004 0.524142
343.292328 197.737854 -0.000055 0.556127
343.321289 196.462601 -0.000093 0.520833
343.230713 205.782379 6.334597 0.732966
343.233002 205.637039 5.706059 0.702819
343.230865 205.772385 5.146873 0.678431
343.230865 205.772385 4.565423 0.678431
343.230865 205.772385 3.989593 0.678431
343.230713 205.782379 3.418903 0.753431
343.230865 205.772385 2.849633 0.678431
343.230865 205.772385 2.283009 0.678431
343.230865 205.772385 1.716991 0.678431
343.231140 205.754654 1.151237 0.148529
343.230713 205.782379 0.581097 0.725980
343.231659 205.722748 0.016118 0.678431
343.290710 201.961060 0.000001 0.535417
343.329803 199.470154 -0.000003 0.550368
343.356964 197.738983 -0.000031 0.573039
343.377014 196.463562 -0.000070 0.538358
343.351532 205.781357 6.333972 0.757843
343.352814 205.636032 5.705528 0.728186
343.351624 205.771347 5.146419 0.678431
343.351624 205.771347 4.565053 0.678431
343.351624 205.771347 3.989305 0.678431
343.351532 205.781357 3.418698 0.751838
343.351624 205.771347 2.849510 0.678431
343.351624 205.771347 2.282968 0.678431
343.351624 205.771347 1.717032 0.678431
343.351776 205.753754 1.151354 0.106005
343.351532 205.781342 0.581303 0.741054
343.352051 205.721741 0.016403 0.655637
343.384827 201.962250 -0.000003 0.524510
343.406525 199.471115 -0.000008 0.544976
343.421631 197.740036 -0.000090 0.526348
343.432739 196.464478 -0.000128 0.523284
343.472321 205.780334 6.333558 0.746569
343.472595 205.635040 5.705176 0.728922
343.472351 205.770325 5.146118 0.678431
343.472351 205.770325 4.564808 0.678431
343.472351 205.770325 3.989115 0.678431
343.472321 205.780334 3.418562 0.738480
343.472351 205.770325 2.849428 0.678431
343.472351 205.770325 2.282941 0.678431
343.472351 205.770325 1.717059 0.678431
343.472382 205.752808 1.151431 0.106373
343.472321 205.780334 0.581438 0.738971
343.472412 205.720703 0.016593 0.623775
343.478973 201.962738 -0.000004 0.538725
343.483276 199.471512 -0.000008 0.534436
343.486298 197.740250 -0.000063 0.553186
343.488464 196.464676 -0.000103 0.531373
343.593109 205.779312 6.333354 0.767770
343.592346 205.634018 5.704999 0.704289
343.593048 205.769302 5.145971 0.678431
343.593048 205.769302 4.564688 0.678431
343.593048 205.769302 3.989022 0.678431
343.593109 205.779297 3.418496 0.750858
343.593048 205.769302 2.849389 0.678431
343.593048 205.769302 2.282928 0.678431
343.593048 205.769302 1.717073 0.678431
343.592957 205.751831 1.151469 0.123162
343.593109 205.779297 0.581504 0.694730
343.592773 205.719131 0.016750 0.682843
343.573090 201.962555 -0.000001 0.546201
343.559998 199.471359 -0.000004 0.561642
343.550934 197.739960 -0.000025 0.525613
343.544220 196.464432 -0.000065 0.533578
343.713745 205.767593 6.330681 0.719975
343.712097 205.632996 5.705005 0.724755
343.713745 205.768295 5.145976 0.678431
343.713745 205.768295 4.564692 0.678431
343.713745 205.768295 3.989025 0.678431
343.713745 205.767776 3.417636 0.762010
343.713745 205.768295 2.849390 0.678431
343.713745 205.768295 2.282928 0.678431
343.713745 205.768295 1.717072 0.678431
343.713531 205.750809 1.151468 0.110662
343.713745 205.767578 0.582380 0.679902
343.713135 205.718124 0.016747 0.647549
343.667206 201.961746 -0.000003 0.534559
343.636719 199.470703 -0.000007 0.507353
343.615570 197.739685 -0.000085 0.556495
343.599976 196.464172 -0.000124 0.543750
343.833466 205.716171 6.318275 0.628431
343.831757 205.626648 5.704040 0.721691
343.833466 205.716171 5.136837 0.666176
343.833466 205.716171 4.557242 0.650000
343.833466 205.716171 3.983248 0.659069
343.833466 205.716187 3.413561 0.625980
343.833466 205.716141 2.846921 0.664093
343.833466 205.716156 2.282105 0.625613
343.833466 205.716156 1.717894 0.670098
343.833466 205.716141 1.153078 0.633211
343.833466 205.716141 0.586442 0.672059
343.833496 205.717087 0.016646 0.738848
343.761322 201.960251 -0.000001 0.532108
343.713470 199.469482 -0.000006 0.522426
343.680237 197.738541 -0.000059 0.565196
343.655701 196.463196 -0.000098 0.542525
nan nan nan 0.000000
344.052124 209.466522 6.534247 0.643627
344.031677 208.685806 5.677866 0.707230
nan nan nan 0.000000
nan nan nan 0.000000
344.052124 209.466537 3.721403 0.639216
343.994110 207.253159 2.922590 0.696446
nan nan nan 0.000000
nan nan nan 0.000000
344.052124 209.466522 0.968636 0.645956
344.141083 212.863190 -0.000008 0.547549
343.957611 205.859070 -0.000006 0.544730
343.855408 201.958115 -0.000002 0.547181
343.790192 199.467743 -0.000004 0.507598
343.744843 197.736954 -0.000034 0.537868
343.711426 196.461838 -0.000074 0.548897
nan nan nan 0.000000
nan nan nan 0.000000
nan nan nan 0.000000
nan nan nan 0.000000
nan nan nan 0.000000
nan nan nan 0.000000
nan nan nan 0.000000
nan nan nan 0.000000
nan nan nan 0.000000
344.852539 229.168549 -0.000009 0.331863
344.311310 212.858139 -0.000008 0.533088
344.078918 205.855438 -0.000004 0.540564
343.949524 201.955322 0.000000 0.541912
343.866913 199.465469 -0.000006 0.536765
343.809479 197.735306 -0.000094 0.542525
343.767181 196.460419 -0.000134 0.546936
nan nan nan 0.000000
nan nan nan 0.000000
nan nan nan 0.000000
nan nan nan 0.000000
nan nan nan 0.000000
nan nan nan 0.000000
