# This PCD file was generated using the MATLABÂ® pcwrite function
# from Computer Vision ToolboxÂ®.
# .PCD v.7 - Point Cloud Data file format
VERSION .7
FIELDS x y z intensity
SIZE 4 4 4 4
TYPE F F F F
COUNT 1 1 1 1
WIDTH 1246
HEIGHT 1
VIEWPOINT 0 0 0 1 0 0 0
POINTS 1246
DATA ascii
377.522217 159.137543 -0.000043 0.536765
371.803558 155.088577 -0.000007 0.523652
368.618683 152.833633 0.000000 0.554657
366.585449 151.394058 0.000006 0.512500
365.172455 150.393600 -0.000035 0.543995
364.131256 149.656403 -0.000026 0.569240
388.861786 166.840332 11.543265 0.330147
386.895142 165.468430 9.710675 0.336397
385.818176 164.717133 8.257084 0.776471
385.818176 164.717148 7.100957 0.747181
385.818146 164.717133 5.956004 0.713603
385.818176 164.717148 4.819643 0.798162
385.818176 164.717133 3.689366 0.788971
385.818176 164.717133 2.562720 0.827819
385.818176 164.717133 1.437280 0.749510
385.818176 164.717133 0.310633 0.840931
377.620087 158.998199 -0.000039 0.536397
371.873322 154.989258 -0.000003 0.542770
368.672943 152.756699 -0.000021 0.562377
366.629669 151.331314 -0.000012 0.564093
365.209717 150.340775 -0.000054 0.532475
364.163361 149.610855 -0.000046 0.522917
388.850891 166.510132 11.493937 0.333088
386.837921 165.126678 9.658491 0.340074
385.818176 164.425842 8.226910 0.766054
385.818176 164.425842 7.076358 0.774020
385.818176 164.425827 5.936927 0.780147
385.818176 164.425827 4.806046 0.879289
385.818176 164.425842 3.681220 0.788480
385.818176 164.425842 2.560006 0.710907
385.818176 164.425842 1.439993 0.873284
385.818176 164.425842 0.318779 0.731250
377.716736 158.857986 -0.000010 0.547672
371.942383 154.889465 -0.000003 0.536765
368.726532 152.679306 -0.000019 0.533333
366.673218 151.268143 0.000017 0.543505
365.246429 150.287582 -0.000040 0.516054
364.195007 149.564957 -0.000018 0.511397
388.776886 166.140457 11.426437 0.325613
386.782013 164.789886 9.607527 0.341667
385.818176 164.137314 8.197325 0.758701
385.818176 164.137329 7.052241 0.839216
385.818176 164.137314 5.918223 0.839216
385.818176 164.137329 4.792715 0.905882
385.818176 164.137314 3.673233 0.839216
385.818176 164.137314 2.557346 0.781005
385.818176 164.137314 1.442654 0.835294
385.818176 164.137314 0.326767 0.724510
377.812683 158.717300 -0.000008 0.550735
372.010925 154.789307 -0.000024 0.534681
368.779358 152.601440 0.000012 0.534926
366.716431 151.204742 0.000017 0.533824
365.282928 150.234207 -0.000058 0.539828
364.226532 149.518982 -0.000052 0.489216
388.704651 165.776505 11.360576 0.351838
386.727448 164.457901 9.557751 0.375000
385.818176 163.851517 8.168321 0.751471
385.818176 163.851517 7.028596 0.905882
385.818176 163.851517 5.899885 0.727206
385.818146 163.851517 4.779644 0.746446
385.818176 163.851517 3.665401 0.760907
385.818146 163.851501 2.554738 0.818995
385.818146 163.851501 1.445262 0.759559
385.818176 163.851517 0.334598 0.727574
377.907654 158.575943 -0.000006 0.532843
372.078613 154.688568 -0.000022 0.540931
368.831879 152.523300 0.000012 0.553676
366.759369 151.141129 -0.000005 0.537377
365.319000 150.180557 -0.000059 0.528431
364.257507 149.472656 -0.000023 0.505024
388.634125 165.418060 11.296293 0.338113
386.674103 164.130600 9.509130 0.392647
385.818176 163.568359 8.139883 0.757721
385.818176 163.568359 7.005414 0.772181
385.818176 163.568359 5.881906 0.768137
385.818176 163.568359 4.766829 0.756495
385.818176 163.568359 3.657724 0.839216
385.818176 163.568359 2.552179 0.820588
385.818176 163.568359 1.447820 0.845098
385.818176 163.568359 0.342276 0.775613
378.001587 158.433929 -0.000004 0.541422
372.145508 154.587280 -0.000007 0.524755
368.884033 152.444931 -0.000022 0.547917
366.801575 151.077057 0.000026 0.547917
365.354584 150.126572 -0.000030 0.525123
364.288300 149.426178 -0.000023 0.534191
388.565338 165.064957 11.233553 0.330025
386.622009 163.807800 9.461634 0.322059
385.818176 163.287781 8.112005 0.781495
385.818176 163.287781 6.982685 0.777696
385.818176 163.287781 5.864281 0.769730
385.818176 163.287781 4.754267 0.777451
385.818176 163.287781 3.650197 0.777819
385.818176 163.287781 2.549673 0.839216
385.818176 163.287781 1.450327 0.787623
385.818176 163.287781 0.349803 0.767034
378.094971 158.291534 -0.000042 0.541054
372.211731 154.485596 -0.000004 0.529902
368.935425 152.366074 -0.000020 0.544485
366.843475 151.012741 0.000030 0.504902
365.389740 150.072311 0.000013 0.552451
364.318817 149.379517 -0.000044 0.520343
388.700928 164.846222 11.232538 0.374632
386.571136 163.489410 9.415234 0.324142
385.818176 163.009750 8.084673 0.839216
385.818176 163.009750 6.960404 0.848039
385.818176 163.009750 5.846999 0.812990
385.818176 163.009750 4.741949 0.697549
385.818176 163.009750 3.642817 0.773897
385.818176 163.009735 2.547215 0.839216
385.818176 163.009735 1.452786 0.710907
385.818176 163.009750 0.357182 0.759926
378.186798 158.148117 -0.000025 0.540686
372.277191 154.383377 0.000013 0.554412
368.985992 152.286697 0.000025 0.508946
366.884979 150.948242 0.000009 0.532843
365.424561 150.017853 0.000033 0.562132
364.348755 149.332520 0.000000 0.525000
389.420197 164.993652 11.404559 0.400123
386.632782 163.245148 9.398300 0.383456
385.818176 162.734161 8.057879 0.774142
385.818176 162.734161 6.938561 0.856863
385.818176 162.734146 5.830059 0.839216
385.818176 162.734146 4.729875 0.839216
385.818176 162.734146 3.635583 0.844118
385.818146 162.734146 2.544805 0.839216
385.818146 162.734146 1.455195 0.759069
385.818176 162.734146 0.364416 0.831005
378.277771 158.004150 -0.000021 0.540809
372.342194 154.280884 -0.000009 0.525735
369.036285 152.207123 0.000027 0.528554
366.925995 150.883392 0.000008 0.567524
365.459076 149.963181 0.000044 0.535662
364.378662 149.285461 -0.000031 0.539583
390.167877 165.147354 11.583907 0.357353
387.339355 163.400482 9.545592 0.348039
386.141937 162.660934 8.100853 0.854779
386.205811 162.700378 6.984729 0.698284
386.205811 162.700378 5.865865 0.748529
386.205811 162.700378 4.755395 0.718995
386.205811 162.700378 3.650873 0.774510
386.205811 162.700378 2.549899 0.839216
386.205811 162.700378 1.450102 0.817524
386.205780 162.700363 0.349127 0.560539
378.367706 157.859573 -0.000019 0.533701
372.406342 154.177826 -0.000006 0.542647
369.086029 152.127213 0.000028 0.542525
366.966400 150.818146 0.000039 0.550245
365.493286 149.908340 0.000025 0.534069
364.408112 149.238144 -0.000031 0.567034
nan nan nan 0.000000
387.727814 163.351196 9.611567 0.759804
386.592529 162.660934 8.170755 0.854534
386.711243 162.733124 7.051195 0.820588
386.835358 162.808594 5.934122 0.580392
386.711243 162.733124 4.792137 0.863358
386.642609 162.691376 3.668939 0.754902
386.856720 162.821579 2.560017 0.229902
386.835358 162.808594 1.440393 0.580392
386.657349 162.700363 0.330211 0.549265
378.456360 157.714188 0.000011 0.542279
372.469727 154.074341 -0.000004 0.547794
369.135315 152.047028 0.000008 0.523162
367.006500 150.752716 0.000042 0.541299
365.527069 149.853226 0.000029 0.543382
364.437134 149.190552 -0.000004 0.479289
nan nan nan 0.000000
387.727814 163.064453 9.579579 0.668627
387.053558 162.660934 8.242591 0.861642
387.104431 162.691376 7.097937 0.826471
387.300293 162.808594 5.979920 0.580392
387.174164 162.733124 4.824638 0.834559
387.104431 162.691376 3.688366 0.805147
387.321991 162.821579 2.566536 0.238971
387.300293 162.808594 1.433878 0.580392
387.119446 162.700363 0.310774 0.567770
378.544678 157.568573 -0.000022 0.546446
372.532440 153.970428 -0.000009 0.537255
369.184143 151.966537 -0.000026 0.539093
367.046387 150.687164 -0.000014 0.531373
365.560486 149.797882 0.000022 0.541544
364.465912 149.142792 0.000010 0.599265
nan nan nan 0.000000
387.780029 162.810883 9.561314 0.767524
387.503265 162.647842 8.311732 0.858824
387.577179 162.691376 7.158235 0.707721
387.776154 162.808594 6.026993 0.580392
387.648010 162.733124 4.858046 0.844485
387.592438 162.700378 3.709207 0.760784
387.798187 162.821594 2.573236 0.236029
387.776154 162.808578 1.427182 0.580392
387.592407 162.700363 0.290794 0.557230
378.631592 157.422150 -0.000021 0.535662
372.594391 153.866058 -0.000008 0.529657
369.232330 151.885681 -0.000047 0.540196
367.085541 150.621170 -0.000012 0.558946
365.593567 149.742340 0.000001 0.506863
364.494263 149.094818 0.000036 0.560172
nan nan nan 0.000000
388.355225 162.861786 9.674117 0.580392
388.008728 162.660950 8.392346 0.869730
388.061249 162.691391 7.220232 0.861520
388.138580 162.736221 6.058791 0.851716
388.133240 162.733109 4.892398 0.856740
388.076782 162.700378 3.729749 0.826838
388.138580 162.736221 2.577341 0.856495
388.138580 162.736221 1.422659 0.821446
388.076752 162.700363 0.270251 0.526471
378.717499 157.275101 -0.000018 0.526593
372.655609 153.761246 -0.000004 0.529902
369.279785 151.804398 -0.000044 0.538971
367.124359 150.554977 -0.000031 0.556495
365.626160 149.686508 0.000005 0.594485
364.522369 149.046692 0.000036 0.495466
nan nan nan 0.000000
388.766632 162.810883 9.745670 0.831495
388.427765 162.617599 8.454515 0.864951
388.572876 162.700363 7.286690 0.806005
388.572876 162.700378 6.100049 0.837745
388.572906 162.700378 4.922311 0.684069
388.572876 162.700363 3.750880 0.765564
388.572876 162.700378 2.583210 0.736887
388.572876 162.700378 1.416790 0.834926
388.572845 162.700348 0.249122 0.564461
378.802338 157.127487 -0.000017 0.534926
372.716278 153.656128 -0.000027 0.534559
369.326538 151.722702 -0.000014 0.543995
367.162628 150.488434 -0.000030 0.543627
365.658478 149.630524 -0.000015 0.550368
364.550232 148.998413 0.000017 0.543750
nan nan nan 0.000000
389.368958 162.861786 9.864305 0.580392
388.858185 162.575165 8.518875 0.810907
389.081360 162.700378 7.352334 0.738235
389.297333 162.821579 6.179451 0.235907
389.274139 162.808578 4.976725 0.581373
389.081329 162.700363 3.772619 0.837377
389.368561 162.861572 2.595840 0.580392
389.274139 162.808578 1.405931 0.580392
389.081299 162.700348 0.227382 0.558578
378.886261 156.979309 -0.000022 0.549387
372.775909 153.550400 -0.000007 0.516912
369.372772 151.640701 0.000006 0.562868
367.200256 150.421570 0.000001 0.522549
365.690247 149.574219 0.000000 0.547181
364.577759 148.949921 -0.000002 0.573284
nan nan nan 0.000000
389.802765 162.810898 9.940828 0.855270
389.184082 162.469376 8.561330 0.850490
389.602539 162.700378 7.419891 0.637255
389.894592 162.861572 6.241724 0.580392
389.798584 162.808594 5.014299 0.580392
389.602539 162.700363 3.794993 0.669118
389.894592 162.861572 2.603363 0.580392
389.798584 162.808578 1.398432 0.580392
389.602539 162.700348 0.205008 0.552083
378.969025 156.830490 -0.000019 0.521691
372.834930 153.444351 -0.000005 0.528309
369.418549 151.558456 0.000006 0.517157
367.237549 150.354507 0.000004 0.539951
365.721649 149.517685 0.000016 0.547059
364.604858 148.901215 0.000000 0.492157
nan nan nan 0.000000
390.388031 162.836578 10.054377 0.852083
389.674866 162.449371 8.637913 0.856005
390.137146 162.700363 7.489450 0.823652
390.434021 162.861572 6.296162 0.580392
390.336456 162.808594 5.052986 0.580392
390.137146 162.700363 3.818029 0.728186
390.434021 162.861572 2.611105 0.580392
390.336456 162.808594 1.390712 0.580392
390.137085 162.700348 0.181971 0.556985
379.051178 156.681335 -0.000054 0.539338
372.893463 153.338043 -0.000039 0.531863
369.464172 151.476120 -0.000065 0.537868
367.274689 150.287354 -0.000053 0.528799
365.752808 149.461060 -0.000017 0.559804
364.631622 148.852341 -0.000004 0.541667
nan nan nan 0.000000
390.892639 162.810883 10.147704 0.802206
390.097778 162.386490 8.700247 0.851593
390.685669 162.700378 7.561092 0.826838
390.742981 162.730972 6.320331 0.830024
390.742981 162.730972 5.079317 0.758824
390.685669 162.700363 3.841756 0.828064
390.742950 162.730957 2.614544 0.767524
390.742950 162.730957 1.385457 0.822426
390.685638 162.700363 0.158244 0.536397
379.131897 156.531387 -0.000051 0.548529
372.951172 153.231247 -0.000062 0.538725
369.508789 151.393250 -0.000064 0.540564
367.311066 150.219788 -0.000054 0.575245
365.783539 149.404190 -0.000036 0.514461
364.658051 148.803238 -0.000003 0.497304
nan nan nan 0.000000
391.386841 162.772888 10.238196 0.745343
391.459259 162.810898 8.955315 0.847917
391.248718 162.700378 7.634906 0.745588
391.248718 162.700378 6.370105 0.792157
391.248718 162.700378 5.114794 0.719853
391.248749 162.700378 3.866204 0.716299
391.248718 162.700378 2.621624 0.739338
391.248749 162.700378 1.378376 0.727941
391.248688 162.700348 0.133799 0.549265
379.211792 156.381012 -0.000073 0.535784
373.007935 153.123978 -0.000058 0.543750
369.552826 151.310043 -0.000064 0.535294
367.346802 150.151886 -0.000019 0.513113
365.813660 149.346985 -0.000006 0.555515
364.684204 148.754013 -0.000023 0.546569
nan nan nan 0.000000
391.967468 162.772888 10.349426 0.752696
392.523071 163.059662 9.147912 0.333456
391.826965 162.700378 7.710986 0.768382
392.139282 162.861572 6.469542 0.580392
392.036621 162.808594 5.176193 0.580392
391.826965 162.700394 3.891402 0.805392
392.098907 162.840729 2.635024 0.273897
392.098907 162.840729 1.364975 0.304534
391.593262 162.579773 0.121518 0.560417
379.290222 156.229858 -0.000055 0.528676
373.063873 153.016235 -0.000041 0.547672
369.596008 151.226395 -0.000014 0.535049
367.382141 150.083771 -0.000005 0.558578
365.843445 149.289612 0.000010 0.525858
364.709778 148.704483 0.000023 0.555025
nan nan nan 0.000000
nan nan nan 0.000000
nan nan nan 0.000000
392.342194 162.660370 7.776321 0.836397
392.738800 162.861572 6.530938 0.580392
392.634369 162.808594 5.219827 0.580392
392.421082 162.700378 3.917384 0.819975
392.571533 162.776718 2.641432 0.271691
392.697723 162.840729 1.356252 0.277574
391.593292 162.280426 0.128217 0.571691
379.367798 156.078247 -0.000053 0.542647
373.119049 152.908142 -0.000028 0.548284
369.638855 151.142593 -0.000014 0.554044
367.417114 150.015457 -0.000003 0.544363
365.872986 149.232101 -0.000009 0.535784
364.735168 148.654877 0.000024 0.502328
nan nan nan 0.000000
nan nan nan 0.000000
nan nan nan 0.000000
392.848877 162.609222 7.840061 0.866054
393.097412 162.733124 6.561155 0.833946
393.097412 162.733124 5.250964 0.854289
393.031738 162.700378 3.944185 0.853554
393.031647 162.700333 2.647598 0.275368
393.031647 162.700333 1.352403 0.277083
391.873077 162.122726 0.119417 0.548529
379.444061 155.925995 -0.000032 0.542034
373.173401 152.799622 -0.000007 0.525735
369.681061 151.058456 0.000004 0.550000
367.451599 149.946915 -0.000005 0.521691
365.901947 149.174316 0.000007 0.530147
364.760284 148.605103 0.000004 0.514828
nan nan nan 0.000000
nan nan nan 0.000000
nan nan nan 0.000000
393.592346 162.667358 7.942746 0.855270
393.659760 162.700378 6.617483 0.801103
393.659760 162.700378 5.291112 0.828799
393.659729 162.700378 3.971843 0.746691
393.659760 162.700378 2.656811 0.728554
393.659760 162.700378 1.343189 0.818995
392.480530 162.122711 0.092664 0.558824
379.520081 155.773621 -0.000085 0.531127
373.227600 152.691010 -0.000059 0.532843
369.723236 150.974289 -0.000069 0.507721
367.485840 149.878235 -0.000056 0.525613
365.930756 149.116425 -0.000029 0.546814
364.785156 148.555222 -0.000046 0.478799
nan nan nan 0.000000
nan nan nan 0.000000
nan nan nan 0.000000
nan nan nan 0.000000
nan nan nan 0.000000
nan nan nan 0.000000
nan nan nan 0.000000
nan nan nan 0.000000
398.107361 164.529846 1.264641 0.501348
394.298096 162.696625 0.000026 0.531373
379.594269 155.620316 -0.000064 0.529289
373.280457 152.581757 -0.000039 0.542770
369.764221 150.889557 -0.000050 0.558946
367.519135 149.809097 -0.000008 0.530882
365.958923 149.058228 -0.000011 0.537868
364.809357 148.505005 -0.000001 0.552206
nan nan nan 0.000000
nan nan nan 0.000000
nan nan nan 0.000000
nan nan nan 0.000000
nan nan nan 0.000000
nan nan nan 0.000000
nan nan nan 0.000000
nan nan nan 0.000000
nan nan nan 0.000000
394.420868 162.440277 0.000004 0.539093
379.667450 155.466553 -0.000052 0.528922
373.332855 152.472290 -0.000061 0.542157
369.804718 150.804596 -0.000048 0.528309
367.552155 149.739822 -0.000005 0.553922
365.986755 148.999878 -0.000010 0.561152
364.833405 148.454727 -0.000019 0.551716
nan nan nan 0.000000
nan nan nan 0.000000
nan nan nan 0.000000
nan nan nan 0.000000
387.249542 158.798218 5.758578 0.493873
nan nan nan 0.000000
387.027496 158.695160 3.593033 0.480025
387.174286 158.763275 2.533279 0.481740
nan nan nan 0.000000
394.541046 162.182755 0.000023 0.535417
379.739441 155.312256 -0.000033 0.534069
373.384186 152.362305 -0.000042 0.539093
369.844360 150.719208 0.000000 0.557230
367.584595 149.670303 0.000013 0.545833
366.014191 148.941345 -0.000015 0.517892
364.856995 148.404205 -0.000001 0.541789
nan nan nan 0.000000
nan nan nan 0.000000
nan nan nan 0.000000
nan nan nan 0.000000
386.959534 158.415405 5.709867 0.489951
387.391205 158.612122 4.683106 0.491299
386.591827 158.247833 3.564404 0.478676
387.089233 158.474518 2.530041 0.490441
nan nan nan 0.000000
394.659790 161.924515 0.000025 0.537010
379.810608 155.157532 -0.000031 0.532230
373.434875 152.252029 -0.000039 0.531985
369.883667 150.633682 0.000003 0.535172
367.616882 149.600677 -0.000027 0.533578
366.041199 148.882599 -0.000013 0.562010
364.880188 148.353516 0.000026 0.573407
nan nan nan 0.000000
nan nan nan 0.000000
nan nan nan 0.000000
386.806030 158.100098 6.743578 0.463358
387.621643 158.464951 5.781633 0.458824
387.247253 158.297470 4.661732 0.478064
386.860840 158.124634 3.573959 0.486520
387.353790 158.345123 2.533115 0.483946
nan nan nan 0.000000
394.777374 161.665771 -0.000009 0.540074
379.881042 155.002487 -0.000064 0.529657
373.485138 152.141525 -0.000073 0.543260
369.922607 150.547989 -0.000031 0.507230
367.648621 149.530807 -0.000058 0.540686
366.067810 148.823685 -0.000015 0.531373
364.903229 148.302765 -0.000003 0.551838
nan nan nan 0.000000
nan nan nan 0.000000
nan nan nan 0.000000
386.919708 157.906189 6.747344 0.479534
386.757172 157.834869 5.661345 0.499632
386.453430 157.701523 4.582424 0.494730
387.447937 158.138062 3.600596 0.474755
387.621460 158.214233 2.536252 0.496446
nan nan nan 0.000000
394.892151 161.405762 0.000011 0.538113
379.949799 154.846695 -0.000045 0.541299
373.533905 152.030396 -0.000026 0.543873
369.960907 150.461990 -0.000054 0.549387
367.679443 149.460541 -0.000011 0.547059
366.093903 148.764557 0.000002 0.499755
364.925812 148.251801 -0.000007 0.541667
nan nan nan 0.000000
387.433655 157.884262 9.012115 0.498652
386.932312 157.668350 7.808167 0.483211
387.170685 157.770996 6.773489 0.456740
386.938232 157.670898 5.672924 0.487010
386.637177 157.541245 4.591002 0.463971
387.276825 157.816727 3.586593 0.437132
386.533142 157.496445 2.515236 0.493627
nan nan nan 0.000000
395.005463 161.145111 0.000013 0.531005
380.017731 154.690536 -0.000044 0.533088
373.582306 151.919083 -0.000025 0.535172
369.998413 150.375656 -0.000051 0.550613
367.710052 149.390152 -0.000009 0.524387
366.119781 148.705307 -0.000019 0.512745
364.948029 148.200699 -0.000005 0.521201
nan nan nan 0.000000
387.550659 157.687637 9.018688 0.470098
387.100433 157.497467 7.824115 0.484314
386.970551 157.442596 6.727070 0.483701
387.327362 157.593307 5.710601 0.490441
386.985809 157.449036 4.614330 0.478309
387.577148 157.698822 3.597892 0.507966
386.693115 157.325409 2.516546 0.486520
nan nan nan 0.000000
395.116608 160.883514 0.000032 0.541054
380.083710 154.533554 0.000028 0.535539
373.629730 151.807373 -0.000004 0.535417
370.035217 150.289032 -0.000033 0.530515
367.740051 149.319550 0.000008 0.531127
366.145050 148.645798 0.000002 0.530515
364.969849 148.149368 0.000022 0.519363
387.599579 157.462326 10.129615 0.532475
387.981903 157.620697 9.099045 0.486397
387.084045 157.248795 7.803897 0.511397
387.090057 157.251297 6.732474 0.501225
387.276886 157.328674 5.693494 0.481373
387.804443 157.547195 4.679360 0.646446
387.655060 157.485306 3.597373 0.648897
386.806427 157.133804 2.517046 0.493995
387.775085 157.535034 1.465796 0.652574
387.759247 157.528488 0.397085 0.644975
380.149994 154.376709 -0.000023 0.550735
373.677002 151.695572 -0.000056 0.516544
370.071869 150.202332 -0.000085 0.549510
367.770050 149.248901 -0.000067 0.531495
366.170227 148.586243 -0.000047 0.510172
364.991516 148.098038 -0.000027 0.610784
387.696411 157.257111 10.132551 0.486152
nan nan nan 0.000000
387.245209 157.073883 7.818953 0.466789
387.429657 157.148788 6.773312 0.492647
nan nan nan 0.000000
nan nan nan 0.000000
387.400909 157.137115 3.579330 0.495833
388.526520 157.594177 2.545948 0.466176
nan nan nan 0.000000
395.335144 160.358780 -0.000022 0.531618
380.214417 154.219055 -0.000004 0.544240
373.722931 151.583221 -0.000037 0.547181
370.107300 150.115112 -0.000037 0.532108
367.799072 149.177856 -0.000047 0.516299
366.194580 148.526367 -0.000007 0.550368
365.012604 148.046417 -0.000009 0.522304
nan nan nan 0.000000
nan nan nan 0.000000
387.260162 156.839569 7.805580 0.483333
387.584869 156.968781 6.784715 0.473529
387.793823 157.051941 5.736619 0.494363
388.486420 157.327530 4.724397 0.477819
387.805176 157.056442 3.596280 0.485662
386.825226 156.666489 2.514454 0.477328
nan nan nan 0.000000
395.441132 160.095078 -0.000023 0.540441
380.277679 154.060974 0.000016 0.527083
373.767609 151.470383 0.000032 0.532475
370.142273 150.027725 -0.000018 0.555392
367.827606 149.106613 -0.000027 0.525980
366.218567 148.466339 0.000015 0.529412
365.033386 147.994705 -0.000011 0.519853
nan nan nan 0.000000
388.183502 156.960480 9.086254 0.497426
387.452362 156.675430 7.827171 0.491299
387.892456 156.847000 6.820548 0.475490
387.426392 156.665283 5.680986 0.472181
387.955658 156.871628 4.670202 0.457230
387.459869 156.678345 3.573689 0.463358
388.306427 157.008408 2.539057 0.489706
nan nan nan 0.000000
395.545288 159.830627 -0.000021 0.536397
380.339844 153.902451 0.000036 0.531127
373.811951 151.357391 0.000052 0.528064
370.176636 149.940094 0.000002 0.502574
367.855499 149.035141 0.000022 0.525613
366.242371 148.406219 -0.000007 0.549755
365.053741 147.942825 0.000008 0.570098
nan nan nan 0.000000
nan nan nan 0.000000
388.215485 156.727493 7.960125 0.479902
388.152557 156.703461 6.848876 0.480025
388.790314 156.947006 5.839042 0.479289
387.923737 156.616089 4.660219 0.481250
387.924164 156.616257 3.593870 0.488113
388.508636 156.839432 2.541148 0.492525
nan nan nan 0.000000
395.647614 159.565460 -0.000023 0.535662
380.401550 153.743729 0.000002 0.522426
373.855927 151.244263 0.000019 0.543627
370.210907 149.852417 -0.000055 0.548039
367.883270 148.963608 -0.000013 0.537255
366.265808 148.345978 -0.000041 0.542279
365.074036 147.890900 -0.000048 0.578799
nan nan nan 0.000000
nan nan nan 0.000000
nan nan nan 0.000000
nan nan nan 0.000000
nan nan nan 0.000000
388.377380 156.543884 4.692920 0.488971
388.505524 156.591797 3.620163 0.487745
nan nan nan 0.000000
nan nan nan 0.000000
395.748077 159.299591 -0.000022 0.532966
380.461731 153.584442 0.000002 0.536642
373.898804 151.130737 0.000019 0.517034
370.244171 149.764359 -0.000053 0.527574
367.910400 148.891830 -0.000011 0.581373
366.288635 148.285492 -0.000037 0.539461
365.093719 147.838745 -0.000045 0.543995
nan nan nan 0.000000
nan nan nan 0.000000
nan nan nan 0.000000
nan nan nan 0.000000
nan nan nan 0.000000
nan nan nan 0.000000
nan nan nan 0.000000
395.934845 159.065308 2.667734 0.487868
nan nan nan 0.000000
395.846619 159.033020 -0.000020 0.532108
380.520233 153.424530 0.000052 0.537868
373.940735 151.016830 0.000040 0.540441
370.276703 149.676025 -0.000034 0.520221
367.936920 148.819809 0.000009 0.541789
366.311096 148.224869 -0.000044 0.545711
365.112885 147.786392 -0.000000 0.528431
nan nan nan 0.000000
nan nan nan 0.000000
nan nan nan 0.000000
nan nan nan 0.000000
nan nan nan 0.000000
395.339569 158.549576 5.285552 0.494730
395.106445 158.466125 3.956348 0.476716
396.012451 158.790512 2.667398 0.487377
nan nan nan 0.000000
395.943390 158.765778 -0.000021 0.539583
380.577972 153.264328 0.000072 0.537500
373.981812 150.902618 0.000071 0.554657
370.308624 149.587463 -0.000014 0.520098
367.963135 148.747696 -0.000013 0.498284
366.332977 148.164047 -0.000022 0.540074
365.131775 147.733963 0.000019 0.513235
nan nan nan 0.000000
nan nan nan 0.000000
nan nan nan 0.000000
nan nan nan 0.000000
395.153259 158.187943 6.575592 0.487255
395.860840 158.435730 5.322727 0.490196
395.459595 158.295227 3.969900 0.483824
nan nan nan 0.000000
nan nan nan 0.000000
396.038239 158.497849 -0.000020 0.533333
380.635162 153.103943 0.000040 0.535662
374.022583 150.788315 0.000037 0.543627
370.340240 149.498810 -0.000048 0.540686
367.988953 148.675430 -0.000048 0.517524
366.354736 148.103149 -0.000055 0.525858
365.150513 147.681458 -0.000014 0.534804
nan nan nan 0.000000
nan nan nan 0.000000
nan nan nan 0.000000
nan nan nan 0.000000
395.254486 157.929108 6.576850 0.473284
396.550446 158.372803 5.374472 0.479412
395.979645 158.177383 3.992147 0.469608
395.081024 157.869705 2.648032 0.467279
nan nan nan 0.000000
396.131226 158.229279 -0.000021 0.539338
380.690918 152.943039 0.000039 0.540564
374.062286 150.673630 0.000038 0.544240
370.370392 149.409653 0.000054 0.526961
368.014038 148.602905 -0.000046 0.570833
366.375732 148.042023 -0.000026 0.570221
365.168823 147.628815 -0.000037 0.559559
nan nan nan 0.000000
nan nan nan 0.000000
nan nan nan 0.000000
396.335541 157.997925 8.056660 0.486152
395.139709 157.597824 6.552126 0.484559
396.302643 157.986908 5.345079 0.471324
395.468964 157.707993 3.960990 0.472794
396.161011 157.939529 2.665139 0.465809
nan nan nan 0.000000
396.222382 157.960068 -0.000021 0.535049
380.745270 152.781662 0.000059 0.528431
374.101044 150.558609 0.000056 0.535784
370.400452 149.320450 0.000074 0.559681
368.038666 148.530243 -0.000051 0.544608
366.396393 147.980743 -0.000008 0.540686
365.186646 147.576004 -0.000016 0.543873
nan nan nan 0.000000
nan nan nan 0.000000
nan nan nan 0.000000
396.390991 157.716171 8.051348 0.480637
395.395386 157.390762 6.572573 0.474020
396.166321 157.642731 5.325604 0.673774
395.123932 157.302032 3.938635 0.489828
395.209015 157.329849 2.647216 0.480882
396.152771 157.638306 1.336538 0.674142
396.063690 157.609192 0.012793 0.601103
380.799103 152.620117 0.000025 0.537010
374.139404 150.443466 0.000024 0.538971
370.430206 149.231155 0.000042 0.550245
368.062897 148.457428 -0.000081 0.512010
366.416840 147.919418 -0.000041 0.501471
365.204254 147.523102 -0.000049 0.575980
nan nan nan 0.000000
nan nan nan 0.000000
395.944641 157.274765 9.320905 0.469976
395.741547 157.209961 7.936589 0.473162
395.761810 157.216415 6.606520 0.486152
396.158630 157.343063 5.317454 0.471936
395.567047 157.154266 3.957119 0.468505
395.209198 157.040070 2.645760 0.481985
nan nan nan 0.000000
396.398987 157.419769 -0.000023 0.532475
380.851257 152.458008 0.000045 0.525123
374.176544 150.327927 0.000044 0.545956
370.459015 149.141541 0.000059 0.568015
368.086426 148.384369 -0.000062 0.532230
366.436707 147.857895 -0.000041 0.548774
365.221283 147.470016 -0.000021 0.505270
nan nan nan 0.000000
nan nan nan 0.000000
nan nan nan 0.000000
395.705688 156.906158 7.917967 0.479044
nan nan nan 0.000000
396.991119 157.306503 5.381652 0.450613
395.854919 156.952621 3.967628 0.464583
395.456573 156.828568 2.648581 0.481863
nan nan nan 0.000000
396.484467 157.148697 -0.000022 0.540319
380.902435 152.295609 0.000045 0.533333
374.213257 150.212234 0.000020 0.539461
370.487457 149.051819 0.000038 0.541176
368.109467 148.311188 -0.000062 0.584314
366.456146 147.796249 -0.000040 0.539216
365.238037 147.416870 -0.000019 0.517770
nan nan nan 0.000000
386.328217 153.766068 8.481411 0.701838
386.329041 153.766312 7.460558 0.664461
386.326538 153.765549 6.451218 0.683088
386.326660 153.765594 5.452120 0.653554
386.327911 153.765976 4.460605 0.652328
386.326141 153.765427 3.474162 0.684681
386.325500 153.765244 2.491025 0.676471
386.326721 153.765610 1.508954 0.622059
386.326263 153.765472 0.525831 0.658946
380.953186 152.133057 -0.000012 0.538971
374.249237 150.096313 -0.000014 0.536397
370.515350 148.961914 0.000003 0.530392
368.131714 148.237732 0.000004 0.554412
366.475311 147.734497 -0.000074 0.582966
365.254578 147.363632 -0.000051 0.497304
nan nan nan 0.000000
386.323761 153.546249 8.466846 0.716299
386.325836 153.546860 7.448521 0.689951
386.324341 153.546417 6.441560 0.705637
386.325256 153.546677 5.444726 0.675613
386.327087 153.547241 4.455386 0.684926
386.325806 153.546844 3.471059 0.670711
386.325409 153.546722 2.489997 0.668137
386.326782 153.547134 1.509980 0.648039
386.326355 153.547012 0.528913 0.671446
381.001862 151.969894 0.000009 0.539461
374.283936 149.980011 0.000007 0.534681
370.542267 148.871719 0.000024 0.563113
368.153625 148.164215 0.000023 0.540074
366.493774 147.672546 -0.000054 0.550490
365.270599 147.310226 -0.000054 0.526471
nan nan nan 0.000000
386.327484 153.329742 8.454497 0.628186
386.329590 153.330353 7.438125 0.629289
386.328003 153.329910 6.433072 0.675613
386.323853 153.328690 5.437533 0.667770
386.326263 153.329407 4.450311 0.599632
386.325409 153.329163 3.468040 0.649265
386.325317 153.329132 2.488996 0.663971
386.326813 153.329559 1.510979 0.649755
386.326385 153.329437 0.531911 0.648897
381.049438 151.806381 0.000027 0.545588
374.317841 149.863480 0.000025 0.547181
370.568542 148.781342 0.000044 0.535294
368.175049 148.090515 0.000045 0.537868
366.511505 147.610367 0.000042 0.524755
365.286194 147.256714 -0.000036 0.496936
nan nan nan 0.000000
386.323273 153.111847 8.440731 0.637745
386.326569 153.112778 7.426747 0.661765
386.325928 153.112595 6.423942 0.645098
386.327362 153.113007 5.431123 0.653431
386.325500 153.112488 4.445376 0.600613
386.325043 153.112350 3.465105 0.637745
386.325226 153.112411 2.488023 0.677451
386.326874 153.112869 1.511950 0.658088
386.326447 153.112732 0.534824 0.638480
381.096466 151.642700 -0.000005 0.539828
374.351379 149.746826 -0.000008 0.530637
370.594574 148.690872 0.000010 0.526838
368.196259 148.016769 0.000011 0.509804
366.529388 147.548248 0.000009 0.517279
365.301544 147.203125 -0.000068 0.498162
nan nan nan 0.000000
386.327209 152.897095 8.429156 0.674510
386.323608 152.896103 7.415693 0.664828
386.323883 152.896179 6.415072 0.627696
386.326050 152.896774 5.424331 0.626348
386.324768 152.896408 4.440582 0.634314
386.327698 152.897217 3.462407 0.668382
386.327271 152.897125 2.487113 0.674510
386.325623 152.896652 1.512914 0.685294
386.326050 152.896774 0.537678 0.628676
381.141968 151.478638 -0.000006 0.532475
374.383820 149.629868 -0.000009 0.547426
370.619720 148.600174 0.000010 0.542892
368.216766 147.942825 0.000011 0.535907
366.546661 147.485947 0.000007 0.547917
365.316345 147.149384 -0.000038 0.534926
386.923798 152.840775 9.596964 0.643873
386.323273 152.681000 8.416174 0.679412
386.327637 152.682159 7.406260 0.634926
386.327728 152.682190 6.407354 0.688235
386.324768 152.681396 5.417734 0.658456
386.327911 152.682236 4.436259 0.716789
386.327393 152.682083 3.459638 0.677083
386.327209 152.682037 2.486195 0.677819
386.325684 152.681641 1.513830 0.688971
386.326080 152.681763 0.540428 0.695221
381.186096 151.314148 0.000014 0.541422
374.415283 149.512634 0.000010 0.542279
370.644409 148.509338 -0.000015 0.536274
368.236786 147.868759 0.000006 0.543750
366.563385 147.423508 0.000026 0.517402
365.330811 147.095551 -0.000020 0.559559
386.908295 152.618073 9.579050 0.674020
386.327423 152.467865 8.405363 0.614706
386.324860 152.467194 7.395845 0.668505
386.325806 152.467438 6.398997 0.641789
386.328369 152.468094 5.411909 0.667157
386.327209 152.467804 4.431741 0.718137
386.327057 152.467758 3.456951 0.695588
386.327118 152.467789 2.485305 0.674877
386.325714 152.467407 1.514719 0.695343
386.326141 152.467529 0.543096 0.683456
381.229095 151.149384 0.000033 0.545466
374.445618 149.395142 0.000060 0.542525
370.668152 148.418259 0.000006 0.537500
368.256195 147.794510 0.000023 0.537990
366.579834 147.360977 0.000022 0.536765
365.344879 147.041611 -0.000001 0.555025
386.901886 152.398666 9.563922 0.400000
386.323700 152.253448 8.393149 0.623897
386.329041 152.254776 7.387032 0.675368
386.323944 152.253494 6.390892 0.685539
386.327179 152.254303 5.405700 0.667892
386.326508 152.254150 4.427360 0.689338
386.326721 152.254211 3.454344 0.687255
386.327026 152.254272 2.484440 0.654044
386.325775 152.253967 1.515581 0.672426
386.326172 152.254074 0.545683 0.658088
381.271545 150.984482 -0.000000 0.539093
374.475891 149.277603 0.000027 0.525000
370.691620 148.327087 -0.000027 0.532843
368.275299 147.720184 -0.000008 0.565319
366.595947 147.298386 -0.000008 0.531495
365.358734 146.987625 -0.000031 0.523652
386.886749 152.177994 9.546961 0.524510
386.328094 152.041809 8.383083 0.632108
386.326416 152.041397 7.377247 0.663725
386.327972 152.041779 6.383924 0.677819
386.326019 152.041306 5.399685 0.676961
386.325867 152.041260 4.423114 0.714216
386.326447 152.041412 3.451818 0.654657
386.326996 152.041550 2.483603 0.667892
386.325836 152.041260 1.516416 0.641789
386.326233 152.041351 0.548192 0.671814
381.312195 150.819122 0.000020 0.535294
374.504883 149.159744 0.000047 0.543627
370.714111 148.235703 -0.000007 0.527574
368.293610 147.645676 0.000013 0.546569
366.611389 147.235596 0.000009 0.564093
365.371887 146.933456 0.000031 0.515931
386.880798 151.960464 9.532796 0.341054
386.324615 151.828995 8.371624 0.606127
386.323883 151.828812 7.367772 0.667034
386.326202 151.829361 6.376317 0.663358
386.324860 151.829041 5.393857 0.671814
386.325195 151.829117 4.419002 0.643137
386.326111 151.829346 3.449372 0.697181
386.326904 151.829529 2.482792 0.670833
386.325867 151.829269 1.517225 0.677206
386.326263 151.829376 0.550620 0.660417
381.351746 150.653488 0.000038 0.539583
374.533081 149.041687 0.000066 0.541054
370.735931 148.144135 0.000013 0.533824
368.311432 147.571030 0.000030 0.517279
366.626373 147.172714 0.000028 0.562500
365.384857 146.879242 0.000047 0.542892
386.866028 151.741684 9.516769 0.364461
386.329163 151.618744 8.362293 0.653064
386.328278 151.618530 7.359878 0.687377
386.324524 151.617676 6.368958 0.659069
386.328613 151.618607 5.388788 0.647059
386.324585 151.617676 4.415022 0.686152
386.325836 151.617981 3.447005 0.704412
386.326843 151.618195 2.482007 0.686642
386.325897 151.617996 1.518008 0.710172
386.326324 151.618088 0.552970 0.635049
381.390717 150.487717 0.000006 0.531740
374.560822 148.923538 0.000032 0.539583
370.757477 148.052505 -0.000021 0.532353
368.328827 147.496292 0.000027 0.556373
366.641052 147.109756 0.000024 0.531863
365.397583 146.824982 0.000019 0.524142
386.860565 151.525894 9.503546 0.350490
386.325928 151.407364 8.351574 0.651838
386.325958 151.407364 7.351014 0.644730
386.328674 151.407974 6.362720 0.634681
386.327576 151.407730 5.383338 0.642892
386.327881 151.407806 4.411502 0.648284
386.325562 151.407288 3.444716 0.712500
386.326782 151.407562 2.481249 0.688358
386.325958 151.407379 1.518766 0.677819
386.326385 151.407471 0.555243 0.678922
381.427582 150.321487 0.000053 0.531495
374.587372 148.805115 0.000050 0.552574
370.777863 147.960602 0.000026 0.546936
368.345642 147.421417 0.000043 0.523775
366.655182 147.046677 0.000043 0.589461
365.409760 146.770584 0.000038 0.544730
386.846069 151.308899 9.488427 0.214951
386.322815 151.196732 8.341220 0.635539
386.323669 151.196915 7.342452 0.660172
386.327118 151.197662 6.355848 0.611765
386.326538 151.197540 5.378073 0.625980
386.327301 151.197678 4.407784 0.656863
386.325287 151.197266 3.442505 0.671936
386.326721 151.197571 2.480515 0.669976
386.325989 151.197418 1.519497 0.687377
386.326416 151.197510 0.557438 0.674755
381.463867 150.155106 0.000052 0.538113
374.613251 148.686539 0.000050 0.546324
370.797943 147.868637 0.000026 0.542647
368.361969 147.346451 0.000045 0.513726
366.668976 146.983505 0.000042 0.565319
365.421631 146.716110 0.000044 0.540809
386.841064 151.094727 9.476131 0.224142
386.327698 150.988419 8.332977 0.697549
386.328278 150.988541 7.335455 0.651838
386.325623 150.987991 6.349214 0.630392
386.325562 150.987991 5.372993 0.657108
386.326721 150.988220 4.404198 0.657353
386.325043 150.987869 3.440371 0.711029
386.326660 150.988205 2.479808 0.661642
386.326019 150.988083 1.520203 0.697549
386.326447 150.988159 0.559557 0.667647
381.499390 149.988571 0.000020 0.532108
374.638519 148.567825 0.000017 0.547794
370.817566 147.776581 -0.000006 0.524877
368.377960 147.271393 0.000012 0.541544
366.682434 146.920288 0.000010 0.555515
365.433228 146.661606 0.000010 0.533578
386.826874 150.879410 9.461896 0.413725
386.324768 150.779099 8.323347 0.678309
386.326172 150.779358 7.327492 0.667892
386.324158 150.778961 6.342821 0.667157
386.324646 150.779068 5.368095 0.650613
386.326172 150.779373 4.400739 0.653676
386.324768 150.779099 3.438314 0.679044
386.326599 150.779449 2.479125 0.639216
386.326050 150.779343 1.520883 0.645588
386.326508 150.779434 0.561600 0.670221
381.533112 149.821655 0.000038 0.523407
374.662567 148.448883 0.000035 0.540564
370.836212 147.684326 0.000011 0.547794
368.393158 147.196182 0.000031 0.557843
366.695251 146.856918 0.000027 0.533701
365.444275 146.606964 0.000029 0.537623
386.822266 150.666733 9.450514 0.532108
386.329834 150.571915 8.315807 0.661642
386.324127 150.570816 7.319824 0.674755
386.328491 150.571655 6.337533 0.649877
386.328491 150.571655 5.363939 0.697181
386.325653 150.571106 4.397410 0.627206
386.327515 150.571472 3.436483 0.663725
386.326538 150.571289 2.478469 0.673407
386.326080 150.571198 1.521538 0.683946
386.326050 150.571198 0.563590 0.670956
381.565643 149.654526 0.000056 0.534804
374.685974 148.329773 0.000030 0.546814
370.854218 147.591934 0.000028 0.523407
368.407837 147.120850 0.000047 0.549632
366.707703 146.793488 0.000024 0.504779
365.454956 146.552246 0.000048 0.540196
386.808350 150.452972 9.437145 0.596324
386.327179 150.363785 8.306892 0.666054
386.328979 150.364120 7.313702 0.666544
386.327148 150.363785 6.331611 0.661274
386.327637 150.363876 5.359402 0.672672
386.325134 150.363419 4.394208 0.617525
386.327301 150.363815 3.434577 0.657108
386.326508 150.363663 2.477837 0.658701
386.326141 150.363586 1.522168 0.685539
386.326111 150.363586 0.565481 0.652083
381.597687 149.487274 0.000023 0.536642
374.708801 148.210571 -0.000001 0.521324
370.871887 147.499481 -0.000004 0.539828
368.422485 147.045532 -0.000028 0.517892
366.719849 146.729996 -0.000008 0.482475
365.465485 146.497528 -0.000005 0.538113
386.804169 150.241684 9.426655 0.632843
386.324554 150.156265 8.298326 0.669730
386.327087 150.156708 7.306618 0.640319
386.325836 150.156479 6.325924 0.594608
386.326813 150.156662 5.355047 0.654412
386.324677 150.156265 4.391132 0.618995
386.327087 150.156708 3.432748 0.653922
386.326447 150.156586 2.477231 0.680637
386.326172 150.156540 1.522773 0.685294
386.326141 150.156540 0.567299 0.618995
381.627899 149.319702 0.000042 0.536029
374.730316 148.091125 0.000017 0.534069
370.888580 147.406845 0.000015 0.561765
368.436127 146.970016 -0.000011 0.523039
366.731323 146.666367 0.000009 0.521201
365.475403 146.442657 0.000013 0.514338
386.800171 150.031006 9.416595 0.519240
386.329956 149.950638 8.291836 0.697917
386.325287 149.949844 7.299826 0.692892
386.324585 149.949722 6.320471 0.650980
386.325989 149.949966 5.350867 0.673284
386.328064 149.950317 4.388504 0.681740
386.326843 149.950104 3.430993 0.624142
386.326355 149.950027 2.476648 0.656373
386.326172 149.949997 1.523354 0.698775
386.326141 149.949997 0.569041 0.657598
381.656952 149.151917 0.000060 0.547794
374.751068 147.971527 0.000034 0.539951
370.904663 147.314102 0.000032 0.551961
368.449188 146.894409 0.000009 0.538480
366.742340 146.602661 0.000030 0.523407
365.484894 146.387741 0.000028 0.514583
386.786713 149.819351 9.404524 0.638726
386.327545 149.744171 8.283968 0.715686
386.323547 149.743500 7.293318 0.683578
386.323395 149.743484 6.315246 0.650123
386.325226 149.743790 5.346865 0.668995
386.327606 149.744171 4.385678 0.686152
386.326660 149.744019 3.429312 0.633088
386.326324 149.743958 2.476091 0.677819
386.326233 149.743942 1.523910 0.710662
386.326202 149.743942 0.570710 0.681740
381.685394 148.984024 0.000031 0.534681
374.771332 147.851868 0.000004 0.531618
370.920380 147.221298 0.000003 0.542034
368.462006 146.818741 -0.000020 0.523775
366.753143 146.538925 0.000003 0.542770
365.494232 146.332794 0.000003 0.506618
386.783112 149.609909 9.395336 0.534559
386.325287 149.538208 8.276449 0.661642
386.328674 149.538742 7.288342 0.650490
386.328003 149.538635 6.311111 0.677206
386.324493 149.538086 5.343039 0.678554
386.327209 149.538498 4.382977 0.719730
386.326477 149.538391 3.427704 0.631495
386.326294 149.538376 2.475559 0.664093
386.326263 149.538361 1.524441 0.649877
386.326233 149.538361 0.572306 0.673162
381.712097 148.815857 0.000049 0.540319
374.790375 147.732010 0.000023 0.530270
370.935333 147.128357 0.000000 0.531373
368.474060 146.742966 -0.000001 0.546936
366.763275 146.475082 0.000020 0.550735
365.502960 146.277725 0.000021 0.543382
386.779663 149.400986 9.386567 0.613971
386.323120 149.332764 8.269276 0.646078
386.327057 149.333344 7.282408 0.657230
386.326904 149.333313 6.306346 0.687255
386.328522 149.333572 5.339942 0.676225
386.326782 149.333298 4.380399 0.694608
386.326263 149.333221 3.426170 0.653676
386.326233 149.333221 2.475050 0.666544
386.326263 149.333221 1.524949 0.639338
386.326263 149.333221 0.573828 0.653431
381.737640 148.647507 0.000067 0.534314
374.808563 147.612015 0.000041 0.551593
370.949432 147.035294 0.000017 0.555637
368.485565 146.667099 0.000016 0.532598
366.773010 146.411163 0.000037 0.502819
365.511322 146.222610 0.000035 0.554044
386.766663 149.191193 9.375760 0.511275
386.328857 149.128891 8.264149 0.639461
386.325592 149.128418 7.276755 0.665686
386.325867 149.128464 6.301807 0.664583
386.327881 149.128754 5.336464 0.681985
386.326416 149.128540 4.377944 0.699877
386.326080 149.128494 3.424710 0.650613
386.326172 149.128510 2.474566 0.668995
386.326294 149.128525 1.525432 0.683211
386.326294 149.128525 0.575279 0.651838
381.762604 148.479065 0.000035 0.539828
374.826385 147.491943 0.000010 0.538603
370.963226 146.942184 -0.000015 0.528064
368.496826 146.591187 -0.000015 0.551225
366.782379 146.347198 0.000030 0.544730
365.519379 146.167480 0.000030 0.589706
386.763641 148.983337 9.367846 0.694853
386.326904 148.924286 8.257655 0.680515
386.324158 148.923920 7.271384 0.631863
386.324890 148.924026 6.297494 0.676471
386.327240 148.924332 5.333160 0.665686
386.326050 148.924179 4.375611 0.663971
386.325928 148.924164 3.423323 0.650490
386.326141 148.924194 2.474106 0.674387
386.326324 148.924225 1.525891 0.712010
386.326324 148.924225 0.576657 0.664951
381.785797 148.310364 0.000051 0.539338
374.842896 147.371719 0.000028 0.544853
370.976044 146.848938 0.000005 0.538603
368.507263 146.515167 0.000002 0.525490
366.791168 146.283157 0.000048 0.525123
365.526978 146.112244 0.000049 0.515564
386.760742 148.775940 9.360349 0.676103
386.325043 148.720139 8.251498 0.653431
386.329498 148.720703 7.267524 0.666176
386.323944 148.719986 6.293406 0.653799
386.326630 148.720337 5.330028 0.648529
386.325684 148.720230 4.373400 0.670833
386.325745 148.720230 3.422007 0.633701
386.326111 148.720261 2.473670 0.688235
386.326355 148.720291 1.526326 0.676348
386.326355 148.720291 0.577963 0.641789
381.808441 148.141571 0.000021 0.545588
374.858978 147.251419 -0.000004 0.551348
370.988556 146.755646 -0.000027 0.535172
368.517303 146.439072 0.000001 0.514093
366.799744 146.219086 0.000016 0.517402
365.534393 146.056992 0.000016 0.540196
386.748108 148.567780 9.350770 0.662868
386.323273 148.516373 8.245681 0.637745
386.328217 148.516968 7.262711 0.645098
386.328766 148.517029 6.290393 0.649265
386.326050 148.516708 5.327067 0.679534
386.325348 148.516617 4.371309 0.685784
386.325592 148.516647 3.420764 0.658211
386.326080 148.516708 2.473257 0.665564
386.326385 148.516754 1.526737 0.700980
386.326385 148.516754 0.579198 0.672917
381.829224 147.972580 0.000038 0.539093
374.873871 147.130966 0.000015 0.520221
371.000031 146.662201 -0.000011 0.545466
368.526703 146.362930 0.000016 0.531495
366.807648 146.154922 0.000034 0.541912
365.541199 146.001678 0.000036 0.534069
386.745605 148.361298 9.344105 0.707966
386.329376 148.313889 8.241894 0.585784
386.327026 148.313614 7.258178 0.652083
386.327911 148.313721 6.286753 0.665074
386.325531 148.313446 5.324278 0.661765
386.325043 148.313385 4.369341 0.685294
386.325470 148.313431 3.419591 0.648162
386.326050 148.313507 2.472868 0.675735
386.326385 148.313553 1.527125 0.706740
386.326385 148.313553 0.580361 0.643627
381.848877 147.803436 0.000056 0.539216
374.887848 147.010391 0.000032 0.548774
371.010895 146.568710 0.000007 0.535417
368.535553 146.286713 0.000034 0.523897
366.815094 146.090698 0.000052 0.541054
365.547638 145.946304 0.000052 0.531250
386.743195 148.155197 9.337849 0.670588
386.327820 148.110809 8.236744 0.684681
386.325897 148.110596 7.253918 0.650980
386.327118 148.110733 6.283332 0.658456
386.325012 148.110504 5.321657 0.683333
386.324738 148.110474 4.367492 0.687623
386.325317 148.110550 3.418491 0.676593
386.326019 148.110611 2.472504 0.647304
386.326416 148.110657 1.527489 0.651348
386.326416 148.110657 0.581454 0.677083
381.867950 147.634232 0.000025 0.538848
374.901428 146.889801 0.000001 0.546691
371.021423 146.475174 -0.000023 0.520343
368.544159 146.210449 0.000003 0.522549
366.822327 146.026459 0.000023 0.547794
365.553864 145.890915 0.000022 0.543505
nan nan nan 0.000000
386.326355 147.908066 8.231926 0.664461
386.324799 147.907898 7.249933 0.653922
386.326385 147.908066 6.280135 0.659314
386.324524 147.907867 5.319206 0.683211
386.324463 147.907867 4.365761 0.661642
386.325195 147.907944 3.417462 0.645956
386.325958 147.908020 2.472162 0.668137
386.326416 147.908081 1.527830 0.656863
386.326416 147.908081 0.582476 0.651226
381.885254 147.464828 0.000043 0.529657
374.913757 146.769043 0.000018 0.525858
371.031006 146.381531 -0.000006 0.554657
368.551910 146.134109 0.000020 0.548407
366.828888 145.962143 0.000041 0.535662
365.559509 145.835464 0.000040 0.517770
nan nan nan 0.000000
386.324982 147.705627 8.227442 0.639951
386.323853 147.705521 7.246225 0.616054
386.325714 147.705704 6.277155 0.620343
386.324097 147.705551 5.316925 0.704412
386.328064 147.705917 4.364466 0.650000
386.325073 147.705643 3.416504 0.659069
386.325958 147.705734 2.471845 0.686152
386.326477 147.705765 1.528146 0.684559
386.326477 147.705765 0.583427 0.630882
381.901886 147.295364 0.000016 0.528064
374.925262 146.648224 0.000034 0.540564
371.039917 146.287827 0.000010 0.524877
368.559174 146.057709 0.000038 0.527941
366.835022 145.897797 0.000055 0.529289
365.564819 145.779968 0.000057 0.511520
nan nan nan 0.000000
386.323700 147.503494 8.223287 0.656250
386.329590 147.503998 7.244011 0.640931
386.325073 147.503616 6.274396 0.656495
386.328430 147.503891 5.315359 0.608088
386.327820 147.503845 4.362974 0.658824
386.324982 147.503601 3.415616 0.647794
386.325928 147.503677 2.471551 0.674265
386.326477 147.503723 1.528440 0.682108
386.326477 147.503723 0.584308 0.625245
381.917389 147.125778 -0.000015 0.526593
374.936066 146.527328 0.000033 0.546446
371.048492 146.194092 -0.000020 0.540319
368.566162 145.981308 0.000006 0.563603
366.840912 145.833420 0.000026 0.544363
365.569977 145.724457 0.000003 0.555025
385.829559 147.262817 9.089302 0.644240
386.322510 147.301605 8.219461 0.637255
386.328735 147.302109 7.240846 0.672181
386.324463 147.301758 6.271855 0.666422
386.328033 147.302048 5.313414 0.647672
386.327606 147.302002 4.361600 0.663113
386.324860 147.301788 3.414799 0.636887
386.325897 147.301880 2.471280 0.687868
386.326477 147.301926 1.528711 0.663971
386.326477 147.301926 0.585120 0.680270
381.931152 146.956039 0.000003 0.548039
374.945862 146.406357 0.000050 0.526961
371.056091 146.100266 -0.000002 0.552819
368.572357 145.904831 0.000025 0.527328
366.846130 145.768982 0.000043 0.513603
365.574463 145.668915 0.000022 0.536887
385.834351 147.065063 9.086786 0.574510
386.143127 147.087204 8.177353 0.647059
388.873230 147.282867 7.702268 0.647549
388.752075 147.274200 6.630636 0.854657
388.752075 147.274200 5.591250 0.877696
388.752075 147.274200 4.559665 0.917157
388.872955 147.282852 3.539558 0.652941
388.752075 147.274200 2.510836 0.923407
