# This PCD file was generated using the MATLABÂ® pcwrite function
# from Computer Vision ToolboxÂ®.
# .PCD v.7 - Point Cloud Data file format
VERSION .7
FIELDS x y z intensity
SIZE 4 4 4 4
TYPE F F F F
COUNT 1 1 1 1
WIDTH 1189
HEIGHT 1
VIEWPOINT 0 0 0 1 0 0 0
POINTS 1189
DATA ascii
317.293884 205.849472 0.000059 0.532843
317.789642 201.979126 0.000036 0.545711
318.106171 199.508224 0.000015 0.558946
318.326172 197.790573 0.000054 0.484436
318.488251 196.525253 0.000056 0.521691
317.403809 205.951431 6.376563 0.771691
317.405029 205.941345 5.771446 0.648652
317.397186 206.005966 5.189174 0.678431
317.397186 206.005966 4.599908 0.678431
317.403473 205.954147 4.010333 0.738971
317.405029 205.941345 3.431807 0.633088
317.405029 205.941345 2.857857 0.702574
317.405029 205.941330 2.285748 0.648039
317.405029 205.941330 1.714252 0.628186
317.405029 205.941345 1.142144 0.623652
317.405029 205.941345 0.568192 0.640441
317.414307 205.864700 0.000032 0.536029
317.883026 201.990936 0.000009 0.544976
318.182312 199.517853 -0.000010 0.524632
318.390289 197.798691 0.000028 0.544485
318.543579 196.532227 0.000032 0.554167
317.526703 205.950394 6.372714 0.770588
317.527832 205.940308 5.768128 0.643750
317.520477 206.004913 5.186369 0.678431
317.520477 206.004913 4.597621 0.678431
317.526550 205.951736 4.008405 0.740686
317.527832 205.940292 3.430548 0.645343
317.527832 205.940308 2.857101 0.699265
317.527832 205.940308 2.285496 0.656740
317.527832 205.940308 1.714504 0.620711
317.527832 205.940292 1.142898 0.618137
317.527832 205.940292 0.569451 0.661397
317.534851 205.878891 0.000028 0.531127
317.976501 202.001938 0.000006 0.509559
318.258484 199.526810 -0.000015 0.506250
318.454529 197.806244 0.000024 0.506740
318.598907 196.538742 0.000029 0.538480
317.649384 205.949341 6.369083 0.776103
317.650452 205.939270 5.764998 0.616789
317.643524 206.003891 5.183723 0.678431
317.643524 206.003876 4.595464 0.678431
317.649384 205.949387 4.006587 0.745588
317.650452 205.939270 3.429360 0.622917
317.650452 205.939270 2.856390 0.690074
317.650452 205.939270 2.285259 0.655270
317.650452 205.939270 1.714741 0.641667
317.650452 205.939270 1.143610 0.624510
317.650452 205.939270 0.570639 0.650980
317.655487 205.892090 0.000042 0.543015
318.070068 202.012192 0.000018 0.524387
318.334778 199.535172 -0.000001 0.535539
318.518768 197.813278 0.000039 0.556495
318.654327 196.544815 0.000040 0.518015
317.771851 205.948303 6.365671 0.771814
317.772858 205.938232 5.762058 0.647672
317.766388 206.002838 5.181237 0.678431
317.766388 206.002823 4.593438 0.678431
317.771942 205.947128 4.004879 0.729534
317.772858 205.938232 3.428244 0.632843
317.772858 205.938232 2.855721 0.677083
317.772858 205.938232 2.285036 0.620098
317.772858 205.938232 1.714963 0.621201
317.772858 205.938232 1.144279 0.637010
317.772858 205.938232 0.571756 0.621201
317.776215 205.904617 0.000037 0.527819
318.163696 202.021896 0.000014 0.533946
318.411102 199.543091 -0.000007 0.539216
318.583069 197.819946 0.000034 0.534926
318.709778 196.550568 0.000037 0.501593
317.894135 205.947266 6.362477 0.771078
317.895081 205.937195 5.759305 0.592892
317.889069 206.001801 5.178909 0.678431
317.889069 206.001785 4.591540 0.678431
317.894348 205.944946 4.003280 0.736765
317.895081 205.937195 3.427199 0.611765
317.895081 205.937195 2.855094 0.604534
317.895081 205.937195 2.284828 0.623529
317.895081 205.937195 1.715172 0.598529
317.895081 205.937195 1.144905 0.605147
317.895081 205.937195 0.572800 0.614461
317.896973 205.916473 0.000010 0.537990
318.257385 202.031082 -0.000013 0.553676
318.487488 199.550583 -0.000033 0.513971
318.647400 197.826263 0.000007 0.558456
318.765228 196.556015 0.000010 0.555025
318.016266 205.946228 6.359500 0.776716
318.017120 205.936157 5.756741 0.642034
318.011597 206.000763 5.176740 0.678431
318.011597 206.000763 4.589771 0.678431
318.016266 205.946228 4.002180 0.777206
318.017120 205.936157 3.426225 0.660172
318.017120 205.936157 2.854511 0.695343
318.017120 205.936157 2.284634 0.644363
318.017120 205.936157 1.715366 0.627206
318.017120 205.936157 1.145488 0.593015
318.017120 205.936157 0.573775 0.629902
318.017120 205.936157 -0.001017 0.663971
318.351166 202.039215 0.000022 0.552819
318.563934 199.557220 0.000001 0.541667
318.711823 197.831863 0.000040 0.503922
318.820770 196.560928 0.000021 0.552696
318.138214 205.945190 6.356739 0.773775
318.139008 205.935120 5.754362 0.642402
318.133942 205.999725 5.174728 0.678431
318.133942 205.999725 4.588131 0.678431
318.138214 205.945190 4.000913 0.780515
318.139008 205.935120 3.425322 0.650735
318.139008 205.935120 2.853970 0.671201
318.139008 205.935120 2.284453 0.635172
318.139008 205.935120 1.715547 0.618382
318.139008 205.935120 1.146029 0.616422
318.139008 205.935120 0.574677 0.638971
318.139008 205.935120 0.000251 0.662500
318.444977 202.047119 -0.000005 0.555147
318.640381 199.563644 -0.000026 0.531495
318.776245 197.837250 0.000016 0.527328
318.876312 196.565598 -0.000004 0.525735
318.260010 205.944183 6.354194 0.772426
318.260773 205.934082 5.752168 0.631495
318.256134 205.998688 5.172873 0.678431
318.256134 205.998688 4.586619 0.678431
318.260010 205.944183 3.999743 0.774632
318.260773 205.934082 3.424489 0.625123
318.260773 205.934082 2.853472 0.665564
318.260773 205.934097 2.284287 0.624877
318.260773 205.934097 1.715713 0.635539
318.260773 205.934082 1.146528 0.613358
318.260773 205.934082 0.575510 0.646446
318.260773 205.934082 0.001419 0.675490
318.538818 202.054199 -0.000010 0.517892
318.716919 199.569427 -0.000030 0.534191
318.840698 197.842224 -0.000010 0.528676
318.931915 196.569794 -0.000009 0.502206
318.381683 205.943146 6.351864 0.772059
318.382355 205.933060 5.750160 0.660172
318.378174 205.997650 5.171175 0.678431
318.378174 205.997650 4.585235 0.678431
318.381683 205.943146 3.998673 0.786520
318.382355 205.933044 3.423727 0.654289
318.382355 205.933060 2.853015 0.705882
318.382355 205.933060 2.284135 0.648284
318.382355 205.933060 1.715865 0.648529
318.382355 205.933060 1.146985 0.644363
318.382355 205.933060 0.576273 0.644608
318.382355 205.933060 0.002489 0.644853
318.632751 202.060364 0.000025 0.552574
318.793488 199.574463 0.000004 0.564706
318.905212 197.846466 0.000025 0.522304
318.987518 196.573425 0.000025 0.545343
318.503235 205.942108 6.349747 0.772181
318.503845 205.932037 5.748336 0.627451
318.503235 205.942108 5.159699 0.793505
318.503235 205.942108 4.575879 0.796691
318.503235 205.942108 3.997701 0.802574
318.503845 205.932037 3.423034 0.654534
318.503845 205.932037 2.852600 0.690319
318.503845 205.932037 2.283997 0.651593
318.503845 205.932037 1.716003 0.617157
318.503845 205.932037 1.147400 0.626225
318.503845 205.932037 0.576965 0.648039
318.503845 205.932037 0.003460 0.655760
318.726685 202.066284 -0.000001 0.546324
318.870087 199.579285 -0.000023 0.541422
318.969727 197.850525 -0.000001 0.548652
319.043152 196.576935 0.000000 0.543873
318.624695 205.941086 6.347845 0.771324
318.625183 205.931015 5.746698 0.624877
318.621948 205.995575 5.168247 0.678431
318.621948 205.995575 4.582848 0.678431
318.624695 205.941071 3.996828 0.807108
318.625183 205.931000 3.422412 0.620833
318.625183 205.931000 2.852227 0.665686
318.625183 205.931000 2.283873 0.655270
318.625183 205.931000 1.716127 0.618505
318.625183 205.931000 1.147773 0.641176
318.625183 205.931000 0.577587 0.617157
318.625183 205.931000 0.004333 0.667034
318.820679 202.071136 0.000035 0.552451
318.946716 199.583237 0.000013 0.542157
319.034271 197.853867 0.000034 0.508088
319.098816 196.579819 0.000034 0.568750
318.746033 205.940048 6.346158 0.771078
318.746460 205.929977 5.745243 0.610784
318.743622 205.994553 5.167017 0.678431
318.743622 205.994553 4.581845 0.678431
318.746033 205.940048 3.996051 0.777206
318.746460 205.929977 3.421860 0.627819
318.746460 205.929977 2.851896 0.657353
318.746460 205.929977 2.283762 0.673407
318.746460 205.929977 1.716238 0.612745
318.746460 205.929977 1.148104 0.638113
318.746460 205.929977 0.578140 0.632966
318.746460 205.929977 0.005108 0.648407
318.914703 202.075745 0.000009 0.534069
319.023346 199.587006 -0.000014 0.528676
319.098846 197.857040 0.000007 0.548407
319.154480 196.582550 0.000006 0.498162
318.867035 205.945419 6.346283 0.732721
318.867645 205.928955 5.743970 0.624020
318.866364 205.963516 5.160477 0.831250
318.866364 205.963516 4.576513 0.826838
318.867279 205.939026 3.995374 0.805760
318.867645 205.928955 3.421377 0.582721
318.867645 205.928955 2.851607 0.623162
318.867645 205.928955 2.283666 0.613235
318.867645 205.928955 1.716334 0.630515
318.867645 205.928955 1.148393 0.648284
318.867645 205.928955 0.578622 0.648407
318.867645 205.928955 0.005786 0.666422
319.008759 202.079559 0.000003 0.554289
319.100037 199.590118 -0.000020 0.545466
319.163452 197.859650 0.000001 0.543873
319.210175 196.584793 0.000005 0.543260
318.988312 205.942703 6.344597 0.709436
318.988739 205.927917 5.742882 0.645466
318.988464 205.938004 5.155101 0.767892
318.988464 205.938004 4.572130 0.762132
318.988464 205.938004 3.994795 0.795833
318.988739 205.927917 3.420964 0.653922
318.988739 205.927933 2.851359 0.686642
318.988739 205.927917 2.283584 0.614951
318.988739 205.927917 1.716416 0.647059
318.988739 205.927917 1.148641 0.664706
318.988739 205.927917 0.579036 0.621446
318.988739 205.927917 0.006365 0.624632
319.102844 202.082596 0.000018 0.544118
319.176697 199.592575 -0.000004 0.540441
319.228058 197.861725 0.000016 0.559191
319.265900 196.586594 0.000019 0.529167
319.109772 205.926895 6.339843 0.632230
319.109772 205.926895 5.741977 0.661152
319.109772 205.926895 5.152504 0.626838
319.109772 205.926895 4.570014 0.622794
319.109772 205.926895 3.993153 0.668995
319.109772 205.926895 3.420620 0.628431
319.109772 205.926895 2.851153 0.686520
319.109772 205.926895 2.283515 0.628309
319.109772 205.926895 1.716485 0.665809
319.109772 205.926895 1.148847 0.626838
319.109772 205.926895 0.579380 0.648529
319.109772 205.926895 0.006847 0.667770
319.196930 202.085083 0.000011 0.531127
319.253418 199.594635 -0.000012 0.556250
319.292694 197.863449 0.000011 0.533088
319.321625 196.588074 0.000015 0.521691
319.230774 205.925873 6.339004 0.660417
319.230774 205.925873 5.741254 0.644975
319.230774 205.925873 5.151895 0.627451
319.230774 205.925873 4.569517 0.619363
319.230774 205.925873 3.992768 0.666912
319.230774 205.925873 3.420346 0.653922
319.230774 205.925873 2.850989 0.645588
319.230774 205.925873 2.283461 0.649632
319.230774 205.925873 1.716540 0.637010
319.230774 205.925873 1.149011 0.637990
319.230774 205.925873 0.579654 0.649142
319.230774 205.925873 0.007232 0.662010
319.291046 202.087082 -0.000015 0.512990
319.330139 199.596237 -0.000038 0.546569
319.357330 197.864822 -0.000016 0.537010
319.377350 196.589233 -0.000013 0.582230
319.351715 205.924850 6.338379 0.661887
319.351715 205.924850 5.740714 0.659314
319.351715 205.924850 5.151440 0.587377
319.351715 205.924850 4.569146 0.623284
319.351715 205.924850 3.992480 0.671446
319.351715 205.924850 3.420141 0.678922
319.351715 205.924850 2.850866 0.668015
319.351074 205.999405 2.284639 0.678431
319.351410 205.959396 1.716015 0.133456
319.351410 205.959396 1.147436 0.144118
319.351501 205.949402 0.577846 0.466176
319.351410 205.963150 0.003113 0.464461
319.385193 202.087982 0.000021 0.534069
319.406860 199.596985 -0.000002 0.553309
319.421967 197.865417 0.000020 0.535539
319.433075 196.589783 0.000023 0.531005
319.472626 205.923828 6.337963 0.616299
319.472626 205.923828 5.740355 0.627328
319.472626 205.923828 5.151139 0.614338
319.472626 205.923828 4.568901 0.669853
319.472626 205.923828 3.992289 0.654534
319.472626 205.923828 3.420005 0.615441
319.472626 205.923828 2.850784 0.646446
319.472504 205.998383 2.284612 0.678431
319.472565 205.958374 1.716042 0.148775
319.472565 205.958374 1.147518 0.150368
319.472595 205.948380 0.577982 0.467279
319.472565 205.961639 0.003362 0.450980
319.479309 202.088501 0.000015 0.548162
319.483612 199.597412 -0.000008 0.536887
319.486633 197.865799 0.000014 0.556495
319.488861 196.590103 0.000016 0.503186
319.593536 205.922806 6.337760 0.636520
319.593536 205.922791 5.740180 0.635172
319.593536 205.922791 5.150991 0.631250
319.593536 205.922806 4.568780 0.654167
319.593536 205.922791 3.992196 0.671201
319.593536 205.922791 3.419939 0.620466
319.593536 205.922791 2.850744 0.695833
319.593933 205.997345 2.284599 0.678431
319.593719 205.957352 1.716056 0.141176
319.593719 205.957352 1.147558 0.117892
319.593658 205.947357 0.578048 0.467402
319.593719 205.960358 0.003483 0.462745
319.573425 202.088516 -0.000010 0.523162
319.560364 199.597412 -0.000033 0.514338
319.551270 197.865784 -0.000010 0.532598
319.544586 196.590103 -0.000009 0.548284
319.714447 205.921768 6.337768 0.632966
319.714447 205.921768 5.740187 0.631618
319.714447 205.921768 5.150996 0.639828
319.714447 205.921768 4.568785 0.648284
319.714447 205.921768 3.992199 0.674387
319.714447 205.921768 3.419941 0.621078
319.714447 205.921768 2.850746 0.660049
319.715363 205.996307 2.284600 0.678431
319.714844 205.956314 1.716055 0.142279
319.714844 205.956314 1.147556 0.129412
319.714722 205.946320 0.578046 0.462745
319.714874 205.959335 0.003478 0.463725
319.667542 202.087448 0.000026 0.538235
319.637054 199.596542 0.000004 0.553676
319.615906 197.865067 0.000026 0.513235
319.600342 196.589478 0.000028 0.500858
319.835327 205.920746 6.337987 0.637377
319.835327 205.920761 5.740376 0.645098
319.835327 205.920746 5.151155 0.637255
319.835327 205.920761 4.568915 0.622181
319.835327 205.920746 3.992301 0.642524
319.835327 205.920761 3.420013 0.628554
319.835327 205.920746 2.850789 0.680147
319.836761 205.995300 2.284614 0.678431
319.835999 205.955307 1.716041 0.136887
319.835999 205.955307 1.147513 0.119608
319.835785 205.945297 0.577974 0.464461
319.836060 205.958572 0.003347 0.467034
319.761688 202.086151 -0.000001 0.536887
319.713806 199.595474 -0.000022 0.545956
319.680573 197.864182 -0.000000 0.532598
319.656036 196.588699 0.000001 0.528186
319.956268 205.919724 6.338418 0.625613
319.956268 205.919724 5.740748 0.665074
319.956268 205.919724 5.151469 0.618750
319.956268 205.919724 4.569170 0.651961
319.956268 205.919724 3.992498 0.674510
319.956268 205.919724 3.420154 0.621078
319.956268 205.919724 2.850874 0.670221
319.958221 205.994263 2.284642 0.678431
319.957153 205.954269 1.716013 0.136397
319.957153 205.954269 1.147429 0.142892
319.956879 205.944275 0.577832 0.469608
319.957245 205.958069 0.003090 0.469976
319.855743 202.084061 -0.000008 0.532843
319.790527 199.593796 -0.000031 0.560784
319.745209 197.862717 -0.000006 0.507966
319.711761 196.587463 -0.000006 0.520833
320.077209 205.918701 6.339061 0.627328
320.077209 205.918701 5.741302 0.666912
320.077209 205.918701 5.151936 0.628064
320.077209 205.918701 4.569550 0.623039
320.077209 205.918701 3.992793 0.643137
320.077209 205.918701 3.420364 0.670588
320.077209 205.918701 2.850999 0.625613
320.079651 205.993240 2.284684 0.678431
320.078339 205.953232 1.715970 0.145343
320.078339 205.953232 1.147302 0.139951
320.078003 205.943237 0.577622 0.463358
320.078491 205.957794 0.002705 0.475245
319.949860 202.081161 0.000008 0.546078
319.867249 199.591415 -0.000015 0.544118
319.809784 197.860733 0.000009 0.554044
319.767487 196.585739 0.000011 0.531373
320.198181 205.917679 6.339915 0.626225
320.198181 205.917679 5.742038 0.657230
320.198181 205.917664 5.152556 0.616054
320.198181 205.917679 4.570056 0.644240
320.198181 205.917679 3.993186 0.640319
320.198181 205.917664 3.420643 0.672059
320.198181 205.917679 2.851167 0.661642
320.201172 205.992203 2.284740 0.678431
320.199585 205.952225 1.715914 0.129412
320.199585 205.952225 1.147135 0.146936
320.199188 205.942215 0.577342 0.467770
320.199768 205.957794 0.002195 0.455025
320.043915 202.077759 0.000001 0.522181
319.943909 199.588638 -0.000021 0.555760
319.874420 197.858398 0.000002 0.537500
319.823212 196.583725 0.000004 0.554779
320.319244 205.916641 6.340981 0.625245
320.319244 205.916641 5.742958 0.662500
320.319244 205.916641 5.153331 0.625123
320.319244 205.916641 4.570687 0.659681
320.319244 205.916641 3.993675 0.643260
320.319244 205.916641 3.420992 0.671936
320.319244 205.916641 2.851376 0.626348
320.322723 205.991165 2.284810 0.678431
320.320831 205.951187 1.715845 0.117892
320.320831 205.951187 1.146925 0.131740
320.320404 205.941193 0.576992 0.462745
320.321198 205.958054 0.001557 0.460784
320.137970 202.073700 -0.000006 0.528309
320.020599 199.585327 -0.000027 0.547181
319.938965 197.855621 -0.000005 0.530392
319.878876 196.581314 -0.000003 0.549877
320.440308 205.915634 6.342260 0.591054
320.440308 205.915619 5.744061 0.667279
320.440308 205.915619 5.154259 0.619118
320.440308 205.915619 4.571445 0.659681
320.440308 205.915619 3.994262 0.642279
320.440308 205.915619 3.421411 0.644853
320.440308 205.915619 2.851627 0.654412
320.440887 205.925690 2.283838 0.800000
320.440887 205.925690 1.716162 0.778431
320.440887 205.925690 1.147877 0.760539
320.440887 205.925690 0.577762 0.762500
320.440887 205.925690 0.004578 0.769975
320.231964 202.068832 0.000011 0.546569
320.097198 199.581360 -0.000012 0.519608
320.003571 197.852264 0.000012 0.560539
319.934570 196.578445 0.000012 0.530760
320.561493 205.914597 6.343750 0.604289
320.561493 205.914597 5.745346 0.643137
320.561493 205.914597 5.155343 0.627941
320.561493 205.914597 4.572328 0.638480
320.561493 205.914597 3.994947 0.642157
320.561493 205.914597 3.421899 0.644118
320.561493 205.914597 2.851919 0.655760
320.561493 205.914597 2.283771 0.620098
320.561493 205.914597 1.716230 0.641299
320.561493 205.914597 1.148080 0.627696
320.561493 205.914597 0.578101 0.634681
320.561493 205.914597 0.005053 0.643873
320.325928 202.063446 0.000003 0.536152
320.173828 199.576965 -0.000017 0.525368
320.068085 197.848572 0.000006 0.517157
319.990204 196.575256 0.000005 0.531618
320.682770 205.913559 6.345454 0.623284
320.682770 205.913559 5.746815 0.637255
320.682770 205.913559 5.156580 0.636887
320.682770 205.913559 4.573337 0.616544
320.682770 205.913559 3.995730 0.644240
320.682770 205.913559 3.422456 0.640686
320.682770 205.913559 2.852253 0.645956
320.682770 205.913559 2.283881 0.633578
320.682770 205.913559 1.716118 0.634926
320.682770 205.913559 1.147746 0.637010
320.682770 205.913559 0.577543 0.658578
320.682770 205.913559 0.004271 0.653922
320.419861 202.057266 0.000021 0.545711
320.250397 199.571930 -0.000001 0.519853
320.132599 197.844330 0.000020 0.528064
320.045837 196.571594 0.000023 0.539461
320.804169 205.912537 6.347372 0.624020
320.804169 205.912537 5.748467 0.643505
320.804169 205.912537 5.157973 0.629289
320.804169 205.912537 4.574471 0.625858
320.804169 205.912537 3.996610 0.642034
320.804169 205.912537 3.423084 0.669240
320.804169 205.912537 2.852630 0.686152
320.804169 205.912537 2.284007 0.642647
320.804169 205.912537 1.715993 0.645588
320.804169 205.912537 1.147370 0.628676
320.804169 205.912537 0.576915 0.646324
320.804169 205.912537 0.003390 0.615564
320.513733 202.050568 0.000016 0.546201
320.326935 199.566483 -0.000009 0.515441
320.197083 197.839737 0.000015 0.555270
320.101410 196.567642 0.000014 0.545833
320.926483 205.921570 6.352031 0.767402
320.925659 205.911514 5.750305 0.663235
320.930969 205.976013 5.171298 0.678431
320.930969 205.976013 4.585335 0.678431
320.926483 205.921570 3.998750 0.806863
320.925659 205.911514 3.423782 0.678186
320.925659 205.911514 2.853048 0.687745
320.925659 205.911514 2.284146 0.612377
320.925659 205.911514 1.715854 0.673774
320.925659 205.911514 1.146952 0.626838
320.925659 205.911514 0.576217 0.678186
320.925659 205.911514 0.002411 0.672917
320.607605 202.043365 -0.000014 0.533578
320.403442 199.560623 -0.000037 0.530270
320.261536 197.834793 -0.000013 0.557598
320.157013 196.563370 -0.000014 0.506985
321.048187 205.920547 6.354378 0.767524
321.047272 205.910477 5.752327 0.643873
321.053009 205.974976 5.173008 0.678431
321.053009 205.974976 4.586729 0.678431
321.048187 205.920547 3.999828 0.800000
321.047272 205.910477 3.424549 0.621201
321.047272 205.910477 2.853508 0.663358
321.047272 205.910477 2.284299 0.623529
321.047272 205.910477 1.715701 0.618873
321.047272 205.910477 1.146492 0.603922
321.047272 205.910477 0.575450 0.648162
321.047272 205.910477 0.001335 0.676961
320.701385 202.035065 0.000026 0.531495
320.479889 199.553848 0.000002 0.538971
320.325928 197.828979 0.000049 0.507598
320.212524 196.558456 0.000026 0.562010
321.170013 205.919510 6.356939 0.766422
321.169006 205.909439 5.754534 0.648529
321.175232 205.973938 5.174874 0.678431
321.175232 205.973938 4.588250 0.678431
321.170013 205.919510 4.001004 0.791789
321.169006 205.909439 3.425387 0.630270
321.169006 205.909439 2.854009 0.656863
321.169006 205.909439 2.284466 0.645711
321.169006 205.909439 1.715534 0.667647
321.169006 205.909439 1.145990 0.592279
321.169006 205.909439 0.574612 0.618750
321.169006 205.909439 0.000158 0.614583
320.795105 202.026566 -0.000003 0.538113
320.556335 199.546906 -0.000027 0.542157
320.390320 197.823135 0.000019 0.509191
320.268036 196.553421 -0.000004 0.547181
321.291962 205.918488 6.359717 0.771691
321.290924 205.908417 5.756927 0.632966
321.297577 205.972916 5.176898 0.678431
321.297577 205.972900 4.589900 0.678431
321.291626 205.915176 4.001898 0.741422
321.290924 205.908401 3.426296 0.622304
321.290924 205.908401 2.854554 0.644485
321.290924 205.908417 2.284648 0.640686
321.290924 205.908401 1.715352 0.639583
321.290924 205.908401 1.145446 0.604657
321.290924 205.908401 0.573704 0.673774
321.289917 205.898621 0.000017 0.537623
320.888794 202.017273 -0.000010 0.543995
320.632690 199.539337 -0.000034 0.525123
320.454651 197.816757 0.000011 0.513113
320.323517 196.547806 0.000015 0.532598
321.414093 205.917435 6.362710 0.771814
321.412994 205.907379 5.759507 0.646446
321.420105 205.971878 5.179079 0.678431
321.420105 205.971863 4.591679 0.678431
321.413849 205.915222 4.003397 0.760049
321.412994 205.907364 3.427275 0.628799
321.412994 205.907379 2.855140 0.682230
321.412994 205.907379 2.284843 0.648162
321.412994 205.907364 1.715157 0.621691
321.412994 205.907364 1.144859 0.613971
321.412994 205.907364 0.572725 0.641912
321.410553 205.885361 0.000059 0.542402
320.982330 202.006989 0.000029 0.558701
320.708954 199.530960 0.000005 0.524265
320.518921 197.809708 0.000051 0.550000
320.378906 196.541733 0.000053 0.553186
321.536407 205.916412 6.365921 0.771078
321.535217 205.906342 5.762273 0.644118
321.542786 205.970840 5.181419 0.678431
321.542786 205.970840 4.593585 0.678431
321.536255 205.915329 4.005004 0.735172
321.535217 205.906342 3.428326 0.645098
321.535217 205.906342 2.855770 0.692279
321.535217 205.906342 2.285053 0.653676
321.535217 205.906342 1.714947 0.625123
321.535217 205.906342 1.144230 0.613725
321.535217 205.906342 0.571674 0.665196
321.531189 205.871887 0.000028 0.529044
321.075867 201.996536 -0.000001 0.532108
320.785217 199.522446 -0.000024 0.527819
320.583160 197.802505 0.000025 0.522672
320.434296 196.535553 0.000023 0.522549
321.658875 205.915375 6.369349 0.770833
321.657654 205.905304 5.765228 0.617402
321.665680 205.969803 5.183918 0.678431
321.665680 205.969788 4.595622 0.678431
321.658936 205.915512 4.006721 0.731863
321.657654 205.905304 3.429447 0.620588
321.657654 205.905304 2.856441 0.692647
321.657654 205.905304 2.285276 0.656740
321.657654 205.905304 1.714723 0.640196
321.657654 205.905304 1.143558 0.624632
321.657654 205.905304 0.570552 0.652819
321.651672 205.857361 0.000020 0.528922
321.169312 201.985275 -0.000009 0.537255
320.861389 199.513275 -0.000033 0.537010
320.647339 197.794785 0.000016 0.565196
320.489655 196.528885 0.000016 0.515196
321.781586 205.914337 6.372996 0.775613
321.780273 205.904266 5.768372 0.644608
321.788757 205.968750 5.186575 0.678431
321.788757 205.968750 4.597788 0.678431
321.781799 205.915787 4.008547 0.723162
321.780273 205.904266 3.430640 0.628309
321.780273 205.904266 2.857157 0.673284
321.780273 205.904266 2.285515 0.616667
321.780273 205.904266 1.714485 0.626103
321.780273 205.904266 1.142843 0.612745
321.780273 205.904266 0.569359 0.582475
321.772034 205.841797 0.000039 0.530760
321.262665 201.973190 0.000011 0.535784
320.937531 199.503403 -0.000014 0.541667
320.711456 197.786484 0.000034 0.537377
320.544922 196.521729 0.000035 0.545588
321.904480 205.913284 6.376862 0.771691
321.903107 205.903229 5.771702 0.593627
321.912048 205.967712 5.189392 0.678431
321.912048 205.967697 4.600085 0.678431
321.904877 205.916107 4.010483 0.731985
321.903107 205.903229 3.431905 0.625980
321.903107 205.903229 2.857914 0.608456
321.903107 205.903229 2.285768 0.623162
321.903107 205.903229 1.714233 0.604902
321.903107 205.903229 1.142085 0.605270
321.903107 205.903229 0.568094 0.627083
321.892303 205.825577 0.000031 0.535172
321.355957 201.960632 0.000004 0.535049
321.013550 199.493164 -0.000021 0.539338
320.775513 197.777863 0.000024 0.542279
320.600159 196.514282 0.000027 0.548652
322.027588 205.912247 6.380950 0.773775
322.026154 205.902191 5.775225 0.637377
322.035553 205.966675 5.192370 0.678431
322.035553 205.966675 4.602514 0.678431
322.028229 205.916550 4.012531 0.737255
322.026154 205.902191 3.433242 0.653431
322.026154 205.902191 2.858716 0.694485
322.026154 205.902191 2.286034 0.653186
322.026154 205.902191 1.713966 0.622181
322.026154 205.902191 1.141284 0.585539
322.026154 205.902191 0.566757 0.624387
322.012482 205.808746 0.000001 0.546691
321.449188 201.947556 -0.000025 0.536274
321.089539 199.482376 -0.000026 0.547917
320.839539 197.768890 -0.000005 0.529044
320.655365 196.506546 -0.000003 0.562377
322.150970 205.911209 6.385259 0.798407
322.149414 205.901138 5.778938 0.634069
322.151581 205.915222 5.186234 0.753922
322.151581 205.915222 4.597511 0.718382
322.151581 205.915222 4.014477 0.758211
322.149414 205.901138 3.434652 0.647059
322.149414 205.901138 2.859560 0.672672
322.149414 205.901138 2.286315 0.614216
322.149414 205.901138 1.713684 0.620343
322.149414 205.901138 1.140440 0.623529
322.149414 205.901138 0.565348 0.645833
322.132477 205.790451 0.000042 0.547181
321.542236 201.933365 0.000016 0.533578
321.165375 199.470825 0.000012 0.551838
320.903473 197.759155 0.000036 0.534069
320.710480 196.498154 0.000038 0.570833
322.274567 205.910141 6.389789 0.716789
322.272949 205.900101 5.782844 0.647181
322.281342 205.952484 5.196588 0.142402
322.281342 205.952484 4.605951 0.108333
322.275757 205.917603 4.016960 0.730270
322.272949 205.900101 3.436134 0.636642
322.272949 205.900101 2.860448 0.710294
322.272949 205.900101 2.286611 0.649877
322.272949 205.900101 1.713389 0.647426
322.272949 205.900101 1.139551 0.623529
322.272949 205.900101 0.563865 0.645588
322.252441 205.771942 0.000013 0.547549
321.635254 201.919006 -0.000014 0.517892
321.241211 199.459106 -0.000015 0.524632
320.967346 197.749390 -0.000016 0.501103
320.765564 196.489624 0.000013 0.581127
322.398468 205.909103 6.394544 0.717279
322.396759 205.899048 5.786941 0.639828
322.407562 205.963516 5.202277 0.678431
322.407562 205.963516 4.610590 0.678431
322.402527 205.933533 4.021126 0.826226
322.396759 205.899048 3.437691 0.650245
322.396759 205.899033 2.861381 0.716054
322.396759 205.899048 2.286922 0.656740
322.396759 205.899048 1.713078 0.670956
322.396759 205.899033 1.138619 0.614583
322.396759 205.899033 0.562310 0.618137
322.372162 205.751953 0.000054 0.533701
321.728119 201.903519 0.000028 0.542402
321.316925 199.446487 0.000025 0.549020
321.031128 197.738754 0.000024 0.533211
320.820557 196.480453 0.000054 0.546814
322.522614 205.908051 6.399525 0.717892
322.520844 205.897995 5.791231 0.630760
322.527710 205.937271 5.201257 0.814093
322.527710 205.937271 4.609758 0.821201
322.526855 205.932495 4.023417 0.854657
322.520844 205.897995 3.439320 0.628186
322.520844 205.897995 2.862357 0.636887
322.520844 205.897995 2.287247 0.629902
322.520844 205.897995 1.712753 0.636765
322.520844 205.897995 1.137643 0.624265
322.520844 205.897995 0.560680 0.641299
322.491821 205.731567 0.000046 0.558211
321.820862 201.887558 0.000043 0.536765
321.392578 199.433609 0.000017 0.528554
321.094879 197.727890 0.000016 0.527083
320.875488 196.471085 0.000046 0.516912
322.647034 205.906998 6.404732 0.768260
322.645203 205.896942 5.795718 0.614216
322.647034 205.906998 5.199640 0.765074
322.647034 205.906998 4.608440 0.767157
322.647034 205.906998 4.022954 0.737745
322.645203 205.896942 3.441023 0.627328
322.645203 205.896942 2.863377 0.662255
322.645203 205.896942 2.287586 0.650245
322.645203 205.896942 1.712413 0.613725
322.645203 205.896942 1.136622 0.606005
322.645203 205.896942 0.558977 0.623897
322.611328 205.710495 0.000021 0.531740
321.913574 201.871216 0.000017 0.520956
321.468140 199.420288 -0.000009 0.534681
321.158539 197.716675 -0.000010 0.534314
320.930389 196.461411 0.000020 0.526961
322.769867 205.895889 6.407603 0.658824
322.769867 205.895874 5.800400 0.610539
322.769867 205.895889 5.201725 0.622917
322.769867 205.895889 4.610140 0.648284
322.769867 205.895889 4.024273 0.629657
322.769867 205.895874 3.442801 0.638235
322.769867 205.895889 2.864442 0.662377
322.769867 205.895889 2.287942 0.658946
322.769867 205.895889 1.712058 0.640196
322.769867 205.895874 1.135557 0.636642
322.769867 205.895874 0.557199 0.647426
322.730591 205.688034 0.000062 0.538971
322.006073 201.853775 0.000060 0.547549
321.543518 199.406082 0.000032 0.541299
321.222046 197.704697 0.000034 0.549755
320.985168 196.451080 0.000062 0.552451
322.894836 205.894821 6.413261 0.659926
322.894836 205.894821 5.805282 0.669485
322.894836 205.894821 5.205836 0.668505
322.894836 205.894821 4.613490 0.676716
322.894836 205.894821 4.026871 0.678431
322.894836 205.894821 3.444653 0.663848
322.894836 205.894821 2.865553 0.684681
322.894836 205.894821 2.288311 0.617157
322.894836 205.894821 1.711689 0.647059
322.894836 205.894821 1.134447 0.667525
322.894836 205.894821 0.555346 0.627083
322.849854 205.665329 0.000033 0.519608
322.098541 201.836182 0.000028 0.541667
321.618927 199.391724 0.000004 0.526838
321.285553 197.692612 0.000003 0.518015
321.039917 196.440674 0.000033 0.555147
323.020172 205.893768 6.419151 0.621936
323.020172 205.893768 5.810360 0.615686
323.020172 205.893768 5.210115 0.649755
323.020172 205.893768 4.616979 0.611887
323.020172 205.893768 4.029576 0.636397
323.020172 205.893768 3.446581 0.666299
323.020172 205.893768 2.866708 0.696446
323.020172 205.893768 2.288696 0.626225
323.020172 205.893768 1.711304 0.671078
323.020172 205.893768 1.133292 0.618505
323.020172 205.893768 0.553419 0.616176
322.968872 205.641617 0.000024 0.534436
322.190857 201.817810 0.000019 0.549755
321.694183 199.376709 -0.000003 0.536887
321.348969 197.679977 -0.000003 0.549510
321.094604 196.429886 -0.000003 0.524142
323.145813 205.892700 6.425274 0.626103
323.145813 205.892700 5.815638 0.634069
323.145813 205.892700 5.214561 0.618260
323.145813 205.892700 4.620605 0.639828
323.145813 205.892700 4.032388 0.667647
323.145813 205.892700 3.448586 0.644853
323.145813 205.892700 2.867908 0.617525
323.145813 205.892700 2.289096 0.619485
323.145813 205.892700 1.710904 0.620956
323.145813 205.892700 1.132092 0.653064
323.145813 205.892700 0.551415 0.620343
323.087708 205.617050 0.000019 0.539583
322.282990 201.798569 0.000042 0.542892
321.769287 199.361038 0.000019 0.509191
321.412231 197.666763 0.000018 0.526226
321.149200 196.418488 0.000018 0.531740
323.271820 205.891632 6.431629 0.581740
323.271820 205.891632 5.821117 0.625368
323.271820 205.891617 5.219177 0.608824
323.271820 205.891617 4.624367 0.617034
323.271820 205.891617 4.035306 0.637500
323.271820 205.891617 3.450665 0.647672
323.271820 205.891617 2.869154 0.621446
323.271820 205.891617 2.289511 0.677083
323.271820 205.891617 1.710489 0.645098
323.271820 205.891617 1.130846 0.619240
323.271820 205.891617 0.549334 0.583211
323.206390 205.591690 0.000009 0.537255
322.375031 201.778900 0.000033 0.540564
321.844330 199.345001 0.000011 0.518382
321.475464 197.653244 0.000010 0.562255
321.203705 196.406830 0.000011 0.556373
323.398193 205.890564 6.438217 0.652574
323.398193 205.890564 5.826797 0.634681
323.398193 205.890564 5.223964 0.636765
323.398193 205.890564 4.628270 0.645588
323.398193 205.890564 4.038333 0.672181
323.398193 205.890564 3.452822 0.661887
323.398193 205.890564 2.870447 0.630637
323.398193 205.890564 2.289941 0.666176
323.398193 205.890564 1.710058 0.618505
323.398193 205.890549 1.129553 0.621814
323.398193 205.890564 0.547177 0.625368
323.324921 205.565491 -0.000000 0.546324
322.466949 201.758591 0.000025 0.551593
321.919250 199.328430 0.000004 0.555025
321.538605 197.639282 0.000002 0.553309
321.258118 196.394821 0.000001 0.537745
323.524933 205.889481 6.445043 0.646324
323.524933 205.889481 5.832685 0.627819
323.524933 205.889481 5.228922 0.668015
323.524933 205.889481 4.632312 0.646446
323.524933 205.889481 4.041468 0.670956
323.524933 205.889481 3.455057 0.673039
323.524933 205.889481 2.871786 0.659926
323.524933 205.889481 2.290388 0.649020
323.524933 205.889481 1.709612 0.646936
323.524933 205.889481 1.128214 0.650490
323.524933 205.889481 0.544943 0.650858
323.443176 205.538177 0.000026 0.527451
322.558655 201.737396 0.000050 0.531373
321.994049 199.311172 0.000028 0.543260
321.601563 197.624756 0.000026 0.522181
321.312469 196.382523 -0.000038 0.520098
323.652100 205.888412 6.452108 0.652819
323.652100 205.888412 5.838776 0.659069
323.652100 205.888412 5.234055 0.668260
323.652100 205.888412 4.636496 0.643015
323.652100 205.888412 4.044712 0.678922
323.652100 205.888412 3.457369 0.614706
323.652100 205.888412 2.873172 0.682966
323.652100 205.888412 2.290849 0.645221
323.652100 205.888412 1.709151 0.646569
323.652100 205.888412 1.126828 0.680760
323.652100 205.888412 0.542630 0.653309
323.561310 205.510345 0.000016 0.517279
322.650269 201.715775 0.000044 0.535662
322.068726 199.293549 0.000019 0.532475
321.664490 197.609924 0.000016 0.541912
321.366730 196.369720 -0.000045 0.514951
323.779633 205.887329 6.459413 0.630024
323.779633 205.887329 5.845075 0.665686
323.779633 205.887329 5.239361 0.622917
323.779633 205.887329 4.640821 0.644118
323.779633 205.887329 4.048068 0.663480
323.779633 205.887329 3.459761 0.624265
323.779633 205.887329 2.874604 0.622672
323.779633 205.887329 2.291326 0.599265
323.779633 205.887329 1.708673 0.632721
323.779633 205.887329 1.125396 0.661152
323.779633 205.887329 0.540239 0.643015
323.679291 205.481842 -0.000013 0.531005
322.741760 201.693680 0.000015 0.537255
322.143311 199.275406 0.000013 0.538358
321.727295 197.594620 0.000013 0.548039
321.420929 196.356628 -0.000076 0.544363
323.907623 205.886246 6.466960 0.622794
323.907623 205.886246 5.851582 0.640809
323.907623 205.886246 5.244843 0.657843
323.907623 205.886246 4.645291 0.644240
323.907623 205.886246 4.051534 0.650980
323.907623 205.886246 3.462231 0.629044
323.907623 205.886246 2.876084 0.645466
323.907623 205.886246 2.291820 0.653799
323.907623 205.886246 1.708181 0.621814
323.907623 205.886246 1.123916 0.631985
323.907623 205.886246 0.537768 0.634681
323.796906 205.451904 0.000030 0.528309
322.833008 201.670471 0.000057 0.544240
322.217651 199.256500 0.000055 0.547181
321.789978 197.578690 0.000053 0.547549
321.474945 196.342896 -0.000033 0.513603
324.036041 205.885162 6.474751 0.596691
324.036041 205.885162 5.858299 0.695098
324.036041 205.885162 5.250502 0.620466
324.036041 205.885162 4.649904 0.620221
324.036041 205.885162 4.055111 0.717157
324.036041 205.885162 3.464782 0.617892
324.036041 205.885147 2.877612 0.637255
324.036041 205.885147 2.292328 0.636765
324.036041 205.885147 1.707672 0.647059
324.036041 205.885162 1.122388 0.658456
324.036041 205.885162 0.535218 0.625613
323.914429 205.421570 0.000026 0.545221
322.924133 201.646927 0.000051 0.533946
322.291931 199.237305 0.000049 0.482721
321.852570 197.562531 0.000048 0.510417
321.528870 196.328842 -0.000012 0.496201
324.164917 205.884048 6.482787 0.597917
324.164917 205.884048 5.865229 0.654902
324.164917 205.884048 5.256340 0.653799
324.164917 205.884048 4.654664 0.643995
324.164917 205.884048 4.058802 0.697181
324.164917 205.884048 3.467412 0.621814
324.164917 205.884048 2.879188 0.634436
324.164917 205.884048 2.292854 0.623529
324.164917 205.884048 1.707147 0.672672
324.164917 205.884048 1.120812 0.643382
324.164917 205.884064 0.532587 0.661029
324.031769 205.390610 -0.000006 0.518995
323.015137 201.622910 0.000024 0.528799
322.366150 199.217743 0.000020 0.517647
321.915070 197.546051 0.000018 0.550368
321.582794 196.314651 -0.000044 0.535172
324.186432 205.494110 6.389993 0.611152
324.186432 205.494110 5.785219 0.650735
324.186401 205.493988 5.188913 0.639706
324.186401 205.493988 4.599692 0.650613
324.186432 205.494125 4.016188 0.657475
324.186371 205.493927 3.437021 0.650245
324.186371 205.493942 2.860980 0.644240
324.312134 205.947372 2.294488 0.678431
324.312134 205.947372 1.705512 0.678431
324.294281 205.882965 1.119187 0.638113
324.294281 205.882965 0.529875 0.660539
324.148743 205.358170 0.000044 0.529534
323.105865 201.597809 0.000065 0.519608
322.440094 199.197250 0.000064 0.549510
321.977448 197.529083 -0.000005 0.544363
321.636536 196.299759 -0.000001 0.555760
324.182922 205.035233 6.279100 0.650613
324.182922 205.035248 5.689605 0.636642
324.182953 205.035339 5.108400 0.652328
324.182953 205.035339 4.534059 0.669118
324.182922 205.035248 3.965258 0.649632
324.182953 205.035324 3.400744 0.629044
324.182861 205.035080 2.839232 0.666544
324.442444 205.946259 2.295048 0.678431
324.442444 205.946259 1.704952 0.678431
324.424103 205.881851 1.117513 0.643627
324.424103 205.881866 0.527081 0.662010
324.182617 205.034195 0.034868 0.628309
323.196564 201.572693 0.000009 0.534191
322.513977 199.176529 0.000057 0.542034
322.039703 197.511719 -0.000034 0.555760
321.690216 196.284790 -0.000029 0.505270
324.178986 204.596863 6.173329 0.621201
324.179016 204.596909 5.598411 0.630024
324.178986 204.596817 5.031539 0.656618
324.178986 204.596848 4.471402 0.625980
324.178955 204.596771 3.916667 0.619118
324.178986 204.596878 3.366113 0.626225
324.179016 204.596924 2.818499 0.636765
324.573273 205.945160 2.295624 0.678431
324.573273 205.945145 1.704376 0.678431
324.554443 205.880753 1.115789 0.635784
324.554443 205.880753 0.524204 0.651348
324.178925 204.596634 0.083350 0.574020
323.287018 201.546646 0.000001 0.529289
322.587708 199.155258 0.000054 0.519853
322.101837 197.493790 -0.000036 0.539338
321.743744 196.269333 -0.000031 0.557476
324.175018 204.178894 6.072661 0.666299
324.175018 204.178925 5.511610 0.664706
324.175018 204.178879 4.958416 0.656373
324.175018 204.178909 4.411792 0.673162
324.175079 204.179077 3.870466 0.638848
324.175049 204.178970 3.333166 0.619363
324.175079 204.179047 2.798759 0.642892
324.704620 205.944046 2.296217 0.678431
324.704620 205.944046 1.703783 0.678431
324.685303 205.879639 1.114015 0.666789
324.685303 205.879639 0.521245 0.633333
324.247864 204.421616 0.100403 0.575490
323.377319 201.520096 -0.000027 0.526471
322.661346 199.133621 0.000025 0.522917
322.163849 197.475571 -0.000067 0.502574
321.797272 196.253632 -0.000062 0.519485
324.202087 203.880844 6.003200 0.667402
324.202087 203.880875 5.451716 0.659804
324.202087 203.880859 4.907965 0.640319
324.202118 203.880890 4.370662 0.645711
324.202087 203.880875 3.838545 0.653676
324.202087 203.880814 3.310419 0.685539
324.202087 203.880859 2.785130 0.632843
324.836487 205.942917 2.296827 0.678431
324.836487 205.942917 1.703173 0.678431
324.816681 205.878540 1.112191 0.640319
324.816681 205.878540 0.518200 0.643750
324.358154 204.388107 0.100403 0.563358
323.467316 201.492447 0.000016 0.529412
322.734680 199.111099 0.000068 0.524755
322.225647 197.456482 -0.000000 0.511765
321.850525 196.237259 -0.000020 0.566299
324.306946 203.842300 6.001788 0.643750
324.306793 203.841949 5.450412 0.654289
324.306763 203.841843 4.906850 0.627328
324.306824 203.842056 4.369783 0.643382
324.306824 203.842026 3.837862 0.640686
324.306763 203.841812 3.309919 0.624755
324.280121 203.757233 2.780470 0.695588
324.385284 204.090820 2.265695 0.686275
324.385284 204.090820 1.734305 0.709559
324.385284 204.090820 1.202345 0.685172
324.385284 204.090820 0.668672 0.623652
324.372864 204.051346 0.136887 0.651471
323.557190 201.464493 0.000010 0.534436
322.807953 199.088303 0.000062 0.542770
322.287384 197.437286 -0.000006 0.564216
321.903717 196.220596 0.000000 0.529044
324.423737 203.841125 6.010405 0.653554
324.424011 203.841904 5.458100 0.647304
324.423981 203.841797 4.913327 0.643995
324.423645 203.840820 4.374877 0.620711
324.423676 203.840912 3.841826 0.673897
324.424133 203.842224 3.312877 0.653676
324.396362 203.756271 2.782162 0.711275
324.481140 204.018829 2.265050 0.669240
324.481140 204.018829 1.734951 0.705515
324.481140 204.018829 1.204283 0.689093
324.481140 204.018829 0.671906 0.672549
324.471558 203.989090 0.140258 0.583456
323.646912 201.436050 -0.000019 0.523284
322.881287 199.065735 -0.000086 0.508824
322.348969 197.417740 -0.000032 0.565441
321.956848 196.203766 -0.000029 0.552328
324.544617 203.850586 6.022067 0.767647
324.544617 203.850586 5.467978 0.691176
324.544617 203.850586 4.921668 0.720956
324.544617 203.850586 4.381829 0.741667
324.544617 203.850586 3.847208 0.728431
324.544617 203.850586 3.316598 0.751838
324.513092 203.755295 2.783898 0.721324
324.611511 204.052826 2.266241 0.681373
324.611511 204.052826 1.733759 0.665196
324.611511 204.052826 1.200706 0.631985
324.611511 204.052826 0.665935 0.647794
324.595551 204.004623 0.134129 0.661152
323.736267 201.406479 0.000036 0.539828
322.954163 199.041656 -0.000040 0.536152
322.410370 197.397461 0.000012 0.536029
322.009796 196.186279 0.000017 0.558701
324.662628 203.849579 6.031209 0.682843
324.681000 203.903915 5.488247 0.678431
324.681000 203.903915 4.938744 0.678431
324.681000 203.903915 4.395751 0.678431
324.681000 203.903915 3.858005 0.678431
324.666656 203.861542 3.320624 0.755515
324.630371 203.754318 2.785681 0.706495
325.369690 205.938400 2.299439 0.678431
325.369690 205.938400 1.700562 0.678431
325.347900 205.874039 1.104380 0.637010
325.347900 205.874039 0.505162 0.617402
324.796906 204.246384 0.100403 0.559926
323.825592 201.376801 0.000006 0.543137
323.026978 199.017456 -0.000068 0.555515
322.471802 197.377289 -0.000065 0.553309
322.062744 196.168869 -0.000058 0.554289
324.781158 203.848587 6.040590 0.726103
324.799988 203.902908 5.496365 0.678431
324.799957 203.902893 4.945583 0.678431
324.799957 203.902908 4.401326 0.678431
324.799957 203.902908 3.862329 0.678431
324.785309 203.860519 3.323698 0.753799
324.748138 203.753174 2.787501 0.734191
325.504486 205.937256 2.300136 0.678431
325.504486 205.937256 1.699865 0.678431
325.482178 205.872894 1.102296 0.651348
325.482178 205.872894 0.501683 0.618137
324.905975 204.209030 0.100403 0.542892
323.914673 201.346329 0.000001 0.548162
323.099609 198.992630 -0.000073 0.540196
322.532959 197.356354 -0.000066 0.546814
322.115479 196.150833 -0.000063 0.543382
324.900299 203.847580 6.050211 0.725245
324.919495 203.901886 5.504691 0.678431
324.919495 203.901886 4.952598 0.678431
324.919495 203.901886 4.407044 0.678431
324.919495 203.901886 3.866764 0.678431
324.904510 203.859512 3.326850 0.720956
324.866516 203.752197 2.789378 0.719730
325.639893 205.936111 2.300851 0.678431
325.639893 205.936111 1.699150 0.678431
325.617126 205.871750 1.100158 0.650735
325.617126 205.871750 0.498116 0.643260
325.014801 204.170929 0.100403 0.553431
324.003418 201.314957 0.000044 0.556373
323.171875 198.966934 -0.000009 0.514706
322.593903 197.334808 -0.000025 0.547794
322.168060 196.132248 -0.000022 0.549632
325.020233 203.847321 6.060279 0.783088
325.036224 203.891434 5.511062 0.120343
325.039612 203.900879 4.959792 0.678431
325.039612 203.900879 4.412909 0.678431
325.039612 203.900879 3.871311 0.678431
325.024292 203.858505 3.330083 0.734436
324.985443 203.751221 2.791303 0.723284
325.776001 205.934952 2.301583 0.678431
325.776001 205.934952 1.698417 0.678431
325.752655 205.870605 1.097966 0.626225
325.752655 205.870605 0.494457 0.655637
325.123322 204.132080 0.100403 0.565809
324.092163 201.283691 -0.000031 0.534191
323.244202 198.941193 -0.000034 0.542892
322.654785 197.313019 -0.000027 0.516422
322.220520 196.113464 -0.000021 0.518750
325.144653 203.857483 6.073383 0.728186
325.159698 203.898163 5.521590 0.778676
325.160339 203.899841 4.967164 0.678431
325.160339 203.899841 4.418920 0.678431
325.160339 203.899841 3.875973 0.678431
325.144653 203.857483 3.333396 0.760907
325.104980 203.750229 2.793276 0.728799
325.912720 205.933792 2.302335 0.678431
325.912720 205.933792 1.697666 0.678431
325.888916 205.869461 1.095718 0.671569
325.888916 205.869461 0.490706 0.628922
325.231567 204.092453 0.100403 0.561397
324.180603 201.251419 -0.000042 0.522426
323.316284 198.914841 -0.000041 0.521201
322.715515 197.290833 -0.000036 0.529657
322.272888 196.094330 -0.000027 0.577328
325.265656 203.856461 6.083755 0.729167
325.266327 203.858292 5.521591 0.785172
325.281647 203.898834 4.974720 0.678431
325.281647 203.898834 4.425078 0.678431
325.281647 203.898834 3.880750 0.678431
325.265625 203.856445 3.336791 0.733456
325.225098 203.749237 2.795297 0.683333
326.050171 205.932632 2.303104 0.678431
326.050171 205.932632 1.696896 0.678431
326.025848 205.868286 1.093416 0.614093
326.025848 205.868286 0.486863 0.648284
325.339569 204.052078 0.100403 0.593382
324.268768 201.218475 -0.000048 0.524020
323.388153 198.888000 -0.000043 0.551103
322.776062 197.268204 -0.000039 0.513113
322.325104 196.074829 -0.000032 0.529534
325.382629 203.843491 6.091174 0.806373
325.382629 203.843491 5.527565 0.766544
325.382629 203.843491 4.971868 0.770343
325.382629 203.843491 4.422754 0.774632
325.382629 203.843491 3.878947 0.807476
325.382629 203.843491 3.339219 0.777574
325.345856 203.748245 2.797368 0.706127
326.188324 205.931473 2.303893 0.678431
326.188324 205.931473 1.696107 0.678431
326.163513 205.867126 1.091057 0.672794
326.163483 205.867111 0.482926 0.662255
325.447266 204.010956 0.100403 0.595833
324.356689 201.184753 -0.000022 0.536029
323.459778 198.860489 -0.000019 0.535907
322.836426 197.245041 -0.000014 0.545221
322.377136 196.054840 -0.000006 0.543260
325.509491 203.854385 6.105260 0.754657
325.504791 203.842453 5.536939 0.748652
325.526154 203.896759 4.990386 0.678431
325.526154 203.896759 4.437849 0.678431
325.526154 203.896759 3.890654 0.678431
325.509491 203.854385 3.343831 0.743382
325.467255 203.747253 2.799488 0.685172
326.305817 205.875977 2.303745 0.723652
326.305817 205.875977 1.696254 0.744118
326.301880 205.865952 1.088641 0.652083
326.301880 205.865952 0.478894 0.669608
325.554626 203.969086 0.100403 0.585662
324.444397 201.150589 -0.000028 0.544118
323.531311 198.832626 -0.000021 0.553309
322.896667 197.221573 -0.000018 0.544730
322.429108 196.034607 -0.000010 0.535784
325.632385 203.853348 6.116402 0.722549
325.627594 203.841415 5.546537 0.739951
325.649414 203.895706 4.998501 0.678431
325.649414 203.895706 4.444466 0.678431
325.649414 203.895706 3.895785 0.678431
325.632385 203.853348 3.347478 0.737010
325.589233 203.746033 2.801648 0.684681
326.445007 205.874802 2.304570 0.772672
326.445007 205.874802 1.695430 0.793260
326.445007 205.874802 1.085637 0.758088
326.445007 205.874802 0.473880 0.787990
325.661743 203.926453 0.100403 0.600980
324.531860 201.115814 -0.000033 0.542525
323.602661 198.804413 -0.000051 0.542034
322.956757 197.197784 -0.000045 0.539583
322.480896 196.014008 -0.000017 0.494118
325.755951 203.852310 6.127804 0.750490
325.751038 203.840363 5.556362 0.694853
325.773315 203.894669 5.006807 0.678431
325.773315 203.894669 4.451237 0.678431
325.773315 203.894669 3.901036 0.678431
325.755951 203.852310 3.351211 0.743995
325.711945 203.745041 2.803871 0.686765
326.611328 205.937881 2.306550 0.678431
326.594971 205.898026 1.694155 0.141176
326.594971 205.898026 1.081809 0.167770
326.590881 205.888046 0.468373 0.443137
325.768585 203.883087 0.100403 0.597181
324.619080 201.080414 -0.000036 0.543750
323.673706 198.775436 -0.000034 0.551225
323.016632 197.173370 -0.000026 0.521078
322.532532 195.993057 -0.000017 0.544853
