# This PCD file was generated using the MATLABÂ® pcwrite function
# from Computer Vision ToolboxÂ®.
# .PCD v.7 - Point Cloud Data file format
VERSION .7
FIELDS x y z intensity
SIZE 4 4 4 4
TYPE F F F F
COUNT 1 1 1 1
WIDTH 1293
HEIGHT 1
VIEWPOINT 0 0 0 1 0 0 0
POINTS 1293
DATA ascii
335.982147 201.928482 0.000002 0.537745
335.708740 199.452271 0.000005 0.537132
335.518707 197.731171 0.000017 0.552083
335.378723 196.463303 -0.000010 0.493627
336.556305 206.009048 6.409133 0.772304
336.519257 205.693588 5.733118 0.710172
336.530487 205.789276 5.162571 0.715931
336.530487 205.789261 4.578219 0.748407
336.530487 205.789276 3.999517 0.721569
336.530487 205.789261 3.425157 0.729167
336.530487 205.789261 2.853871 0.676716
336.556305 206.009048 2.288042 0.773775
336.556305 206.009048 1.711958 0.773775
336.556305 206.009048 1.135257 0.772304
336.517456 205.678421 0.583994 0.637010
336.531006 205.793518 -0.000009 0.542892
336.075653 201.917892 -0.000007 0.530882
335.785004 199.443634 -0.000004 0.519975
335.582947 197.723892 0.000010 0.533578
335.434113 196.457031 -0.000020 0.526103
336.683746 206.037994 6.420162 0.678431
336.640717 205.692444 5.736024 0.702206
336.653900 205.798233 5.166886 0.836520
336.653900 205.798233 4.581738 0.827083
336.658875 205.838211 4.006881 0.764461
336.658875 205.838181 3.430403 0.722794
336.652649 205.788239 2.854541 0.704167
336.683746 206.037979 2.288762 0.678431
336.683746 206.037979 1.711238 0.678431
336.683746 206.037979 1.133094 0.678431
336.638824 205.677353 0.582885 0.640564
336.651459 205.778915 -0.000008 0.537255
336.169128 201.906708 -0.000025 0.533578
335.861176 199.434525 -0.000021 0.531127
335.647156 197.716217 -0.000011 0.526226
335.489471 196.450394 -0.000037 0.569363
336.807861 206.036926 6.423851 0.678431
336.762451 205.691833 5.739236 0.704902
336.780243 205.827148 5.175029 0.678431
336.781799 205.838898 4.590133 0.106740
336.781586 205.837173 4.008555 0.749265
336.781586 205.837158 3.431597 0.737255
336.774994 205.787201 2.855255 0.726471
336.807861 206.036926 2.289003 0.678431
336.807861 206.036926 1.710997 0.678431
336.807861 206.036926 1.132371 0.678431
336.760376 205.676285 0.581707 0.647059
336.771881 205.763489 -0.000007 0.536765
336.262451 201.894562 0.000002 0.542034
335.937286 199.424606 0.000007 0.543627
335.711243 197.707870 0.000019 0.544485
335.544739 196.443207 -0.000011 0.541176
336.877808 205.643890 6.328637 0.665931
336.884308 205.690689 5.742517 0.723284
336.903107 205.826111 5.177836 0.678431
336.903107 205.826111 4.590665 0.678431
336.904510 205.836121 4.010332 0.752083
336.904480 205.836090 3.432863 0.746446
336.897552 205.786163 2.856011 0.695833
336.932220 206.035858 2.289259 0.678431
336.932220 206.035858 1.710741 0.678431
336.878052 205.645645 1.150958 0.651348
336.882141 205.675140 0.580461 0.647059
336.892151 205.747208 -0.000005 0.533824
336.355774 201.882065 -0.000015 0.538113
336.013336 199.414413 -0.000011 0.523775
335.775330 197.699280 0.000001 0.539828
335.599976 196.435806 -0.000028 0.525980
337.007965 205.700348 6.347227 0.651103
337.006378 205.689545 5.745988 0.715931
337.026154 205.825073 5.180804 0.678431
337.026154 205.825073 4.593085 0.678431
337.027618 205.835068 4.012208 0.729902
337.027588 205.835052 3.434201 0.793137
337.020325 205.785110 2.856811 0.705515
337.062653 206.075165 2.290196 0.121201
337.062653 206.075165 1.709804 0.137868
337.007965 205.700333 1.147399 0.659191
337.004120 205.673981 0.579146 0.647059
337.012299 205.730179 -0.000013 0.542525
336.448975 201.868927 -0.000033 0.542525
336.089294 199.403656 -0.000020 0.545221
335.839325 197.690262 -0.000017 0.532230
335.655182 196.428040 -0.000047 0.521324
337.130341 205.699097 6.351448 0.656005
337.128693 205.688385 5.749644 0.726838
337.149475 205.824020 5.183932 0.678431
337.149475 205.824020 4.595635 0.678431
337.150970 205.834030 4.014187 0.674387
337.150970 205.834015 3.435611 0.731495
337.143341 205.784073 2.857653 0.721201
337.176971 206.003799 2.289317 0.770343
337.176971 206.003799 1.710682 0.771446
337.130341 205.699081 1.146571 0.662623
337.126343 205.672897 0.577753 0.637623
337.132324 205.712234 -0.000012 0.549142
336.542053 201.854813 -0.000004 0.522794
336.165161 199.392151 0.000010 0.550980
335.903259 197.680573 0.000012 0.511397
335.710297 196.419678 -0.000020 0.507230
337.252991 205.698029 6.355942 0.671324
337.251312 205.687668 5.753592 0.711397
337.273010 205.822983 5.187223 0.678431
337.273010 205.822983 4.598317 0.678431
337.274597 205.832977 4.016268 0.709069
337.274597 205.832962 3.437094 0.713235
337.266632 205.783035 2.858539 0.712377
337.306610 206.032700 2.290113 0.678431
337.306610 206.032700 1.709887 0.678431
337.252991 205.698029 1.145689 0.673039
337.248810 205.671753 0.576293 0.646691
337.252258 205.693451 -0.000011 0.538848
336.635040 201.840378 -0.000022 0.543137
336.240997 199.380386 -0.000010 0.523897
335.967163 197.670837 -0.000046 0.533824
335.765411 196.411392 -0.000103 0.563725
337.375946 205.697235 6.360722 0.677696
337.374146 205.686523 5.757631 0.719608
337.396820 205.821930 5.190675 0.678431
337.396851 205.821930 4.601131 0.678431
337.398499 205.831940 4.018453 0.764706
337.398499 205.831924 3.438652 0.766299
337.390137 205.781967 2.859469 0.726716
337.431915 206.031631 2.290427 0.678431
337.431915 206.031631 1.709573 0.678431
337.375946 205.697235 1.144752 0.678064
337.371490 205.670532 0.574765 0.647549
337.372009 205.673752 -0.000003 0.547426
336.727966 201.825302 -0.000042 0.551716
336.316742 199.368088 -0.000028 0.509436
336.030975 197.660461 -0.000064 0.546078
335.820435 196.402466 -0.000125 0.535172
337.557526 206.030563 6.450688 0.678431
337.497253 205.685349 5.761863 0.696324
337.520905 205.820862 5.194291 0.678431
337.520905 205.820877 4.604079 0.678431
337.522644 205.830887 4.020741 0.718015
337.522644 205.830856 3.440281 0.742647
337.513947 205.780930 2.860443 0.705147
337.557526 206.030563 2.290756 0.678431
337.557526 206.030563 1.709244 0.678431
337.557526 206.030563 1.127107 0.678431
337.494446 205.669235 0.573171 0.647059
337.491669 205.653290 -0.000002 0.536029
336.820709 201.809158 -0.000001 0.521814
336.392365 199.354980 0.000004 0.565686
336.094696 197.649429 -0.000033 0.572917
335.875366 196.392944 -0.000093 0.508824
337.680267 206.012314 6.451577 0.667279
337.620636 205.684189 5.766288 0.731250
337.639832 205.789871 5.192531 0.829044
337.639832 205.789871 4.602645 0.839093
337.646851 205.828415 4.022967 0.735662
337.646851 205.828400 3.441869 0.714951
337.638031 205.779877 2.861462 0.719240
337.680267 206.012314 2.290814 0.751471
337.680267 206.012314 1.709185 0.735907
337.680267 206.012314 1.126933 0.739461
337.617798 205.668625 0.571446 0.637377
337.611145 205.632004 -0.000002 0.530760
336.913391 201.792679 -0.000006 0.535294
336.467926 199.341553 -0.000001 0.555760
336.158356 197.638123 -0.000040 0.527574
335.930267 196.383194 -0.000100 0.548039
337.758087 205.755829 6.391959 0.651961
337.744385 205.683395 5.770992 0.715319
337.762390 205.778824 5.194621 0.747917
337.762390 205.778824 4.604348 0.673529
337.762390 205.778824 4.019781 0.721814
337.762390 205.778824 3.439599 0.761765
337.762390 205.778824 2.862524 0.731005
337.762390 205.778824 2.287303 0.747794
337.762390 205.778824 1.712697 0.720221
337.757996 205.755478 1.138643 0.639828
337.741425 205.667892 0.569656 0.653309
337.730469 205.609879 -0.000001 0.537745
337.005981 201.775650 -0.000025 0.553309
336.543365 199.327682 -0.000023 0.524142
336.221924 197.626419 -0.000057 0.563603
335.985077 196.373093 -0.000117 0.535907
337.887085 205.777649 6.403440 0.751103
337.868378 205.682251 5.775811 0.696814
337.887085 205.777649 5.198703 0.781495
337.887085 205.777649 4.607674 0.760662
337.887085 205.777649 4.022360 0.711887
337.887085 205.777649 3.441438 0.747549
337.887085 205.777649 2.863626 0.725490
337.887085 205.777649 2.287670 0.764828
337.887085 205.777649 1.712330 0.755024
337.887085 205.777649 1.136374 0.727574
337.887085 205.777649 0.558562 0.775613
337.849701 205.586990 -0.000008 0.530882
337.098358 201.757645 0.000005 0.530637
336.618713 199.313004 0.000008 0.536520
336.285370 197.614044 -0.000026 0.542892
336.039795 196.362457 -0.000088 0.520956
338.012115 205.776627 6.409320 0.784681
337.992676 205.681076 5.780827 0.692157
338.012115 205.776627 5.202973 0.752574
338.012115 205.776627 4.611157 0.733824
338.012115 205.776627 4.025062 0.674020
338.012115 205.776611 3.443362 0.674142
338.012115 205.776627 2.864779 0.725368
338.012115 205.776627 2.288054 0.735784
338.012115 205.776627 1.711946 0.739828
338.012115 205.776627 1.135220 0.737377
338.012115 205.776596 0.556638 0.734436
337.968719 205.563187 -0.000006 0.530270
337.190704 201.739349 -0.000015 0.522181
336.693939 199.298019 -0.000001 0.543750
336.348785 197.601471 -0.000045 0.588971
336.094452 196.351563 -0.000096 0.583211
338.148010 205.825470 6.428206 0.725245
338.117401 205.680206 5.786106 0.680270
338.145905 205.815475 5.214833 0.678431
338.145905 205.815475 4.620827 0.678431
338.145905 205.815475 4.032559 0.678431
338.148010 205.825455 3.449544 0.765809
338.141693 205.795532 2.866981 0.750368
338.145905 205.815475 2.289120 0.678431
338.145905 205.815475 1.710879 0.678431
338.126831 205.724960 1.136562 0.909681
338.148010 205.825439 0.550457 0.749265
338.087524 205.538589 -0.000008 0.536642
337.282867 201.720367 -0.000032 0.530392
336.769135 199.282547 -0.000019 0.529779
336.412170 197.588791 -0.000139 0.536887
336.149078 196.340332 -0.000118 0.547672
338.274109 205.824402 6.434565 0.760907
338.242401 205.679062 5.791523 0.701226
338.271912 205.814407 5.219450 0.678431
338.271912 205.814407 4.624590 0.678431
338.271912 205.814392 4.035479 0.678431
338.274078 205.824387 3.451625 0.742525
338.267303 205.793289 2.868166 0.759314
338.271912 205.814392 2.289536 0.678431
338.271912 205.814392 1.710464 0.678431
338.252136 205.723831 1.135326 0.907598
338.274078 205.824387 0.548375 0.749020
338.206207 205.513138 -0.000007 0.546324
337.374878 201.700439 -0.000002 0.537990
336.844116 199.266296 0.000012 0.551348
336.475372 197.575104 -0.000109 0.552083
336.203552 196.328522 -0.000086 0.525735
338.400543 205.823318 6.441157 0.749755
338.367828 205.678101 5.797182 0.706373
338.398285 205.813339 5.224237 0.678431
338.398285 205.813339 4.628492 0.678431
338.398285 205.813324 4.038506 0.678431
338.400543 205.823318 3.453784 0.734069
338.393250 205.791000 2.869396 0.777574
338.398285 205.813324 2.289966 0.678431
338.398285 205.813339 1.710034 0.678431
338.377838 205.722687 1.134044 0.894975
338.400543 205.823303 0.546216 0.753309
338.324707 205.486877 -0.000007 0.536887
337.466797 201.680191 -0.000021 0.537010
336.919037 199.249802 -0.000007 0.554044
336.538513 197.561157 -0.000123 0.527328
336.257996 196.316544 -0.000106 0.501838
338.527374 205.822235 6.447988 0.745711
338.493591 205.676987 5.803012 0.706985
338.525055 205.812256 5.229196 0.678431
338.525055 205.812256 4.632535 0.678431
338.525055 205.812256 4.041640 0.678431
338.527374 205.822235 3.456020 0.746201
338.519562 205.788635 2.870669 0.767279
338.525055 205.812256 2.290412 0.678431
338.525055 205.812256 1.709588 0.678431
338.503937 205.721573 1.132714 0.914706
338.527374 205.822220 0.543981 0.733701
338.443024 205.459763 -0.000005 0.542034
337.558563 201.659210 -0.000026 0.554044
336.993896 199.232681 -0.000011 0.517647
336.601501 197.546768 -0.000128 0.537990
336.312317 196.304077 -0.000099 0.518873
338.654633 205.821167 6.455058 0.689461
338.619751 205.675858 5.809044 0.702574
338.652222 205.811188 5.234328 0.678431
338.652222 205.811188 4.636719 0.678431
338.652222 205.811188 4.044885 0.678431
338.654633 205.821167 3.458334 0.731495
338.646240 205.786270 2.871986 0.750735
338.652222 205.811188 2.290874 0.678431
338.652222 205.811188 1.709126 0.678431
338.630432 205.720428 1.131340 0.911520
338.654633 205.821152 0.541666 0.736397
338.561157 205.431824 -0.000005 0.547917
337.650085 201.637283 0.000015 0.543627
337.068512 199.214859 0.000020 0.558333
336.664398 197.531754 -0.000099 0.552451
336.366547 196.291122 -0.000071 0.480147
338.782227 205.820084 6.462367 0.747181
338.746307 205.674850 5.815307 0.718382
338.779785 205.810104 5.239635 0.678431
338.779785 205.810104 4.641046 0.678431
338.779785 205.810104 4.048241 0.678431
338.782227 205.820068 3.460727 0.761765
338.773254 205.783813 2.873348 0.735662
338.779785 205.810104 2.291351 0.678431
338.779785 205.810104 1.708649 0.678431
338.757294 205.719284 1.129918 0.923162
338.782227 205.820068 0.539274 0.741667
338.679077 205.403137 -0.000011 0.534069
337.741577 201.615112 -0.000004 0.557721
337.143250 199.197449 -0.000123 0.551225
336.727234 197.516479 -0.000108 0.482108
336.420715 196.277985 -0.000088 0.560539
338.910309 205.819000 6.469919 0.695221
338.873291 205.673752 5.821759 0.716544
338.907776 205.809021 5.245118 0.678431
338.907776 205.809021 4.645514 0.678431
338.907776 205.809021 4.051707 0.678431
338.910309 205.819000 3.463199 0.761275
338.900726 205.781326 2.874754 0.750123
338.907776 205.809021 2.291844 0.678431
338.907776 205.809021 1.708156 0.678431
338.884613 205.718124 1.128449 0.925980
338.910309 205.818985 0.536802 0.733946
338.796783 205.373550 -0.000010 0.534559
337.832916 201.592316 -0.000024 0.524755
337.217682 199.178864 -0.000143 0.533946
336.789978 197.500824 -0.000129 0.539951
336.474823 196.264496 -0.000108 0.520711
339.038818 205.817917 6.477715 0.729902
339.000702 205.672653 5.828423 0.711887
339.036224 205.807922 5.250777 0.678431
339.036224 205.807922 4.650129 0.678431
339.036224 205.807922 4.055285 0.678431
339.038818 205.817902 3.465751 0.731618
339.028595 205.778793 2.876206 0.765931
339.036224 205.807922 2.292353 0.678431
339.036224 205.807922 1.707647 0.678431
339.012360 205.716980 1.126933 0.920711
339.038818 205.817902 0.534250 0.753554
338.914276 205.343155 -0.000007 0.518382
337.923981 201.568497 0.000012 0.535662
337.291931 199.159470 -0.000109 0.512868
336.852509 197.484467 -0.000092 0.545466
336.528717 196.250351 -0.000061 0.519485
339.167786 205.816818 6.485757 0.753922
339.128601 205.671600 5.835304 0.706740
339.165131 205.806824 5.256617 0.678431
339.165131 205.806824 4.654889 0.678431
339.165131 205.806824 4.058976 0.678431
339.167786 205.816803 3.468384 0.734804
339.156830 205.776199 2.877704 0.756495
339.165131 205.806824 2.292878 0.678431
339.165131 205.806824 1.707122 0.678431
339.140564 205.715805 1.125369 0.895466
339.167786 205.816788 0.531617 0.787868
339.031555 205.311935 -0.000006 0.522794
338.014954 201.544357 0.000003 0.544118
337.366119 199.139786 -0.000118 0.523897
336.914978 197.467896 -0.000102 0.546201
336.582611 196.236069 -0.000072 0.534926
339.297241 205.815720 6.494048 0.756740
339.256927 205.670441 5.842378 0.713113
339.294464 205.805740 5.262635 0.678431
339.294464 205.805740 4.659795 0.678431
339.294464 205.805740 4.062782 0.678431
339.297241 205.815720 3.471097 0.742525
339.285553 205.773575 2.879248 0.789338
339.294464 205.805740 2.293419 0.678431
339.294464 205.805740 1.706580 0.678431
339.269196 205.714630 1.123757 0.923039
339.297211 205.815704 0.528903 0.761152
339.148651 205.279922 -0.000008 0.555147
338.105804 201.519653 -0.000017 0.539828
337.440155 199.119629 -0.000136 0.544976
336.977356 197.450867 -0.000112 0.524020
336.636414 196.221420 -0.000090 0.525123
339.427155 205.814621 6.502589 0.739706
339.385803 205.669434 5.849699 0.687623
339.424286 205.804642 5.268836 0.678431
339.424286 205.804642 4.664850 0.678431
339.424286 205.804642 4.066703 0.678431
339.427155 205.814606 3.473893 0.731863
339.414703 205.770874 2.880837 0.758946
339.424286 205.804626 2.293977 0.678431
339.424286 205.804626 1.706023 0.678431
339.398346 205.713470 1.122095 0.920098
339.427155 205.814590 0.526107 0.761397
339.265472 205.247070 -0.000007 0.525858
338.196533 201.494720 -0.000103 0.551225
337.513977 199.098648 -0.000096 0.518505
337.039551 197.433243 -0.000081 0.498774
336.690033 196.206223 -0.000061 0.545588
339.557587 205.813507 6.511384 0.739216
339.515106 205.668243 5.857193 0.703431
339.554657 205.803528 5.275221 0.678431
339.554657 205.803528 4.670054 0.678431
339.554657 205.803528 4.070739 0.678431
339.557587 205.813492 3.476772 0.716667
339.542969 205.763641 2.882244 0.727574
339.554657 205.803528 2.294552 0.678431
339.554657 205.803528 1.705449 0.678431
339.527954 205.712204 1.120389 0.926838
339.557587 205.813492 0.523228 0.759314
339.382111 205.213455 -0.000012 0.550000
338.287018 201.468719 -0.000118 0.525123
337.587738 199.077438 -0.000110 0.517402
337.101685 197.415359 -0.000092 0.553064
336.743591 196.190781 -0.000065 0.540074
339.688507 205.812393 6.520432 0.788603
339.644958 205.667252 5.864958 0.693995
339.685516 205.802414 5.281791 0.678431
339.685516 205.802414 4.675411 0.678431
339.685516 205.802414 4.074892 0.678431
339.688507 205.812393 3.479734 0.787377
339.673553 205.762527 2.884013 0.753186
339.685516 205.802414 2.295142 0.678431
339.685516 205.802414 1.704858 0.678431
339.658173 205.711243 1.118617 0.908211
339.688507 205.812378 0.520267 0.761152
339.498474 205.178955 -0.000011 0.533456
338.377350 201.442123 -0.000140 0.556005
337.661346 199.055740 -0.000128 0.531127
337.163696 197.397079 -0.000113 0.538725
336.797058 196.175034 -0.000086 0.557598
339.820007 205.811295 6.529739 0.797426
339.775299 205.666016 5.872884 0.690441
339.816925 205.801315 5.288547 0.678431
339.816925 205.801300 4.680920 0.678431
339.816925 205.801315 4.079165 0.678431
339.819977 205.811279 3.482780 0.778186
339.804626 205.761414 2.885833 0.754289
339.816925 205.801300 2.295750 0.678431
339.816925 205.801300 1.704250 0.678431
339.788940 205.710327 1.116793 0.919853
339.819977 205.811264 0.517220 0.779534
339.614594 205.143677 -0.000012 0.539706
338.467316 201.414536 -0.000103 0.567402
337.734741 199.033279 -0.000098 0.554289
337.225525 197.378113 -0.000072 0.541789
336.850372 196.158707 -0.000053 0.514828
339.936279 205.760284 6.526205 0.755637
339.906281 205.665085 5.881105 0.702328
339.936279 205.760284 5.287879 0.771936
339.936279 205.760284 4.680375 0.763480
339.936279 205.760284 4.078742 0.769608
339.936279 205.760284 3.481624 0.733946
339.936279 205.760284 2.887703 0.734436
339.936279 205.760284 2.295690 0.753431
339.936279 205.760284 1.704310 0.739828
339.936279 205.760284 1.112296 0.725000
339.936279 205.760284 0.518375 0.739093
339.730469 205.107559 -0.000008 0.546691
338.557220 201.386581 -0.000110 0.536029
337.808014 199.010468 -0.000102 0.533211
337.287262 197.358917 -0.000077 0.542770
336.903564 196.142090 -0.000046 0.505882
340.065277 205.749313 6.533410 0.624877
340.037689 205.663818 5.889473 0.708456
340.065277 205.749313 5.293114 0.601961
340.065277 205.749313 4.684643 0.709436
340.065277 205.749313 4.082052 0.646936
340.065277 205.749313 3.483983 0.613113
340.065277 205.749313 2.889117 0.628922
340.065277 205.749313 2.296161 0.626716
340.065277 205.749313 1.703839 0.648284
340.065277 205.749313 1.110883 0.635784
340.065277 205.749313 0.516016 0.625368
339.846100 205.070663 -0.000008 0.538113
338.646912 201.358078 -0.000129 0.540686
337.881134 198.987183 -0.000112 0.524510
337.348846 197.339310 -0.000092 0.529044
336.956696 196.125214 -0.000064 0.512990
340.197998 205.748184 6.543472 0.617525
340.169830 205.662933 5.898160 0.714583
340.197998 205.748184 5.300422 0.653676
340.197998 205.748184 4.690600 0.618382
340.197998 205.748184 4.086672 0.637255
340.197998 205.748184 3.487276 0.668873
340.197998 205.748184 2.891090 0.638726
340.197998 205.748184 2.296818 0.613971
340.197998 205.748184 1.703182 0.662010
340.197998 205.748184 1.108910 0.647304
340.197998 205.748184 0.512723 0.646446
339.961456 205.032944 -0.000007 0.538848
338.736420 201.328918 -0.000142 0.518750
337.954102 198.963425 -0.000127 0.559681
337.410339 197.319290 -0.000107 0.509314
337.009705 196.107956 -0.000078 0.554779
340.334686 205.757034 6.556437 0.707843
340.302429 205.661652 5.906982 0.728186
340.334686 205.757019 5.309838 0.772426
340.334686 205.757019 4.698277 0.773039
340.301483 205.658936 4.080714 0.647059
340.301483 205.658936 3.483029 0.635294
340.334686 205.757019 2.893633 0.737990
340.334686 205.757019 2.297665 0.737010
340.334686 205.757019 1.702335 0.725980
340.334686 205.757019 1.106367 0.757353
340.334686 205.757019 0.508480 0.757598
340.076569 204.994400 -0.000005 0.548529
338.825623 201.298859 -0.000111 0.526838
338.026825 198.938904 -0.000095 0.564093
337.471558 197.298615 -0.000068 0.555637
337.062531 196.090149 -0.000049 0.527941
340.485962 205.805771 6.580259 0.775000
340.435608 205.660278 5.916018 0.728431
340.470428 205.760880 5.318502 0.678431
340.555023 206.005173 4.743689 0.678431
340.439178 205.670654 4.087119 0.678064
340.439178 205.670654 3.487595 0.661274
340.468903 205.756485 2.895743 0.772426
340.472168 205.765869 2.298530 0.858701
340.472168 205.765869 1.701470 0.816667
340.485962 205.805771 1.101695 0.733946
340.468689 205.755890 0.505008 0.739093
340.191376 204.955093 -0.000004 0.553554
338.914703 201.268387 -0.000116 0.544118
338.099426 198.914078 -0.000099 0.536765
337.532745 197.277679 -0.000071 0.550000
337.115265 196.072113 -0.000054 0.556005
340.620972 205.804626 6.591166 0.758333
340.569611 205.659531 5.925433 0.697426
340.605103 205.759735 5.326405 0.678431
340.691589 206.004028 4.750223 0.678431
340.691589 206.004013 4.132913 0.678431
340.691589 206.004013 3.520234 0.678431
340.603180 205.754318 2.897822 0.706985
340.617462 205.794632 2.299761 0.678431
340.606873 205.764709 1.700759 0.834069
340.620972 205.804626 1.099555 0.704657
340.603333 205.754761 0.501448 0.731495
340.305908 204.914948 -0.000001 0.532598
339.003601 201.237396 -0.000137 0.546078
338.171844 198.888763 -0.000110 0.514461
337.593781 197.256409 -0.000091 0.508824
337.167908 196.053757 -0.000072 0.543995
340.756653 205.803467 6.602351 0.753799
340.704041 205.658157 5.934944 0.715441
340.740417 205.758606 5.334509 0.678431
340.828827 206.002853 4.756923 0.678431
340.828827 206.002853 4.138108 0.678431
340.828827 206.002853 3.523937 0.678431
340.738068 205.752106 2.899954 0.805882
340.753052 205.793488 2.300491 0.678431
340.742218 205.763580 1.700030 0.815319
340.756653 205.803467 1.097362 0.711029
340.738617 205.753601 0.497797 0.784804
340.420197 204.874084 -0.000008 0.534069
339.092133 201.205368 -0.000087 0.530025
338.244049 198.862701 -0.000073 0.538235
337.654602 197.234406 -0.000046 0.541422
337.220337 196.034790 -0.000027 0.572672
340.892975 205.802307 6.613818 0.669118
340.839417 205.657501 5.944861 0.722304
340.876404 205.757446 5.342814 0.678431
340.955688 205.971771 4.759060 0.781618
340.865295 205.727524 4.109805 0.661274
340.865295 205.727524 3.503765 0.656863
340.873566 205.749878 2.902139 0.731373
340.889313 205.792328 2.301239 0.678431
340.878204 205.762421 1.699283 0.853309
340.892975 205.802307 1.095113 0.705024
340.874542 205.752441 0.494055 0.746078
340.534180 204.832367 -0.000007 0.532843
339.180542 201.173141 -0.000107 0.554289
338.316162 198.836411 -0.000090 0.511275
337.715332 197.212250 -0.000060 0.565319
337.272705 196.015686 -0.000042 0.550490
341.029999 205.801163 6.625565 0.751838
340.976013 205.658249 5.955343 0.687868
341.013062 205.756287 5.351327 0.678431
341.105347 206.000504 4.770827 0.678431
340.979309 205.666946 4.107871 0.661152
340.979309 205.666946 3.502385 0.633211
341.009766 205.747589 2.904378 0.747672
341.026245 205.791168 2.302006 0.678431
341.014923 205.761261 1.698517 0.853922
341.029999 205.801147 1.092809 0.773407
341.011169 205.751282 0.490221 0.756495
340.647858 204.789856 -0.000006 0.531985
339.268707 201.140198 -0.000113 0.538113
338.388000 198.809525 -0.000085 0.528186
337.775909 197.189651 -0.000068 0.494485
337.324890 195.996185 -0.000047 0.511029
341.167755 205.799988 6.637599 0.739093
341.148529 205.750137 5.987173 0.770221
341.150421 205.755127 5.360045 0.678431
341.244690 205.999329 4.778036 0.678431
341.115784 205.665298 4.113295 0.672794
341.115784 205.665298 3.506251 0.670711
341.146637 205.745285 2.906671 0.730515
341.163879 205.789993 2.302792 0.678431
341.152344 205.760101 1.697733 0.839583
341.167755 205.799988 1.090449 0.743505
341.148529 205.750122 0.486292 0.739583
340.761261 204.746552 -0.000005 0.511275
339.356720 201.106750 -0.000133 0.533333
338.459717 198.782242 -0.000105 0.523162
337.836334 197.166672 -0.000089 0.544853
337.377075 195.976517 -0.000107 0.528064
341.306213 205.798813 6.649923 0.762990
341.286591 205.748962 5.997768 0.743137
341.288513 205.753937 5.368976 0.678431
341.384705 205.998138 4.785419 0.678431
341.384705 205.998138 4.160209 0.678431
341.384705 205.998138 3.539690 0.678431
341.284180 205.742966 2.909018 0.763235
341.302246 205.788818 2.303596 0.678431
341.290497 205.758926 1.696929 0.836152
341.306213 205.798813 1.088032 0.759681
341.286591 205.748962 0.482270 0.736642
340.874329 204.702515 -0.000010 0.533333
339.444336 201.072327 -0.000096 0.549510
338.531158 198.754166 -0.000065 0.536642
337.896484 197.143036 -0.000051 0.506495
337.428986 195.956146 -0.000072 0.497426
341.445404 205.797623 6.662542 0.744976
341.425354 205.747787 6.008617 0.707353
341.427368 205.752762 5.378118 0.678431
341.525513 205.996948 4.792978 0.678431
341.525513 205.996948 4.166070 0.678431
341.525513 205.996948 3.543868 0.678431
341.449249 205.807129 2.914945 0.692034
341.429413 205.757889 2.303896 0.851348
341.429382 205.757751 1.696107 0.814951
341.445404 205.797623 1.085557 0.712623
341.425354 205.747787 0.478151 0.731618
340.987122 204.657608 -0.000009 0.548162
339.531799 201.037552 -0.000103 0.555025
338.602509 198.725891 -0.000085 0.568260
337.956604 197.119202 -0.000070 0.489828
337.480774 195.935562 -0.000080 0.539216
341.564911 205.746597 6.661963 0.745956
341.564911 205.746597 6.019721 0.694485
341.566956 205.751587 5.387476 0.678431
341.609894 205.856277 4.778355 0.738848
341.543488 205.694351 4.134596 0.655515
341.543488 205.694351 3.521434 0.660539
341.576263 205.774231 2.915796 0.692647
341.564911 205.746597 2.304558 0.783211
341.564911 205.746597 1.695441 0.765441
341.564911 205.746597 1.085671 0.758578
341.564911 205.746597 0.473935 0.710539
341.099548 204.611923 -0.000006 0.540441
339.619049 201.002182 -0.000109 0.553309
338.673584 198.696991 -0.000081 0.533333
338.016479 197.094849 -0.000064 0.481740
337.532440 195.914612 -0.000083 0.546446
341.702606 205.739014 6.673402 0.741176
341.702606 205.739014 6.029583 0.731495
341.702576 205.738953 5.394794 0.727574
341.702576 205.738953 4.767536 0.783333
341.658783 205.634308 4.133289 0.647059
341.658813 205.634323 3.520504 0.665931
341.702942 205.739822 2.916616 0.698284
341.702606 205.739014 2.305306 0.729167
341.702606 205.739014 1.694694 0.750123
341.702606 205.739014 1.083427 0.751593
341.702606 205.739014 0.470191 0.758456
341.211700 204.565521 -0.000012 0.547917
339.706055 200.966232 -0.000122 0.528922
338.744537 198.667709 -0.000095 0.520956
338.076233 197.070175 -0.000076 0.599877
337.583923 195.893295 -0.000091 0.589828
341.846375 205.744125 6.688599 0.712010
341.846375 205.744095 6.042683 0.798039
341.846375 205.744110 5.405843 0.762010
341.846375 205.744110 4.776542 0.766544
341.846375 205.744125 4.153325 0.687010
341.846375 205.744110 3.534782 0.697549
341.829193 205.703842 2.917402 0.706250
341.846375 205.744110 2.306298 0.731495
341.846375 205.744110 1.693701 0.790074
341.846375 205.744125 1.080447 0.713358
341.846375 205.744095 0.465219 0.740441
341.323517 204.518280 -0.000010 0.544730
339.792664 200.929352 -0.000079 0.548774
338.815155 198.637665 -0.000061 0.546078
338.135712 197.044830 -0.000035 0.524387
337.635223 195.871475 -0.000057 0.521446
341.978760 205.720871 6.696362 0.908211
342.010010 205.792709 6.066304 0.741912
342.005676 205.782761 5.423766 0.678431
342.005676 205.782761 4.791154 0.678431
342.005676 205.782776 4.164657 0.678431
342.010040 205.792725 3.543750 0.757721
341.954895 205.665985 2.918136 0.700000
342.005676 205.782761 2.307911 0.678431
342.005676 205.782761 1.692090 0.678431
341.987854 205.741776 1.077804 0.766422
341.993286 205.754272 0.459687 0.756863
341.434967 204.470245 -0.000008 0.532353
339.879120 200.892151 -0.000085 0.556127
338.885620 198.607285 -0.000058 0.561029
338.195099 197.019287 -0.000042 0.549020
337.686462 195.849457 -0.000062 0.542647
342.148834 205.781540 6.727405 0.678431
342.153259 205.791504 6.078499 0.744118
342.148834 205.781540 5.434033 0.678431
342.148834 205.781540 4.799524 0.678431
342.148834 205.781540 4.171147 0.678431
342.153259 205.791519 3.548381 0.696201
342.080170 205.626617 2.918839 0.689706
342.148834 205.781540 2.308834 0.678431
342.148834 205.781540 1.691166 0.678431
342.129486 205.737930 1.075179 0.703799
342.134338 205.748825 0.455447 0.752574
341.546112 204.421463 -0.000008 0.541912
339.965363 200.854385 -0.000097 0.556985
338.955902 198.576508 -0.000070 0.569240
338.254333 196.993347 -0.000053 0.568015
337.737488 195.827057 -0.000064 0.531618
342.292847 205.780334 6.741856 0.678431
342.297363 205.790268 6.090966 0.762132
342.292847 205.780334 5.444531 0.678431
342.292847 205.780334 4.808083 0.678431
342.292847 205.780334 4.177785 0.678431
342.297363 205.790298 3.553113 0.747672
342.233978 205.649994 2.922972 0.709069
342.292847 205.780334 2.309778 0.678431
342.292847 205.780334 1.690222 0.678431
342.278107 205.747681 1.071761 0.735784
342.276123 205.743317 0.451114 0.738725
341.656891 204.371887 -0.000005 0.523897
340.051300 200.816025 -0.000112 0.522304
339.026001 198.545258 -0.000086 0.538971
338.313446 196.967178 -0.000109 0.542279
337.788391 195.804337 -0.000077 0.507230
342.437744 205.779099 6.756629 0.678431
342.442322 205.789047 6.103710 0.719853
342.437744 205.779099 5.455261 0.678431
342.437744 205.779099 4.816830 0.678431
342.437744 205.779099 4.184569 0.678431
342.442322 205.789063 3.557951 0.751838
342.377380 205.647903 2.925801 0.716667
342.437744 205.779099 2.310743 0.678431
342.437744 205.779099 1.689257 0.678431
342.424133 205.749512 1.068705 0.775245
342.418701 205.737656 0.446686 0.759191
341.767334 204.321533 -0.000001 0.548039
340.136871 200.776733 -0.000070 0.563725
339.095764 198.513260 -0.000051 0.569118
338.372223 196.940247 -0.000077 0.507230
337.839050 195.781113 -0.000046 0.569608
342.583557 205.777863 6.771727 0.678431
342.588226 205.787811 6.116737 0.704044
342.583557 205.777863 5.466228 0.678431
342.583557 205.777863 4.825771 0.678431
342.583588 205.777863 4.191504 0.678431
342.588226 205.787827 3.562897 0.723774
342.521667 205.645767 2.928690 0.694730
342.583557 205.777863 2.311729 0.678431
342.583557 205.777863 1.688270 0.678431
342.571167 205.751373 1.065580 0.722181
342.563416 205.734879 0.441898 0.750245
341.877411 204.270401 0.000001 0.548162
340.222260 200.737152 -0.000075 0.560784
339.165344 198.480972 -0.000057 0.561152
338.430847 196.913010 -0.000074 0.556985
337.889618 195.757660 -0.000049 0.535417
342.730316 205.776611 6.787155 0.678431
342.735046 205.786575 6.130047 0.758946
342.730316 205.776611 5.477437 0.678431
342.730316 205.776611 4.834908 0.678431
342.730316 205.776611 4.198590 0.678431
342.735046 205.786591 3.567950 0.716054
342.666870 205.643570 2.931641 0.687623
342.730316 205.776611 2.312737 0.678431
342.730316 205.776611 1.687263 0.678431
342.719208 205.753311 1.062386 0.748775
342.708679 205.731262 0.437075 0.738971
341.987122 204.218567 -0.000003 0.530147
340.307373 200.696976 -0.000087 0.546201
339.234741 198.448196 -0.000059 0.517770
338.489288 196.885406 -0.000082 0.501225
337.940033 195.733841 -0.000053 0.589338
342.878052 205.775375 6.802918 0.678431
342.882843 205.785324 6.143647 0.749387
342.878052 205.775375 5.488888 0.678431
342.878052 205.775375 4.844243 0.678431
342.878052 205.775375 4.205829 0.678431
342.882843 205.785324 3.573113 0.732108
342.812927 205.641357 2.934655 0.678064
342.878052 205.775375 2.313767 0.678431
342.878052 205.775375 1.686233 0.678431
342.868286 205.755310 1.059121 0.744363
342.854828 205.727600 0.432150 0.713358
342.096497 204.165894 -0.000000 0.554167
340.392181 200.656128 -0.000083 0.555760
339.303894 198.414932 -0.000064 0.555392
338.547577 196.857361 -0.000080 0.500368
337.990265 195.709686 -0.000057 0.550490
343.026703 205.774124 6.819022 0.678431
343.031647 205.784058 6.157539 0.750613
343.026703 205.774124 5.500584 0.678431
343.026703 205.774124 4.853779 0.678431
343.026703 205.774124 4.213225 0.678431
343.031647 205.784073 3.578388 0.751961
342.960114 205.639374 2.937749 0.708946
343.026703 205.774109 2.314819 0.678431
343.026703 205.774109 1.685181 0.678431
343.018463 205.757370 1.055784 0.743015
343.002167 205.724426 0.427067 0.659559
342.205505 204.112579 -0.000008 0.541176
340.476593 200.614487 -0.000044 0.530147
339.372711 198.380981 -0.000026 0.519485
338.605560 196.828766 -0.000041 0.572181
338.040253 195.684998 -0.000009 0.568137
343.176422 205.772842 6.835469 0.678431
343.181427 205.782791 6.171731 0.729657
343.176422 205.772842 5.512532 0.678431
343.176422 205.772842 4.863519 0.678431
343.176422 205.772842 4.220778 0.678431
343.181427 205.782791 3.583774 0.784559
343.108582 205.637955 2.940941 0.700000
343.176422 205.772842 2.315893 0.678431
343.176422 205.772842 1.684107 0.678431
343.169708 205.759506 1.052375 0.707966
343.151428 205.723160 0.421699 0.634926
342.314117 204.058380 -0.000004 0.521814
340.560883 200.572571 -0.000059 0.529534
339.441528 198.347031 -0.000082 0.547549
338.663422 196.799973 -0.000056 0.527819
338.090118 195.660126 -0.000016 0.533824
343.327148 205.771561 6.852267 0.678431
343.332245 205.781509 6.186223 0.793260
343.327148 205.771561 5.524735 0.678431
343.327148 205.771561 4.873466 0.678431
343.327148 205.771561 4.228493 0.678431
343.332245 205.781509 3.589276 0.779289
343.258057 205.636536 2.944201 0.726348
343.327148 205.771561 2.316991 0.678431
343.327148 205.771561 1.683009 0.678431
343.322113 205.761703 1.048891 0.734804
343.301758 205.721893 0.416216 0.660539
342.422363 204.003448 -0.000001 0.525123
340.644867 200.530014 -0.000064 0.525613
339.510010 198.312332 -0.000087 0.537377
338.721100 196.770752 -0.000059 0.543627
338.139832 195.634918 -0.000017 0.550980
343.478943 205.770279 6.869421 0.678431
343.484131 205.780228 6.201021 0.727819
343.478943 205.770279 5.537195 0.678431
343.478943 205.770279 4.883624 0.678431
343.478943 205.770279 4.236371 0.678431
343.484131 205.780228 3.594894 0.759069
343.408600 205.635086 2.947530 0.728186
343.478943 205.770279 2.318112 0.678431
343.478943 205.770279 1.681888 0.678431
343.475647 205.763947 1.045333 0.767157
343.453125 205.720612 0.410617 0.642524
342.530212 203.947830 -0.000008 0.523897
340.728546 200.486923 -0.000078 0.524755
339.578186 198.277145 -0.000090 0.545588
338.778564 196.741135 -0.000068 0.509926
338.189392 195.609375 -0.000023 0.544240
343.631836 205.768967 6.886933 0.678431
343.637115 205.778931 6.216131 0.714338
343.631836 205.768982 5.549917 0.678431
343.631836 205.768982 4.893997 0.678431
343.631836 205.768967 4.244414 0.678431
343.637115 205.778946 3.600630 0.753799
343.560516 205.634308 2.950965 0.730882
343.631836 205.768967 2.319255 0.678431
343.631836 205.768967 1.680744 0.678431
343.630402 205.766281 1.041698 0.771078
343.605530 205.719284 0.404902 0.622304
342.637665 203.891388 -0.000005 0.552696
340.811920 200.443237 -0.000090 0.515931
339.646179 198.241531 -0.000103 0.543260
338.835815 196.711105 -0.000078 0.498039
338.238770 195.583496 -0.000034 0.558333
343.764374 205.727875 6.893489 0.692157
343.764374 205.727859 6.219348 0.724877
343.764374 205.727859 5.554676 0.749632
343.764374 205.727859 4.897877 0.705270
343.764374 205.727859 4.247424 0.735662
343.764374 205.727859 3.601852 0.764093
343.713226 205.632858 2.954437 0.705515
343.764374 205.727859 2.319684 0.733946
343.764374 205.727859 1.680316 0.754044
343.764374 205.727859 1.040263 0.751225
343.759064 205.718002 0.399066 0.596814
342.744751 203.834213 -0.000003 0.527328
340.894775 200.398560 -0.000032 0.537868
339.713715 198.205170 -0.000056 0.530147
338.892761 196.680450 -0.000029 0.573162
338.287933 195.557220 -0.000028 0.534069
nan nan nan 0.000000
nan nan nan 0.000000
nan nan nan 0.000000
nan nan nan 0.000000
nan nan nan 0.000000
nan nan nan 0.000000
nan nan nan 0.000000
nan nan nan 0.000000
nan nan nan 0.000000
354.053345 224.236588 -0.000017 0.540441
346.216187 209.922058 -0.000012 0.546201
342.851410 203.776321 -0.000006 0.540319
340.977539 200.353714 -0.000044 0.519240
339.781158 198.168564 -0.000059 0.525245
338.949554 196.649612 -0.000029 0.544730
338.336945 195.530670 -0.000041 0.545956
nan nan nan 0.000000
nan nan nan 0.000000
nan nan nan 0.000000
nan nan nan 0.000000
nan nan nan 0.000000
nan nan nan 0.000000
nan nan nan 0.000000
nan nan nan 0.000000
nan nan nan 0.000000
354.302124 224.099167 -0.000013 0.534926
346.365234 209.839722 -0.000007 0.532966
342.957672 203.717667 -0.000006 0.526838
341.059937 200.308228 -0.000045 0.543873
339.848358 198.131470 -0.000058 0.567524
339.006134 196.618332 -0.000021 0.520711
338.385742 195.503738 -0.000040 0.531127
nan nan nan 0.000000
nan nan nan 0.000000
nan nan nan 0.000000
nan nan nan 0.000000
nan nan nan 0.000000
nan nan nan 0.000000
nan nan nan 0.000000
nan nan nan 0.000000
nan nan nan 0.000000
354.550049 223.960175 -0.000019 0.532475
346.513763 209.756439 -0.000012 0.551593
343.063538 203.658279 -0.000009 0.523162
341.142059 200.262192 -0.000048 0.518750
339.915283 198.093948 -0.000066 0.512745
339.062561 196.586746 -0.000034 0.570221
338.434479 195.476700 -0.000112 0.532598
nan nan nan 0.000000
nan nan nan 0.000000
nan nan nan 0.000000
nan nan nan 0.000000
nan nan nan 0.000000
nan nan nan 0.000000
nan nan nan 0.000000
nan nan nan 0.000000
nan nan nan 0.000000
354.796906 223.819305 -0.000016 0.538113
346.661682 209.672058 -0.000011 0.531618
343.168915 203.598114 -0.000005 0.533578
341.223816 200.215561 -0.000052 0.539706
339.981964 198.055923 -0.000065 0.507230
339.118683 196.554688 -0.000029 0.578554
338.482910 195.449081 -0.000114 0.572672
nan nan nan 0.000000
nan nan nan 0.000000
nan nan nan 0.000000
nan nan nan 0.000000
nan nan nan 0.000000
nan nan nan 0.000000
nan nan nan 0.000000
nan nan nan 0.000000
nan nan nan 0.000000
355.042847 223.676834 -0.000021 0.534681
346.808990 209.586639 -0.000010 0.528431
343.273956 203.537277 -0.000010 0.532108
341.305298 200.168427 -0.000065 0.549387
340.048370 198.017502 -0.000081 0.531495
339.174652 196.522324 -0.000041 0.564338
338.531158 195.421143 -0.000119 0.553431
nan nan nan 0.000000
nan nan nan 0.000000
nan nan nan 0.000000
nan nan nan 0.000000
nan nan nan 0.000000
nan nan nan 0.000000
nan nan nan 0.000000
nan nan nan 0.000000
nan nan nan 0.000000
355.287537 223.532303 -0.000005 0.332598
346.955688 209.500168 -0.000006 0.532353
343.378510 203.475616 -0.000001 0.537377
341.386566 200.120895 -0.000108 0.509191
340.114502 197.978561 -0.000078 0.549387
339.230316 196.489471 -0.000030 0.543382
338.579163 195.392822 -0.000108 0.518750
nan nan nan 0.000000
nan nan nan 0.000000
nan nan nan 0.000000
nan nan nan 0.000000
nan nan nan 0.000000
nan nan nan 0.000000
nan nan nan 0.000000
nan nan nan 0.000000
nan nan nan 0.000000
355.531433 223.386337 -0.000005 0.332475
347.101837 209.412750 -0.000009 0.532108
343.482635 203.413315 -0.000005 0.536642
341.467194 200.072327 -0.000070 0.535172
340.180206 197.938919 -0.000031 0.526593
339.285706 196.456131 0.000005 0.543260
338.626923 195.364059 -0.000074 0.493750
nan nan nan 0.000000
nan nan nan 0.000000
nan nan nan 0.000000
nan nan nan 0.000000
nan nan nan 0.000000
nan nan nan 0.000000
nan nan nan 0.000000
nan nan nan 0.000000
nan nan nan 0.000000
355.667969 223.065216 0.009990 1.000000
347.247284 209.324249 -0.000004 0.536029
343.586334 203.350235 -0.000002 0.521446
341.547607 200.023376 -0.000059 0.524510
340.245758 197.899048 -0.000030 0.524265
339.341064 196.422699 -0.000035 0.533701
338.674530 195.335068 -0.000061 0.533701
nan nan nan 0.000000
nan nan nan 0.000000
nan nan nan 0.000000
nan nan nan 0.000000
nan nan nan 0.000000
nan nan nan 0.000000
nan nan nan 0.000000
nan nan nan 0.000000
nan nan nan 0.000000
356.016113 223.089340 -0.000005 0.332721
347.392212 209.234802 -0.000008 0.524755
343.689636 203.286499 -0.000008 0.546936
341.627716 199.973969 -0.000070 0.523407
340.311066 197.858749 -0.000035 0.540564
339.396240 196.389038 -0.000111 0.536765
338.721954 195.305786 -0.000063 0.494485
nan nan nan 0.000000
nan nan nan 0.000000
nan nan nan 0.000000
nan nan nan 0.000000
nan nan nan 0.000000
nan nan nan 0.000000
nan nan nan 0.000000
nan nan nan 0.000000
nan nan nan 0.000000
356.256866 222.938309 -0.000006 0.332475
347.536469 209.144302 -0.000008 0.543750
343.792419 203.221970 -0.000002 0.519608
341.707458 199.923920 -0.000063 0.529657
340.376068 197.817947 -0.000032 0.527941
339.451019 196.354675 -0.000110 0.549877
338.769165 195.276154 -0.000062 0.512010
nan nan nan 0.000000
nan nan nan 0.000000
nan nan nan 0.000000
nan nan nan 0.000000
nan nan nan 0.000000
nan nan nan 0.000000
nan nan nan 0.000000
nan nan nan 0.000000
nan nan nan 0.000000
356.496643 222.785721 -0.000013 0.332966
347.680084 209.052841 -0.000011 0.538480
343.894806 203.156784 -0.000007 0.515564
341.786865 199.873398 -0.000075 0.518995
340.440796 197.776749 -0.000037 0.521814
339.505524 196.319946 -0.000114 0.528431
338.816223 195.246246 -0.000073 0.561029
nan nan nan 0.000000
nan nan nan 0.000000
nan nan nan 0.000000
nan nan nan 0.000000
nan nan nan 0.000000
nan nan nan 0.000000
nan nan nan 0.000000
nan nan nan 0.000000
nan nan nan 0.000000
356.735321 222.631378 -0.000015 0.332843
347.823029 208.960297 -0.000007 0.549265
343.996704 203.090836 -0.000006 0.529167
341.865875 199.822266 -0.000073 0.548529
340.505219 197.735062 -0.000035 0.536765
339.559784 196.284775 -0.000103 0.546446
338.863007 195.215927 -0.000065 0.543873
nan nan nan 0.000000
nan nan nan 0.000000
nan nan nan 0.000000
nan nan nan 0.000000
nan nan nan 0.000000
nan nan nan 0.000000
nan nan nan 0.000000
nan nan nan 0.000000
nan nan nan 0.000000
356.972870 222.475372 -0.000018 0.332475
347.965393 208.866837 -0.000010 0.536520
344.098175 203.024231 -0.000009 0.549265
341.944580 199.770630 -0.000081 0.555025
340.569397 197.692947 -0.000040 0.558088
339.613861 196.249344 -0.000117 0.552206
338.909729 195.185501 -0.000116 0.583333
nan nan nan 0.000000
nan nan nan 0.000000
nan nan nan 0.000000
nan nan nan 0.000000
nan nan nan 0.000000
nan nan nan 0.000000
nan nan nan 0.000000
nan nan nan 0.000000
nan nan nan 0.000000
357.209351 222.317719 -0.000019 0.332966
348.107025 208.772324 -0.000007 0.536887
344.199097 202.956848 -0.000003 0.561642
342.022949 199.718414 -0.000083 0.540931
340.633240 197.650360 -0.000036 0.517647
339.667633 196.213425 -0.000104 0.578064
338.956055 195.154526 -0.000102 0.513971
nan nan nan 0.000000
nan nan nan 0.000000
nan nan nan 0.000000
nan nan nan 0.000000
nan nan nan 0.000000
nan nan nan 0.000000
nan nan nan 0.000000
nan nan nan 0.000000
nan nan nan 0.000000
357.444702 222.158340 -0.000019 0.332475
348.248047 208.676895 -0.000010 0.538603
344.299622 202.888824 -0.000005 0.532966
342.100861 199.665619 -0.000080 0.535662
340.696930 197.607559 -0.000085 0.544608
339.721161 196.177170 -0.000102 0.583211
339.002228 195.123306 -0.000114 0.578309
nan nan nan 0.000000
nan nan nan 0.000000
nan nan nan 0.000000
nan nan nan 0.000000
nan nan nan 0.000000
nan nan nan 0.000000
nan nan nan 0.000000
nan nan nan 0.000000
nan nan nan 0.000000
357.678925 221.997375 -0.000019 0.331495
348.388428 208.580444 -0.000012 0.549755
344.399658 202.820068 -0.000005 0.527451
342.178223 199.612000 -0.000028 0.531495
340.760193 197.564163 -0.000103 0.528922
339.774292 196.140350 -0.000051 0.566544
339.048065 195.091522 -0.000051 0.518627
nan nan nan 0.000000
nan nan nan 0.000000
nan nan nan 0.000000
nan nan nan 0.000000
nan nan nan 0.000000
nan nan nan 0.000000
nan nan nan 0.000000
nan nan nan 0.000000
nan nan nan 0.000000
357.912048 221.834747 -0.000019 0.332475
348.528046 208.482986 -0.000008 0.528554
344.499176 202.750626 -0.000004 0.539583
342.255402 199.558105 -0.000021 0.538848
340.823151 197.520233 -0.000097 0.538480
339.827271 196.103317 -0.000041 0.555637
339.093719 195.059601 -0.000042 0.577083
nan nan nan 0.000000
nan nan nan 0.000000
nan nan nan 0.000000
nan nan nan 0.000000
nan nan nan 0.000000
nan nan nan 0.000000
nan nan nan 0.000000
nan nan nan 0.000000
nan nan nan 0.000000
358.144012 221.670517 -0.000019 0.332721
348.666992 208.384521 -0.000003 0.527574
344.598236 202.680466 -0.000002 0.529657
342.332245 199.503738 -0.000026 0.540441
340.885742 197.475876 -0.000094 0.531618
339.880066 196.065994 -0.000046 0.531618
339.139252 195.027405 -0.000045 0.542402
nan nan nan 0.000000
nan nan nan 0.000000
nan nan nan 0.000000
nan nan nan 0.000000
nan nan nan 0.000000
nan nan nan 0.000000
nan nan nan 0.000000
nan nan nan 0.000000
nan nan nan 0.000000
358.374786 221.504654 -0.000019 0.332230
348.805267 208.285172 -0.000004 0.528799
344.696808 202.609665 -0.000004 0.542525
342.408661 199.448761 -0.000015 0.549632
340.948029 197.431061 -0.000086 0.513603
339.932526 196.028229 -0.000038 0.534804
339.184479 194.994843 -0.000036 0.500613
nan nan nan 0.000000
nan nan nan 0.000000
nan nan nan 0.000000
nan nan nan 0.000000
nan nan nan 0.000000
nan nan nan 0.000000
nan nan nan 0.000000
nan nan nan 0.000000
nan nan nan 0.000000
358.604492 221.337250 -0.000022 0.331618
348.942841 208.184814 -0.000001 0.523039
344.794861 202.538132 -0.000002 0.530270
342.484680 199.393295 -0.000015 0.546936
341.010040 197.385834 -0.000082 0.545466
339.984772 195.990128 -0.000035 0.510172
339.229492 194.961960 -0.000026 0.554902
nan nan nan 0.000000
nan nan nan 0.000000
nan nan nan 0.000000
nan nan nan 0.000000
nan nan nan 0.000000
nan nan nan 0.000000
nan nan nan 0.000000
nan nan nan 0.000000
nan nan nan 0.000000
358.832947 221.168182 -0.000022 0.331495
349.079773 208.083557 -0.000005 0.537745
344.892426 202.465958 -0.000004 0.542770
342.560364 199.337280 -0.000012 0.520956
341.071716 197.340179 -0.000082 0.539951
340.036865 195.951843 -0.000081 0.560049
339.274292 194.928802 -0.000023 0.511520
nan nan nan 0.000000
nan nan nan 0.000000
nan nan nan 0.000000
nan nan nan 0.000000
nan nan nan 0.000000
nan nan nan 0.000000
nan nan nan 0.000000
nan nan nan 0.000000
nan nan nan 0.000000
359.060242 220.997528 -0.000022 0.332475
349.215942 207.981339 -0.000007 0.535907
344.989502 202.393097 -0.000007 0.533456
342.635620 199.280762 -0.000010 0.523775
341.133057 197.294052 -0.000070 0.519485
340.088531 195.912979 -0.000067 0.571078
339.318848 194.895309 -0.000014 0.592647
nan nan nan 0.000000
nan nan nan 0.000000
nan nan nan 0.000000
nan nan nan 0.000000
nan nan nan 0.000000
nan nan nan 0.000000
nan nan nan 0.000000
nan nan nan 0.000000
nan nan nan 0.000000
359.286285 220.825272 -0.000020 0.333211
349.351379 207.878082 -0.000002 0.540074
345.085999 202.319504 -0.000001 0.526103
342.710449 199.223648 0.000002 0.527328
341.194092 197.247528 -0.000068 0.534804
340.139923 195.873764 -0.000058 0.533824
339.363159 194.861481 -0.000004 0.539338
nan nan nan 0.000000
nan nan nan 0.000000
nan nan nan 0.000000
nan nan nan 0.000000
nan nan nan 0.000000
nan nan nan 0.000000
nan nan nan 0.000000
nan nan nan 0.000000
nan nan nan 0.000000
359.511169 220.651459 -0.000020 0.331740
349.486115 207.773987 -0.000006 0.529412
345.182068 202.245285 -0.000003 0.555637
342.785370 199.166687 -0.000108 0.493995
341.254761 197.200546 -0.000056 0.571324
340.191040 195.834167 -0.000043 0.524510
339.407349 194.827499 -0.000035 0.527083
nan nan nan 0.000000
nan nan nan 0.000000
nan nan nan 0.000000
nan nan nan 0.000000
nan nan nan 0.000000
nan nan nan 0.000000
nan nan nan 0.000000
nan nan nan 0.000000
nan nan nan 0.000000
359.734833 220.476074 -0.000019 0.331740
349.620148 207.668930 -0.000007 0.551471
345.277557 202.170380 -0.000000 0.544853
342.859467 199.108612 -0.000113 0.549755
341.315155 197.153214 -0.000059 0.500000
340.241913 195.794312 -0.000050 0.567279
339.451233 194.793121 -0.000040 0.565074
nan nan nan 0.000000
nan nan nan 0.000000
nan nan nan 0.000000
nan nan nan 0.000000
nan nan nan 0.000000
nan nan nan 0.000000
nan nan nan 0.000000
nan nan nan 0.000000
nan nan nan 0.000000
