# This PCD file was generated using the MATLABÂ® pcwrite function
# from Computer Vision ToolboxÂ®.
# .PCD v.7 - Point Cloud Data file format
VERSION .7
FIELDS x y z intensity
SIZE 4 4 4 4
TYPE F F F F
COUNT 1 1 1 1
WIDTH 1192
HEIGHT 1
VIEWPOINT 0 0 0 1 0 0 0
POINTS 1192
DATA ascii
319.681305 205.946594 0.401280 0.461275
320.637085 204.062607 0.000003 0.537255
322.402557 200.582565 0.000007 0.544118
323.529694 198.360855 0.000009 0.521078
324.313080 196.816635 0.000022 0.524265
324.890228 195.679001 0.000019 0.539951
319.846344 205.920654 6.859539 0.669976
319.846344 205.920654 6.190078 0.636887
319.846344 205.920654 5.530016 0.613603
319.846344 205.920654 4.877772 0.686765
319.846344 205.920654 4.231833 0.641054
319.846344 205.920654 3.590739 0.615074
319.846344 205.920654 2.953079 0.648897
319.809021 205.995514 2.318835 0.678431
319.829041 205.955353 1.681900 0.133333
319.829041 205.955353 1.045016 0.134804
319.834045 205.945313 0.407002 0.460784
320.745544 204.117126 0.000005 0.538358
322.486664 200.624847 0.000009 0.570711
323.598267 198.395294 0.000019 0.531740
324.370850 196.845673 0.000023 0.519608
324.940002 195.704086 0.000010 0.508946
319.997803 205.919373 6.842443 0.635294
319.997803 205.919373 6.175337 0.625123
319.997803 205.919373 5.517597 0.698039
319.997803 205.919373 4.867648 0.691422
319.997803 205.919373 4.223981 0.668015
319.997803 205.919373 3.585143 0.625858
319.997803 205.919373 2.949726 0.640196
319.961121 205.994232 2.317713 0.678431
319.980804 205.954056 1.683019 0.129412
319.980804 205.954071 1.048376 0.153922
319.985718 205.944031 0.412606 0.482230
320.854279 204.171021 -0.000011 0.525735
322.570984 200.666687 -0.000016 0.526716
323.666992 198.429352 0.000005 0.494608
324.428741 196.874451 -0.000003 0.545466
324.989929 195.728836 -0.000005 0.546078
320.148193 205.918106 6.825700 0.646569
320.148193 205.918106 6.160903 0.626348
320.148193 205.918106 5.505435 0.678064
320.148193 205.918106 4.857734 0.663603
320.148193 205.918106 4.216290 0.679412
320.148193 205.918106 3.579663 0.674510
320.148193 205.918106 2.946442 0.619853
320.112152 205.992950 2.316615 0.678431
320.131500 205.952789 1.684114 0.142034
320.131500 205.952789 1.051666 0.173039
320.136322 205.942749 0.418094 0.481127
320.963531 204.223862 0.000010 0.530147
322.655701 200.707703 0.000003 0.549510
323.736053 198.462830 0.000015 0.639706
324.486938 196.902603 0.000017 0.521201
325.040161 195.753067 0.000022 0.512377
320.297546 205.916840 6.809308 0.615809
320.297546 205.916840 6.146767 0.630147
320.297546 205.916840 5.493528 0.656250
320.297546 205.916824 4.848026 0.687623
320.297546 205.916840 4.208763 0.633946
320.297546 205.916824 3.574296 0.649632
320.297546 205.916824 2.943227 0.677941
320.262146 205.991684 2.315539 0.678431
320.281128 205.951523 1.685188 0.129412
320.281128 205.951523 1.054888 0.149142
320.285889 205.941483 0.423468 0.462255
321.073029 204.276199 0.000001 0.528922
322.740662 200.748215 0.000003 0.555270
323.805328 198.495865 0.000014 0.517892
324.545288 196.930420 0.000018 0.558211
325.090485 195.777039 0.000031 0.552941
320.445892 205.915573 6.793259 0.626716
320.445892 205.915573 6.132929 0.645711
320.445892 205.915573 5.481870 0.660662
320.445892 205.915573 4.838523 0.663235
320.445892 205.915573 4.201392 0.626838
320.445892 205.915573 3.569043 0.660417
320.445892 205.915573 2.940079 0.662868
320.441193 205.925690 2.313318 0.731740
320.441193 205.925690 1.686682 0.689951
320.441193 205.925690 1.059372 0.721446
320.441193 205.925690 0.430043 0.739828
321.182953 204.327667 0.000003 0.536397
322.825928 200.788086 0.000013 0.529167
323.874817 198.528397 0.000016 0.556373
324.603790 196.957886 0.000010 0.530025
325.140961 195.800674 0.000034 0.546078
320.593262 205.914337 6.777549 0.640196
320.593262 205.914337 6.119383 0.672549
320.593262 205.914337 5.470457 0.669240
320.593262 205.914337 4.829218 0.638480
320.593262 205.914337 4.194177 0.635539
320.593262 205.914337 3.563900 0.680270
320.593262 205.914337 2.936999 0.615196
320.593262 205.914337 2.312110 0.623529
320.593262 205.914337 1.687890 0.653554
320.593262 205.914337 1.063001 0.675123
320.593262 205.914337 0.436100 0.618505
321.293182 204.378510 -0.000015 0.530637
322.911407 200.827515 -0.000004 0.542770
323.944458 198.560593 -0.000010 0.545343
324.662506 196.984955 -0.000006 0.544118
325.191559 195.824051 0.000007 0.541912
320.739685 205.913086 6.762173 0.619730
320.739685 205.913086 6.106124 0.677941
320.739685 205.913086 5.459288 0.651961
320.739685 205.913086 4.820113 0.635417
320.739685 205.913086 4.187115 0.635417
320.739685 205.913086 3.558867 0.615564
320.739685 205.913086 2.933983 0.672549
320.739685 205.913086 2.311105 0.629289
320.739685 205.913086 1.688895 0.661397
320.739685 205.913086 1.066017 0.638358
320.739685 205.913086 0.441133 0.644608
321.403809 204.428452 -0.000014 0.529657
322.997223 200.866241 -0.000003 0.520343
324.014435 198.592163 -0.000008 0.519730
324.721466 197.011520 0.000004 0.549755
325.242371 195.847000 0.000008 0.566299
320.880768 205.921967 6.749889 0.772426
320.885193 205.911850 6.093150 0.628186
320.885193 205.911850 5.448359 0.691299
320.880768 205.921967 4.812840 0.773407
320.880768 205.921967 4.181474 0.773407
320.880768 205.921967 3.554846 0.774510
320.885193 205.911850 2.931032 0.663848
320.885193 205.911850 2.310122 0.622672
320.885193 205.911850 1.689878 0.668873
320.885193 205.911850 1.068968 0.631618
320.885193 205.911850 0.446058 0.616054
321.514801 204.477539 -0.000002 0.540074
323.083282 200.904297 0.000010 0.555882
324.084595 198.623199 0.000003 0.542892
324.780548 197.037689 0.000008 0.546691
325.293304 195.869614 0.000001 0.514216
321.001862 205.975418 6.750073 0.678431
321.029755 205.910629 6.080458 0.656250
321.029755 205.910629 5.437664 0.617892
321.001862 205.975418 4.812948 0.678431
321.001862 205.975418 4.181559 0.678431
321.001862 205.975418 3.554907 0.678431
321.029755 205.910614 2.928144 0.646691
321.029755 205.910614 2.309160 0.626593
321.029755 205.910614 1.690840 0.644730
321.029755 205.910629 1.071856 0.644853
321.029755 205.910629 0.450877 0.652451
321.626129 204.525909 0.000000 0.540809
323.169617 200.941833 0.000011 0.529657
324.154968 198.653793 0.000004 0.547549
324.839874 197.063446 0.000016 0.517892
325.344452 195.891830 0.000003 0.494975
321.146088 205.974197 6.735618 0.678431
321.173462 205.909409 6.068039 0.619485
321.173462 205.909409 5.427202 0.658211
321.146088 205.974197 4.804387 0.678431
321.146088 205.974197 4.174919 0.678431
321.167664 205.923141 3.545629 0.720588
321.173462 205.909409 2.925320 0.646324
321.173462 205.909409 2.308220 0.648284
321.173462 205.909409 1.691781 0.644363
321.173462 205.909409 1.074680 0.634559
321.173462 205.909409 0.455592 0.667647
321.737762 204.573532 0.000000 0.522794
323.256195 200.978745 0.000012 0.532475
324.225586 198.683884 0.000006 0.518750
324.899323 197.088791 0.000018 0.539706
325.395721 195.913666 0.000010 0.581250
321.289459 205.972977 6.721479 0.678431
321.316284 205.908203 6.055894 0.634926
321.316284 205.908203 5.416969 0.643995
321.289459 205.972977 4.796014 0.678431
321.289459 205.972977 4.168426 0.678431
321.312073 205.918381 3.540702 0.752206
321.316284 205.908203 2.922557 0.671446
321.316284 205.908203 2.307299 0.648897
321.316284 205.908203 1.692701 0.639951
321.316284 205.908203 1.077443 0.655147
321.316284 205.908203 0.460203 0.641054
321.849731 204.620346 0.000002 0.520466
323.343048 201.015060 0.000013 0.531985
324.296387 198.713455 0.000014 0.542034
324.958954 197.113739 0.000019 0.518137
325.447144 195.935181 0.000012 0.564951
321.431976 205.971771 6.707654 0.678431
321.458282 205.906998 6.044017 0.627451
321.458282 205.906998 5.406964 0.666176
321.431976 205.971771 4.787827 0.678431
321.431976 205.971771 4.162077 0.678431
321.455536 205.913742 3.535884 0.752574
321.458282 205.906998 2.919855 0.649020
321.458282 205.906998 2.306399 0.668505
321.458282 205.906998 1.693601 0.645833
321.458282 205.906998 1.080144 0.646201
321.458282 205.906998 0.464711 0.688971
321.962036 204.666382 0.000005 0.536274
323.430115 201.050812 0.000007 0.524142
324.367371 198.742554 0.000019 0.528431
325.018799 197.138290 0.000011 0.579167
325.498718 195.956314 0.000016 0.542034
321.573669 205.970581 6.694137 0.678431
321.599457 205.905807 6.032406 0.644240
321.599457 205.905807 5.397182 0.620833
321.573669 205.970581 4.779823 0.678431
321.573669 205.970581 4.155869 0.678431
321.595428 205.915909 3.531772 0.692034
321.599457 205.905807 2.917214 0.676593
321.599457 205.905807 2.305519 0.632721
321.599457 205.905807 1.694480 0.614338
321.599457 205.905807 1.082786 0.633333
321.599457 205.905807 0.469120 0.622059
322.074677 204.711578 0.000014 0.544118
323.517456 201.085938 0.000008 0.537623
324.438568 198.771179 0.000019 0.496446
325.078766 197.162399 0.000015 0.550490
325.550476 195.977066 0.000024 0.510539
321.714569 205.969376 6.680926 0.678431
321.739807 205.904602 6.021057 0.656250
321.739807 205.904602 5.387620 0.631250
321.714569 205.969376 4.771999 0.678431
321.714569 205.969376 4.149800 0.678431
321.735840 205.914719 3.527461 0.660662
321.739807 205.904602 2.914632 0.611887
321.739807 205.904602 2.304660 0.667892
321.739807 205.904602 1.695340 0.612500
321.739807 205.904602 1.085367 0.635172
321.739807 205.904602 0.473428 0.689828
322.187622 204.756042 0.000016 0.518505
323.605042 201.120407 0.000009 0.531127
324.510010 198.799240 0.000030 0.514338
325.138885 197.186142 0.000000 0.551348
325.602325 195.997498 0.000028 0.502206
321.854675 205.968201 6.668013 0.678431
321.879395 205.903427 6.009965 0.636397
321.879395 205.903427 5.378277 0.600000
321.854675 205.968201 4.764353 0.678431
321.854675 205.968185 4.143870 0.678431
321.875519 205.913544 3.523248 0.715931
321.879395 205.903427 2.912110 0.627451
321.879395 205.903427 2.303819 0.633824
321.879395 205.903427 1.696180 0.610784
321.879395 205.903427 1.087889 0.671691
321.879395 205.903427 0.477639 0.621936
322.300842 204.799698 0.000020 0.525980
323.692871 201.154205 0.000023 0.571569
324.581604 198.826843 0.000034 0.566299
325.199219 197.209396 0.000005 0.548897
325.654327 196.017593 0.000019 0.568995
321.994019 205.967010 6.655402 0.678431
322.018219 205.902252 5.999130 0.654412
322.014435 205.912354 5.371111 0.725490
321.994019 205.967010 4.756884 0.678431
321.994019 205.967010 4.138078 0.678431
322.014435 205.912354 3.519131 0.732598
322.018219 205.902252 2.909646 0.631495
322.018219 205.902267 2.302999 0.659681
322.018219 205.902252 1.697001 0.629289
322.018219 205.902252 1.090354 0.615319
322.018219 205.902252 0.481753 0.673774
322.414398 204.842590 0.000022 0.527083
323.780945 201.187469 0.000024 0.528799
324.653351 198.853958 0.000035 0.551961
325.259705 197.232239 0.000008 0.540564
325.706451 196.037277 0.000020 0.569853
322.132599 205.965836 6.643081 0.678431
322.156311 205.901077 5.988547 0.612010
322.152588 205.911179 5.362190 0.705760
322.132599 205.965836 4.749588 0.678431
322.132599 205.965836 4.132421 0.678431
322.152588 205.911179 3.515111 0.796814
322.156311 205.901077 2.907238 0.656373
322.156311 205.901077 2.302197 0.626103
322.156311 205.901077 1.697803 0.633946
322.156311 205.901077 1.092762 0.673529
322.156311 205.901077 0.485770 0.656005
322.528168 204.884842 0.000003 0.531005
323.869171 201.220261 0.000005 0.528676
324.725311 198.880661 0.000017 0.526593
325.320313 197.254715 -0.000003 0.504902
325.758667 196.056732 -0.000010 0.566054
322.270477 205.964676 6.631052 0.678431
322.293640 205.899918 5.978212 0.635417
322.290009 205.910019 5.353479 0.772059
322.277069 205.946198 4.739553 0.824632
322.277069 205.946198 4.124637 0.823652
322.290009 205.910019 3.511186 0.773529
322.293640 205.899918 2.904887 0.664461
322.293640 205.899918 2.301414 0.661642
322.293640 205.899918 1.698586 0.647549
322.293640 205.899918 1.095112 0.671936
322.293640 205.899918 0.489694 0.668137
322.642242 204.926224 -0.000006 0.538603
323.957672 201.252289 0.000005 0.515564
324.797424 198.906967 -0.000015 0.541299
325.381104 197.276718 -0.000003 0.548162
325.811127 196.075699 -0.000009 0.528554
322.407593 205.963516 6.619308 0.678431
322.430298 205.898758 5.968125 0.633578
322.426758 205.908859 5.344975 0.771814
322.407623 205.963516 4.735510 0.678431
322.407623 205.963516 4.121501 0.678431
322.426758 205.908859 3.507354 0.773039
322.430298 205.898758 2.902593 0.624020
322.430298 205.898758 2.300650 0.667157
322.430298 205.898758 1.699350 0.657230
322.430298 205.898758 1.097407 0.629044
322.430298 205.898758 0.493524 0.724265
322.756744 204.966537 0.000019 0.546078
324.046448 201.283554 0.000030 0.542157
324.869781 198.932465 0.000008 0.539951
325.442078 197.298203 0.000020 0.537255
325.863678 196.094223 0.000016 0.498162
322.544098 205.962341 6.607847 0.678431
322.566254 205.897598 5.958281 0.621078
322.562805 205.907700 5.336676 0.771324
322.554382 205.932251 4.724006 0.827574
322.554382 205.932251 4.112580 0.826471
322.562805 205.907700 3.503614 0.772549
322.566254 205.897614 2.900354 0.646078
322.566254 205.897614 2.299904 0.638848
322.566254 205.897614 1.700096 0.625858
322.566254 205.897614 1.099645 0.675980
322.566254 205.897598 0.497261 0.641422
322.871368 205.006409 0.000000 0.540809
324.135345 201.314560 -0.000005 0.506618
324.942261 198.957657 -0.000011 0.526103
325.503143 197.319397 0.000010 0.545711
325.916351 196.112488 0.000007 0.554902
322.701569 205.896469 6.579569 0.609436
322.701569 205.896469 5.948677 0.623652
322.701569 205.896469 5.326644 0.613113
322.701569 205.896469 4.711977 0.626103
322.701569 205.896469 4.103251 0.627819
322.701569 205.896469 3.499093 0.645588
322.701569 205.896469 2.898169 0.625735
322.701569 205.896469 2.299176 0.668750
322.701569 205.896469 1.700824 0.610417
322.701569 205.896469 1.101830 0.676348
322.701569 205.896469 0.500906 0.620956
322.986328 205.045319 -0.000001 0.538848
324.224487 201.344757 -0.000005 0.526226
325.014984 198.982224 -0.000002 0.546078
325.564392 197.340118 0.000010 0.488358
325.969147 196.130356 0.000007 0.531618
322.836212 205.895309 6.568708 0.612010
322.836212 205.895309 5.939311 0.640809
322.836212 205.895309 5.318753 0.648284
322.836212 205.895309 4.705545 0.640931
322.836212 205.895309 4.098263 0.638971
322.836212 205.895309 3.495537 0.684069
322.836212 205.895309 2.896039 0.644853
322.836212 205.895309 2.298467 0.641054
322.836212 205.895309 1.701534 0.624877
322.836212 205.895309 1.103960 0.690686
322.836212 205.895309 0.504462 0.633333
323.101593 205.083374 0.000007 0.556985
324.313873 201.374252 0.000002 0.511887
325.087830 199.006271 0.000006 0.544853
325.625763 197.360382 0.000018 0.521691
326.022064 196.147827 0.000014 0.548897
322.970245 205.894180 6.558118 0.642402
322.970245 205.894180 5.930182 0.617770
322.970245 205.894180 5.311063 0.618750
322.970245 205.894180 4.699274 0.658088
322.970245 205.894180 4.093400 0.642647
322.970245 205.894180 3.492071 0.634926
322.970245 205.894180 2.893963 0.642157
322.970245 205.894180 2.297775 0.626471
322.970245 205.894180 1.702225 0.637990
322.970245 205.894180 1.106037 0.669118
322.970245 205.894180 0.507928 0.624632
323.217072 205.120667 0.000007 0.544363
324.403442 201.403183 0.000002 0.541299
325.160858 199.029861 0.000004 0.547794
325.687286 197.380295 0.000009 0.521691
326.075134 196.164932 0.000022 0.559926
323.103638 205.893051 6.547799 0.622794
323.103638 205.893051 5.921286 0.645711
323.103638 205.893051 5.303566 0.678554
323.103638 205.893051 4.693164 0.669240
323.103638 205.893051 4.088661 0.664216
323.103638 205.893051 3.488693 0.676961
323.103638 205.893051 2.891939 0.646078
323.103638 205.893051 2.297101 0.626103
323.103638 205.893051 1.702899 0.658211
323.103638 205.893051 1.108061 0.668137
323.103638 205.893051 0.511306 0.627941
323.332947 205.156891 0.000040 0.535294
324.493286 201.431244 0.000041 0.539951
325.234039 199.052933 0.000006 0.536887
325.748932 197.399734 0.000009 0.522181
326.128296 196.181686 0.000023 0.534681
323.236481 205.891937 6.537749 0.624387
323.236481 205.891937 5.912617 0.644118
323.236481 205.891922 5.296265 0.659436
323.236481 205.891937 4.687212 0.678554
323.236481 205.891937 4.084044 0.659069
323.236481 205.891937 3.485404 0.661887
323.236481 205.891922 2.889967 0.653554
323.236481 205.891937 2.296444 0.661152
323.236481 205.891922 1.703556 0.657475
323.236481 205.891937 1.110032 0.668137
323.236481 205.891937 0.514596 0.640319
323.448883 205.192749 0.000019 0.533456
324.583221 201.459061 0.000019 0.560417
325.307373 199.075546 -0.000006 0.550123
325.810699 197.418839 -0.000014 0.578922
326.181549 196.198166 0.000002 0.561029
323.368713 205.890808 6.527962 0.690686
323.368713 205.890808 5.904181 0.642279
323.368713 205.890808 5.289156 0.653064
323.368713 205.890808 4.681416 0.677206
323.368713 205.890808 4.079550 0.649877
323.368713 205.890808 3.482199 0.679779
323.368713 205.890808 2.888048 0.621691
323.368713 205.890793 2.295805 0.668137
323.368713 205.890793 1.704195 0.646569
323.368713 205.890808 1.111952 0.626348
323.368713 205.890808 0.517800 0.647181
323.565216 205.227386 0.000048 0.543382
324.673431 201.485931 0.000048 0.540074
325.380920 199.097458 0.000021 0.537745
325.872650 197.437286 0.000016 0.550123
326.234985 196.214035 0.000038 0.575123
323.500366 205.889694 6.518437 0.648775
323.500366 205.889694 5.895967 0.639828
323.500366 205.889694 5.282237 0.660662
323.500366 205.889694 4.675775 0.639951
323.500366 205.889694 4.075175 0.637868
323.500366 205.889694 3.479082 0.682108
323.500366 205.889694 2.886180 0.636029
323.500366 205.889694 2.295182 0.642279
323.500366 205.889694 1.704818 0.633456
323.500366 205.889694 1.113820 0.647672
323.500366 205.889694 0.520918 0.645833
323.681702 205.261475 0.000046 0.584559
324.763763 201.512360 0.000047 0.535784
325.454559 199.118988 0.000022 0.545711
325.934723 197.455383 0.000026 0.531863
326.288483 196.229675 0.000040 0.547304
324.188690 203.906189 5.993363 0.623652
324.188660 203.906296 5.443255 0.670098
324.188721 203.906052 4.900794 0.624265
324.188690 203.906143 4.364826 0.637010
324.188751 203.905945 3.833998 0.637623
324.188660 203.906296 3.307212 0.670221
324.188599 203.906509 2.783216 0.641912
323.631500 205.888580 2.294577 0.648897
323.631500 205.888580 1.705423 0.643137
323.631500 205.888580 1.115637 0.689951
323.631500 205.888580 0.523951 0.667034
323.798370 205.294891 0.000026 0.546446
324.854279 201.538269 0.000026 0.555270
325.528320 199.140137 0.000000 0.556863
325.996857 197.473206 0.000004 0.550613
326.342041 196.245041 0.000018 0.511520
324.344940 203.756821 5.946851 0.688971
324.321289 203.843323 5.422494 0.684681
324.321167 203.843781 4.883436 0.658578
324.321167 203.843811 4.350666 0.642034
324.321259 203.843475 3.823000 0.640931
324.321167 203.843796 3.299371 0.603064
324.344971 203.756744 2.774074 0.731740
323.762085 205.887466 2.293989 0.583456
323.762085 205.887466 1.706011 0.633333
323.762085 205.887466 1.117404 0.661152
323.762085 205.887466 0.526900 0.648407
323.915375 205.327057 0.000056 0.526838
324.945007 201.563232 0.000056 0.532966
325.602325 199.160477 0.000030 0.565196
326.059174 197.490341 0.000031 0.511275
326.395782 196.259964 0.000008 0.503676
324.459137 203.755508 5.939085 0.719730
324.436096 203.842056 5.415770 0.648162
324.436340 203.841064 4.877499 0.622304
324.436371 203.840942 4.345802 0.596691
324.436127 203.842026 3.819396 0.632966
324.436462 203.840607 3.296654 0.640931
324.459076 203.755768 2.772567 0.724387
323.892181 205.886368 2.293417 0.649020
323.892181 205.886368 1.706583 0.632721
323.892181 205.886368 1.119121 0.625000
323.892181 205.886368 0.529765 0.625245
324.385559 204.031998 0.157989 0.631005
325.035889 201.587814 0.000046 0.523039
325.676422 199.180374 0.000047 0.564216
326.121582 197.507278 0.000012 0.550735
326.449585 196.274567 -0.000013 0.559069
324.572723 203.754807 5.931694 0.729902
324.547943 203.850571 5.411419 0.718260
324.547943 203.850571 4.874020 0.686152
324.547943 203.850571 4.342985 0.702941
324.547943 203.850555 3.817082 0.749265
324.547943 203.850555 3.295125 0.683211
324.572723 203.754791 2.771104 0.712132
324.505768 204.013657 2.261227 0.694853
324.505768 204.013657 1.738773 0.703309
324.505768 204.013657 1.215760 0.695221
324.505768 204.013657 0.691061 0.670711
324.514038 203.981659 0.167340 0.709804
325.126923 201.611694 0.000045 0.523039
325.750641 199.199844 0.000046 0.515074
326.184082 197.523773 -0.000010 0.520956
326.503479 196.288712 -0.000013 0.538235
324.686005 203.753555 5.924381 0.707230
324.648132 203.904190 5.417296 0.678431
324.648163 203.904190 4.878970 0.678431
324.648163 203.904190 4.347021 0.678431
324.648163 203.904190 3.820212 0.678431
324.658844 203.861603 3.293756 0.733333
324.685944 203.753815 2.769684 0.724020
324.610931 204.052444 2.261417 0.680392
324.610931 204.052444 1.738583 0.672917
324.610931 204.052444 1.215189 0.661642
324.610931 204.052444 0.690109 0.640319
324.619049 204.020035 0.166046 0.656495
325.218140 201.634903 0.000053 0.538480
325.825012 199.218750 0.000056 0.552083
326.246735 197.539719 -0.000003 0.504044
326.557495 196.302444 -0.000005 0.536152
324.798767 203.752853 5.917427 0.694975
324.762085 203.903229 5.411183 0.678431
324.762085 203.903229 4.873820 0.678431
324.762085 203.903229 4.342823 0.678431
324.762085 203.903229 3.816957 0.678431
324.772461 203.860641 3.291442 0.751103
324.798767 203.752853 2.768306 0.694975
324.277008 205.893188 2.291969 0.745833
324.277008 205.893188 1.708031 0.759804
324.279480 205.883087 1.123977 0.632230
324.279449 205.883087 0.537870 0.663235
324.591949 204.601135 0.100404 0.586029
325.309509 201.657501 0.000053 0.534436
325.899475 199.237183 0.000056 0.534926
326.309509 197.555237 -0.000004 0.525735
326.611633 196.315811 0.000003 0.533088
324.911224 203.751648 5.910557 0.724265
324.875610 203.902267 5.405257 0.678431
324.875610 203.902267 4.868828 0.678431
324.875610 203.902267 4.338752 0.678431
324.875610 203.902267 3.813799 0.678431
324.885681 203.859680 3.289198 0.743995
324.911194 203.751877 2.766971 0.709804
324.392334 205.946686 2.292380 0.678431
324.392365 205.946671 1.707620 0.678431
324.407654 205.882004 1.125499 0.641789
324.407654 205.882004 0.540411 0.661642
324.704071 204.628052 0.100404 0.587623
325.401031 201.679489 0.000052 0.551103
325.974091 199.255112 0.000054 0.554167
326.372345 197.570358 -0.000006 0.552819
326.665833 196.328827 0.000001 0.518505
325.023193 203.750946 5.904029 0.718873
324.988739 203.901306 5.399517 0.678431
324.988739 203.901321 4.863993 0.678431
324.988739 203.901306 4.334810 0.678431
324.988739 203.901306 3.810742 0.678431
324.998505 203.858719 3.287025 0.754044
325.023193 203.750931 2.765678 0.710539
324.520569 205.945587 2.291887 0.678431
324.520569 205.945587 1.708113 0.678431
324.535370 205.880920 1.126972 0.625123
324.535370 205.880920 0.542871 0.625613
324.816345 204.654175 0.100403 0.616912
325.492706 201.700760 0.000061 0.540074
326.048859 199.272552 0.000042 0.566789
326.435394 197.584763 0.000047 0.553676
326.720123 196.341415 0.000012 0.550858
325.134888 203.749786 5.897596 0.696814
325.101532 203.900360 5.393962 0.678431
325.101532 203.900360 4.859312 0.678431
325.101532 203.900360 4.330995 0.678431
325.101532 203.900360 3.807784 0.678431
325.110962 203.857773 3.284922 0.758456
325.134857 203.749954 2.764426 0.696814
324.648346 205.944504 2.291410 0.678431
324.648346 205.944504 1.708590 0.678431
324.662689 205.879837 1.128399 0.659804
324.662689 205.879837 0.545252 0.624632
324.928802 204.679535 0.100403 0.615441
325.584564 201.721390 0.000071 0.534069
326.123718 199.289429 0.000041 0.508333
326.498444 197.598969 0.000046 0.521078
326.774475 196.353683 0.000008 0.565319
325.246155 203.749084 5.891486 0.687132
325.213928 203.899399 5.388589 0.678431
325.213928 203.899399 4.854786 0.678431
325.213928 203.899399 4.327306 0.678431
325.213928 203.899399 3.804922 0.678431
325.223053 203.856812 3.282888 0.726838
325.246155 203.749023 2.763216 0.688480
324.775726 205.943436 2.290948 0.678431
324.775726 205.943436 1.709051 0.678431
324.789612 205.878769 1.129779 0.657108
324.789612 205.878769 0.547555 0.614338
325.041412 204.704086 0.100403 0.586029
325.676514 201.741577 0.000049 0.537868
326.198639 199.305893 0.000020 0.523162
326.561584 197.612854 0.000025 0.563113
326.829010 196.365402 0.000048 0.534926
325.357147 203.747971 5.885481 0.692034
325.325989 203.898453 5.383399 0.678431
325.325989 203.898453 4.850413 0.678431
325.325989 203.898453 4.323740 0.678431
325.325989 203.898453 3.802157 0.678431
325.334808 203.855881 3.280923 0.754657
325.357117 203.748062 2.762046 0.702696
324.902740 205.942368 2.290503 0.678431
324.902740 205.942352 1.709497 0.678431
324.916107 205.877686 1.131112 0.634436
324.916107 205.877686 0.549780 0.647672
325.154236 204.727844 0.100403 0.586029
325.768646 201.760788 0.000080 0.535417
326.273743 199.321564 0.000050 0.504779
326.624878 197.626038 0.000053 0.512990
326.883575 196.376785 0.000077 0.543137
325.467712 203.747238 5.879777 0.699387
325.448608 203.842941 5.366368 0.725245
325.448608 203.842941 4.836066 0.706005
325.448608 203.842941 4.312044 0.708701
325.448608 203.842941 3.793086 0.700490
325.448608 203.842941 3.278022 0.696814
325.467743 203.747116 2.760917 0.688971
325.029327 205.941284 2.290072 0.678431
325.029327 205.941284 1.709927 0.678431
325.042236 205.876633 1.132399 0.629779
325.042236 205.876633 0.551927 0.625123
325.267212 204.750839 0.100403 0.569975
325.860870 201.779556 0.000078 0.536520
326.348969 199.336868 0.000047 0.515441
326.688202 197.638947 0.000048 0.545466
326.938171 196.387909 0.000077 0.530392
325.578033 203.746170 5.874197 0.701226
325.549072 203.896561 5.373557 0.678431
325.549072 203.896561 4.842122 0.678431
325.549072 203.896561 4.316980 0.678431
325.549072 203.896561 3.796915 0.678431
325.557281 203.853989 3.277197 0.752206
325.578033 203.746262 2.759832 0.707721
325.155548 205.940216 2.289658 0.678431
325.155548 205.940216 1.710342 0.678431
325.167999 205.875565 1.133640 0.593260
325.167999 205.875565 0.553998 0.625123
325.380280 204.773270 0.100376 0.601103
325.953217 201.797821 0.000056 0.529902
326.424255 199.351761 0.000025 0.565074
326.751648 197.651428 0.000039 0.509069
326.992859 196.398712 0.000057 0.499510
325.687988 203.745407 5.868895 0.693750
325.660156 203.895615 5.368903 0.678431
325.660156 203.895615 4.838201 0.678431
325.660156 203.895615 4.313784 0.678431
325.660156 203.895615 3.794436 0.678431
325.668060 203.853043 3.275434 0.743750
325.688019 203.745316 2.758784 0.707721
325.281433 205.939148 2.289258 0.678431
325.281433 205.939148 1.710742 0.678431
325.293427 205.874512 1.134835 0.605147
325.293427 205.874512 0.555993 0.658211
325.493500 204.794815 0.100359 0.598774
326.045746 201.815109 0.000087 0.543382
326.499664 199.365768 0.000068 0.531985
326.815186 197.663300 0.000071 0.549755
327.047668 196.408905 0.000095 0.507230
325.797699 203.744370 5.863727 0.687868
325.770935 203.894684 5.364426 0.678431
325.770935 203.894684 4.834429 0.678431
325.770935 203.894684 4.310709 0.678431
325.770935 203.894684 3.792052 0.678431
325.778534 203.852112 3.273740 0.748897
325.797699 203.744370 2.757775 0.706250
325.406982 205.938095 2.288874 0.678431
325.406982 205.938095 1.711126 0.678431
325.418488 205.873444 1.135984 0.612990
325.418488 205.873444 0.557912 0.617402
325.606964 204.815277 0.100376 0.585294
326.138336 201.832092 0.000064 0.546446
326.575134 199.379623 0.000044 0.528431
326.878784 197.674973 0.000047 0.560294
327.102478 196.418961 0.000073 0.503431
325.907135 203.743347 5.858761 0.714828
325.881439 203.893753 5.360124 0.678431
325.881439 203.893753 4.830805 0.678431
325.881439 203.893753 4.307755 0.678431
325.881439 203.893753 3.789760 0.678431
325.888672 203.851181 3.272111 0.736765
325.907104 203.743439 2.756806 0.704534
325.532196 205.937027 2.288504 0.678431
325.532196 205.937027 1.711495 0.678431
325.543243 205.872391 1.137089 0.613235
325.543243 205.872391 0.559756 0.667770
325.720581 204.834702 0.100422 0.580760
326.231049 201.848282 0.000061 0.554657
326.650757 199.392822 0.000042 0.508578
326.942474 197.686096 0.000044 0.531005
327.157410 196.428558 0.000070 0.526838
326.016235 203.742584 5.854061 0.723407
325.991638 203.892807 5.355996 0.678431
325.991638 203.892807 4.827328 0.678431
325.991638 203.892807 4.304920 0.678431
325.991638 203.892807 3.787561 0.678431
325.998596 203.850235 3.270548 0.752083
326.016235 203.742523 2.755876 0.723774
325.657104 205.935974 2.288150 0.678431
325.657104 205.935974 1.711850 0.678431
325.667664 205.871323 1.138149 0.624265
325.667664 205.871323 0.561525 0.654412
325.834412 204.853088 0.100497 0.585662
326.323883 201.863724 0.000075 0.533088
326.726440 199.405411 0.000055 0.528676
327.006226 197.696701 0.000058 0.546324
327.212372 196.437698 0.000086 0.534191
326.125122 203.741592 5.849502 0.701348
326.101593 203.891876 5.352042 0.678431
326.101593 203.891876 4.823997 0.678431
326.101593 203.891876 4.302204 0.678431
326.101593 203.891876 3.785455 0.678431
326.108246 203.849319 3.269052 0.742647
326.125122 203.741592 2.754985 0.746324
325.781677 205.934921 2.287811 0.678431
325.781677 205.934921 1.712189 0.678431
325.791779 205.870270 1.139165 0.621446
325.791779 205.870270 0.563220 0.608333
325.948364 204.870453 0.100598 0.557476
326.416809 201.878784 0.000049 0.528799
326.802185 199.417572 0.000050 0.536029
327.070038 197.706940 0.000054 0.534559
327.267426 196.446518 0.000082 0.550858
326.233765 203.740585 5.845140 0.725613
326.211273 203.890945 5.348261 0.678431
326.211273 203.890945 4.820811 0.678431
326.211273 203.890945 4.299607 0.678431
326.211273 203.890945 3.783441 0.678431
326.217621 203.848389 3.267620 0.744853
326.233734 203.740662 2.754133 0.721814
325.906006 205.933853 2.287486 0.678431
325.906006 205.933853 1.712514 0.678431
325.915619 205.869232 1.140136 0.605147
325.915619 205.869232 0.564841 0.622672
326.061615 204.892487 0.100062 0.602819
326.509827 201.893051 0.000045 0.537377
326.878021 199.429199 0.000047 0.531005
327.133942 197.716721 0.000051 0.535662
327.322510 196.454956 0.000081 0.573652
326.342102 203.739792 5.841027 0.697304
326.320740 203.890030 5.344650 0.678431
326.320740 203.890030 4.817768 0.678431
326.320740 203.890030 4.297127 0.678431
326.320740 203.890030 3.781518 0.678431
326.326782 203.847473 3.266253 0.763848
326.342133 203.739746 2.753320 0.719608
326.029999 205.932800 2.287176 0.678431
326.029999 205.932800 1.712824 0.678431
326.039215 205.868179 1.141063 0.590564
326.039215 205.868179 0.566388 0.625613
326.175781 204.908524 0.100132 0.601838
326.602997 201.906540 0.000057 0.534559
326.953979 199.440216 0.000057 0.539951
327.197937 197.725952 0.000075 0.513480
327.377655 196.463150 0.000044 0.537255
326.450256 203.738831 5.837064 0.716299
326.429962 203.889099 5.341210 0.678431
326.429962 203.889099 4.814870 0.678431
326.429962 203.889099 4.294765 0.678431
326.429962 203.889084 3.779685 0.678431
326.435699 203.846542 3.264951 0.752574
326.450287 203.738815 2.752545 0.710907
326.153778 205.931763 2.286880 0.678431
326.153778 205.931763 1.713120 0.678431
326.162506 205.867142 1.141947 0.622917
326.162506 205.867142 0.567863 0.646569
326.290070 204.923615 0.100220 0.603309
326.696228 201.919510 0.000053 0.525245
327.029968 199.450775 0.000055 0.522917
327.261963 197.734848 0.000071 0.544363
327.432861 196.470825 0.000040 0.524632
326.558197 203.737885 5.833299 0.699632
326.538940 203.888168 5.337939 0.678431
326.538940 203.888168 4.812115 0.678431
326.538940 203.888168 4.292519 0.678431
326.538940 203.888168 3.777943 0.678431
326.544403 203.845627 3.263712 0.742034
326.558197 203.737915 2.751808 0.700735
326.284302 205.876175 2.285700 0.778431
326.284302 205.876175 1.714300 0.760049
326.285583 205.866074 1.142787 0.624265
326.285583 205.866074 0.569265 0.639216
326.380219 205.127365 0.078334 0.599020
326.789520 201.931961 0.000028 0.536520
327.106049 199.460861 0.000044 0.533333
327.326050 197.743393 0.000048 0.531863
327.488129 196.478195 0.000017 0.551471
326.665924 203.737061 5.829760 0.704412
326.647736 203.887253 5.334839 0.678431
326.647736 203.887238 4.809502 0.678431
326.647736 203.887253 4.290388 0.678431
326.647736 203.887253 3.776291 0.678431
326.652893 203.844696 3.262538 0.764706
326.665924 203.737000 2.751110 0.722426
326.407196 205.875137 2.285434 0.768750
326.407196 205.875137 1.714565 0.772549
326.407196 205.875137 1.143084 0.771814
326.407196 205.875137 0.569762 0.772181
326.490906 205.183487 0.073502 0.591054
326.882935 201.943375 0.000061 0.554902
327.182251 199.470169 0.000076 0.538235
327.390198 197.751236 0.000080 0.520711
327.543457 196.484940 0.000051 0.562132
326.773468 203.736115 5.826384 0.706127
326.756317 203.886322 5.331904 0.678431
326.756317 203.886322 4.807031 0.678431
326.756317 203.886322 4.288373 0.678431
326.756317 203.886322 3.774729 0.678431
326.761200 203.843781 3.261428 0.772794
326.773468 203.736084 2.750448 0.692402
326.522522 205.938629 2.286246 0.678431
326.527100 205.898590 1.714413 0.136520
326.527100 205.898590 1.142626 0.149020
326.528229 205.888580 0.569823 0.467157
326.607269 205.194748 0.073776 0.625858
326.976410 201.954529 0.000036 0.549877
327.258423 199.479233 0.000052 0.539338
327.454407 197.758881 0.000057 0.543995
327.598785 196.491547 0.000026 0.548407
326.880798 203.735184 5.823200 0.713603
326.864746 203.885422 5.329138 0.678431
326.864746 203.885422 4.804700 0.678431
326.864746 203.885422 4.286473 0.678431
326.864746 203.885422 3.773255 0.678431
326.869293 203.842865 3.260381 0.743382
326.880798 203.735168 2.749825 0.709191
326.645447 205.937592 2.286009 0.678431
326.649750 205.897552 1.714650 0.153064
326.649750 205.897552 1.143338 0.145588
326.650787 205.887543 0.571011 0.463480
326.723694 205.205475 0.074021 0.632230
327.069977 201.964890 0.000031 0.539828
327.334686 199.487686 0.000048 0.524632
327.518677 197.765991 0.000055 0.514828
327.654205 196.497681 0.000021 0.503799
326.987976 203.734253 5.820207 0.704657
326.972992 203.884506 5.326538 0.678431
326.972992 203.884506 4.802509 0.678431
326.972992 203.884506 4.284688 0.678431
326.972992 203.884506 3.771870 0.678431
326.977234 203.841949 3.259396 0.757108
326.987976 203.734253 2.749239 0.711520
326.768188 205.936554 2.285785 0.678431
326.772186 205.896515 1.714873 0.141176
326.772186 205.896515 1.144007 0.122181
326.773163 205.886505 0.572127 0.464461
326.840149 205.215607 0.074237 0.624510
327.163605 201.974472 0.000046 0.540809
327.411011 199.495499 0.000062 0.482843
327.582977 197.772583 0.000067 0.550000
327.709656 196.503357 0.000036 0.567034
327.094971 203.733307 5.817407 0.699510
327.081055 203.883575 5.324103 0.678431
327.081055 203.883575 4.800460 0.678431
327.081055 203.883575 4.283016 0.678431
327.081055 203.883575 3.770574 0.678431
327.085022 203.841049 3.258474 0.742647
327.094971 203.733337 2.748691 0.694118
326.890747 205.935516 2.285576 0.678431
326.894440 205.895477 1.715081 0.141054
326.894440 205.895477 1.144634 0.129412
326.895355 205.885468 0.573171 0.462745
326.956635 205.225159 0.074427 0.643627
327.257324 201.983521 0.000041 0.531863
327.487396 199.502884 0.000057 0.527451
327.647308 197.778809 0.000062 0.519118
327.765137 196.508713 0.000031 0.514461
327.201843 203.732483 5.814818 0.688725
327.188965 203.882660 5.321836 0.678431
327.188965 203.882660 4.798549 0.678431
327.188965 203.882660 4.281458 0.678431
327.188965 203.882660 3.769366 0.678431
327.192627 203.840134 3.257616 0.772059
327.201843 203.732437 2.748180 0.687868
327.013123 205.934464 2.285381 0.678431
327.016541 205.894440 1.715276 0.144118
327.016541 205.894440 1.145217 0.131863
327.017395 205.884430 0.574146 0.451348
327.074432 205.219208 0.076312 0.606985
327.351074 201.991653 0.000075 0.531863
327.563843 199.509506 0.000091 0.545098
327.711731 197.784378 0.000098 0.541176
327.820679 196.513489 0.000075 0.565074
327.308563 203.731567 5.812399 0.706495
327.296753 203.881744 5.319733 0.678431
327.296753 203.881744 4.796776 0.678431
327.296753 203.881744 4.280014 0.678431
327.296753 203.881744 3.768246 0.678431
327.300110 203.839218 3.256819 0.755147
327.308563 203.731537 2.747707 0.707353
327.135315 205.933441 2.285201 0.678431
327.138458 205.893402 1.715456 0.131127
327.138458 205.893402 1.145758 0.133701
327.139252 205.883408 0.575048 0.456863
327.190887 205.227081 0.076509 0.608456
327.444885 201.999542 0.000050 0.535907
327.640320 199.515915 0.000068 0.547181
327.776123 197.789780 0.000072 0.530882
327.876221 196.518158 0.000050 0.582353
327.415161 203.730652 5.810170 0.710417
327.404419 203.880829 5.317793 0.678431
327.404419 203.880829 4.795142 0.678431
327.404419 203.880829 4.278682 0.678431
327.404419 203.880829 3.767212 0.678431
327.407471 203.838303 3.256085 0.755637
327.415161 203.730637 2.747271 0.722181
327.257385 205.932404 2.285034 0.678431
327.260254 205.892380 1.715622 0.134069
327.260254 205.892380 1.146258 0.138235
327.260956 205.882370 0.575881 0.463848
327.307404 205.234329 0.076682 0.618873
327.538727 202.006622 0.000045 0.541422
327.716827 199.521698 0.000063 0.543382
327.840576 197.794785 0.000041 0.537500
327.931763 196.522354 0.000046 0.502696
327.521637 203.729736 5.808128 0.726593
327.511932 203.879929 5.316017 0.678431
327.511932 203.879929 4.793646 0.678431
327.511932 203.879929 4.277462 0.678431
327.511932 203.879929 3.766266 0.678431
327.514679 203.837402 3.255413 0.761520
327.521637 203.729752 2.746871 0.699877
327.379272 205.931381 2.284882 0.678431
327.381897 205.891357 1.715775 0.137745
327.381897 205.891357 1.146715 0.142647
327.382538 205.881332 0.576643 0.467157
327.423920 205.241043 0.076823 0.610172
327.632629 202.012924 0.000060 0.540931
327.793396 199.526855 0.000077 0.516789
327.905090 197.799118 0.000053 0.551838
327.987396 196.526077 0.000062 0.538848
327.627991 203.728821 5.806273 0.735907
327.619354 203.879013 5.314404 0.678431
327.619354 203.879013 4.792288 0.678431
327.619354 203.879013 4.276355 0.678431
327.619354 203.879013 3.765408 0.678431
327.621826 203.836487 3.254802 0.762745
327.627991 203.728836 2.746507 0.711642
327.501068 205.930344 2.284743 0.678431
327.503387 205.890320 1.715913 0.117892
327.503387 205.890320 1.147130 0.135907
327.503967 205.880325 0.577335 0.462745
327.540466 205.247086 0.076946 0.557598
327.726593 202.018768 0.000046 0.521691
327.869995 199.531555 0.000072 0.520588
327.969635 197.803085 0.000049 0.524632
328.043060 196.529495 0.000056 0.534069
327.734283 203.727936 5.804607 0.693873
327.726654 203.878098 5.312956 0.678431
327.726654 203.878098 4.791067 0.678431
327.726685 203.878098 4.275360 0.678431
327.726685 203.878098 3.764636 0.678431
327.728790 203.835587 3.254253 0.762745
327.734283 203.727951 2.746181 0.698897
327.626038 205.864807 2.283562 0.738603
327.626038 205.864807 1.716438 0.767892
327.626038 205.864807 1.148707 0.706495
327.626038 205.864807 0.579147 0.731495
327.657043 205.252426 0.077058 0.598774
327.820557 202.024033 0.000019 0.538480
327.946594 199.535843 0.000047 0.544240
328.034149 197.806717 0.000021 0.544976
328.098694 196.532623 0.000028 0.507230
327.840454 203.727020 5.803129 0.724510
327.836273 203.822708 5.299887 0.807721
327.836273 203.822708 4.780056 0.776593
327.836273 203.822708 4.266383 0.778064
327.836273 203.822708 3.757674 0.806985
327.836273 203.822708 3.252783 0.806618
327.840454 203.727036 2.745891 0.719240
327.747162 205.863770 2.283451 0.772304
327.747162 205.863770 1.716549 0.772426
327.747589 205.853699 1.149533 0.650613
327.747589 205.853699 0.580526 0.646691
327.782440 205.055435 0.100375 0.643015
327.914612 202.028214 0.000055 0.530637
328.023254 199.539276 0.000082 0.546936
328.098755 197.809601 0.000058 0.533211
328.154388 196.535110 0.000065 0.541789
327.946564 203.726151 5.801845 0.729167
327.942169 203.846268 5.304057 0.846201
327.942169 203.846283 4.783571 0.820343
327.942169 203.846268 4.269248 0.825245
327.942169 203.846283 3.759897 0.823039
327.942596 203.833771 3.253341 0.743015
327.946564 203.726151 2.745638 0.725735
327.866211 205.917252 2.284247 0.678431
327.866211 205.917236 1.715753 0.678431
327.868591 205.852676 1.149822 0.631863
327.868591 205.852676 0.581007 0.678676
327.897644 205.059875 0.100397 0.632843
328.008667 202.032181 0.000028 0.529167
328.099915 199.542496 0.000056 0.552083
328.163330 197.812286 0.000033 0.547059
328.210052 196.537445 0.000041 0.569485
328.052582 203.725235 5.800738 0.680637
328.048126 203.875381 5.309582 0.678431
328.048126 203.875381 4.788225 0.678431
328.048126 203.875381 4.273042 0.678431
328.048126 203.875381 3.762839 0.678431
328.049377 203.832870 3.252976 0.766789
328.052582 203.725235 2.745421 0.680637
327.987579 205.916214 2.284165 0.678431
327.987579 205.916214 1.715835 0.678431
327.989471 205.851654 1.150069 0.633456
327.989471 205.851654 0.581420 0.678799
328.012878 205.063538 0.100414 0.625368
328.102722 202.035339 0.000023 0.532966
328.176605 199.545059 0.000051 0.502696
328.227966 197.814468 0.000026 0.564338
328.265778 196.539322 0.000035 0.499632
328.158569 203.724350 5.799819 0.680515
328.155151 203.874466 5.308781 0.678431
328.155151 203.874481 4.787550 0.678431
328.155151 203.874481 4.272492 0.678431
328.155151 203.874481 3.762413 0.678431
328.156097 203.831970 3.252673 0.753922
328.158569 203.724350 2.745240 0.685907
328.108856 205.915192 2.284096 0.678431
328.108856 205.915192 1.715904 0.678431
328.110321 205.850616 1.150275 0.635784
328.110321 205.850616 0.581764 0.665074
328.128113 205.066452 0.100427 0.532475
328.196838 202.037537 0.000060 0.543627
328.253326 199.546875 0.000087 0.516912
328.292572 197.815994 0.000064 0.527206
328.321503 196.540634 0.000072 0.548039
328.264496 203.723434 5.799085 0.693137
328.262115 203.873566 5.308142 0.678431
328.262115 203.873566 4.787011 0.678431
328.262115 203.873566 4.272053 0.678431
328.262115 203.873566 3.762072 0.678431
328.262787 203.831055 3.252431 0.750000
328.264496 203.723434 2.745097 0.694730
328.230103 205.914169 2.284042 0.678431
328.230103 205.914169 1.715959 0.678431
328.231110 205.849609 1.150439 0.628309
328.231110 205.849609 0.582037 0.675858
328.243378 205.068573 0.100437 0.638235
328.290924 202.039536 0.000032 0.544363
328.330017 199.548477 0.000061 0.541299
328.357208 197.817368 0.000035 0.571201
328.377228 196.541794 0.000045 0.547181
328.370392 203.722549 5.798536 0.691789
328.369049 203.872665 5.307665 0.678431
328.369049 203.872665 4.786609 0.678431
328.369049 203.872665 4.271725 0.678431
328.369049 203.872665 3.761817 0.678431
328.369446 203.830154 3.252251 0.749142
328.370392 203.722549 2.744989 0.693995
328.351288 205.913132 2.284000 0.678431
328.351288 205.913132 1.716000 0.678431
328.351837 205.848572 1.150561 0.631373
328.351837 205.848587 0.582242 0.679657
328.358643 205.069916 0.100443 0.632108
328.385040 202.040436 0.000071 0.529902
328.406769 199.549210 0.000099 0.538113
328.421875 197.817963 0.000072 0.519485
328.432953 196.542328 0.000081 0.506863
328.476257 203.721649 5.798172 0.674877
328.475983 203.871765 5.307347 0.678431
328.475983 203.871765 4.786343 0.678431
328.475983 203.871765 4.271508 0.678431
328.475983 203.871765 3.761649 0.678431
328.476074 203.829269 3.252131 0.734559
328.476257 203.721634 2.744917 0.678186
328.472443 205.912109 2.283973 0.678431
328.472443 205.912109 1.716027 0.678431
328.472565 205.847549 1.150643 0.641422
328.472565 205.847549 0.582377 0.648039
328.473907 205.070511 0.100446 0.618137
328.479187 202.041107 0.000042 0.525735
328.483490 199.549759 0.000071 0.522181
328.486511 197.818420 0.000047 0.544730
328.488708 196.542725 0.000055 0.519608
328.582123 203.720749 5.797995 0.702328
328.582794 203.849365 5.302553 0.860784
328.582794 203.849365 4.782304 0.838971
328.582794 203.849365 4.268215 0.834559
328.582794 203.849365 3.759095 0.838603
328.582672 203.828354 3.252072 0.768750
328.582123 203.720749 2.744883 0.701103
328.593597 205.911087 2.283960 0.678431
328.593597 205.911087 1.716040 0.678431
328.593262 205.846527 1.150683 0.638726
328.593262 205.846527 0.582444 0.677451
328.589203 205.070313 0.100446 0.615074
328.573303 202.040970 0.000040 0.539216
328.560211 199.549652 0.000069 0.537010
328.551147 197.818344 0.000043 0.539706
328.544464 196.542648 0.000054 0.550000
328.687958 203.719864 5.798001 0.663971
328.689117 203.815460 5.295432 0.671078
328.689117 203.815460 4.776303 0.697549
328.689117 203.815460 4.263324 0.719240
328.689117 203.815460 3.755301 0.702819
328.689117 203.815460 3.251092 0.708333
328.687958 203.719864 2.744884 0.669485
328.714752 205.910049 2.283960 0.678431
328.714752 205.910049 1.716040 0.678431
328.713959 205.845520 1.150681 0.636275
328.713959 205.845520 0.582441 0.649265
328.704437 205.069321 0.100443 0.628064
328.667419 202.040329 0.000012 0.539951
328.636932 199.549133 0.000041 0.489706
328.615784 197.817902 0.000016 0.532598
328.600220 196.542252 0.000028 0.554412
328.793793 203.718948 5.798193 0.702451
328.795441 203.804565 5.293439 0.643382
328.795441 203.804565 4.774624 0.679167
328.795441 203.804565 4.261955 0.683456
328.795441 203.804565 3.754240 0.622917
328.795441 203.804565 3.250335 0.653186
328.793793 203.718948 2.744922 0.705270
328.835876 205.909042 2.283974 0.678431
328.835876 205.909042 1.716025 0.678431
328.834656 205.844482 1.150638 0.597549
328.834656 205.844482 0.582370 0.647672
328.819702 205.067551 0.100438 0.648407
328.761505 202.038589 0.000051 0.526838
328.713684 199.547714 0.000079 0.496691
328.680420 197.816711 0.000053 0.520711
328.655914 196.541245 0.000064 0.519118
328.899689 203.718063 5.798570 0.721936
328.901917 203.803650 5.293764 0.671691
328.901917 203.803650 4.774898 0.671446
328.901917 203.803650 4.262178 0.653676
328.901917 203.803650 3.754413 0.649510
328.901917 203.803650 3.250458 0.627574
328.899689 203.718063 2.744996 0.720833
328.907074 204.000458 2.252778 0.682353
328.907074 204.000458 1.747223 0.725123
328.907074 204.000458 1.241126 0.700000
328.907074 204.000458 0.733399 0.582353
328.907074 204.000443 0.222940 0.679412
328.855621 202.036484 0.000046 0.537623
328.790405 199.546005 0.000073 0.539338
328.745026 197.815262 0.000048 0.532721
328.711639 196.540009 0.000058 0.503922
329.005585 203.717148 5.799132 0.708701
329.008423 203.802750 5.294250 0.663971
329.008423 203.802750 4.775307 0.645098
329.008423 203.802750 4.262511 0.666299
329.008423 203.802750 3.754672 0.644485
329.008423 203.802750 3.250643 0.661765
329.005585 203.717148 2.745106 0.712623
329.014374 203.982010 2.252527 0.699877
329.014374 203.982010 1.747472 0.675123
329.014374 203.982010 1.241875 0.726716
329.014374 203.982010 0.734650 0.654412
329.014374 203.982010 0.224693 0.618137
328.949707 202.033600 0.000062 0.556618
328.867096 199.543625 0.000091 0.527083
328.809662 197.813263 0.000064 0.493750
328.767365 196.538269 0.000074 0.518382
329.111511 203.716263 5.799880 0.714338
329.114960 203.801834 5.294895 0.649020
329.114960 203.801834 4.775851 0.681740
329.114960 203.801834 4.262955 0.666299
329.114960 203.801834 3.755016 0.663358
329.114960 203.801834 3.250888 0.661029
329.111511 203.716263 2.745253 0.710417
329.199493 205.905960 2.284101 0.678431
329.199493 205.905960 1.715899 0.678431
329.196899 205.841415 1.150261 0.632353
329.196899 205.841415 0.581739 0.677574
329.126373 204.085815 0.212289 0.649020
329.043762 202.030182 0.000055 0.546569
328.943756 199.540848 0.000085 0.528554
328.874268 197.810928 0.000058 0.544730
328.823059 196.536255 0.000068 0.544608
329.217499 203.715363 5.800813 0.701471
329.222015 203.810944 5.297873 0.777819
329.222015 203.810959 4.778360 0.776471
329.222015 203.810944 4.265000 0.776961
329.222015 203.810959 3.756602 0.777451
329.222015 203.810944 3.252018 0.777941
329.217499 203.715363 2.745436 0.703922
329.320801 205.904922 2.284171 0.678431
329.320801 205.904922 1.715829 0.678431
329.317749 205.840393 1.150052 0.641054
329.317749 205.840393 0.581391 0.651593
329.280579 205.052582 0.100401 0.627819
329.137817 202.026260 0.000028 0.544608
329.020447 199.537674 0.000055 0.549020
328.938843 197.808258 0.000028 0.541667
328.878754 196.533936 0.000040 0.496569
329.323517 203.714432 5.801927 0.732476
329.331665 203.864517 5.310624 0.678431
