# This PCD file was generated using the MATLABÂ® pcwrite function
# from Computer Vision ToolboxÂ®.
# .PCD v.7 - Point Cloud Data file format
VERSION .7
FIELDS x y z intensity
SIZE 4 4 4 4
TYPE F F F F
COUNT 1 1 1 1
WIDTH 1186
HEIGHT 1
VIEWPOINT 0 0 0 1 0 0 0
POINTS 1186
DATA ascii
332.561005 196.040298 -0.000014 0.561642
329.900940 203.805191 6.055888 0.759559
329.881775 203.859833 5.509645 0.678431
329.881775 203.859833 4.956771 0.678431
329.881775 203.859833 4.410446 0.678431
329.881775 203.859833 3.869401 0.678431
329.896729 203.817215 3.328713 0.732721
329.934540 203.709229 2.790467 0.704657
329.165192 205.906235 2.301393 0.678431
329.165192 205.906235 1.698607 0.678431
329.187866 205.841492 1.098544 0.623775
329.187866 205.841476 0.495422 0.618015
329.795074 204.107498 0.100410 0.560662
330.796204 201.248550 -0.000036 0.535294
331.619629 198.897232 -0.000028 0.553431
332.191895 197.263031 -0.000038 0.541912
332.613556 196.058945 -0.000022 0.545098
330.020752 203.804169 6.045825 0.714093
330.002045 203.858810 5.500937 0.678431
330.002045 203.858826 4.949435 0.678431
330.002045 203.858826 4.404467 0.678431
330.002045 203.858826 3.864764 0.678431
330.016632 203.816193 3.325417 0.718260
330.053650 203.708191 2.788505 0.688480
329.301514 205.905075 2.300646 0.678431
329.301514 205.905075 1.699355 0.678431
329.323639 205.840347 1.100780 0.636152
329.323639 205.840347 0.499155 0.658333
329.904022 204.145218 0.100410 0.582843
330.885132 201.279449 -0.000052 0.531127
331.692108 198.922379 -0.000038 0.569118
332.252960 197.284195 -0.000039 0.512623
332.666199 196.077240 -0.000036 0.550980
330.140015 203.803162 6.036012 0.777819
330.140015 203.803162 5.480001 0.805025
330.140015 203.803162 4.931798 0.806250
330.140015 203.803162 4.390087 0.776471
330.140015 203.803162 3.853612 0.779657
330.140015 203.803162 3.321163 0.807598
330.172150 203.707153 2.786590 0.694975
329.437103 205.903931 2.299916 0.678431
329.437103 205.903931 1.700084 0.678431
329.458771 205.839188 1.102962 0.665564
329.458771 205.839188 0.502796 0.614093
330.013184 204.182175 0.100410 0.546936
330.974365 201.309479 -0.000027 0.515319
331.764832 198.946930 -0.000028 0.544118
332.314240 197.304810 -0.000015 0.495956
332.719025 196.095016 -0.000012 0.543873
330.258667 203.802155 6.026439 0.695711
330.240814 203.856796 5.484160 0.678431
330.240814 203.856796 4.935303 0.678431
330.240814 203.856796 4.392944 0.678431
330.240814 203.856796 3.855828 0.678431
330.254761 203.814178 3.319065 0.751716
330.289978 203.706299 2.784732 0.725980
329.572083 205.902786 2.299205 0.678431
329.572083 205.902786 1.700795 0.678431
329.593262 205.838058 1.105090 0.627819
329.593262 205.838058 0.506347 0.614216
330.122620 204.218384 0.100410 0.554167
331.063690 201.339096 -0.000038 0.532966
331.837677 198.971085 -0.000039 0.514951
332.375610 197.325150 -0.000023 0.560294
332.771942 196.112534 -0.000021 0.528554
330.376801 203.801163 6.017105 0.761765
330.359344 203.855789 5.476085 0.678431
330.359344 203.855789 4.928499 0.678431
330.359344 203.855789 4.387398 0.678431
330.359344 203.855789 3.851527 0.678431
330.372955 203.813171 3.316008 0.746324
330.407379 203.705292 2.782913 0.699755
329.706451 205.901642 2.298511 0.678431
329.706451 205.901642 1.701489 0.678431
329.727112 205.836914 1.107164 0.668015
329.727112 205.836914 0.509809 0.614216
330.232361 204.253799 0.100410 0.566054
331.153229 201.368103 -0.000049 0.509804
331.910675 198.994736 -0.000051 0.555270
332.437103 197.345093 -0.000041 0.562500
332.824951 196.129791 -0.000051 0.517524
330.494385 203.800156 6.008012 0.776961
330.477356 203.854782 5.468217 0.678431
330.477356 203.854782 4.921870 0.678431
330.477356 203.854782 4.381993 0.678431
330.477356 203.854782 3.847335 0.678431
330.490631 203.812180 3.313029 0.724265
330.524231 203.704285 2.781139 0.716054
329.840179 205.900513 2.297836 0.678431
329.840179 205.900513 1.702165 0.678431
329.860352 205.835785 1.109185 0.660907
329.860352 205.835785 0.513182 0.616544
330.342285 204.288483 0.100410 0.593260
331.243103 201.396103 -0.000001 0.524755
331.983826 199.017868 -0.000062 0.525490
332.498749 197.364594 -0.000052 0.511887
332.878082 196.146591 -0.000059 0.540931
330.611420 203.799179 5.999154 0.784926
330.594818 203.853806 5.460551 0.678431
330.594818 203.853790 4.915412 0.678431
330.594818 203.853790 4.376729 0.678431
330.594818 203.853790 3.843253 0.678431
330.607758 203.811172 3.310127 0.740319
330.640533 203.703278 2.779412 0.697304
329.973328 205.899384 2.297177 0.678431
329.973328 205.899384 1.702823 0.678431
329.993011 205.834656 1.111154 0.645711
329.993011 205.834656 0.516468 0.652083
330.452484 204.322372 0.100410 0.587745
331.333130 201.423615 0.000025 0.561152
332.057220 199.040314 -0.000041 0.552451
332.560577 197.383469 -0.000027 0.504167
332.931396 196.162888 -0.000033 0.534681
330.727966 203.798187 5.990529 0.776716
330.711761 203.852814 5.453088 0.678431
330.711761 203.852814 4.909124 0.678431
330.711761 203.852814 4.371603 0.678431
330.711761 203.852814 3.839277 0.678431
330.724396 203.810196 3.307301 0.747794
330.756348 203.702271 2.777730 0.721324
330.105896 205.898270 2.296537 0.678431
330.105896 205.898270 1.703464 0.678431
330.125061 205.833542 1.113071 0.667892
330.125061 205.833542 0.519668 0.672426
330.562866 204.355499 0.100410 0.619363
331.423279 201.450714 0.000015 0.550980
332.130707 199.062424 -0.000053 0.526961
332.622498 197.402100 -0.000037 0.502819
332.984802 196.178909 -0.000037 0.512377
330.869659 203.708221 5.958938 0.720833
330.828247 203.851822 5.445824 0.678431
330.828247 203.851822 4.903004 0.678431
330.828247 203.851822 4.366613 0.678431
330.828247 203.851822 3.835408 0.678431
330.840546 203.809204 3.304551 0.729412
330.871674 203.701279 2.776093 0.715809
330.237915 205.897141 2.295913 0.678431
330.237915 205.897141 1.704087 0.678431
330.256592 205.832428 1.114937 0.641176
330.256592 205.832428 0.522782 0.644485
330.673523 204.387848 0.100410 0.518137
331.513580 201.477219 0.000003 0.526226
332.204346 199.084030 -0.000065 0.524510
332.684509 197.420380 -0.000066 0.535294
333.038300 196.194595 -0.000046 0.530025
330.985718 203.703171 5.949756 0.695343
330.944214 203.850845 5.438758 0.678431
330.944214 203.850845 4.897052 0.678431
330.944214 203.850845 4.361761 0.678431
330.944214 203.850845 3.831644 0.678431
330.956207 203.808228 3.301876 0.756373
330.986511 203.700287 2.774500 0.681618
330.369354 205.896027 2.295306 0.678431
330.369354 205.896027 1.704695 0.678431
330.387543 205.831329 1.116752 0.667157
330.387543 205.831329 0.525811 0.643505
330.784363 204.419434 0.100410 0.618137
331.604156 201.502899 0.000020 0.537010
332.278137 199.104965 -0.000047 0.549020
332.746704 197.438019 -0.000050 0.524265
333.091919 196.209808 -0.000029 0.518873
331.100830 203.699493 5.941161 0.673774
331.059723 203.849854 5.431888 0.678431
331.059723 203.849854 4.891263 0.678431
331.059723 203.849854 4.357043 0.678431
331.059723 203.849854 3.827985 0.678431
331.071381 203.807251 3.299275 0.743137
331.100861 203.699432 2.772958 0.670343
330.500275 205.894913 2.294716 0.678431
330.500275 205.894913 1.705284 0.678431
330.517975 205.830215 1.118516 0.623284
330.517975 205.830215 0.528756 0.645711
330.895477 204.450241 0.100410 0.616299
331.694824 201.528122 0.000010 0.535662
332.352081 199.125519 -0.000059 0.518627
332.808990 197.455338 -0.000061 0.539583
333.145630 196.224777 -0.000050 0.552451
331.214844 203.698196 5.933414 0.702574
331.174774 203.848892 5.425211 0.678431
331.174774 203.848892 4.885639 0.678431
331.174774 203.848892 4.352457 0.678431
331.174774 203.848877 3.824428 0.678431
331.186096 203.806290 3.296748 0.723774
331.214783 203.698441 2.771454 0.677574
330.630676 205.893814 2.294142 0.678431
330.630676 205.893814 1.705858 0.678431
330.647888 205.829117 1.120231 0.668260
330.647888 205.829117 0.531619 0.646324
331.006775 204.480255 0.100410 0.604412
331.785706 201.552750 -0.000009 0.532966
332.426239 199.145218 -0.000000 0.546324
332.871399 197.472198 -0.000064 0.547304
333.199463 196.239304 -0.000050 0.546569
331.328278 203.697479 5.926027 0.684314
331.289368 203.847916 5.418728 0.678431
331.289368 203.847900 4.880177 0.678431
331.289368 203.847900 4.348004 0.678431
331.289368 203.847900 3.820975 0.678431
331.300385 203.805313 3.294292 0.749142
331.328278 203.697464 2.769993 0.702941
330.760590 205.892715 2.293586 0.678431
330.760590 205.892715 1.706414 0.678431
330.777313 205.828018 1.121897 0.682230
330.777313 205.828018 0.534399 0.613113
331.118256 204.509506 0.100410 0.582721
331.876770 201.576508 0.000010 0.540686
332.500519 199.164581 0.000017 0.533824
332.933960 197.488464 -0.000035 0.534191
333.253357 196.253372 -0.000033 0.540074
331.441406 203.696274 5.918733 0.686397
331.403564 203.846939 5.412434 0.678431
331.403564 203.846939 4.874874 0.678431
331.403564 203.846939 4.343681 0.678431
331.403564 203.846939 3.817622 0.678431
331.414246 203.804352 3.291910 0.752206
331.441345 203.696518 2.768575 0.702941
330.889984 205.891617 2.293045 0.678431
330.889984 205.891617 1.706955 0.678431
330.906250 205.826920 1.123513 0.645711
330.906250 205.826920 0.537097 0.611887
331.229980 204.537979 0.100410 0.627083
331.967957 201.599854 -0.000003 0.549142
332.574860 199.183609 0.000004 0.547794
332.996613 197.504486 -0.000045 0.564093
333.307373 196.267197 -0.000045 0.517157
331.553986 203.695541 5.911781 0.697304
331.517334 203.845978 5.406329 0.678431
331.517334 203.845978 4.869731 0.678431
331.517334 203.845978 4.339489 0.678431
331.517334 203.845978 3.814371 0.678431
331.527679 203.803391 3.289599 0.754412
331.553986 203.695541 2.767199 0.713235
331.018951 205.890533 2.292521 0.678431
331.018951 205.890533 1.707479 0.678431
331.034698 205.825836 1.125081 0.644118
331.034698 205.825836 0.539713 0.611029
331.341888 204.565674 0.100410 0.575980
332.059326 201.622528 -0.000014 0.548774
332.649323 199.202087 -0.000006 0.560907
333.059357 197.520065 -0.000059 0.530515
333.361481 196.280594 -0.000048 0.534681
331.666321 203.694366 5.904928 0.704779
331.630707 203.845016 5.400412 0.678431
331.630707 203.845016 4.864746 0.678431
331.630707 203.845016 4.335424 0.678431
331.630707 203.845016 3.811219 0.678431
331.640747 203.802429 3.287359 0.757353
331.666260 203.694580 2.765867 0.699755
331.147430 205.889435 2.292012 0.678431
331.147430 205.889435 1.707987 0.678431
331.162720 205.824753 1.126601 0.616544
331.162720 205.824753 0.542250 0.614093
331.453979 204.592590 0.100410 0.575368
332.150879 201.644379 0.000005 0.550368
332.723938 199.219910 0.000013 0.527451
333.122223 197.535080 -0.000040 0.525123
333.415710 196.293518 -0.000028 0.525368
331.778137 203.693634 5.898403 0.720711
331.743652 203.844055 5.394680 0.678431
331.743652 203.844055 4.859917 0.678431
331.743652 203.844055 4.331488 0.678431
331.743652 203.844055 3.808166 0.678431
331.753418 203.801483 3.285188 0.755515
331.778137 203.693619 2.764575 0.709191
331.275482 205.888351 2.291521 0.678431
331.275482 205.888351 1.708480 0.678431
331.290283 205.823669 1.128073 0.617279
331.290283 205.823669 0.544707 0.626225
331.566254 204.618713 0.100410 0.580637
332.242523 201.665802 -0.000008 0.550245
332.798676 199.237473 -0.000019 0.529534
333.185242 197.549591 -0.000009 0.557843
333.469971 196.306213 -0.000040 0.534804
331.889679 203.692505 5.891986 0.726593
331.856262 203.843109 5.389132 0.678431
331.856262 203.843094 4.855243 0.678431
331.856262 203.843094 4.327678 0.678431
331.856262 203.843094 3.805212 0.678431
331.865692 203.800522 3.283089 0.764216
331.889618 203.692657 2.763325 0.714338
331.403107 205.887268 2.291044 0.678431
331.403107 205.887268 1.708956 0.678431
331.417450 205.822601 1.129498 0.644975
331.417450 205.822601 0.547086 0.659436
331.678711 204.644058 0.100410 0.561887
332.334320 201.686630 -0.000030 0.546569
332.873535 199.254395 -0.000030 0.542034
333.248260 197.563858 -0.000021 0.546691
333.524353 196.318497 -0.000051 0.509436
332.000763 203.691757 5.885876 0.715074
331.968506 203.842163 5.383767 0.678431
331.968506 203.842163 4.850724 0.678431
331.968506 203.842163 4.323994 0.678431
331.968506 203.842163 3.802354 0.678431
331.977631 203.799576 3.281057 0.751961
332.000793 203.691711 2.762116 0.723529
331.530334 205.886185 2.290583 0.678431
331.530334 205.886185 1.709417 0.678431
331.544189 205.821518 1.130876 0.671936
331.544189 205.821518 0.549386 0.647549
331.791351 204.668610 0.100410 0.597794
332.426361 201.706467 0.000001 0.505147
332.948517 199.270584 -0.000001 0.529412
333.311493 197.577499 0.000010 0.527696
333.578857 196.330139 0.000007 0.518137
332.111572 203.690674 5.879886 0.703309
332.080383 203.841202 5.378584 0.678431
332.080383 203.841202 4.846356 0.678431
332.080383 203.841202 4.320433 0.678431
332.080383 203.841202 3.799593 0.678431
332.089233 203.798630 3.279095 0.775980
332.111542 203.690765 2.760948 0.716667
331.657135 205.885117 2.290138 0.678431
331.657135 205.885117 1.709862 0.678431
331.670532 205.820450 1.132207 0.654657
331.670532 205.820450 0.551607 0.637500
331.904144 204.692383 0.100410 0.571936
332.518433 201.725983 -0.000013 0.533088
333.023590 199.286484 -0.000014 0.543137
333.374725 197.590897 -0.000007 0.519363
333.633423 196.341690 -0.000004 0.520956
332.221985 203.689926 5.874187 0.721691
332.191956 203.840271 5.373580 0.678431
332.191956 203.840256 4.842142 0.678431
332.191956 203.840271 4.316998 0.678431
332.191956 203.840256 3.796927 0.678431
332.200470 203.797684 3.277200 0.761397
332.222015 203.689819 2.759821 0.729044
331.783600 205.884048 2.289708 0.678431
331.783600 205.884048 1.710291 0.678431
331.796509 205.819382 1.133492 0.625000
331.796509 205.819382 0.553753 0.626961
332.017090 204.715378 0.100410 0.595833
332.610626 201.744827 -0.000025 0.534191
333.098785 199.301849 -0.000026 0.563971
333.438049 197.603836 -0.000020 0.513603
333.687988 196.352844 -0.000017 0.550245
332.332153 203.688858 5.868614 0.731985
332.303192 203.839325 5.368756 0.678431
332.303192 203.839325 4.838077 0.678431
332.303192 203.839325 4.313683 0.678431
332.303192 203.839325 3.794358 0.678431
332.311401 203.796753 3.275374 0.757108
332.332123 203.688950 2.758737 0.712745
331.909668 205.882980 2.289294 0.678431
331.909668 205.882980 1.710706 0.678431
331.922119 205.818314 1.134732 0.623407
331.922119 205.818314 0.555821 0.629412
332.130219 204.737564 0.100410 0.584191
332.703064 201.762817 -0.000005 0.526103
333.174072 199.316513 -0.000008 0.560539
333.501495 197.616119 0.000016 0.500858
333.742706 196.363495 0.000004 0.503676
332.441956 203.688095 5.863317 0.694240
332.414124 203.838379 5.364109 0.678431
332.414124 203.838364 4.834162 0.678431
332.414124 203.838364 4.310491 0.678431
332.414124 203.838364 3.791882 0.678431
332.421997 203.795822 3.273615 0.764706
332.441956 203.688019 2.757690 0.684559
332.035400 205.881912 2.288895 0.678431
332.035400 205.881912 1.711105 0.678431
332.047363 205.817245 1.135925 0.623407
332.047363 205.817261 0.557813 0.659926
332.243500 204.758957 0.100410 0.569485
332.795532 201.780396 -0.000019 0.523529
333.249512 199.330688 0.000005 0.527696
333.565063 197.628204 0.000002 0.521201
333.797516 196.373810 0.000013 0.549632
332.551514 203.687088 5.858162 0.666789
332.534454 203.782883 5.347667 0.777819
332.534454 203.782883 4.820311 0.761397
332.534454 203.782883 4.299200 0.788358
332.534454 203.782883 3.783126 0.807230
332.534454 203.782867 3.270923 0.772426
332.551514 203.687088 2.756684 0.665931
332.160767 205.880844 2.288511 0.678431
332.160767 205.880844 1.711489 0.678431
332.172272 205.816193 1.137074 0.616176
332.172272 205.816193 0.559730 0.660784
332.356934 204.779572 0.100410 0.562868
332.888123 201.797318 -0.000034 0.541422
333.324982 199.344498 -0.000010 0.527328
333.628632 197.639816 -0.000011 0.534314
333.852356 196.383835 -0.000001 0.523897
332.660767 203.686066 5.853208 0.664338
332.640198 203.806458 5.348759 0.848162
332.640198 203.806458 4.821230 0.821201
332.640198 203.806458 4.299950 0.829902
332.640198 203.806458 3.783706 0.825858
332.642334 203.793945 3.270296 0.778309
332.660767 203.686157 2.755716 0.692279
332.285828 205.879776 2.288142 0.678431
332.285828 205.879776 1.711858 0.678431
332.296875 205.815140 1.138177 0.622917
332.296875 205.815140 0.561571 0.675245
332.470459 204.799393 0.100410 0.567892
332.980865 201.813293 -0.000003 0.551471
333.400635 199.357513 0.000021 0.510049
333.692352 197.650787 0.000019 0.526471
333.907288 196.393295 0.000031 0.531618
332.769714 203.685272 5.848505 0.702941
332.745117 203.835571 5.351221 0.678431
332.745117 203.835571 4.823304 0.678431
332.745117 203.835571 4.301640 0.678431
332.745117 203.835571 3.785017 0.678431
332.752106 203.793015 3.268735 0.748039
332.769745 203.685226 2.754787 0.713235
332.410553 205.878723 2.287788 0.678431
332.410553 205.878723 1.712212 0.678431
332.421143 205.814087 1.139235 0.622794
332.421143 205.814087 0.563339 0.618137
332.584198 204.818420 0.100410 0.517647
333.073700 201.828903 -0.000014 0.549020
333.476288 199.370239 0.000010 0.542279
333.756104 197.661514 0.000008 0.546324
333.962250 196.402542 0.000020 0.591176
332.878448 203.684296 5.843956 0.700735
332.854919 203.834641 5.347273 0.678431
332.854919 203.834641 4.819978 0.678431
332.854919 203.834641 4.298928 0.678431
332.854919 203.834641 3.782915 0.678431
332.861572 203.792084 3.267241 0.751471
332.878448 203.684311 2.753898 0.700123
332.543518 205.823120 2.286546 0.789461
332.543518 205.823135 1.713454 0.772794
332.545135 205.813034 1.140250 0.636642
332.545135 205.813034 0.565031 0.647549
332.697998 204.836639 0.100410 0.588480
333.166656 201.843781 -0.000013 0.540564
333.552032 199.382462 -0.000006 0.533946
333.819916 197.671799 -0.000007 0.522059
334.017273 196.411407 0.000008 0.554167
332.986908 203.683319 5.839604 0.713971
332.964447 203.833710 5.343496 0.678431
332.964447 203.833710 4.816796 0.678431
332.964447 203.833710 4.296334 0.678431
332.964447 203.833710 3.780903 0.678431
332.970795 203.791153 3.265810 0.750858
332.986908 203.683380 2.753047 0.714461
332.668823 205.811981 2.286055 0.645833
332.668823 205.811981 1.713945 0.646691
332.668823 205.811981 1.141220 0.624020
332.668823 205.811981 0.566650 0.651838
332.811951 204.854065 0.100410 0.598039
333.259705 201.857864 0.000010 0.537500
333.627930 199.393951 0.000015 0.525123
333.883850 197.681473 0.000015 0.499265
334.072388 196.419754 0.000026 0.570833
333.095123 203.682510 5.835495 0.706863
333.073730 203.832794 5.339890 0.678431
333.073730 203.832794 4.813758 0.678431
333.073730 203.832794 4.293859 0.678431
333.073730 203.832794 3.778982 0.678431
333.079773 203.790222 3.264446 0.751471
333.095123 203.682465 2.752235 0.701961
332.792236 205.810944 2.285747 0.613480
332.792236 205.810944 1.714253 0.669118
332.792236 205.810944 1.142146 0.623407
332.792236 205.810944 0.568195 0.677819
332.926025 204.870712 0.100410 0.607476
333.352844 201.871552 -0.000007 0.534069
333.703827 199.405106 0.000002 0.545833
333.947784 197.690933 -0.000010 0.529657
334.127533 196.427948 -0.000009 0.544608
333.203125 203.681564 5.831540 0.711029
333.182800 203.831863 5.336455 0.678431
333.182800 203.831863 4.810864 0.678431
333.182800 203.831863 4.291499 0.678431
333.182800 203.831863 3.777153 0.678431
333.188538 203.789307 3.263145 0.746324
333.203125 203.681549 2.751462 0.703554
332.915375 205.809906 2.285453 0.623775
332.915375 205.809906 1.714547 0.615809
332.915375 205.809906 1.143028 0.603554
332.915375 205.809906 0.569668 0.648039
333.040222 204.886566 0.100410 0.612623
333.446045 201.884583 -0.000020 0.523039
333.779846 199.415741 -0.000012 0.555392
334.011810 197.699875 -0.000023 0.542525
334.182739 196.435669 -0.000024 0.535049
333.310913 203.680603 5.827775 0.737255
333.293945 203.813019 5.329288 0.859559
333.293945 203.813019 4.804826 0.824142
333.293945 203.813019 4.286577 0.835539
333.293945 203.813019 3.773335 0.838726
333.297089 203.788391 3.261909 0.762255
333.310913 203.680618 2.750725 0.711397
333.036987 205.818939 2.285341 0.744730
333.036987 205.818939 1.714660 0.741789
333.038269 205.808853 1.143867 0.592034
333.038269 205.808853 0.571068 0.627574
333.154510 204.901611 0.100410 0.598652
333.539398 201.896713 0.000003 0.519608
333.855927 199.425735 -0.000011 0.513971
334.075928 197.708206 -0.000003 0.534926
334.238007 196.442841 -0.000001 0.535662
333.418488 203.679764 5.824238 0.715809
333.406891 203.775482 5.318228 0.692647
333.406891 203.775482 4.795507 0.713113
333.406891 203.775482 4.278979 0.717892
333.406891 203.775482 3.767443 0.704167
333.406891 203.775482 3.259746 0.708701
333.418488 203.679703 2.750028 0.723039
333.384674 203.959076 2.254435 0.679044
333.384674 203.959076 1.745564 0.707353
333.384674 203.959076 1.236148 0.688113
333.384674 203.959076 0.725090 0.645956
333.385071 203.955627 0.211682 0.644485
333.632813 201.908386 -0.000003 0.522181
333.932068 199.435257 -0.000014 0.550858
334.140076 197.716217 -0.000006 0.547304
334.293335 196.449753 -0.000006 0.599387
333.525848 203.678833 5.820868 0.701103
333.516144 203.763947 5.313003 0.633211
333.516113 203.764313 4.791173 0.658946
333.516144 203.764023 4.275402 0.659681
333.516052 203.764755 3.764753 0.647794
333.516022 203.765060 3.257854 0.655882
333.525848 203.678802 2.749367 0.694485
333.495575 203.944397 2.253985 0.642279
333.495575 203.944397 1.746015 0.704289
333.495575 203.944397 1.237500 0.695098
333.495575 203.944397 0.727347 0.622059
333.495148 203.948395 0.213984 0.611274
333.726257 201.919479 -0.000019 0.533578
334.008270 199.444275 -0.000030 0.532475
334.204285 197.723831 -0.000021 0.521691
334.348694 196.456314 -0.000019 0.541422
333.633057 203.677902 5.817692 0.703676
333.623901 203.763489 5.310350 0.640441
333.623871 203.763580 4.788888 0.681373
333.623901 203.763474 4.273567 0.656127
333.623871 203.763733 3.763277 0.649632
333.623840 203.763885 3.256788 0.654902
333.633057 203.677887 2.748745 0.715319
333.594635 204.037277 2.255318 0.695343
333.594635 204.037277 1.744682 0.664216
333.594635 204.037277 1.233499 0.685417
333.594635 204.037277 0.720668 0.602083
333.597198 204.013290 0.207852 0.639216
333.819855 201.929657 0.000005 0.526226
334.084564 199.452576 -0.000009 0.548529
334.268555 197.730820 0.000003 0.545098
334.404083 196.462341 0.000002 0.545466
333.730469 203.773010 5.838878 0.629412
333.730469 203.772995 5.310022 0.662623
333.730469 203.773010 4.788598 0.676716
333.730499 203.772995 4.273345 0.674020
333.730469 203.773010 3.763076 0.649510
333.730469 203.773026 3.256634 0.671201
333.730469 203.773026 2.752902 0.653186
333.521271 205.869308 2.285262 0.678431
333.521271 205.869308 1.714738 0.678431
333.527710 205.804703 1.146791 0.625245
333.527710 205.804703 0.575949 0.659314
333.612640 204.953796 0.100410 0.618873
333.913483 201.939423 -0.000010 0.538235
334.160889 199.460556 -0.000023 0.557108
334.332855 197.737534 -0.000011 0.541544
334.459534 196.468124 -0.000012 0.553676
333.794861 204.237259 5.953091 0.632721
333.794891 204.237167 5.408484 0.650368
333.794861 204.237289 4.871568 0.653431
333.794891 204.237167 4.340969 0.619240
333.794861 204.237381 3.815544 0.630270
333.794922 204.236877 3.293988 0.624877
333.794861 204.237411 2.775308 0.624387
333.643585 205.868271 2.285053 0.678431
333.643585 205.868271 1.714946 0.678431
333.649567 205.803680 1.147415 0.615564
333.649567 205.803665 0.576991 0.589706
333.727386 204.964844 0.100410 0.621936
334.007202 201.948273 0.000014 0.548162
334.237274 199.467789 -0.000000 0.544485
334.397186 197.743622 0.000011 0.499387
334.515015 196.473389 0.000009 0.558333
333.804718 205.412506 6.246091 0.630515
333.804688 205.412918 5.661228 0.654044
333.804718 205.412445 5.084390 0.651716
333.804688 205.412918 4.514556 0.639706
333.804718 205.412476 3.950093 0.644853
333.804718 205.412537 3.389934 0.608578
333.804657 205.413254 2.832803 0.643995
333.770416 205.812729 2.283963 0.798039
333.770416 205.812729 1.716037 0.773039
333.771271 205.802643 1.147997 0.605025
333.771271 205.802643 0.577962 0.615319
333.804504 205.414658 0.049657 0.561152
334.100922 201.956772 -0.000004 0.552206
334.313721 199.474670 -0.000015 0.528554
334.461578 197.749451 -0.000006 0.576348
334.570557 196.478455 -0.000017 0.562132
333.891266 205.821030 6.346302 0.758211
333.899506 205.716187 5.724829 0.697672
333.891266 205.821045 5.157197 0.758088
333.891266 205.821045 4.573839 0.714093
333.891266 205.821030 3.996120 0.749142
333.891266 205.821030 3.422734 0.772426
333.892029 205.811630 2.851956 0.749020
333.891266 205.821045 2.283937 0.755760
333.891266 205.821030 1.716063 0.759069
333.891266 205.821030 1.147580 0.720588
333.891266 205.821030 0.577265 0.708211
333.892792 205.801682 0.006116 0.657353
334.194763 201.964584 -0.000019 0.531373
334.390167 199.481049 -0.000031 0.552696
334.526001 197.754807 -0.000021 0.534314
334.626099 196.483063 -0.000030 0.548162
334.011932 205.831833 6.346733 0.752941
334.020325 205.714630 5.722537 0.718505
334.011932 205.831848 5.157510 0.720588
334.011932 205.831848 4.574094 0.739338
334.011932 205.831833 3.996316 0.737255
334.011932 205.831833 3.422875 0.757108
334.013489 205.810608 2.851459 0.686275
334.011932 205.831848 2.283965 0.765319
334.011932 205.831833 1.716035 0.740564
334.011932 205.831833 1.147496 0.718260
334.011932 205.831833 0.577125 0.743137
334.014191 205.800659 0.007279 0.679289
334.288635 201.971481 0.000006 0.537868
334.466705 199.486664 -0.000006 0.575858
334.590485 197.759644 -0.000020 0.514461
334.681671 196.487167 -0.000009 0.532353
334.134766 205.809586 6.339080 0.740809
334.140991 205.713684 5.720563 0.726716
334.134766 205.809586 5.151951 0.743995
334.134766 205.809586 4.569563 0.743137
334.134766 205.809586 3.992803 0.738235
334.134766 205.809570 3.420370 0.758946
334.134766 205.809586 2.851004 0.733701
334.134766 205.809586 2.283466 0.735907
334.134766 205.809586 1.716535 0.756495
334.134766 205.809586 1.148996 0.740686
334.134766 205.809570 0.579631 0.757598
334.135437 205.799637 0.008344 0.678309
334.382507 201.977982 -0.000011 0.535294
334.543274 199.491989 -0.000023 0.548284
334.654968 197.764114 -0.000035 0.531005
334.737274 196.491013 -0.000026 0.482353
334.253906 205.843918 6.345841 0.762868
334.261505 205.712738 5.718770 0.714216
334.253906 205.843933 5.156863 0.678431
334.253906 205.843933 4.573567 0.678431
334.253906 205.843933 3.995909 0.678431
334.253906 205.843918 3.422583 0.766667
334.253906 205.843933 2.852330 0.678431
334.253906 205.843933 2.283907 0.678431
334.253906 205.843933 1.716093 0.678431
334.255188 205.822479 1.148725 0.107475
334.253906 205.843918 0.577417 0.753431
334.256561 205.798630 0.009312 0.626961
334.476440 201.983994 -0.000051 0.514951
334.619843 199.496750 -0.000040 0.538971
334.719513 197.768143 -0.000053 0.560662
334.792938 196.494461 -0.000039 0.546201
334.375244 205.842896 6.343941 0.770466
334.381897 205.711792 5.717160 0.708578
334.375244 205.842911 5.155483 0.678431
334.375244 205.842896 4.572442 0.678431
334.375244 205.842896 3.995036 0.678431
334.375244 205.842880 3.421960 0.751593
334.375244 205.842911 2.851957 0.678431
334.375244 205.842896 2.283783 0.678431
334.375244 205.842896 1.716217 0.678431
334.376343 205.821701 1.149085 0.114951
334.375244 205.842880 0.578039 0.768995
334.377563 205.797607 0.010181 0.675245
334.570465 201.988846 -0.000014 0.543260
334.696503 199.500717 -0.000005 0.529534
334.784058 197.771484 -0.000017 0.515196
334.848572 196.497345 -0.000005 0.539583
334.496490 205.841858 6.342255 0.758701
334.502228 205.710831 5.715729 0.703922
334.496490 205.841873 5.154257 0.678431
334.496490 205.841873 4.571444 0.678431
334.496490 205.841873 3.994261 0.678431
334.496490 205.841843 3.421408 0.729167
334.496490 205.841873 2.851627 0.678431
334.496490 205.841873 2.283673 0.678431
334.496490 205.841873 1.716327 0.678431
334.497406 205.820908 1.149404 0.106985
334.496490 205.841843 0.578591 0.768137
334.498474 205.796585 0.010953 0.643995
334.664490 201.993378 -0.000030 0.557966
334.773132 199.504410 -0.000020 0.531127
334.848633 197.774597 -0.000033 0.525858
334.904266 196.500046 -0.000023 0.553676
334.617615 205.840820 6.340780 0.746936
334.622437 205.709869 5.714478 0.712377
334.617615 205.840836 5.153187 0.678431
334.617615 205.840836 4.570570 0.678431
334.617615 205.840836 3.993584 0.678431
334.617615 205.840820 3.420926 0.731373
334.617615 205.840836 2.851337 0.678431
334.617615 205.840836 2.283576 0.678431
334.617615 205.840836 1.716424 0.678431
334.618408 205.820068 1.149684 0.110784
334.617615 205.840805 0.579074 0.732966
334.619293 205.795578 0.011628 0.659559
334.758545 201.997269 -0.000047 0.536765
334.849792 199.507584 -0.000037 0.532966
334.913208 197.777252 -0.000049 0.526103
334.959961 196.502335 -0.000037 0.560907
334.738678 205.839813 6.339517 0.720098
334.742584 205.708893 5.713408 0.721569
334.738678 205.839828 5.152270 0.678431
334.738678 205.839828 4.569823 0.678431
334.738678 205.839828 3.993005 0.678431
334.738678 205.839798 3.420513 0.778064
334.738678 205.839828 2.851090 0.678431
334.738678 205.839813 2.283494 0.678431
334.738678 205.839813 1.716506 0.678431
334.739319 205.819229 1.149922 0.106250
334.738678 205.839798 0.579487 0.738848
334.740021 205.794540 0.012205 0.672549
334.852600 202.000229 -0.000022 0.562868
334.926483 199.509995 -0.000011 0.578431
334.977844 197.779297 -0.000027 0.550368
335.015686 196.504089 -0.000012 0.536274
334.859680 205.838776 6.338468 0.728922
334.862671 205.707916 5.712519 0.693873
334.859680 205.838791 5.151508 0.678431
334.859680 205.838791 4.569201 0.678431
334.859680 205.838791 3.992523 0.678431
334.859680 205.838776 3.420169 0.723529
334.859680 205.838791 2.850883 0.678431
334.859680 205.838791 2.283425 0.678431
334.859680 205.838791 1.716575 0.678431
334.860168 205.818329 1.150121 0.110784
334.859680 205.838760 0.579831 0.750000
334.860718 205.793533 0.012686 0.638848
334.946716 202.002792 -0.000038 0.548284
335.003204 199.512100 -0.000028 0.566422
335.042480 197.781067 -0.000043 0.562132
335.071411 196.505615 -0.000029 0.561397
334.980652 205.837753 6.337629 0.727941
334.982727 205.706924 5.711807 0.693015
334.980652 205.837769 5.150898 0.678431
334.980652 205.837769 4.568705 0.678431
334.980652 205.837784 3.992137 0.678431
334.980652 205.837753 3.419895 0.754657
334.980652 205.837769 2.850720 0.678431
334.980652 205.837769 2.283371 0.678431
334.980652 205.837769 1.716629 0.678431
334.980988 205.817429 1.150280 0.118505
334.980652 205.837753 0.580105 0.751961
334.981354 205.792511 0.013069 0.667157
335.040833 202.004425 -0.000012 0.538603
335.079926 199.513412 -0.000002 0.513358
335.107086 197.782196 -0.000018 0.526961
335.127136 196.506577 -0.000005 0.518750
335.101563 205.836731 6.337003 0.735539
335.102692 205.705917 5.711276 0.688848
335.101563 205.836746 5.150443 0.678431
335.101563 205.836746 4.568335 0.678431
335.101563 205.836746 3.991850 0.678431
335.101563 205.836731 3.419690 0.725368
335.101563 205.836746 2.850597 0.678431
335.101563 205.836746 2.283329 0.678431
335.101563 205.836746 1.716670 0.678431
335.101746 205.816483 1.150398 0.115074
335.101563 205.836716 0.580310 0.731005
335.101929 205.791504 0.013355 0.665809
335.134949 202.005692 -0.000029 0.546078
335.156647 199.514450 -0.000019 0.525000
335.171753 197.783035 -0.000033 0.555147
335.182861 196.507324 -0.000020 0.556127
335.222443 205.835709 6.336588 0.713358
335.222656 205.704926 5.710924 0.694485
335.222443 205.835724 5.150143 0.678431
335.222443 205.835724 4.568089 0.678431
335.222443 205.835724 3.991659 0.678431
335.222443 205.835709 3.419554 0.762132
335.222443 205.835724 2.850515 0.678431
335.222443 205.835724 2.283303 0.678431
335.222443 205.835724 1.716697 0.678431
335.222443 205.815521 1.150477 0.129412
335.222443 205.835693 0.580446 0.716299
335.222504 205.790466 0.013546 0.680760
335.229095 202.006302 -0.000047 0.547426
335.233398 199.514938 -0.000036 0.537377
335.236420 197.783463 -0.000050 0.568873
335.238617 196.507690 -0.000037 0.556740
335.343292 205.834686 6.336385 0.756863
335.342590 205.703918 5.710752 0.722794
335.343292 205.834702 5.149995 0.678431
335.343292 205.834702 4.567968 0.678431
335.343292 205.834702 3.991566 0.678431
335.343292 205.834671 3.419488 0.760662
335.343292 205.834686 2.850475 0.678431
335.343292 205.834702 2.283289 0.678431
335.343292 205.834702 1.716711 0.678431
335.343170 205.814514 1.150516 0.117892
335.343292 205.834671 0.580512 0.749142
335.343048 205.789185 0.013669 0.660049
335.323212 202.005859 -0.000006 0.525980
335.310120 199.514587 0.000005 0.537010
335.301056 197.783173 -0.000010 0.558578
335.294373 196.507431 0.000003 0.483946
335.464142 205.833649 6.336393 0.749142
335.462524 205.702911 5.710759 0.706985
335.464142 205.833664 5.150000 0.678431
335.464142 205.833664 4.567973 0.678431
335.464142 205.833664 3.991569 0.678431
335.464142 205.833649 3.419490 0.760784
335.464142 205.833664 2.850477 0.678431
335.464142 205.833664 2.283290 0.678431
335.464142 205.833664 1.716710 0.678431
335.463898 205.813492 1.150514 0.135172
335.464142 205.833633 0.580510 0.719363
335.463593 205.788177 0.013666 0.636765
335.417328 202.005157 -0.000024 0.546446
335.386841 199.514023 -0.000013 0.530637
335.365692 197.782684 -0.000028 0.552819
335.350098 196.507004 -0.000014 0.513358
335.585022 205.832642 6.336612 0.751103
335.582489 205.701889 5.710944 0.696569
335.585022 205.832657 5.150159 0.678431
335.585022 205.832657 4.568103 0.678431
335.585022 205.832657 3.991671 0.678431
335.585022 205.832626 3.419562 0.724265
335.585022 205.832642 2.850520 0.678431
335.585022 205.832657 2.283304 0.678431
335.585022 205.832657 1.716696 0.678431
335.584595 205.812439 1.150473 0.106005
335.585022 205.832626 0.580438 0.707721
335.584137 205.787140 0.013565 0.720711
335.511475 202.003784 -0.000041 0.540564
335.463593 199.512894 -0.000030 0.516422
335.430359 197.781754 -0.000044 0.551103
335.405823 196.506195 -0.000030 0.501471
335.705902 205.831604 6.337043 0.757475
335.702454 205.700836 5.711308 0.717157
335.705902 205.831619 5.150473 0.678431
335.705902 205.831619 4.568357 0.678431
335.705902 205.831619 3.991868 0.678431
335.705902 205.831589 3.419703 0.748652
335.705902 205.831619 2.850605 0.678431
335.705902 205.831619 2.283333 0.678431
335.705902 205.831619 1.716668 0.678431
335.705353 205.811356 1.150391 0.106740
335.705902 205.831589 0.580297 0.752328
335.704712 205.786133 0.013368 0.660907
335.605560 202.001480 -0.000015 0.540686
335.540314 199.511017 -0.000004 0.536765
335.494965 197.780151 -0.000019 0.489461
335.461548 196.504837 -0.000004 0.544608
335.826813 205.830597 6.337685 0.732843
335.822449 205.699783 5.711852 0.735784
335.826813 205.830597 5.150939 0.678431
335.826813 205.830597 4.568737 0.678431
335.826813 205.830597 3.992163 0.678431
335.826813 205.830582 3.419913 0.750735
335.826813 205.830597 2.850730 0.678431
335.826813 205.830597 2.283374 0.678431
335.826813 205.830597 1.716626 0.678431
335.826111 205.810242 1.150270 0.118137
335.826813 205.830582 0.580087 0.709069
335.825287 205.785095 0.013074 0.715196
335.699646 201.998810 -0.000032 0.540931
335.617035 199.508820 -0.000021 0.554044
335.559570 197.778320 -0.000035 0.531740
335.517273 196.503235 -0.000021 0.545833
335.947754 205.829559 6.338539 0.726348
335.942474 205.698746 5.712574 0.704779
335.947754 205.829575 5.151560 0.678431
335.947754 205.829575 4.569243 0.678431
335.947754 205.829575 3.992556 0.678431
335.947754 205.829544 3.420192 0.713113
335.947754 205.829575 2.850898 0.678431
335.947754 205.829575 2.283430 0.678431
335.947754 205.829575 1.716570 0.678431
335.946930 205.809113 1.150108 0.110539
335.947754 205.829544 0.579807 0.724387
335.945923 205.784073 0.012683 0.715319
335.793701 201.995468 -0.000050 0.545956
335.693695 199.506104 -0.000039 0.548529
335.624207 197.776047 -0.000055 0.554044
335.572998 196.501266 -0.000039 0.506250
336.067078 205.793198 6.330744 0.671814
336.062592 205.697662 5.713476 0.729044
336.067078 205.793198 5.145894 0.780025
336.067078 205.793198 4.564624 0.760049
336.067078 205.793198 3.988973 0.760417
336.067078 205.793198 3.417641 0.754289
336.067078 205.793198 2.849368 0.756127
336.067078 205.793198 2.282920 0.756005
336.067078 205.793198 1.717080 0.739093
336.067078 205.793198 1.150632 0.788971
336.067078 205.793198 0.582358 0.685417
336.066620 205.783051 0.012195 0.645588
335.887756 201.991180 -0.000022 0.548162
335.770355 199.502625 -0.000012 0.528799
335.688782 197.773087 -0.000026 0.520833
335.628662 196.498734 -0.000013 0.582966
336.187378 205.782166 6.329510 0.620221
336.182739 205.696594 5.714559 0.722181
336.187378 205.782166 5.144997 0.635907
336.187378 205.782181 4.563895 0.659314
336.187378 205.782166 3.988406 0.637132
336.187378 205.782166 3.417237 0.669976
336.187378 205.782166 2.849126 0.625490
336.187378 205.782181 2.282840 0.623652
336.187378 205.782166 1.717160 0.660049
336.187378 205.782166 1.150873 0.629167
336.187378 205.782166 0.582762 0.678309
336.187378 205.782043 0.011609 0.690196
335.981750 201.986542 -0.000041 0.538358
335.846985 199.498825 -0.000031 0.527451
335.753357 197.769897 -0.000046 0.497181
335.684357 196.495987 -0.000033 0.541422
336.308197 205.781143 6.330996 0.641299
336.302948 205.695526 5.715820 0.686397
336.308197 205.781143 5.146077 0.641789
336.308197 205.781143 4.564775 0.658701
336.308197 205.781143 3.989090 0.632353
336.308197 205.781143 3.417724 0.648652
336.308197 205.781143 2.849417 0.657353
336.308197 205.781143 2.282937 0.645711
336.308197 205.781143 1.717063 0.675123
336.308197 205.781143 1.150582 0.633456
336.308197 205.781143 0.582276 0.679657
336.308197 205.781021 0.010925 0.699387
336.075745 201.981155 -0.000047 0.544853
335.923645 199.494461 -0.000037 0.547181
335.817871 197.766205 -0.000051 0.551103
335.739990 196.492798 -0.000037 0.509926
336.429108 205.780121 6.332694 0.624632
336.423279 205.694427 5.717261 0.698407
336.429108 205.780136 5.147312 0.658088
336.429108 205.780136 4.565781 0.647549
336.429108 205.780121 3.989870 0.631127
336.429108 205.780121 3.418280 0.655392
336.429108 205.780121 2.849751 0.643995
336.429108 205.780121 2.283048 0.623652
336.429108 205.780121 1.716952 0.645221
336.429108 205.780121 1.150249 0.635784
336.429108 205.780121 0.581720 0.647549
336.429077 205.779999 0.010145 0.667402
336.169647 201.974915 -0.000020 0.516912
336.000183 199.489349 -0.000008 0.547426
335.882416 197.761902 -0.000023 0.504902
335.795624 196.489105 -0.000010 0.529412
336.544525 205.704590 6.315891 0.655760
336.543701 205.693329 5.718884 0.688235
336.551422 205.796600 5.151892 0.708946
336.551422 205.796600 4.569514 0.744730
336.551422 205.796585 3.992764 0.737010
336.551422 205.796585 3.420343 0.738971
336.550873 205.789093 2.850619 0.789706
336.567413 206.008957 2.286945 0.772181
336.567413 206.008957 1.713055 0.772917
336.544525 205.704590 1.153544 0.650858
336.544525 205.704590 0.587220 0.487745
336.550110 205.778976 0.009266 0.678064
336.263550 201.968140 -0.000013 0.539583
336.076752 199.483948 -0.000026 0.540196
335.946899 197.757370 -0.000043 0.556618
335.851227 196.485199 -0.000030 0.542647
336.665100 205.703323 6.317946 0.655147
336.664215 205.692215 5.720688 0.705760
336.672821 205.796921 5.153684 0.824755
336.672821 205.796921 4.570976 0.829534
336.676208 205.838058 3.998647 0.742892
336.676208 205.838043 3.424534 0.728676
336.672089 205.788071 2.851036 0.740074
336.692627 206.037888 2.287578 0.678431
336.692627 206.037888 1.712422 0.678431
336.665100 205.703323 1.153141 0.654657
336.665100 205.703323 0.586548 0.487868
336.671234 205.777969 0.008288 0.618505
336.357361 201.960541 0.000016 0.526838
336.153229 199.477783 0.000002 0.544853
336.011322 197.752167 -0.000013 0.568015
335.906769 196.480682 -0.000000 0.514828
336.785828 205.702118 6.320223 0.660662
336.784912 205.691742 5.722813 0.693750
336.796997 205.827011 5.161070 0.678431
336.796173 205.818008 4.575658 0.115196
336.797882 205.837021 3.999725 0.735417
336.797882 205.837006 3.425303 0.738971
336.793427 205.787033 2.851495 0.722181
336.815704 206.036850 2.287733 0.678431
336.815704 206.036850 1.712267 0.678431
336.785828 205.702103 1.152694 0.659069
336.785828 205.702103 0.585801 0.489828
336.792511 205.776962 0.007213 0.680270
336.451172 201.952621 -0.000001 0.549387
336.229706 199.471329 -0.000017 0.543627
336.075745 197.746613 -0.000005 0.528922
335.962341 196.475998 -0.000019 0.552696
336.906677 205.700943 6.322732 0.668015
336.905701 205.690628 5.724982 0.710907
336.918732 205.825974 5.162930 0.678431
336.918121 205.819748 4.577584 0.127574
336.919708 205.835983 4.000901 0.765074
336.919708 205.835968 3.426141 0.756250
336.914886 205.786011 2.851995 0.678186
336.938934 206.035812 2.287902 0.678431
336.938934 206.035812 1.712098 0.678431
336.906677 205.700943 1.152202 0.665931
336.906677 205.700943 0.584981 0.496814
336.913910 205.775940 0.006039 0.679534
336.544891 201.944061 -0.000020 0.523162
336.306122 199.464340 -0.000034 0.519363
336.140106 197.740723 -0.000025 0.557966
336.017853 196.470932 -0.000038 0.566176
337.027679 205.699890 6.325476 0.676103
337.026611 205.689499 5.727334 0.699877
337.040619 205.824936 5.164946 0.678431
337.040283 205.821716 4.579674 0.114583
337.041626 205.834946 4.002176 0.724510
337.041626 205.834930 3.427050 0.768627
337.036499 205.784973 2.852538 0.694853
337.061310 206.025238 2.287929 0.124877
337.061310 206.025238 1.712071 0.137623
337.027679 205.699875 1.151665 0.676348
337.027679 205.699875 0.584083 0.505147
337.039703 205.816208 -0.000008 0.544730
336.638550 201.934525 0.000007 0.560539
336.382446 199.456558 -0.000008 0.560907
336.204437 197.734161 0.000005 0.518015
336.073303 196.465225 0.000006 0.543382
337.148987 205.699936 6.328717 0.657966
337.147705 205.688370 5.729872 0.716789
337.162689 205.823898 5.167118 0.678431
337.162689 205.823898 4.581927 0.106495
337.163757 205.833923 4.003551 0.698039
337.163757 205.833893 3.428030 0.744118
337.158264 205.783936 2.853123 0.721324
337.182556 206.003754 2.287790 0.770098
337.182556 206.003754 1.712210 0.771324
337.148987 205.699936 1.151028 0.650490
337.146027 205.673141 0.585232 0.637377
337.160400 205.803299 -0.000007 0.541054
336.732147 201.924622 -0.000010 0.554779
336.458771 199.448517 -0.000026 0.551225
336.268738 197.727386 -0.000015 0.544853
336.128723 196.459366 -0.000010 0.528676
337.309570 206.032669 6.416083 0.678431
337.268951 205.687241 5.732592 0.720466
337.284912 205.822876 5.169449 0.678431
337.285309 205.826324 4.584343 0.122059
337.286072 205.832886 4.005025 0.708333
337.286072 205.832870 3.429081 0.720098
337.280212 205.782913 2.853751 0.720098
337.309570 206.032669 2.288496 0.678431
337.309570 206.032669 1.711504 0.678431
337.309570 206.032669 1.133894 0.678431
337.267181 205.672028 0.584198 0.641789
337.281006 205.789581 -0.000009 0.536765
336.825684 201.914108 -0.000029 0.544118
336.535034 199.439941 -0.000046 0.533824
336.332977 197.720139 -0.000032 0.530882
336.184113 196.453125 -0.000029 0.530760
337.433472 206.031631 6.419551 0.678431
337.390411 205.686081 5.735497 0.714583
337.407318 205.821823 5.171938 0.678431
337.408203 205.828979 4.586926 0.124265
337.408569 205.831848 4.006599 0.723407
337.408569 205.831833 3.430203 0.737623
337.402344 205.781876 2.854422 0.734559
337.433472 206.031631 2.288722 0.678431
337.433472 206.031631 1.711278 0.678431
337.433472 206.031616 1.133214 0.678431
337.388519 205.670868 0.583097 0.649510
337.401459 205.774979 -0.000007 0.548407
336.919098 201.902512 0.000012 0.569608
336.611176 199.430496 -0.000005 0.558088
336.397125 197.712204 0.000007 0.512377
336.239441 196.446274 0.000009 0.545098
337.557556 206.030563 6.423239 0.678431
337.512115 205.685486 5.738710 0.691667
337.529907 205.820801 5.174585 0.678431
337.531372 205.831879 4.589673 0.106495
337.531250 205.830795 4.008273 0.753554
337.531250 205.830795 3.431396 0.759926
337.524689 205.780838 2.855135 0.715319
337.557556 206.030563 2.288963 0.678431
337.557556 206.030563 1.711037 0.678431
337.557556 206.030563 1.132491 0.678431
337.510010 205.669662 0.581928 0.648897
337.521881 205.759613 -0.000013 0.534069
337.012482 201.890701 -0.000009 0.539461
336.687317 199.420822 -0.000023 0.541176
336.461243 197.704071 -0.000011 0.551593
336.294739 196.439255 -0.000008 0.663113
337.679993 206.016068 6.423751 0.122059
337.633972 205.684326 5.741990 0.725858
337.648590 205.789780 5.171887 0.835172
337.648590 205.789780 4.585815 0.833946
337.653076 205.822083 4.009158 0.722181
337.653076 205.822083 3.432027 0.730515
337.647217 205.779800 2.855891 0.723407
337.679993 206.016068 2.288997 0.124877
337.679993 206.016068 1.711003 0.137623
337.679993 206.016068 1.132390 0.114461
337.631744 205.668411 0.580692 0.637377
337.642151 205.743332 -0.000011 0.541299
337.105774 201.878189 -0.000025 0.543015
336.763367 199.410660 -0.000042 0.527328
336.525360 197.695496 -0.000032 0.530760
336.349976 196.431885 -0.000029 0.522917
337.754852 205.675034 6.341817 0.652451
337.756042 205.683182 5.745460 0.720956
337.769958 205.778778 5.173014 0.793995
337.769958 205.778763 4.586733 0.683456
337.769958 205.778763 4.006119 0.738725
337.769958 205.778763 3.429862 0.719853
337.769958 205.778763 2.856691 0.700000
337.769958 205.778763 2.285359 0.730515
337.769958 205.778763 1.714641 0.704534
337.754822 205.674866 1.148468 0.645956
337.753784 205.667892 0.579324 0.661520
337.762299 205.726212 -0.000010 0.528554
337.198944 201.864731 0.000006 0.543873
336.839294 199.399536 0.000014 0.547672
336.589325 197.686249 -0.000001 0.478186
336.405151 196.423904 0.000003 0.581495
337.892944 205.777603 6.372344 0.742279
337.878326 205.682022 5.749115 0.700000
337.892944 205.777603 5.176112 0.791299
337.892944 205.777603 4.589260 0.754167
337.892944 205.777603 4.008079 0.725613
337.892944 205.777603 3.431258 0.765564
337.892944 205.777603 2.857527 0.750123
337.892944 205.777603 2.285638 0.775123
337.892944 205.777603 1.714362 0.774265
337.892944 205.777603 1.142473 0.775245
337.892944 205.777603 0.568741 0.736520
337.882324 205.708237 -0.000006 0.545833
337.292053 201.850952 -0.000015 0.531618
336.915192 199.388306 -0.000005 0.561765
336.653290 197.676788 -0.000021 0.485294
336.460297 196.415726 -0.000016 0.590931
338.017487 205.784393 6.378847 0.789828
338.000946 205.681320 5.753062 0.694853
338.017456 205.784225 5.180805 0.761397
338.017456 205.784225 4.593085 0.779412
338.017456 205.784225 4.011045 0.711397
338.017426 205.784195 3.433371 0.766667
338.017487 205.784409 2.858803 0.739706
338.017487 205.784409 2.286063 0.738725
338.017487 205.784409 1.713937 0.758946
338.017487 205.784424 1.141196 0.759559
338.017456 205.784378 0.566614 0.723774
338.002258 205.689484 -0.000007 0.557108
337.385010 201.836166 0.000018 0.531985
336.990967 199.376266 0.000025 0.544608
336.717102 197.666565 0.000025 0.557843
336.515320 196.406891 0.000040 0.532843
338.148071 205.825455 6.394286 0.744485
338.123749 205.680161 5.757102 0.694730
338.146393 205.815460 5.190208 0.678431
338.146393 205.815460 4.600752 0.678431
338.146393 205.815460 4.016991 0.678431
338.148071 205.825455 3.438441 0.731985
338.144135 205.801819 2.860653 0.118137
338.146393 205.815460 2.286906 0.678431
338.146393 205.815460 1.713094 0.678431
338.131470 205.726196 1.143112 0.879902
338.148071 205.825439 0.561560 0.761275
338.122009 205.669815 -0.000003 0.538235
337.477936 201.821106 -0.000003 0.530270
337.066711 199.363968 0.000006 0.518750
336.780914 197.656219 0.000005 0.519118
336.570343 196.397934 0.000024 0.513113
338.272217 205.824402 6.399268 0.744853
338.246826 205.678986 5.761333 0.699755
338.270477 205.814423 5.193824 0.678431
338.270477 205.814423 4.603699 0.678431
338.270477 205.814423 4.019278 0.678431
338.272217 205.824387 3.440071 0.756250
338.267944 205.799835 2.861583 0.106005
338.270477 205.814407 2.287231 0.678431
338.270477 205.814423 1.712769 0.678431
338.254791 205.724564 1.142172 0.906005
338.272217 205.824387 0.559929 0.767279
338.241669 205.649353 -0.000003 0.546814
337.570740 201.805511 -0.000045 0.539828
337.142365 199.351135 -0.000011 0.555025
336.844666 197.645401 -0.000012 0.507721
336.625305 196.388626 0.000003 0.518505
338.396637 205.823349 6.404474 0.758333
