# This PCD file was generated using the MATLABÂ® pcwrite function
# from Computer Vision ToolboxÂ®.
# .PCD v.7 - Point Cloud Data file format
VERSION .7
FIELDS x y z intensity
SIZE 4 4 4 4
TYPE F F F F
COUNT 1 1 1 1
WIDTH 1286
HEIGHT 1
VIEWPOINT 0 0 0 1 0 0 0
POINTS 1286
DATA ascii
386.326111 151.636124 6.701170 0.665441
386.325165 151.635681 5.645832 0.651716
386.325897 151.636017 4.598633 0.664583
386.327087 151.636551 3.557013 0.657230
386.325684 151.635925 2.518609 0.638358
386.326630 151.636337 1.481375 0.670833
386.326172 151.636154 0.443034 0.685294
379.704071 148.562347 -0.000033 0.543137
373.348633 145.612320 -0.000020 0.540074
369.809021 143.969315 -0.000007 0.538113
367.549347 142.920456 -0.000015 0.559314
365.978729 142.191406 0.000000 0.530637
364.821350 141.654190 0.000063 0.533578
387.324585 151.847992 10.188007 0.559069
386.404938 151.428879 8.841729 0.212132
386.325073 151.392487 7.747981 0.705760
386.328491 151.394043 6.686484 0.641912
386.327850 151.393753 5.634480 0.661274
386.324524 151.392242 4.590178 0.702328
386.326447 151.393112 3.551988 0.680392
386.325562 151.392700 2.516944 0.631250
386.326691 151.393234 1.483035 0.628309
386.326263 151.393036 0.448022 0.691299
379.775208 148.407623 -0.000031 0.541422
373.399323 145.502045 -0.000019 0.529167
369.848328 143.883804 -0.000007 0.523652
367.581268 142.850677 0.000009 0.552696
366.005737 142.132660 0.000002 0.583088
364.844818 141.603622 0.000018 0.555637
387.302795 151.588242 10.156261 0.152819
386.385803 151.178055 8.815668 0.494240
386.326965 151.151733 7.730275 0.625123
386.324860 151.150787 6.671143 0.675000
386.325500 151.151093 5.622748 0.699142
386.327240 151.151855 4.582270 0.675980
386.325836 151.151230 3.547071 0.669363
386.325409 151.151047 2.515314 0.650613
386.326752 151.151657 1.484661 0.613480
386.326324 151.151459 0.452902 0.696569
379.845062 148.252319 -0.000011 0.548529
373.449127 145.391357 0.000001 0.541667
369.886932 143.797958 0.000013 0.532353
367.612762 142.780701 0.000027 0.525613
366.032227 142.073700 0.000025 0.508946
364.867676 141.552780 0.000039 0.561275
387.281372 151.330597 10.125207 0.373774
386.366821 150.929123 8.790138 0.633088
386.329010 150.912537 7.712980 0.622426
386.327393 150.911819 6.657125 0.660539
386.328247 150.912201 5.611901 0.611765
386.325928 150.911179 4.574177 0.655760
386.325226 150.910873 3.542260 0.672181
386.325287 150.910904 2.513720 0.656373
386.326843 150.911591 1.486252 0.582966
386.326385 150.911377 0.457677 0.645098
379.913818 148.096542 0.000008 0.539216
373.498108 145.280319 0.000022 0.525000
369.924957 143.711853 0.000033 0.533701
367.643768 142.710510 0.000047 0.543382
366.058319 142.014572 0.000041 0.551103
364.890198 141.501801 0.000054 0.552941
387.260315 151.074936 10.094835 0.516544
386.347992 150.682037 8.765129 0.585539
386.323975 150.671707 7.694663 0.680270
386.323914 150.671677 6.642447 0.665931
386.326019 150.672592 5.600675 0.625000
386.324677 150.671997 4.566262 0.659069
386.327728 150.673309 3.537719 0.626348
386.327301 150.673141 2.512199 0.653309
386.325653 150.672440 1.487830 0.656740
386.326080 150.672623 0.462369 0.669608
379.982330 147.940628 -0.000044 0.528554
373.546936 145.169189 -0.000030 0.540686
369.962799 143.625656 -0.000017 0.541422
367.674622 142.640244 -0.000002 0.520711
366.084259 141.955353 0.000009 0.559681
364.912598 141.450775 0.000007 0.533824
387.239563 150.821274 10.065129 0.585049
386.329895 150.437027 8.740782 0.657598
386.326202 150.435455 7.678177 0.651226
386.326569 150.435623 6.629074 0.652574
386.323853 150.434464 5.589698 0.641789
386.327423 150.435989 4.558878 0.630024
386.327148 150.435867 3.533116 0.670833
386.327148 150.435867 2.510674 0.666667
386.325745 150.435272 1.489351 0.641422
386.326141 150.435440 0.466937 0.665564
380.048676 147.783813 -0.000005 0.548039
373.594391 145.057495 -0.000010 0.538848
369.999603 143.539032 0.000003 0.542770
367.704620 142.569611 0.000017 0.533946
366.109528 141.895844 0.000028 0.534926
364.934418 141.399460 0.000024 0.526103
387.226013 150.572357 10.037938 0.572426
386.323242 150.198425 8.719566 0.680025
386.328552 150.200623 7.662081 0.666299
386.323242 150.198441 6.615042 0.529289
386.326721 150.199875 5.579589 0.694240
386.326233 150.199661 4.551309 0.620221
386.326599 150.199814 3.528616 0.644730
386.327057 150.200012 2.509182 0.667157
386.325836 150.199493 1.490839 0.685417
386.326233 150.199661 0.471403 0.636397
380.114380 147.626709 -0.000004 0.536765
373.641235 144.945511 -0.000009 0.538725
370.035919 143.452179 0.000004 0.505270
367.734222 142.498825 0.000018 0.540686
366.134491 141.836197 0.000029 0.514583
364.955933 141.348038 0.000025 0.515564
387.206055 150.322479 10.009563 0.523529
386.325104 149.964767 8.700787 0.644730
386.323853 149.964249 7.644972 0.671691
386.326080 149.965164 6.602300 0.681618
386.324646 149.964569 5.569098 0.694730
386.325012 149.964737 4.543909 0.675980
386.326050 149.965149 3.524216 0.659069
386.326904 149.965485 2.507724 0.653799
386.325897 149.965088 1.492294 0.657598
386.326294 149.965256 0.475769 0.648529
380.178772 147.469055 0.000016 0.537623
373.687134 144.833145 0.000010 0.538603
370.071503 143.365051 0.000024 0.536029
367.763245 142.427780 0.000038 0.543137
366.158966 141.776367 0.000047 0.544363
364.976990 141.296432 0.000044 0.538725
387.186432 150.074402 9.981815 0.627328
386.327057 149.732437 8.682467 0.682476
386.326416 149.732178 7.629653 0.672794
386.328918 149.733170 6.589859 0.663235
386.327606 149.732651 5.559462 0.638113
386.327881 149.732758 4.537031 0.691176
386.325500 149.731812 3.519917 0.638848
386.326782 149.732315 2.506299 0.671569
386.325958 149.731995 1.493715 0.649510
386.326355 149.732147 0.480038 0.679534
380.242676 147.311218 -0.000017 0.531863
373.732513 144.720596 -0.000003 0.529902
370.106842 143.277786 -0.000011 0.506250
367.792053 142.356644 0.000003 0.538971
366.183167 141.716415 0.000018 0.517647
364.997833 141.244736 0.000033 0.537377
387.167023 149.828064 9.954685 0.646936
386.329193 149.501419 8.664604 0.698284
386.329071 149.501373 7.614707 0.668750
386.325867 149.500122 6.576765 0.655760
386.325623 149.500031 5.549442 0.620098
386.326721 149.500473 4.529964 0.648775
386.324982 149.499786 3.515715 0.631740
386.326630 149.500443 2.504907 0.667402
386.326019 149.500198 1.495104 0.630270
386.326416 149.500351 0.484208 0.641176
380.305054 147.152771 -0.000017 0.538848
373.776978 144.607666 -0.000002 0.544240
370.141327 143.190216 -0.000010 0.524265
367.820068 142.285217 0.000029 0.524387
366.206848 141.656265 0.000022 0.524020
365.018250 141.192871 0.000035 0.516299
387.147888 149.583450 9.928156 0.719853
386.323181 149.268509 8.645283 0.694363
386.324738 149.269119 7.598756 0.672181
386.328857 149.270691 6.564927 0.665196
386.328674 149.270630 5.540267 0.662010
386.325653 149.269470 4.523062 0.667034
386.327545 149.270203 3.511772 0.642157
386.326538 149.269806 2.503546 0.661642
386.326111 149.269638 1.496461 0.649265
386.326111 149.269638 0.488304 0.648284
380.366119 146.993820 0.000003 0.535784
373.820526 144.494370 0.000015 0.534191
370.174957 143.102310 0.000031 0.561152
367.847565 142.213593 0.000045 0.575245
366.230072 141.595932 0.000039 0.526226
365.038239 141.140839 0.000054 0.553186
387.129028 149.340485 9.902222 0.727941
386.325562 149.040100 8.628330 0.629412
386.327545 149.040833 7.584558 0.637010
386.325928 149.040237 6.552439 0.667892
386.326782 149.040558 5.530711 0.642402
386.324554 149.039719 4.516320 0.664583
386.327057 149.040665 3.507764 0.647672
386.326416 149.040421 2.502218 0.664216
386.326172 149.040329 1.497787 0.664338
386.326141 149.040314 0.492283 0.610907
380.426086 146.834442 0.000024 0.551348
373.863251 144.380768 0.000037 0.534314
370.208099 143.014206 0.000051 0.543382
367.874603 142.141769 0.000063 0.528431
366.252808 141.535431 0.000059 0.520221
365.057861 141.088669 0.000073 0.547672
387.110382 149.099136 9.876867 0.375490
386.328064 148.812866 8.611814 0.637377
386.323425 148.811157 7.569355 0.637745
386.329041 148.813232 6.541190 0.672426
386.324951 148.811737 5.521381 0.672672
386.327484 148.812653 4.510087 0.652819
386.326569 148.812317 3.503850 0.647426
386.326294 148.812210 2.500921 0.677328
386.326233 148.812210 1.499080 0.668750
386.326233 148.812195 0.496168 0.639583
380.485535 146.674881 -0.000009 0.540931
373.905670 144.267044 0.000002 0.550368
370.240997 142.926010 0.000016 0.556985
367.901398 142.069855 0.000031 0.512010
366.275299 141.474808 0.000047 0.510539
365.077515 141.036499 -0.000009 0.555147
387.099731 148.862152 9.854155 0.452206
386.322510 148.583862 8.593846 0.676961
386.326447 148.585281 7.555883 0.642402
386.326294 148.585220 6.529292 0.649020
386.328094 148.585876 5.512877 0.640809
386.326477 148.585297 4.503663 0.654289
386.326111 148.585159 3.500030 0.641912
386.326202 148.585190 2.499655 0.637500
386.326324 148.585236 1.500344 0.665931
386.326294 148.585220 0.499960 0.684804
380.543488 146.514740 -0.000009 0.537255
373.946930 144.152908 0.000006 0.541912
370.273010 142.837494 0.000017 0.503309
367.927490 141.997696 0.000035 0.512132
366.297302 141.414032 0.000046 0.497672
365.096497 140.984100 -0.000011 0.553431
387.081696 148.623901 9.829975 0.347181
386.325287 148.359009 8.578205 0.691176
386.329559 148.360519 7.542764 0.675980
386.323578 148.358429 6.517685 0.670221
386.326385 148.359406 5.503993 0.629289
386.325470 148.359085 4.497395 0.701348
386.325623 148.359146 3.496302 0.634069
386.326080 148.359299 2.498419 0.697549
386.326355 148.359406 1.501576 0.658824
386.326355 148.359390 0.503660 0.667647
380.600098 146.354156 0.000010 0.537500
373.987274 144.038452 0.000025 0.520343
370.304291 142.748734 0.000036 0.543260
367.953033 141.925339 0.000049 0.497304
366.318817 141.353058 0.000064 0.500858
365.115021 140.931519 0.000007 0.529902
391.044556 149.749969 10.860272 0.500000
386.328186 148.135269 8.562981 0.685417
386.325745 148.134415 7.528646 0.668627
386.326904 148.134811 6.507295 0.647794
386.324707 148.134064 5.495327 0.635539
386.324524 148.134003 4.491281 0.686765
386.325226 148.134247 3.492666 0.615809
386.325989 148.134506 2.497214 0.666789
386.326447 148.134659 1.502779 0.627451
386.326416 148.134659 0.507270 0.647304
380.656219 146.193375 -0.000022 0.537377
374.027283 143.923843 -0.000007 0.552696
370.335297 142.659851 0.000006 0.537745
367.978302 141.852890 0.000019 0.537868
366.340302 141.292114 -0.000020 0.550368
365.133301 140.878876 -0.000004 0.565564
nan nan nan 0.000000
386.323059 147.909836 8.546322 0.660539
386.329010 147.911835 7.516229 0.666422
386.324341 147.910278 6.496256 0.651593
386.327942 147.911484 5.487474 0.692892
386.327515 147.911331 4.485661 0.635417
386.324768 147.910400 3.489120 0.641544
386.325897 147.910797 2.496039 0.662010
386.326508 147.910995 1.503951 0.649265
386.326477 147.910995 0.510790 0.648284
380.710571 146.031998 -0.000004 0.534191
374.066010 143.808823 0.000011 0.543137
370.365356 142.570648 0.000023 0.541544
368.003082 141.780258 -0.000013 0.545221
366.360962 141.230835 0.000001 0.537868
365.151123 140.826050 0.000016 0.531373
nan nan nan 0.000000
386.326202 147.688248 8.531940 0.647304
386.325409 147.688004 7.502815 0.689093
386.327759 147.688766 6.486422 0.669485
386.326355 147.688293 5.479238 0.669118
386.326599 147.688385 4.479849 0.647304
386.327362 147.688629 3.485821 0.635662
386.325775 147.688126 2.494893 0.667402
386.326569 147.688370 1.505094 0.661520
386.326111 147.688232 0.514243 0.634069
380.764038 145.870316 -0.000004 0.537868
374.104126 143.693604 0.000011 0.541054
370.394928 142.481277 0.000022 0.538725
368.027161 141.707397 -0.000013 0.540686
366.381256 141.169449 0.000001 0.528922
365.168610 140.773117 0.000017 0.563113
nan nan nan 0.000000
386.329468 147.467667 8.517965 0.631863
386.328857 147.467468 7.491081 0.653922
386.325317 147.466339 6.475938 0.646201
386.324799 147.466187 5.471212 0.682353
386.325714 147.466461 4.474186 0.612255
386.326965 147.466873 3.482454 0.652328
386.325684 147.466461 2.493776 0.675980
386.326630 147.466766 1.506207 0.669976
386.326172 147.466614 0.517587 0.664706
380.816803 145.708405 -0.000038 0.537010
374.141693 143.578201 -0.000024 0.524265
370.424072 142.391785 -0.000010 0.533824
368.050934 141.634445 -0.000050 0.553922
366.401276 141.107971 -0.000031 0.535662
365.185883 140.720108 -0.000015 0.538113
nan nan nan 0.000000
386.143127 147.188980 8.461489 0.640074
386.444611 147.282867 7.501066 0.659926
386.444611 147.282867 6.484630 0.665319
386.444611 147.282867 5.478017 0.652941
386.444611 147.282867 4.478958 0.627206
386.444611 147.282867 3.485248 0.642770
386.444611 147.282867 2.494730 0.637500
386.444611 147.282867 1.505271 0.637132
386.444611 147.282867 0.514752 0.667892
380.867737 145.545929 -0.000016 0.531373
374.178040 143.462387 -0.000002 0.543750
370.452576 142.302063 -0.000041 0.512010
368.073883 141.561218 -0.000029 0.520588
366.420624 141.046310 -0.000012 0.546691
365.202576 140.666931 0.000004 0.533088
nan nan nan 0.000000
386.456024 147.065735 8.518250 0.634681
387.170654 147.282852 7.627336 0.624142
387.170624 147.282837 6.587565 0.634069
387.170624 147.282837 5.557848 0.659436
387.170654 147.282837 4.535857 0.670956
387.170624 147.282837 3.519338 0.666544
387.170624 147.282837 2.506084 0.641299
387.170624 147.282837 1.493916 0.625123
387.129913 147.270477 0.482751 0.604657
380.916656 145.382813 0.000082 0.531250
374.213562 143.346329 0.000017 0.523407
370.480103 142.212051 -0.000021 0.541054
368.096375 141.487839 -0.000007 0.543873
366.439575 140.984482 0.000005 0.545833
365.218872 140.613632 0.000024 0.541422
nan nan nan 0.000000
387.197876 147.065735 8.671721 0.647304
387.930908 147.282867 7.759835 0.657843
388.661774 147.499344 6.808653 0.918260
387.930878 147.282852 5.641620 0.637623
388.566071 147.470993 4.649883 0.919240
387.930878 147.282852 3.555112 0.680147
388.627075 147.489059 2.529883 0.619240
388.566071 147.470993 1.471159 0.799020
387.760132 147.232285 0.453637 0.630024
380.965607 145.219727 0.000082 0.537500
374.248444 143.230072 0.000016 0.536887
370.507172 142.121902 -0.000021 0.547059
368.118408 141.414352 -0.000007 0.535784
366.458130 140.922562 0.000005 0.545221
365.234924 140.560242 0.000022 0.543995
nan nan nan 0.000000
387.975555 147.065735 8.832934 0.625858
388.499847 147.217056 7.855835 0.620588
388.752075 147.289856 6.812788 0.768873
388.727844 147.282867 5.729619 0.631740
388.752075 147.289856 4.660353 0.902696
388.727844 147.282867 3.592691 0.654167
388.752075 147.289856 2.530931 0.924755
388.752075 147.289856 1.469069 0.933211
388.538239 147.228134 0.417005 0.629289
381.013794 145.056396 0.000049 0.548529
374.282776 143.113663 -0.000015 0.523407
370.533783 142.031616 -0.000056 0.547304
368.140106 141.340744 -0.000041 0.536274
366.476410 140.860550 -0.000025 0.522426
365.250641 140.506775 -0.000010 0.500000
nan nan nan 0.000000
388.791809 147.065750 9.002488 0.637132
388.791779 147.065735 7.899384 0.635294
390.252014 147.476181 7.034345 0.678431
389.564270 147.282867 5.822160 0.652328
390.335144 147.499542 4.789904 0.931250
389.564240 147.282867 3.632209 0.661520
390.335144 147.499542 2.556785 0.912255
390.074066 147.426163 1.447653 0.902696
389.564240 147.282867 0.367790 0.665441
381.060211 144.892578 0.000067 0.534926
374.315887 142.996902 0.000002 0.525123
370.559479 141.941055 -0.000037 0.517034
368.161041 141.266922 -0.000021 0.522549
366.494049 140.798355 -0.000007 0.535662
365.265869 140.453140 0.000008 0.554534
nan nan nan 0.000000
389.649628 147.065735 9.181015 0.625000
389.649628 147.065735 8.049793 0.633333
390.784332 147.376144 7.106476 0.637377
390.443298 147.282852 5.919608 0.673407
390.784393 147.376160 4.822697 0.921814
390.443298 147.282852 3.673824 0.637623
390.784393 147.376160 2.563330 0.919485
390.784393 147.376160 1.436670 0.932230
390.443298 147.282852 0.326176 0.675123
381.105469 144.728424 0.000088 0.539216
374.348175 142.879898 0.000021 0.524877
370.584503 141.850311 -0.000017 0.518137
368.181427 141.192932 -0.000002 0.532598
366.511230 140.736038 0.000011 0.541789
365.280609 140.399384 0.000047 0.509559
nan nan nan 0.000000
nan nan nan 0.000000
390.552368 147.065750 8.208385 0.630024
391.368378 147.282852 7.186511 0.648162
391.368378 147.282852 6.022356 0.669485
391.368378 147.282852 4.866936 0.647059
391.368378 147.282852 3.717701 0.676961
391.368408 147.282852 2.572158 0.654412
391.368408 147.282852 1.427841 0.659681
391.368378 147.282852 0.282298 0.656005
381.150208 144.564117 0.000055 0.536520
374.380066 142.762787 -0.000012 0.531618
370.609100 141.759460 -0.000029 0.534804
368.201477 141.118851 -0.000014 0.548529
366.528198 140.673660 -0.000022 0.523775
365.295258 140.345596 0.000015 0.510049
nan nan nan 0.000000
nan nan nan 0.000000
391.503754 147.065735 8.375832 0.627941
392.343323 147.282852 7.326399 0.661274
392.343323 147.282852 6.130844 0.662745
393.004089 147.453735 5.000221 0.936642
392.161407 147.235825 3.754800 0.630515
392.997223 147.451965 2.598643 0.849387
392.997223 147.451965 1.401357 0.871569
392.997253 147.451965 0.202787 0.917402
381.193207 144.399353 0.000074 0.540074
374.410309 142.645248 0.000051 0.549755
370.632843 141.668381 -0.000009 0.523162
368.220886 141.044617 0.000005 0.557843
366.544464 140.611084 0.000017 0.551716
365.309326 140.291672 0.000035 0.528922
nan nan nan 0.000000
nan nan nan 0.000000
392.507935 147.065735 8.552891 0.629412
393.372406 147.282852 7.474320 0.648775
393.372406 147.282852 6.245562 0.667525
393.372406 147.282852 5.026027 0.635907
393.171051 147.232300 3.802820 0.633211
393.372375 147.282852 2.603908 0.649142
393.372375 147.282852 1.396092 0.652451
393.372375 147.282852 0.186982 0.688603
381.235046 144.234283 0.000093 0.529412
374.440125 142.527588 0.000071 0.518873
370.655975 141.577133 0.000010 0.542034
368.239746 140.970230 0.000020 0.574142
366.560333 140.548416 0.000038 0.547794
365.323029 140.237625 0.000052 0.541667
nan nan nan 0.000000
nan nan nan 0.000000
393.569550 147.065735 8.740402 0.622304
nan nan nan 0.000000
nan nan nan 0.000000
398.206207 148.195984 5.428759 0.510172
398.415527 148.247009 4.064896 0.511765
397.423645 148.005219 2.671102 0.507721
nan nan nan 0.000000
397.132477 147.934250 -0.000021 0.533088
381.276550 144.069153 0.000040 0.539951
374.469727 142.409897 0.000018 0.537377
370.678925 141.485840 -0.000042 0.520343
368.258423 140.895798 -0.000029 0.526103
366.576080 140.485718 -0.000015 0.543750
365.336609 140.183578 -0.000000 0.534559
nan nan nan 0.000000
nan nan nan 0.000000
394.693756 147.065735 8.939308 0.596324
nan nan nan 0.000000
nan nan nan 0.000000
398.321106 147.923172 5.432699 0.510539
399.621063 148.230453 4.122296 0.515441
nan nan nan 0.000000
nan nan nan 0.000000
397.198853 147.657898 -0.000022 0.536642
381.316101 143.903534 0.000058 0.532108
374.497894 142.291840 0.000037 0.536397
370.700806 141.394287 -0.000026 0.510784
368.276245 140.821167 -0.000012 0.538848
366.591095 140.422836 0.000002 0.531127
365.349548 140.129364 0.000019 0.559681
nan nan nan 0.000000
nan nan nan 0.000000
nan nan nan 0.000000
nan nan nan 0.000000
nan nan nan 0.000000
nan nan nan 0.000000
nan nan nan 0.000000
nan nan nan 0.000000
nan nan nan 0.000000
397.263275 147.381058 -0.000022 0.535049
381.354462 143.737625 0.000077 0.534191
374.525238 142.173584 0.000055 0.541544
370.721985 141.302567 -0.000007 0.530882
368.293518 140.746399 0.000009 0.537255
366.605652 140.359863 0.000020 0.570221
365.362091 140.075058 0.000039 0.587990
nan nan nan 0.000000
nan nan nan 0.000000
nan nan nan 0.000000
nan nan nan 0.000000
nan nan nan 0.000000
nan nan nan 0.000000
nan nan nan 0.000000
nan nan nan 0.000000
nan nan nan 0.000000
397.325745 147.103790 -0.000021 0.543382
381.392059 143.571548 0.000064 0.528799
374.552185 142.055252 0.000023 0.522059
370.742432 141.210693 0.000033 0.541912
368.310577 140.671585 -0.000023 0.545956
366.620026 140.296829 -0.000009 0.544363
365.374481 140.020691 0.000008 0.540074
nan nan nan 0.000000
nan nan nan 0.000000
nan nan nan 0.000000
nan nan nan 0.000000
nan nan nan 0.000000
nan nan nan 0.000000
nan nan nan 0.000000
nan nan nan 0.000000
nan nan nan 0.000000
397.386322 146.826111 -0.000023 0.537010
381.428070 143.405121 0.000085 0.537377
374.577881 141.936646 0.000043 0.543995
370.762360 141.118698 0.000054 0.535907
368.326843 140.596588 -0.000005 0.539338
366.633698 140.233643 0.000010 0.554779
365.386475 139.966263 -0.000021 0.563971
nan nan nan 0.000000
nan nan nan 0.000000
nan nan nan 0.000000
nan nan nan 0.000000
nan nan nan 0.000000
nan nan nan 0.000000
nan nan nan 0.000000
nan nan nan 0.000000
nan nan nan 0.000000
397.444916 146.547989 -0.000022 0.534436
381.462982 143.238449 0.000103 0.528799
374.602753 141.817841 0.000061 0.543382
370.781647 141.026566 0.000072 0.536765
368.342560 140.521484 0.000014 0.551471
366.646942 140.170349 0.000028 0.544118
365.397888 139.911697 -0.000005 0.517647
nan nan nan 0.000000
nan nan nan 0.000000
nan nan nan 0.000000
nan nan nan 0.000000
nan nan nan 0.000000
nan nan nan 0.000000
nan nan nan 0.000000
nan nan nan 0.000000
nan nan nan 0.000000
397.501495 146.269470 -0.000019 0.534926
381.497314 143.071671 0.000071 0.526593
374.627228 141.698975 0.000028 0.525858
370.800598 140.934372 0.000041 0.539216
368.358032 140.446320 -0.000018 0.551225
366.659973 140.107040 -0.000003 0.568750
365.409149 139.857101 -0.000036 0.567770
nan nan nan 0.000000
nan nan nan 0.000000
nan nan nan 0.000000
nan nan nan 0.000000
nan nan nan 0.000000
nan nan nan 0.000000
nan nan nan 0.000000
nan nan nan 0.000000
nan nan nan 0.000000
397.556244 145.990570 -0.000019 0.532843
381.529846 142.904541 0.000089 0.533824
374.650421 141.579834 0.000047 0.546201
370.818604 140.841980 0.000057 0.543995
368.372681 140.371002 -0.000001 0.551225
366.672272 140.043564 0.000032 0.546569
365.419830 139.802383 -0.000020 0.540686
nan nan nan 0.000000
nan nan nan 0.000000
nan nan nan 0.000000
nan nan nan 0.000000
nan nan nan 0.000000
387.639069 143.863571 4.506727 0.491422
nan nan nan 0.000000
387.292877 143.799408 2.494510 0.460294
nan nan nan 0.000000
397.609009 145.711288 -0.000020 0.536397
381.561279 142.737183 0.000107 0.537132
374.672821 141.460541 0.000066 0.539461
370.835968 140.749466 0.000076 0.529289
368.386444 140.295502 0.000090 0.515686
366.684174 139.980026 0.000052 0.665564
365.430084 139.747620 -0.000002 0.559436
nan nan nan 0.000000
nan nan nan 0.000000
nan nan nan 0.000000
nan nan nan 0.000000
nan nan nan 0.000000
387.883942 143.690414 4.523948 0.475000
387.529877 143.627335 3.494534 0.494240
388.037170 143.717697 2.506254 0.502451
nan nan nan 0.000000
397.659790 145.431656 -0.000019 0.534191
381.592102 142.569717 0.000075 0.535539
374.694794 141.341202 0.000033 0.526716
370.852997 140.656906 0.000043 0.544118
368.400360 140.220032 0.000057 0.517647
366.695892 139.916458 0.000019 0.512868
365.440186 139.692780 -0.000032 0.521324
nan nan nan 0.000000
nan nan nan 0.000000
nan nan nan 0.000000
388.204315 143.527145 6.608672 0.466176
387.486908 143.404541 5.490487 0.493627
387.432373 143.395203 4.483309 0.498284
388.094208 143.508331 3.520840 0.486397
387.221680 143.359192 2.492099 0.487255
nan nan nan 0.000000
397.708679 145.151672 -0.000020 0.538971
381.621155 142.401932 0.000093 0.522304
374.715515 141.221603 0.000051 0.536520
370.869049 140.564148 0.000062 0.542647
368.413452 140.144440 0.000075 0.554779
366.706909 139.852753 0.000034 0.544853
365.449677 139.637863 -0.000015 0.513480
nan nan nan 0.000000
nan nan nan 0.000000
387.949432 143.265625 7.599627 0.485539
387.507324 143.193222 6.498524 0.494118
387.338715 143.165619 5.469139 0.492770
387.660431 143.218307 4.499359 0.457108
387.481232 143.188950 3.488549 0.472672
387.549438 143.200134 2.496960 0.494118
nan nan nan 0.000000
397.755615 144.871353 -0.000021 0.539093
381.649261 142.233994 0.000092 0.545098
374.735535 141.101898 0.000051 0.539951
370.884583 140.471329 0.000061 0.530147
368.426117 140.068756 0.000073 0.565074
366.717590 139.788986 0.000033 0.560172
365.458893 139.582886 -0.000016 0.516299
nan nan nan 0.000000
387.611633 142.995270 8.565403 0.478309
387.204590 142.931534 7.456184 0.494118
387.545776 142.984955 6.499269 0.487990
387.434845 142.967590 5.476456 0.484926
387.504547 142.978500 4.483629 0.485539
387.221344 142.934143 3.473963 0.463603
nan nan nan 0.000000
nan nan nan 0.000000
397.800568 144.590698 -0.000021 0.534436
381.676575 142.065933 0.000060 0.537377
374.755035 140.982101 0.000018 0.543750
370.899719 140.378418 0.000030 0.541789
368.438446 139.993011 0.000039 0.541912
366.727966 139.725189 0.000002 0.533578
365.467804 139.527863 -0.000047 0.515809
nan nan nan 0.000000
387.573792 142.775040 8.550125 0.469853
387.405304 142.749863 7.487288 0.485539
386.971863 142.685089 6.408387 0.491176
387.884369 142.821457 5.525029 0.483946
387.732300 142.798721 4.499858 0.486397
387.582947 142.776413 3.490350 0.498652
388.454681 142.906677 2.510852 0.493750
nan nan nan 0.000000
397.843567 144.309769 -0.000021 0.538480
381.702118 141.897568 0.000079 0.531985
374.773224 140.862106 0.000035 0.546078
370.913849 140.285370 0.000046 0.524877
368.449951 139.917160 0.000057 0.524755
366.737671 139.661270 0.000020 0.511397
365.476196 139.472748 -0.000027 0.500980
387.914215 142.609634 9.675062 0.464093
387.286163 142.520248 8.480716 0.478431
387.403442 142.536942 7.481364 0.495221
387.597412 142.564545 6.497630 0.485907
387.415070 142.538589 5.466906 0.485172
387.344055 142.528488 4.465158 0.481005
387.672363 142.575211 3.493271 0.460417
388.396973 142.678345 2.509378 0.486887
nan nan nan 0.000000
397.884613 144.028519 -0.000022 0.534069
381.726471 141.729050 0.000095 0.535417
374.790619 140.741989 0.000053 0.525000
370.927307 140.192200 0.000065 0.527206
368.460938 139.841217 0.000073 0.538480
366.746857 139.597275 0.000057 0.537255
365.483826 139.417542 0.000073 0.520588
387.708923 142.366028 9.615734 0.490196
387.057312 142.277924 8.424557 0.498774
387.529602 142.341766 7.499215 0.468873
387.031006 142.274368 6.408491 0.497549
387.983459 142.403122 5.529534 0.657721
387.978973 142.402527 4.515305 0.655760
387.439636 142.329605 3.480289 0.488848
386.827698 142.246872 2.482972 0.492892
387.952454 142.398941 1.498455 0.684559
387.938904 142.397110 0.494961 0.678186
381.750275 141.560440 0.000063 0.535417
374.807556 140.621811 0.000021 0.536397
370.940460 140.098999 0.000034 0.549020
368.471649 139.765228 0.000042 0.532598
366.755859 139.533264 0.000028 0.511642
365.491608 139.362335 0.000043 0.551103
387.924072 142.179581 9.663071 0.485662
387.323944 142.102707 8.476710 0.493750
387.838531 142.168625 7.550835 0.477941
387.343750 142.105255 6.451211 0.468627
388.704651 142.279572 5.609941 0.493750
388.059570 142.196945 4.519657 0.462500
387.649292 142.144394 3.489314 0.493505
388.658600 142.273682 2.512735 0.456250
nan nan nan 0.000000
397.960724 143.465210 -0.000020 0.532966
381.772247 141.391586 0.000082 0.538235
374.823212 140.501465 0.000040 0.547794
370.952606 140.005661 0.000052 0.556618
368.481720 139.689163 0.000034 0.543750
366.764221 139.469162 0.000044 0.542647
365.498840 139.307068 0.000061 0.530392
387.397064 141.900681 9.523438 0.487868
387.694733 141.936707 8.551750 0.482966
387.710571 141.938614 7.522555 0.466299
394.437073 142.752548 7.507210 0.480760
387.981628 141.971405 5.523013 0.476471
387.823669 141.952301 4.497985 0.491667
387.604858 141.925827 3.485819 0.473039
388.484528 142.032257 2.509418 0.499265
nan nan nan 0.000000
394.947876 142.814362 0.150809 0.654044
381.793091 141.222580 0.000099 0.536152
374.838074 140.381012 0.000058 0.533578
370.964142 139.912247 0.000064 0.536274
368.491089 139.612991 0.000052 0.535907
366.772095 139.404999 0.000062 0.523775
365.505646 139.251755 0.000076 0.531005
nan nan nan 0.000000
388.020721 141.760681 8.617241 0.472059
387.688507 141.722839 7.513990 0.465931
394.301666 142.476257 7.482484 0.478064
387.759979 141.730988 5.494466 0.491176
387.606415 141.713501 4.478008 0.493627
387.559998 141.708206 3.482383 0.475735
386.953430 141.639099 2.483784 0.492279
394.958496 142.551086 1.384374 0.680025
394.881714 142.542328 0.155597 0.659804
381.813354 141.053513 0.000068 0.542647
374.852509 140.260483 0.000026 0.529779
370.975311 139.818787 0.000035 0.535417
368.500214 139.536804 0.000020 0.535172
366.779785 139.340805 0.000033 0.500980
365.512238 139.196396 0.000047 0.572426
nan nan nan 0.000000
394.823792 142.272537 10.089828 0.462623
394.353699 142.222321 8.729417 0.482353
nan nan nan 0.000000
388.122772 141.556488 5.533744 0.493995
388.220032 141.566879 4.526700 0.491299
387.515747 141.491608 3.479055 0.493260
388.805237 141.629410 2.513887 0.494118
nan nan nan 0.000000
398.060211 142.618393 -0.000021 0.533824
381.831818 140.884232 0.000085 0.540809
374.865662 140.139847 0.000044 0.538971
370.985535 139.725220 0.000051 0.545956
368.508575 139.460526 0.000036 0.546324
366.786804 139.276535 0.000050 0.536642
365.518311 139.140991 0.000061 0.569118
nan nan nan 0.000000
nan nan nan 0.000000
394.925110 142.019867 8.829057 0.480392
nan nan nan 0.000000
394.836121 142.011002 6.307343 0.488480
394.524567 141.979904 5.044388 0.467770
387.960114 141.324738 3.499926 0.494118
394.162598 141.943771 2.601619 0.489338
nan nan nan 0.000000
398.089417 142.335678 -0.000022 0.537990
381.849701 140.714905 0.000054 0.533088
374.878387 140.019135 0.000013 0.549142
370.995422 139.631607 0.000021 0.531373
368.516571 139.384216 0.000008 0.571324
366.793579 139.212250 0.000020 0.552819
365.524139 139.085556 0.000033 0.536642
nan nan nan 0.000000
nan nan nan 0.000000
nan nan nan 0.000000
nan nan nan 0.000000
394.042816 141.674896 6.212798 0.497059
394.788940 141.744110 5.064113 0.486520
394.466766 141.714218 3.819942 0.479412
394.039001 141.674530 2.599184 0.466422
nan nan nan 0.000000
398.116669 142.052765 -0.000021 0.534681
381.865814 140.545380 0.000071 0.528676
374.889893 139.898315 0.000030 0.529044
371.004333 139.537903 0.000038 0.533211
368.523865 139.307816 0.000023 0.549877
366.799713 139.147903 0.000036 0.510907
365.529449 139.030060 0.000051 0.546814
nan nan nan 0.000000
nan nan nan 0.000000
nan nan nan 0.000000
nan nan nan 0.000000
nan nan nan 0.000000
394.830902 141.485855 5.065659 0.480760
394.261017 141.436996 3.808663 0.474020
nan nan nan 0.000000
nan nan nan 0.000000
398.141907 141.769684 -0.000022 0.537623
381.880737 140.375763 0.000088 0.540931
374.900543 139.777420 0.000047 0.537623
371.012573 139.444138 0.000055 0.528676
368.530579 139.231384 0.000040 0.546569
366.805359 139.083496 0.000053 0.504657
365.534302 138.974533 0.000065 0.543873
nan nan nan 0.000000
nan nan nan 0.000000
nan nan nan 0.000000
nan nan nan 0.000000
nan nan nan 0.000000
395.107391 141.245789 5.086639 0.480760
394.831146 141.224045 3.835723 0.474265
nan nan nan 0.000000
nan nan nan 0.000000
398.165253 141.486404 -0.000022 0.532843
381.895081 140.206085 0.000057 0.534436
374.910736 139.656464 0.000017 0.548529
371.020508 139.350342 0.000026 0.536397
368.537018 139.154922 0.000012 0.521569
366.810822 139.019089 0.000022 0.538113
365.539032 138.919006 0.000036 0.562500
nan nan nan 0.000000
nan nan nan 0.000000
nan nan nan 0.000000
nan nan nan 0.000000
nan nan nan 0.000000
nan nan nan 0.000000
nan nan nan 0.000000
nan nan nan 0.000000
nan nan nan 0.000000
398.186554 141.203003 -0.000022 0.540686
381.907654 140.036270 0.000074 0.532843
374.919678 139.535431 0.000034 0.523529
371.027466 139.256485 0.000041 0.537010
368.542694 139.078384 0.000028 0.532598
366.815582 138.954605 0.000039 0.541299
365.543121 138.863403 0.000052 0.490686
nan nan nan 0.000000
nan nan nan 0.000000
nan nan nan 0.000000
nan nan nan 0.000000
nan nan nan 0.000000
nan nan nan 0.000000
nan nan nan 0.000000
nan nan nan 0.000000
nan nan nan 0.000000
398.205811 140.919434 -0.000020 0.539216
381.919006 139.866364 0.000090 0.534314
374.927795 139.414337 0.000050 0.536029
371.033752 139.162552 0.000057 0.528431
368.547852 139.001831 0.000044 0.540686
366.819916 138.890106 0.000054 0.541912
365.546875 138.807800 0.000067 0.512500
nan nan nan 0.000000
nan nan nan 0.000000
nan nan nan 0.000000
nan nan nan 0.000000
nan nan nan 0.000000
nan nan nan 0.000000
nan nan nan 0.000000
nan nan nan 0.000000
nan nan nan 0.000000
398.223175 140.635742 -0.000021 0.536520
381.929779 139.696426 0.000060 0.539338
374.935486 139.293213 0.000021 0.526838
371.039551 139.068619 0.000049 0.548652
368.552673 138.925247 0.000015 0.515074
366.824005 138.825592 0.000025 0.530270
365.550354 138.752167 0.000040 0.511275
nan nan nan 0.000000
nan nan nan 0.000000
nan nan nan 0.000000
nan nan nan 0.000000
nan nan nan 0.000000
nan nan nan 0.000000
nan nan nan 0.000000
nan nan nan 0.000000
nan nan nan 0.000000
398.238525 140.351944 -0.000020 0.537255
381.938782 139.526398 0.000076 0.535049
374.941895 139.172012 0.000037 0.542157
371.044495 138.974609 0.000067 0.540809
368.556732 138.848618 0.000031 0.530392
366.827423 138.761032 0.000041 0.516054
365.553314 138.696487 0.000056 0.563603
nan nan nan 0.000000
nan nan nan 0.000000
nan nan nan 0.000000
nan nan nan 0.000000
nan nan nan 0.000000
nan nan nan 0.000000
nan nan nan 0.000000
nan nan nan 0.000000
nan nan nan 0.000000
398.251892 140.068039 -0.000019 0.537377
381.946625 139.356293 0.000092 0.532598
374.947449 139.050781 0.000053 0.554657
371.048828 138.880600 0.000083 0.547672
368.560242 138.771973 0.000047 0.532353
366.830383 138.696442 0.000058 0.558088
365.555878 138.640808 0.000069 0.518995
nan nan nan 0.000000
nan nan nan 0.000000
nan nan nan 0.000000
nan nan nan 0.000000
nan nan nan 0.000000
nan nan nan 0.000000
nan nan nan 0.000000
nan nan nan 0.000000
nan nan nan 0.000000
398.263336 139.784058 -0.000020 0.535049
381.953827 139.186157 0.000062 0.528922
374.952576 138.929520 0.000024 0.527574
371.052826 138.786545 0.000053 0.516667
368.563507 138.695297 0.000018 0.531250
366.833130 138.631851 0.000028 0.539706
365.558228 138.585129 0.000043 0.523652
nan nan nan 0.000000
nan nan nan 0.000000
nan nan nan 0.000000
nan nan nan 0.000000
nan nan nan 0.000000
nan nan nan 0.000000
386.479675 139.150085 3.420409 0.568015
386.479675 139.150085 2.473132 0.529902
386.479675 139.150085 1.526868 0.534436
386.479675 139.150085 0.579591 0.565441
381.959229 139.015976 0.000079 0.541667
374.956451 138.808197 0.000041 0.540074
371.055817 138.692474 0.000070 0.526471
368.565948 138.618607 0.000035 0.527206
366.835205 138.567261 0.000044 0.535662
365.560028 138.529419 0.000058 0.546446
nan nan nan 0.000000
386.570343 138.950256 8.263073 0.420956
386.479095 138.948181 7.259843 0.604167
386.479919 138.948196 6.288103 0.568627
386.479675 138.948196 5.325573 0.569853
386.479706 138.948196 4.370306 0.589583
386.479706 138.948196 3.420149 0.575245
386.479706 138.948196 2.473045 0.588726
386.479706 138.948196 1.526955 0.596324
386.479706 138.948196 0.579850 0.565564
381.964081 138.845764 0.000049 0.537377
374.959869 138.686890 0.000011 0.538113
371.058502 138.598389 0.000039 0.538848
368.568115 138.541901 0.000005 0.537377
366.836975 138.502625 0.000017 0.534559
365.561584 138.473694 0.000030 0.513480
nan nan nan 0.000000
386.510071 138.746826 8.249220 0.444608
386.479004 138.746338 7.259123 0.559191
386.479889 138.746368 6.287522 0.546936
386.479645 138.746353 5.325125 0.545466
386.479706 138.746353 4.369988 0.542892
386.479706 138.746353 3.419960 0.526838
386.479706 138.746353 2.472982 0.555637
386.479706 138.746353 1.527018 0.552206
386.479706 138.746353 0.580040 0.559069
381.967133 138.675507 0.000066 0.536274
374.962097 138.565536 0.000028 0.534926
371.060181 138.504272 0.000056 0.546936
368.569519 138.465164 0.000022 0.545098
366.838165 138.437988 0.000033 0.521691
365.562622 138.417969 0.000045 0.501471
nan nan nan 0.000000
386.493439 138.544693 8.245094 0.402574
386.478912 138.544556 7.258664 0.527819
386.479828 138.544556 6.287152 0.561152
386.479614 138.544556 5.324841 0.549387
386.479675 138.544556 4.369786 0.561520
386.479675 138.544556 3.419838 0.544485
386.479675 138.544556 2.472941 0.552206
386.479675 138.544556 1.527058 0.537623
386.479675 138.544556 0.580161 0.571814
381.969055 138.505249 0.000081 0.529044
374.963440 138.444168 0.000043 0.547181
371.061218 138.410156 0.000071 0.526226
368.570343 138.388443 0.000037 0.524265
366.838867 138.373352 0.000048 0.518015
365.563202 138.362228 0.000061 0.556618
nan nan nan 0.000000
386.493439 138.342819 8.244860 0.393995
386.478912 138.342789 7.258467 0.541299
386.479828 138.342789 6.286994 0.545588
386.479645 138.342789 5.324718 0.528676
386.479706 138.342789 4.369700 0.523039
386.479706 138.342789 3.419785 0.543015
386.479706 138.342789 2.472924 0.527696
386.479706 138.342789 1.527076 0.531250
386.479706 138.342789 0.580213 0.563235
381.970276 138.334961 0.000052 0.546201
374.964325 138.322815 0.000015 0.526593
371.061890 138.316025 0.000043 0.530515
368.570892 138.311707 0.000010 0.535784
366.839355 138.308716 0.000021 0.554779
365.563629 138.306488 0.000033 0.555882
nan nan nan 0.000000
386.494904 138.140945 8.245251 0.363848
386.478882 138.141037 7.258529 0.527819
386.479828 138.141022 6.287045 0.555392
386.479614 138.141037 5.324759 0.568505
386.479706 138.141037 4.369729 0.543873
386.479706 138.141037 3.419804 0.562255
386.479706 138.141037 2.472930 0.555147
386.479706 138.141037 1.527070 0.551103
386.479706 138.141037 0.580196 0.575613
381.969727 138.164688 0.000072 0.539583
374.963928 138.201431 0.000033 0.522426
371.061615 138.221909 0.000063 0.536029
368.570679 138.234970 0.000029 0.519485
366.839172 138.244064 0.000037 0.556373
365.563446 138.250748 0.000051 0.526103
nan nan nan 0.000000
386.495056 137.939056 8.245672 0.393137
386.478912 137.939255 7.258852 0.565686
386.479828 137.939240 6.287308 0.575245
386.479614 137.939240 5.324961 0.559681
386.479675 137.939240 4.369873 0.574020
386.479675 137.939240 3.419890 0.576961
386.479675 137.939240 2.472959 0.554167
386.479675 137.939240 1.527041 0.581250
386.479675 137.939240 0.580109 0.591422
381.968079 137.994415 0.000087 0.533701
374.962738 138.080078 0.000049 0.555637
371.060669 138.127792 0.000079 0.526961
368.569916 138.158234 0.000045 0.548652
366.838531 138.179413 0.000052 0.547549
365.562897 138.195007 0.000065 0.563848
nan nan nan 0.000000
386.495392 137.737122 8.246422 0.432721
386.478943 137.737457 7.259435 0.540196
386.479858 137.737442 6.287780 0.553799
386.479645 137.737442 5.325328 0.546569
386.479706 137.737442 4.370133 0.565931
386.479706 137.737442 3.420046 0.562010
386.479706 137.737442 2.473010 0.552574
386.479706 137.737442 1.526989 0.539706
386.479706 137.737442 0.579953 0.570221
381.965729 137.824158 0.000059 0.540441
374.961060 137.958710 0.000022 0.548407
371.059387 138.033661 0.000051 0.542402
368.568848 138.081528 0.000018 0.529412
366.837646 138.114777 0.000026 0.520711
365.562134 138.139267 0.000038 0.559926
nan nan nan 0.000000
386.495758 137.535141 8.247498 0.447181
386.479004 137.535583 7.260280 0.542892
386.479889 137.535553 6.288465 0.573407
386.479645 137.535568 5.325856 0.530637
386.479706 137.535568 4.370509 0.550000
386.479706 137.535568 3.420272 0.522549
386.479706 137.535568 2.473086 0.539093
386.479706 137.535568 1.526914 0.557476
386.479706 137.535568 0.579728 0.559191
381.961670 137.653915 0.000074 0.539338
374.958160 137.837387 0.000037 0.543627
371.057129 137.939575 0.000067 0.550858
368.567017 138.004807 0.000034 0.525123
366.836090 138.050140 0.000043 0.545833
365.560822 138.083557 0.000052 0.514216
387.907562 137.286240 9.601012 0.422549
386.496246 137.333069 8.248898 0.387377
386.479065 137.333649 7.261385 0.567524
386.479919 137.333618 6.289359 0.575368
386.479675 137.333633 5.326548 0.528676
386.479706 137.333633 4.371001 0.558333
386.479706 137.333633 3.420565 0.569975
386.479706 137.333633 2.473183 0.557598
386.479706 137.333633 1.526816 0.546569
386.479706 137.333633 0.579434 0.559314
381.956451 137.483719 0.000089 0.537868
374.954468 137.716080 0.000052 0.536029
371.054260 137.845490 0.000081 0.547059
368.564667 137.928101 0.000048 0.525368
366.834106 137.985535 0.000057 0.576348
365.559113 138.027832 0.000067 0.546569
387.843781 137.076797 9.586971 0.279412
386.496796 137.130905 8.250620 0.404289
386.479156 137.131622 7.262749 0.522917
386.479950 137.131592 6.290466 0.550980
386.479675 137.131592 5.327402 0.528554
386.479706 137.131592 4.371608 0.564338
386.479675 137.131592 3.420929 0.558088
386.479675 137.131592 2.473305 0.549387
386.479675 137.131592 1.526695 0.520956
386.479675 137.131592 0.579070 0.566054
381.950531 137.313553 0.000061 0.530637
374.950256 137.594772 0.000025 0.533946
371.050995 137.751419 0.000053 0.529779
368.562012 137.851425 0.000021 0.519730
366.831848 137.920929 0.000027 0.555515
365.557159 137.972137 0.000041 0.507966
387.781219 136.868057 9.573593 0.268137
386.497467 136.928604 8.252666 0.360784
386.479309 136.929459 7.264376 0.570466
386.480042 136.929428 6.291784 0.587990
386.479736 136.929443 5.328420 0.578186
386.479706 136.929443 4.372331 0.564461
386.479706 136.929443 3.421363 0.579412
386.479706 136.929443 2.473449 0.562745
386.479706 136.929443 1.526551 0.586765
386.479706 136.929443 0.578637 0.585539
381.942902 137.143433 0.000077 0.525245
374.944824 137.473526 0.000039 0.528309
371.046783 137.657394 0.000067 0.527819
368.558563 137.774765 0.000036 0.541422
366.828979 137.856339 0.000042 0.570588
365.554688 137.916458 0.000054 0.515564
387.674561 136.662445 9.549517 0.304412
386.498169 136.726166 8.255033 0.385417
386.479462 136.727173 7.266265 0.540564
386.480133 136.727142 6.293315 0.544240
386.479736 136.727158 5.329600 0.561152
386.479706 136.727158 4.373171 0.554902
386.479706 136.727158 3.421866 0.586520
386.479706 136.727158 2.473617 0.554044
386.479706 136.727158 1.526383 0.552206
386.479706 136.727158 0.578134 0.566789
381.934113 136.973389 0.000091 0.550245
374.938538 137.352325 0.000054 0.523529
371.041931 137.563400 0.000082 0.540319
368.554626 137.698120 0.000050 0.516544
366.825623 137.791779 0.000056 0.509804
365.551788 137.860779 0.000070 0.552819
387.623169 136.454773 9.539660 0.404657
386.498932 136.523544 8.257719 0.410784
386.479614 136.524734 7.268417 0.537010
386.480225 136.524689 6.295058 0.566789
386.479797 136.524734 5.330947 0.539216
386.479706 136.524734 4.374126 0.556250
386.479675 136.524734 3.422438 0.568260
386.479675 136.524734 2.473808 0.537990
386.479675 136.524734 1.526192 0.535172
386.479706 136.524734 0.577561 0.592034
381.924652 136.803375 0.000064 0.541789
374.931793 137.231140 0.000028 0.543382
371.036713 137.469406 0.000055 0.528431
368.550354 137.621506 0.000024 0.562500
366.822021 137.727234 0.000032 0.525245
365.548676 137.805115 0.000043 0.548039
387.570770 136.247726 9.529903 0.424755
386.499756 136.320740 8.260719 0.417647
386.479797 136.322113 7.270832 0.553309
386.480316 136.322083 6.297013 0.539706
386.479828 136.322113 5.332457 0.536642
386.479706 136.322113 4.375199 0.535907
386.479675 136.322113 3.423080 0.531005
386.479675 136.322113 2.474021 0.530025
386.479675 136.322113 1.525978 0.553186
386.479675 136.322113 0.576919 0.562010
381.913483 136.633469 0.000079 0.533578
374.923828 137.110031 0.000042 0.529534
371.030518 137.375488 0.000069 0.516667
368.545288 137.544937 0.000038 0.536029
366.817810 137.662720 0.000046 0.529902
365.545044 137.749512 0.000056 0.566667
387.517548 136.041275 9.520309 0.403799
386.500610 136.117752 8.264042 0.413113
386.480011 136.119293 7.273509 0.554534
386.478973 136.119370 6.298959 0.559804
386.479858 136.119308 5.334129 0.549632
386.479706 136.119324 4.376390 0.549265
386.479675 136.119324 3.423794 0.540196
386.479675 136.119324 2.474259 0.526471
386.479675 136.119324 1.525741 0.550980
386.479675 136.119324 0.576206 0.544730
381.901154 136.463623 0.000093 0.538235
374.915039 136.988983 0.000057 0.534436
371.023834 137.281601 0.000063 0.541544
368.539734 137.468414 0.000053 0.534436
366.813110 137.598251 0.000060 0.540931
365.540985 137.693909 0.000071 0.538848
387.463745 135.835388 9.510917 0.314951
386.501495 135.914505 8.267679 0.403554
386.480255 135.916260 7.276450 0.565319
386.479095 135.916351 6.301342 0.561275
386.479950 135.916275 5.335968 0.530392
386.479736 135.916290 4.377696 0.550735
386.479706 135.916290 3.424576 0.555147
386.479706 135.916290 2.474520 0.530392
386.479706 135.916290 1.525480 0.532230
386.479706 135.916290 0.575424 0.569730
381.888092 136.293854 0.000066 0.541054
374.905731 136.867966 0.000031 0.531740
371.016602 137.187759 0.000037 0.537377
368.533844 137.391891 0.000027 0.545098
366.808167 137.533798 0.000035 0.518137
365.536743 137.638336 0.000046 0.540196
387.409393 135.630066 9.501753 0.252451
386.501038 135.711151 8.271332 0.365441
386.480530 135.712982 7.279657 0.548407
386.479248 135.713089 6.303940 0.558088
386.480011 135.713028 5.337974 0.529044
386.479767 135.713058 4.379121 0.558701
386.479706 135.713058 3.425429 0.579902
386.479706 135.713058 2.474803 0.532966
386.479706 135.713058 1.525196 0.524510
386.479706 135.713058 0.574571 0.538971
381.873383 136.124207 0.000080 0.539093
374.895233 136.747055 0.000045 0.525000
371.008484 137.093979 0.000051 0.536642
368.527222 137.315460 0.000041 0.533211
366.802582 137.469391 0.000050 0.565196
365.531891 137.582809 0.000060 0.563358
387.354736 135.425293 9.492854 0.384069
386.502258 135.507385 8.275656 0.376103
386.480804 135.509445 7.283129 0.548529
386.479401 135.509583 6.306751 0.567402
386.480072 135.509521 5.340144 0.552574
386.479767 135.509552 4.380663 0.551838
386.479706 135.509567 3.426352 0.576593
386.479706 135.509567 2.475111 0.541667
386.479706 135.509567 1.524889 0.552451
386.479706 135.509567 0.573647 0.553554
381.857971 135.954620 0.000055 0.539338
374.884247 136.626190 0.000019 0.533456
370.999969 137.000244 0.000025 0.546936
368.520294 137.239029 0.000016 0.549632
366.796722 137.405014 0.000026 0.534069
365.526886 137.527283 0.000033 0.524142
387.292572 135.221771 9.482429 0.408333
386.503479 135.303314 8.280296 0.379657
386.478912 135.305878 7.286465 0.565931
386.479553 135.305786 6.309779 0.574265
386.479340 135.305832 5.342386 0.569363
386.479767 135.305771 4.382322 0.583578
386.479706 135.305771 3.427346 0.583456
386.479706 135.305771 2.475442 0.567892
386.479706 135.305771 1.524557 0.583824
386.479706 135.305771 0.572653 0.565319
381.840881 135.785202 0.000068 0.531618
374.872040 136.505432 0.000035 0.525980
370.990509 136.906586 0.000040 0.515686
368.512573 137.162674 0.000030 0.530515
366.790222 137.340683 0.000038 0.515074
365.521271 137.471832 0.000050 0.551838
387.241486 135.017609 9.475136 0.446569
386.504700 135.098953 8.285251 0.407353
386.479248 135.101761 7.290471 0.558578
386.479736 135.101715 6.313024 0.586887
386.479401 135.101746 5.344890 0.553064
386.479645 135.101715 4.384090 0.604779
386.479706 135.101715 3.428412 0.566299
386.479706 135.101715 2.475797 0.542892
386.479706 135.101715 1.524203 0.547549
386.479706 135.101715 0.571587 0.537255
381.822601 135.615906 0.000084 0.539338
374.859039 136.384766 0.000048 0.527083
370.980438 136.813004 0.000053 0.545466
368.504364 137.086395 0.000044 0.549387
366.783295 137.276413 0.000052 0.537500
365.515289 137.416412 0.000062 0.541544
387.189697 134.813919 9.468025 0.429657
386.505951 134.894257 8.290519 0.407843
386.479553 134.897354 7.294746 0.552574
386.479919 134.897308 6.316483 0.544485
386.479462 134.897354 5.347562 0.560662
386.479614 134.897339 4.385989 0.557843
386.479675 134.897339 3.429549 0.564461
386.479675 134.897339 2.476176 0.544118
386.479675 134.897339 1.523824 0.556985
386.479675 134.897339 0.570451 0.544240
381.802826 135.446777 0.000126 0.528554
374.844971 136.264221 0.000086 0.516667
370.969543 136.719513 0.000090 0.535907
368.495453 137.010178 0.000080 0.534436
366.775818 137.212204 0.000089 0.551716
365.508850 137.361038 0.000098 0.527083
387.137360 134.610687 9.461124 0.327451
386.507172 134.689194 8.296103 0.415441
386.479950 134.692581 7.299292 0.583701
386.480133 134.692566 6.320165 0.575000
386.479553 134.692627 5.350402 0.562623
386.479645 134.692612 4.388007 0.599510
386.479706 134.692612 3.430757 0.565931
386.479706 134.692612 2.476578 0.557108
386.479706 134.692612 1.523421 0.557353
