# This PCD file was generated using the MATLABÂ® pcwrite function
# from Computer Vision ToolboxÂ®.
# .PCD v.7 - Point Cloud Data file format
VERSION .7
FIELDS x y z intensity
SIZE 4 4 4 4
TYPE F F F F
COUNT 1 1 1 1
WIDTH 1233
HEIGHT 1
VIEWPOINT 0 0 0 1 0 0 0
POINTS 1233
DATA ascii
0.000000 0.000000 0.000000 0.000000
0.000000 0.000000 0.000000 0.000000
0.000000 0.000000 0.000000 0.000000
0.000000 0.000000 0.000000 0.000000
0.000000 0.000000 0.000000 0.000000
0.000000 0.000000 0.000000 0.000000
0.000000 0.000000 0.000000 0.000000
0.000000 0.000000 0.000000 0.000000
0.000000 0.000000 0.000000 0.000000
0.000000 0.000000 0.000000 0.000000
0.000000 0.000000 0.000000 0.000000
0.000000 0.000000 0.000000 0.000000
0.000000 0.000000 0.000000 0.000000
0.000000 0.000000 0.000000 0.000000
0.000000 0.000000 0.000000 0.000000
0.000000 0.000000 0.000000 0.000000
0.000000 0.000000 0.000000 0.000000
0.000000 0.000000 0.000000 0.000000
0.000000 0.000000 0.000000 0.000000
0.000000 0.000000 0.000000 0.000000
0.000000 0.000000 0.000000 0.000000
0.000000 0.000000 0.000000 0.000000
0.000000 0.000000 0.000000 0.000000
0.000000 0.000000 0.000000 0.000000
0.000000 0.000000 0.000000 0.000000
0.000000 0.000000 0.000000 0.000000
0.000000 0.000000 0.000000 0.000000
0.000000 0.000000 0.000000 0.000000
0.000000 0.000000 0.000000 0.000000
0.000000 0.000000 0.000000 0.000000
0.000000 0.000000 0.000000 0.000000
0.000000 0.000000 0.000000 0.000000
0.000000 0.000000 0.000000 0.000000
0.000000 0.000000 0.000000 0.000000
0.000000 0.000000 0.000000 0.000000
0.000000 0.000000 0.000000 0.000000
0.000000 0.000000 0.000000 0.000000
0.000000 0.000000 0.000000 0.000000
0.000000 0.000000 0.000000 0.000000
0.000000 0.000000 0.000000 0.000000
0.000000 0.000000 0.000000 0.000000
0.000000 0.000000 0.000000 0.000000
0.000000 0.000000 0.000000 0.000000
0.000000 0.000000 0.000000 0.000000
0.000000 0.000000 0.000000 0.000000
0.000000 0.000000 0.000000 0.000000
0.000000 0.000000 0.000000 0.000000
0.000000 0.000000 0.000000 0.000000
0.000000 0.000000 0.000000 0.000000
0.000000 0.000000 0.000000 0.000000
0.000000 0.000000 0.000000 0.000000
0.000000 0.000000 0.000000 0.000000
0.000000 0.000000 0.000000 0.000000
0.000000 0.000000 0.000000 0.000000
0.000000 0.000000 0.000000 0.000000
0.000000 0.000000 0.000000 0.000000
0.000000 0.000000 0.000000 0.000000
0.000000 0.000000 0.000000 0.000000
0.000000 0.000000 0.000000 0.000000
0.000000 0.000000 0.000000 0.000000
0.000000 0.000000 0.000000 0.000000
0.000000 0.000000 0.000000 0.000000
0.000000 0.000000 0.000000 0.000000
0.000000 0.000000 0.000000 0.000000
0.000000 0.000000 0.000000 0.000000
0.000000 0.000000 0.000000 0.000000
0.000000 0.000000 0.000000 0.000000
0.000000 0.000000 0.000000 0.000000
0.000000 0.000000 0.000000 0.000000
0.000000 0.000000 0.000000 0.000000
0.000000 0.000000 0.000000 0.000000
0.000000 0.000000 0.000000 0.000000
0.000000 0.000000 0.000000 0.000000
0.000000 0.000000 0.000000 0.000000
0.000000 0.000000 0.000000 0.000000
0.000000 0.000000 0.000000 0.000000
0.000000 0.000000 0.000000 0.000000
0.000000 0.000000 0.000000 0.000000
0.000000 0.000000 0.000000 0.000000
0.000000 0.000000 0.000000 0.000000
0.000000 0.000000 0.000000 0.000000
0.000000 0.000000 0.000000 0.000000
0.000000 0.000000 0.000000 0.000000
0.000000 0.000000 0.000000 0.000000
0.000000 0.000000 0.000000 0.000000
0.000000 0.000000 0.000000 0.000000
0.000000 0.000000 0.000000 0.000000
0.000000 0.000000 0.000000 0.000000
0.000000 0.000000 0.000000 0.000000
0.000000 0.000000 0.000000 0.000000
0.000000 0.000000 0.000000 0.000000
0.000000 0.000000 0.000000 0.000000
0.000000 0.000000 0.000000 0.000000
0.000000 0.000000 0.000000 0.000000
0.000000 0.000000 0.000000 0.000000
0.000000 0.000000 0.000000 0.000000
0.000000 0.000000 0.000000 0.000000
0.000000 0.000000 0.000000 0.000000
0.000000 0.000000 0.000000 0.000000
0.000000 0.000000 0.000000 0.000000
0.000000 0.000000 0.000000 0.000000
0.000000 0.000000 0.000000 0.000000
0.000000 0.000000 0.000000 0.000000
0.000000 0.000000 0.000000 0.000000
0.000000 0.000000 0.000000 0.000000
0.000000 0.000000 0.000000 0.000000
0.000000 0.000000 0.000000 0.000000
0.000000 0.000000 0.000000 0.000000
0.000000 0.000000 0.000000 0.000000
0.000000 0.000000 0.000000 0.000000
0.000000 0.000000 0.000000 0.000000
0.000000 0.000000 0.000000 0.000000
0.000000 0.000000 0.000000 0.000000
0.000000 0.000000 0.000000 0.000000
0.000000 0.000000 0.000000 0.000000
0.000000 0.000000 0.000000 0.000000
0.000000 0.000000 0.000000 0.000000
0.000000 0.000000 0.000000 0.000000
0.000000 0.000000 0.000000 0.000000
0.000000 0.000000 0.000000 0.000000
0.000000 0.000000 0.000000 0.000000
0.000000 0.000000 0.000000 0.000000
0.000000 0.000000 0.000000 0.000000
0.000000 0.000000 0.000000 0.000000
0.000000 0.000000 0.000000 0.000000
0.000000 0.000000 0.000000 0.000000
0.000000 0.000000 0.000000 0.000000
0.000000 0.000000 0.000000 0.000000
0.000000 0.000000 0.000000 0.000000
0.000000 0.000000 0.000000 0.000000
0.000000 0.000000 0.000000 0.000000
0.000000 0.000000 0.000000 0.000000
0.000000 0.000000 0.000000 0.000000
0.000000 0.000000 0.000000 0.000000
152.251907 66.735687 4.643536 0.786954
152.251892 66.735687 4.279357 0.591150
152.251892 66.735687 3.920290 0.549020
154.215744 68.683853 3.155146 0.698405
154.215744 68.683853 2.895864 0.628748
154.215744 68.683853 2.638527 0.580346
154.215744 68.683853 2.382569 0.586572
154.215744 68.683853 2.127432 0.536797
154.215744 68.683846 1.872568 0.568322
154.215729 68.683846 1.617431 0.603601
154.215729 68.683846 1.361472 0.656428
154.215729 68.683846 1.104135 0.739528
154.215729 68.683846 0.844853 0.824170
154.215729 68.683846 0.583040 0.845975
154.215729 68.683846 0.318089 0.630701
154.215729 68.683846 0.049366 0.563806
152.251907 66.838760 4.625418 0.549020
152.251907 66.838760 4.263734 0.816571
152.251892 66.838760 3.907129 0.558633
154.138000 68.683853 3.163361 0.559182
154.138000 68.683853 2.902236 0.574136
154.138000 68.683853 2.643069 0.590875
154.138000 68.683853 2.385289 0.569863
154.138000 68.683853 2.128338 0.517647
154.138000 68.683846 1.871662 0.550423
154.138000 68.683846 1.614710 0.526909
154.137985 68.683846 1.356931 0.484520
154.137985 68.683846 1.097764 0.545464
154.137985 68.683846 0.836637 0.561242
154.137985 68.683846 0.572963 0.556939
154.137985 68.683846 0.306128 0.541741
154.137985 68.683846 0.035492 0.535225
152.251907 66.940430 4.607672 0.549020
152.251907 66.940430 4.248433 0.512612
152.251892 66.940430 3.894239 0.792111
154.059143 68.683853 3.171752 0.549508
154.059143 68.683853 2.908743 0.569924
154.059128 68.683853 2.647707 0.595026
154.059128 68.683853 2.388068 0.586023
154.059128 68.683853 2.129264 0.527703
154.059128 68.683846 1.870736 0.548074
154.059128 68.683846 1.611931 0.566964
154.059128 68.683846 1.352293 0.581323
154.059128 68.683846 1.091256 0.561654
154.059128 68.683846 0.828246 0.524346
154.059128 68.683846 0.562670 0.510704
154.059128 68.683846 0.293910 0.513848
154.059128 68.683846 0.021323 0.564263
152.251892 67.040741 4.590291 0.735729
152.251892 67.040741 4.233447 0.565988
152.251892 67.040741 3.881612 0.549020
153.979126 68.683853 3.180322 0.566232
153.979126 68.683853 2.915389 0.509056
153.979126 68.683853 2.652444 0.555779
153.979126 68.683853 2.390907 0.559014
153.979126 68.683853 2.130209 0.610620
153.979126 68.683846 1.869791 0.551415
153.979126 68.683846 1.609093 0.552499
153.979126 68.683846 1.347555 0.595407
153.979126 68.683846 1.084610 0.552758
153.979126 68.683846 0.819676 0.646311
153.979126 68.683846 0.552157 0.537224
153.979126 68.683846 0.281432 0.737285
153.979126 68.683846 0.006851 0.790845
152.251892 67.139725 4.573263 0.517647
152.251892 67.139725 4.218765 0.678492
152.251892 67.139725 3.869244 0.482353
153.897934 68.683853 3.189077 0.567407
153.897934 68.683853 2.922179 0.543069
153.897934 68.683853 2.657284 0.602731
153.897934 68.683853 2.393806 0.560479
153.897934 68.683853 2.131175 0.835813
153.897934 68.683853 1.868825 0.496406
153.897934 68.683846 1.606193 0.830457
153.897919 68.683846 1.342716 0.592889
153.897919 68.683846 1.077819 0.808850
153.897919 68.683846 0.810921 0.568124
153.897919 68.683846 0.541417 0.853910
153.897919 68.683846 0.268684 0.837812
153.921036 68.705528 0.000006 0.719905
152.251892 67.237427 4.556583 0.549020
152.251892 67.237427 4.204382 0.838575
152.251892 67.237427 3.857127 0.713405
153.815521 68.683853 3.198022 0.660853
153.815521 68.683853 2.929116 0.682673
153.815521 68.683853 2.662228 0.556970
153.815521 68.683853 2.396769 0.597589
153.815521 68.683853 2.132162 0.520287
153.815521 68.683853 1.867838 0.569589
153.815521 68.683846 1.603231 0.576196
153.815521 68.683846 1.337771 0.560388
153.815506 68.683846 1.070883 0.506035
153.815506 68.683846 0.801976 0.577325
153.815506 68.683846 0.530445 0.807065
153.815506 68.683846 0.255660 0.529152
153.883041 68.746315 0.000006 0.727047
152.251892 67.333870 4.540240 0.688930
152.251892 67.333870 4.190291 0.525185
152.251892 67.333870 3.845255 0.723918
153.731857 68.683853 3.207162 0.816770
153.731857 68.683853 2.936204 0.777188
153.731857 68.683853 2.667280 0.568673
153.731857 68.683853 2.399796 0.570214
153.731857 68.683853 2.133170 0.573358
153.731857 68.683853 1.866830 0.568338
153.731857 68.683853 1.600204 0.560403
153.731842 68.683846 1.332719 0.539483
153.731842 68.683846 1.063794 0.592935
153.731842 68.683846 0.792836 0.800534
153.731842 68.683846 0.519234 0.569619
153.731842 68.683846 0.242352 0.574350
153.845337 68.787369 0.000006 0.727108
152.251892 67.429092 4.524226 0.517647
152.251892 67.429092 4.176484 0.603800
152.251892 67.429092 3.833623 0.778500
152.251892 67.429092 3.494823 0.770520
153.646896 68.683853 2.943448 0.615122
153.646896 68.683853 2.672443 0.777752
153.646896 68.683853 2.402889 0.565438
153.646896 68.683853 2.134200 0.587350
153.646896 68.683853 1.865800 0.533608
153.646896 68.683846 1.597111 0.616587
153.646896 68.683846 1.327556 0.560372
153.646896 68.683846 1.056551 0.812833
153.646896 68.683846 0.783496 0.663310
153.646896 68.683846 0.507777 0.573968
153.646896 68.683846 0.228752 0.693019
153.807922 68.828682 0.000006 0.729168
152.251892 67.523132 4.508535 0.517647
152.251892 67.523132 4.162954 0.840436
152.251892 67.523132 3.822225 0.517647
152.251892 67.523132 3.485531 0.520516
153.560608 68.683853 2.950851 0.630869
153.560608 68.683853 2.677720 0.810269
153.560608 68.683853 2.406050 0.813733
153.560608 68.683853 2.135254 0.504814
153.560608 68.683846 1.864747 0.633341
153.560608 68.683846 1.593949 0.607996
153.560608 68.683846 1.322279 0.679698
153.560608 68.683846 1.049147 0.798917
153.560608 68.683846 0.773950 0.541085
153.560608 68.683846 0.496067 0.552636
153.560608 68.683846 0.214853 0.844755
153.770782 68.870255 0.000006 0.722072
152.251892 67.616005 4.493160 0.520226
152.251892 67.616005 4.149696 0.549020
152.251892 67.616005 3.811056 0.549020
152.251892 67.616005 3.476426 0.577752
153.472961 68.683853 2.958419 0.599145
153.472961 68.683853 2.683113 0.679438
153.472961 68.683853 2.409282 0.693797
153.472961 68.683853 2.136330 0.549264
153.529129 68.732964 1.864891 0.270344
153.529129 68.732964 1.594383 0.200076
153.529129 68.732971 1.323004 0.168704
153.529129 68.732971 1.050164 0.154604
153.529129 68.732971 0.775261 0.137331
153.529129 68.732971 0.497676 0.098436
153.529129 68.732971 0.216763 0.068498
153.733948 68.912086 0.000006 0.742382
152.251892 67.707756 4.478090 0.825742
152.251892 67.707756 4.136703 0.657847
152.251892 67.707756 3.800109 0.757275
152.251892 67.707756 3.467502 0.784756
153.383896 68.683853 2.966155 0.565484
153.383896 68.683853 2.688627 0.577478
153.383896 68.683853 2.412586 0.692988
153.383896 68.683853 2.137430 0.561578
153.402878 68.700226 1.862980 0.438911
153.402878 68.700226 1.588646 0.431373
153.402878 68.700226 1.313428 0.407843
153.402878 68.700226 1.036729 0.560296
153.402878 68.700226 0.757937 0.159960
153.402878 68.700226 0.476426 0.109331
153.402878 68.700226 0.191539 0.079973
153.697403 68.954178 0.000006 0.730556
152.251892 67.798409 4.463322 0.576288
152.251892 67.798416 4.123970 0.568627
152.251892 67.798409 3.789382 0.773541
152.251892 67.798409 3.458756 0.547662
153.293381 68.683853 2.974065 0.526406
153.293381 68.683853 2.694265 0.650385
153.293381 68.683853 2.415964 0.802075
153.293381 68.683853 2.138556 0.576043
153.312637 68.700226 1.861858 0.437354
153.312637 68.700226 1.585278 0.450431
153.312637 68.700226 1.307807 0.438575
153.312637 68.700226 1.028842 0.179171
153.312637 68.700226 0.747769 0.189487
153.312637 68.700226 0.463952 0.106691
153.312637 68.700226 0.176733 0.089311
153.661148 68.996521 0.000006 0.731060
152.251892 67.887993 4.448847 0.549432
152.251892 67.888000 4.111488 0.765438
152.251892 67.887993 3.778867 0.549554
152.251892 67.887993 3.450184 0.549020
153.201355 68.683853 2.982154 0.524636
153.201355 68.683853 2.700031 0.535470
153.201355 68.683853 2.419418 0.577707
153.201355 68.683853 2.139706 0.517143
153.220886 68.700226 1.860711 0.462745
153.220886 68.700226 1.581834 0.439216
153.220886 68.700226 1.302059 0.470695
153.220886 68.700226 1.020777 0.184268
153.220886 68.700226 0.737370 0.191745
153.220886 68.700226 0.451196 0.125689
153.220886 68.700226 0.161592 0.086275
153.625183 69.039108 0.000007 0.741146
152.251892 67.976532 4.434660 0.701991
152.251892 67.976532 4.099256 0.571878
152.251892 67.976532 3.768561 0.546258
152.251892 67.976532 3.441782 0.562463
153.107803 68.683853 2.990427 0.824063
153.107803 68.683853 2.705927 0.518074
153.107788 68.683853 2.422951 0.577676
153.107788 68.683853 2.140883 0.565881
153.127609 68.700226 1.859538 0.439216
153.127609 68.700226 1.578312 0.474510
153.127609 68.700226 1.296180 0.462745
153.127609 68.700226 1.012529 0.203922
153.127609 68.700226 0.726734 0.203922
153.127609 68.700226 0.438150 0.123308
153.127609 68.700226 0.146106 0.074510
153.589523 69.081955 0.000007 0.721218
152.251892 68.064064 4.420752 0.743450
152.251892 68.064056 4.087265 0.570336
152.251892 68.064056 3.758459 0.556374
152.251892 68.064064 3.433547 0.609155
153.012650 68.683853 2.998890 0.689509
153.012634 68.683853 2.711959 0.619394
153.012634 68.683853 2.426565 0.564034
153.012634 68.683853 2.142087 0.542733
153.032730 68.700226 1.858337 0.462745
153.032730 68.700226 1.574708 0.489219
153.032730 68.700226 1.290166 0.462745
153.032730 68.700226 1.004092 0.222004
153.032730 68.700226 0.715854 0.205570
153.032730 68.700226 0.424804 0.129412
153.032730 68.700226 0.130265 0.069139
153.554169 69.125046 0.000007 0.718166
152.251892 68.150597 4.407120 0.604410
152.251892 68.150597 4.075510 0.549020
152.251892 68.150597 3.748555 0.487373
152.251892 68.150597 3.425474 0.606561
152.915833 68.683853 3.007548 0.580072
152.915833 68.683853 2.718130 0.559899
152.915833 68.683853 2.430262 0.518746
152.915833 68.683846 2.143318 0.608347
152.936218 68.700226 1.857110 0.464958
152.936218 68.700226 1.571022 0.496330
152.936218 68.700226 1.284013 0.471427
152.936218 68.700226 0.995459 0.191745
152.936218 68.700226 0.704724 0.203967
152.936218 68.700226 0.411151 0.116365
152.936218 68.700226 0.114059 0.062745
153.519119 69.168388 0.000007 0.726192
152.251892 68.236168 4.393756 0.552422
152.251892 68.236168 4.063987 0.640101
152.251892 68.236168 3.738848 0.830060
152.251892 68.236168 3.417560 0.703365
152.817337 68.683853 3.016407 0.561868
152.817337 68.683853 2.724445 0.693294
152.817337 68.683853 2.434045 0.654948
152.817337 68.683853 2.144579 0.789883
152.838013 68.700226 1.855853 0.480262
152.838013 68.700226 1.567250 0.505074
152.838013 68.700226 1.277717 0.474098
152.838013 68.700226 0.986626 0.209003
152.838013 68.700226 0.693334 0.215686
152.838013 68.700226 0.397179 0.109331
152.838013 68.700218 0.097475 0.156771
153.484360 69.211967 0.000007 0.724376
152.251892 68.320793 4.380655 0.768078
152.251892 68.320793 4.052691 0.679332
152.251892 68.320793 3.729331 0.685939
152.251892 68.320793 3.409802 0.753796
152.717087 68.683853 3.025475 0.554925
152.717087 68.683853 2.730907 0.819837
152.717087 68.683853 2.437918 0.529686
152.717087 68.683853 2.145868 0.633280
152.738068 68.700226 1.854567 0.485847
152.738052 68.700226 1.563390 0.492012
152.738052 68.700226 1.271274 0.462745
152.738068 68.700226 0.977586 0.215686
152.738068 68.700226 0.681677 0.223011
152.738068 68.700226 0.382881 0.105882
152.749435 68.709099 0.083620 0.210437
153.449905 69.255791 0.000007 0.719692
152.251892 68.404503 4.367812 0.782544
152.251892 68.404503 4.041617 0.545785
152.251892 68.404503 3.720002 0.549020
152.251892 68.404503 3.402196 0.549020
152.615021 68.683853 3.034756 0.736110
152.615021 68.683853 2.737523 0.589944
152.615021 68.683853 2.441881 0.558114
152.615021 68.683846 2.147189 0.709895
152.636307 68.700218 1.853251 0.507759
152.636307 68.700218 1.559438 0.502068
152.636307 68.700218 1.264678 0.494118
152.636307 68.700226 0.968332 0.215686
152.636307 68.700226 0.669746 0.215686
152.636307 68.700218 0.368245 0.105882
152.678864 68.732964 0.074728 0.086702
153.415771 69.299850 0.000007 0.734081
152.251892 68.487328 4.355221 0.517647
152.251892 68.487328 4.030760 0.542931
152.251892 68.487328 3.710855 0.552697
152.251892 68.487328 3.394739 0.517647
152.511093 68.683853 3.044258 0.786648
152.511093 68.683853 2.744295 0.534066
152.511093 68.683853 2.445939 0.549493
152.511093 68.683853 2.148540 0.759960
152.532684 68.700218 1.851903 0.522011
152.532684 68.700218 1.555392 0.537255
152.532684 68.700218 1.257926 0.476265
152.532684 68.700218 0.958858 0.228077
152.532684 68.700218 0.657530 0.214099
152.532684 68.700218 0.353260 0.111528
152.575867 68.732964 0.057048 0.086275
153.381943 69.344154 0.000007 0.738369
152.251892 68.569275 4.342875 0.535149
152.251892 68.569267 4.020117 0.549020
152.251892 68.569267 3.701888 0.537255
152.251892 68.569267 3.387429 0.534874
152.405228 68.683853 3.053988 0.738918
152.405228 68.683853 2.751230 0.692988
152.405228 68.683853 2.450094 0.786297
152.405228 68.683853 2.149924 0.834623
152.470947 68.732964 1.851418 0.345785
152.470947 68.732964 1.553936 0.234577
152.470947 68.732964 1.255496 0.215686
152.470947 68.732964 0.955449 0.235294
152.470947 68.732964 0.653134 0.233692
152.470947 68.732964 0.347868 0.105516
152.470947 68.732964 0.038944 0.074922
153.348419 69.388687 0.000007 0.730251
152.251892 68.650368 4.330773 0.598047
152.251892 68.650368 4.009680 0.653300
152.251892 68.650368 3.693096 0.737545
152.251892 68.650368 3.380262 0.585657
152.297363 68.683853 3.063953 0.548943
152.297363 68.683853 2.758333 0.530282
152.297363 68.683853 2.454350 0.549020
152.297363 68.683853 2.151342 0.720134
152.297363 68.683853 1.848658 0.587488
152.297363 68.683846 1.545650 0.550301
152.297363 68.683846 1.241666 0.482353
152.297363 68.683846 0.936045 0.559686
152.297363 68.683846 0.628114 0.691951
152.297363 68.683853 0.317177 0.578714
152.288025 68.676971 0.000008 0.735927
153.315201 69.433456 0.000007 0.726375
152.187454 68.683868 4.338850 0.537697
152.187454 68.683861 4.016646 0.495537
152.187454 68.683861 3.698965 0.559609
152.187454 68.683861 3.385046 0.545663
152.187439 68.683853 3.074162 0.502312
152.187439 68.683853 2.765610 0.551888
152.187439 68.683853 2.458709 0.655665
152.187439 68.683853 2.152794 0.743694
152.187439 68.683853 1.847206 0.612039
152.187439 68.683846 1.541291 0.557855
152.187439 68.683846 1.234390 0.538354
152.187439 68.683846 0.925837 0.533700
152.187439 68.683846 0.614951 0.561730
152.187439 68.683846 0.301031 0.546014
152.249863 68.729156 0.000009 0.742519
153.282303 69.478455 0.000007 0.714641
152.075394 68.683868 4.361625 0.628550
152.075394 68.683861 4.036283 0.583139
152.075394 68.683861 3.715509 0.532387
152.075394 68.683861 3.398534 0.549020
152.075378 68.683853 3.084622 0.560143
152.075378 68.683853 2.773065 0.527611
152.075378 68.683853 2.463176 0.658213
152.075378 68.683853 2.154282 0.818860
152.075378 68.683853 1.845718 0.741451
152.075378 68.683846 1.536824 0.745876
152.075378 68.683846 1.226934 0.791775
152.075378 68.683846 0.915377 0.752682
152.075378 68.683846 0.601463 0.744244
152.075378 68.683846 0.284487 0.801862
152.212082 68.781609 0.000009 0.730999
153.249725 69.523682 0.000007 0.728527
151.961136 68.683868 4.384965 0.559045
151.961121 68.683861 4.056409 0.688319
151.961121 68.683861 3.732464 0.807172
151.961121 68.683861 3.412356 0.824491
151.961121 68.683853 3.095341 0.698985
151.961121 68.683853 2.780704 0.736858
151.961105 68.683853 2.467753 0.776913
151.961105 68.683853 2.155806 0.801968
151.961105 68.683853 1.844194 0.699626
151.961105 68.683846 1.532246 0.620768
151.961105 68.683853 1.219294 0.592493
151.961105 68.683846 0.904657 0.582452
151.961105 68.683853 0.587642 0.638300
151.961105 68.683846 0.267532 0.772824
152.174652 68.834328 0.000009 0.727810
153.217453 69.569130 0.000007 0.744549
151.844574 68.683868 4.408890 0.593790
151.844574 68.683861 4.077037 0.517647
151.844559 68.683861 3.749843 0.560662
151.844559 68.683853 3.426524 0.575555
151.844559 68.683853 3.106329 0.575006
151.844559 68.683861 2.788536 0.790433
151.844559 68.683853 2.472445 0.625742
151.844559 68.683853 2.157369 0.746563
151.844543 68.683853 1.842631 0.767163
151.844543 68.683853 1.527554 0.816907
151.844543 68.683853 1.211463 0.765713
151.844543 68.683853 0.893669 0.610239
151.844543 68.683853 0.573474 0.573754
151.844543 68.683853 0.250154 0.572793
152.137604 68.887299 0.000008 0.718486
153.185501 69.614807 0.000007 0.723018
151.725647 68.683868 4.433419 0.658106
151.725647 68.683861 4.098186 0.660121
151.725632 68.683861 3.767662 0.538109
151.725632 68.683861 3.441050 0.563165
151.725632 68.683853 3.117595 0.549020
151.725632 68.683853 2.796566 0.523018
151.725632 68.683853 2.477256 0.631159
151.725632 68.683853 2.158972 0.674632
151.725632 68.683853 1.841028 0.866911
151.725632 68.683853 1.522743 0.804868
151.725632 68.683853 1.203433 0.643763
151.725632 68.683853 0.882404 0.567285
151.725632 68.683853 0.558948 0.713817
151.725616 68.683853 0.232335 0.583139
152.100922 68.940536 0.000009 0.713314
153.153885 69.660713 0.000007 0.741283
151.604279 68.683868 4.458574 0.790997
151.604263 68.683861 4.119877 0.704921
151.604263 68.683853 3.785935 0.762814
151.604263 68.683861 3.455946 0.573831
151.604248 68.683853 3.129148 0.580392
151.604263 68.683861 2.804800 0.523659
151.604263 68.683853 2.482189 0.605951
151.604248 68.683853 2.160615 0.664942
151.604248 68.683853 1.839385 0.885756
151.604248 68.683853 1.517810 0.778546
151.604248 68.683853 1.195199 0.839109
151.604248 68.683853 0.870851 0.761318
151.604248 68.683853 0.544051 0.778912
151.604248 68.683853 0.214062 0.609674
152.064606 68.994019 0.000009 0.727352
153.122574 69.706833 0.000008 0.736568
151.480347 68.683868 4.484377 0.517647
151.480347 68.683861 4.142126 0.517769
151.480331 68.683853 3.804679 0.549020
151.480347 68.683853 3.471227 0.669398
151.480331 68.683853 3.140998 0.531502
151.480347 68.683853 2.813246 0.518364
151.480331 68.683853 2.487250 0.562280
151.480331 68.683853 2.162301 0.592279
151.480331 68.683853 1.837699 0.723903
151.480331 68.683853 1.512749 0.549020
151.480331 68.683853 1.186752 0.568627
151.480331 68.683853 0.859001 0.569223
151.480331 68.683853 0.528771 0.807324
151.480331 68.683853 0.195319 0.492027
152.028671 69.047760 0.000009 0.724102
153.091583 69.753166 0.000007 0.745296
151.353790 68.683861 4.510852 0.526467
151.353790 68.683861 4.164953 0.614038
151.353790 68.683853 3.823910 0.546929
151.353790 68.683861 3.486904 0.585565
151.353790 68.683853 3.153157 0.699367
151.353790 68.683853 2.821913 0.567529
151.353790 68.683853 2.492442 0.527108
151.353790 68.683853 2.164030 0.684962
151.353775 68.683853 1.835970 0.839689
151.353775 68.683853 1.507557 0.539651
151.353775 68.683853 1.178086 0.552087
151.353775 68.683853 0.846842 0.781918
151.353775 68.683853 0.513094 0.556802
151.353775 68.683853 0.176088 0.539391
151.993118 69.101753 0.000009 0.750546
153.060928 69.799721 0.000007 0.736095
151.224503 68.683861 4.538022 0.584100
151.224503 68.683853 4.188380 0.562234
151.224503 68.683853 3.843646 0.692592
151.224503 68.683861 3.502993 0.538231
151.224503 68.683853 3.165635 0.550958
151.224503 68.683853 2.830806 0.845777
151.224503 68.683853 2.497771 0.570764
151.224487 68.683853 2.165805 0.673899
151.224487 68.683853 1.834195 0.729503
151.224487 68.683853 1.502228 0.517647
151.224487 68.683853 1.169192 0.557916
151.224487 68.683853 0.834364 0.529534
151.224487 68.683853 0.497004 0.579660
151.224487 68.683853 0.156352 0.659846
151.957932 69.155983 0.000009 0.721386
153.030594 69.846481 0.000007 0.725139
151.092377 68.683861 4.565913 0.580392
151.092377 68.683861 4.212428 0.830991
151.092377 68.683861 3.863905 0.563760
151.092377 68.683861 3.519510 0.849775
151.092377 68.683853 3.178444 0.562493
151.092377 68.683861 2.839936 0.700969
151.092377 68.683853 2.503241 0.530449
151.092377 68.683853 2.167627 0.586816
151.092377 68.683853 1.832373 0.572915
151.092377 68.683853 1.496759 0.517647
151.092377 68.683853 1.160063 0.740047
151.092377 68.683853 0.821555 0.556680
151.092377 68.683853 0.480488 0.661219
151.092377 68.683853 0.136093 0.557519
151.923126 69.210464 0.000009 0.731670
153.000580 69.893456 0.000007 0.719768
150.957321 68.683861 4.594550 0.556725
150.957306 68.683861 4.237121 0.508614
150.957306 68.683853 3.884708 0.646876
150.957321 68.683861 3.536469 0.569238
150.957306 68.683853 3.191596 0.549020
150.957306 68.683853 2.849310 0.569299
150.957306 68.683853 2.508857 0.546883
150.957306 68.683853 2.169498 0.535851
150.957306 68.683853 1.830502 0.517723
150.957306 68.683853 1.491142 0.546715
150.957306 68.683853 1.150689 0.626810
150.957306 68.683853 0.808403 0.569757
150.957306 68.683853 0.463529 0.520699
150.957306 68.683853 0.115290 0.710079
151.888718 69.265190 0.000009 0.728481
152.970901 69.940643 0.000007 0.727459
150.819199 68.683861 4.623965 0.583139
150.819183 68.683853 4.262483 0.779843
150.819183 68.683853 3.906075 0.573953
150.819199 68.683861 3.553887 0.517647
150.819183 68.683853 3.205105 0.786419
150.819183 68.683853 2.858939 0.566171
150.819199 68.683853 2.514626 0.833295
150.819183 68.683853 2.171420 0.549020
150.819183 68.683853 1.828580 0.535683
150.819183 68.683853 1.485373 0.559442
150.819183 68.683853 1.141061 0.549020
150.819183 68.683853 0.794894 0.758206
150.819183 68.683853 0.446111 0.495903
150.819183 68.683853 0.093924 0.546990
151.854675 69.320152 0.000010 0.727474
152.941559 69.988029 0.000008 0.732341
150.701904 68.698380 4.647158 0.450980
150.701904 68.698380 4.282480 0.435630
150.677902 68.683853 3.928026 0.535271
150.677902 68.683861 3.571783 0.804456
150.677887 68.683853 3.218984 0.575906
150.677887 68.683853 2.868831 0.517647
150.677902 68.683853 2.520553 0.668467
150.677902 68.683853 2.173394 0.549020
150.677902 68.683853 1.826606 0.532311
150.677887 68.683853 1.479447 0.637583
150.677887 68.683853 1.131168 0.527230
150.677887 68.683853 0.781016 0.571328
150.677887 68.683853 0.428215 0.806897
150.677887 68.683853 0.071972 0.512230
151.821014 69.375351 0.000009 0.739590
152.912537 70.035622 0.000008 0.747097
150.657486 68.757797 4.649039 0.482353
150.669540 68.764977 4.281072 0.385367
150.533295 68.683853 3.950585 0.643977
150.533310 68.683861 3.590173 0.554742
150.533310 68.683853 3.233246 0.549615
150.533295 68.683853 2.878997 0.576745
150.533310 68.683853 2.526644 0.537285
150.533310 68.683853 2.175422 0.517647
150.533310 68.683853 1.824577 0.567514
150.533295 68.683853 1.473356 0.737453
150.533295 68.683853 1.121003 0.505058
150.533295 68.683853 0.766753 0.549020
150.533295 68.683853 0.409825 0.549203
150.533295 68.683853 0.049414 0.549020
151.787750 69.430779 0.000009 0.731151
152.883850 70.083420 0.000008 0.730556
150.417282 68.702614 4.707874 0.678431
150.511444 68.757797 4.311257 0.443320
150.385269 68.683853 3.973776 0.570626
150.385284 68.683861 3.609079 0.590433
150.385269 68.683853 3.247909 0.533928
150.385269 68.683853 2.889447 0.702708
150.385284 68.683853 2.532905 0.575891
150.385284 68.683853 2.177508 0.482353
150.385284 68.683853 1.822492 0.564828
150.385269 68.683853 1.467095 0.753063
150.385284 68.683853 1.110553 0.766140
150.385269 68.683853 0.752091 0.575494
150.385269 68.683853 0.390919 0.521706
150.385269 68.683853 0.026223 0.549020
151.754868 69.486443 0.000009 0.750179
152.855499 70.131416 0.000007 0.722301
150.266205 68.702614 4.740591 0.678431
150.361908 68.757797 4.339181 0.486686
150.233688 68.683853 3.997623 0.761669
150.233688 68.683861 3.628520 0.807263
150.233688 68.683853 3.262986 0.777173
150.233673 68.683853 2.900194 0.483116
150.233688 68.683853 2.539344 0.771679
150.233688 68.683853 2.179653 0.549020
150.233688 68.683853 1.820347 0.655482
150.233688 68.683853 1.460656 0.549020
150.233673 68.683853 1.099806 0.705455
150.233673 68.683853 0.737014 0.778836
150.233673 68.683853 0.371478 0.762829
150.233673 68.683853 0.002376 0.660929
151.722382 69.542336 0.000009 0.723125
152.827484 70.179604 0.000007 0.739300
150.111420 68.702614 4.774245 0.678431
150.111420 68.702614 4.392058 0.678431
150.078369 68.683853 4.022154 0.704417
150.078369 68.683861 3.648518 0.554284
150.078369 68.683853 3.278495 0.606577
150.078369 68.683853 2.911248 0.549020
150.078369 68.683853 2.545967 0.618479
150.078369 68.683853 2.181859 0.517647
150.078369 68.683853 1.818141 0.517647
150.078369 68.683853 1.454033 0.549020
150.078369 68.683853 1.088752 0.512551
150.078369 68.683853 0.721505 0.549020
150.078369 68.683853 0.351481 0.616678
150.184326 68.743973 0.000012 0.724666
151.690277 69.598450 0.000010 0.723476
152.799805 70.227989 0.000008 0.747112
149.952789 68.702606 4.808874 0.678431
149.952789 68.702606 4.421917 0.678431
149.919189 68.683853 4.047394 0.725505
149.919205 68.683861 3.669094 0.618753
149.919189 68.683853 3.294453 0.494789
149.919189 68.683853 2.922622 0.530205
149.919189 68.683853 2.552782 0.685084
149.919189 68.683853 2.184129 0.517647
149.919189 68.683853 1.815871 0.557595
149.919189 68.683853 1.447218 0.566415
149.919189 68.683853 1.077378 0.560510
149.919189 68.683853 0.705547 0.556863
149.919189 68.683853 0.330904 0.689525
150.146683 68.810844 0.000012 0.730541
151.658585 69.654785 0.000009 0.737087
152.772476 70.276566 0.000008 0.715694
149.840714 68.730377 4.830066 0.517647
149.840714 68.730377 4.440189 0.537255
149.755981 68.683853 4.073377 0.573938
149.755981 68.683861 3.690276 0.606241
149.755981 68.683853 3.310880 0.685664
149.755981 68.683853 2.934331 0.761975
149.755981 68.683853 2.559796 0.729534
149.755981 68.683853 2.186466 0.637263
149.755981 68.683853 1.813534 0.520592
149.755981 68.683853 1.440204 0.720562
149.755981 68.683853 1.065670 0.569070
149.755981 68.683853 0.689120 0.846189
149.755981 68.683853 0.309723 0.683330
150.109512 68.877975 0.000011 0.739986
151.627258 69.711342 0.000009 0.714305
152.745483 70.325333 0.000008 0.730220
149.623306 68.702621 4.881217 0.678431
149.623306 68.702621 4.484295 0.678431
149.588562 68.683853 4.100130 0.673381
149.588577 68.683861 3.712086 0.561212
149.588562 68.683853 3.327795 0.516747
149.588562 68.683853 2.946387 0.577173
149.588562 68.683853 2.567020 0.581064
149.588562 68.683853 2.188872 0.527077
149.588562 68.683853 1.811128 0.564111
149.588562 68.683853 1.432980 0.517647
149.588562 68.683853 1.053614 0.782345
149.588562 68.683853 0.672205 0.563653
149.588562 68.683853 0.287913 0.518013
150.072815 68.945374 0.000012 0.741161
151.596344 69.768120 0.000009 0.738064
152.718811 70.374290 0.000008 0.720867
149.452087 68.702621 4.919024 0.678431
149.452087 68.702614 4.516894 0.678431
149.416763 68.683853 4.127687 0.624369
149.416763 68.683861 3.734551 0.680400
149.416763 68.683853 3.345218 0.549020
149.416748 68.683853 2.958805 0.682933
149.416748 68.683853 2.574461 0.549020
149.416763 68.683853 2.191350 0.501060
149.416763 68.683853 1.808650 0.779995
149.416763 68.683853 1.425540 0.651789
149.416763 68.683853 1.041195 0.665766
149.416763 68.683853 0.654782 0.774899
149.416763 68.683853 0.265447 0.778912
150.036591 69.013016 0.000012 0.733745
151.565826 69.825111 0.000009 0.730083
152.692505 70.423424 0.000008 0.729793
149.276321 68.702614 4.957984 0.678431
149.276306 68.702614 4.550486 0.678431
149.240387 68.683861 4.156082 0.673289
149.240387 68.683861 3.757701 0.556374
149.240387 68.683853 3.363172 0.669230
149.240372 68.683853 2.971601 0.543221
149.240372 68.683853 2.582128 0.517647
149.240387 68.683861 2.193903 0.702663
149.240387 68.683861 1.806096 0.524025
149.240387 68.683853 1.417873 0.791302
149.240387 68.683861 1.028399 0.500343
149.240387 68.683861 0.636829 0.661906
149.240387 68.683853 0.242298 0.560906
150.000839 69.080910 0.000012 0.720058
151.535706 69.882309 0.000010 0.735164
152.666534 70.472748 0.000008 0.754589
149.095764 68.702614 4.998147 0.678431
149.095764 68.702614 4.585115 0.678431
149.059235 68.683861 4.185355 0.553155
149.059235 68.683861 3.781566 0.729778
149.059219 68.683853 3.381679 0.548592
149.059219 68.683853 2.984793 0.728832
149.059204 68.683846 2.590031 0.574014
149.059219 68.683853 2.196536 0.828092
149.059219 68.683853 1.803464 0.513481
149.059219 68.683853 1.409969 0.802609
149.059219 68.683853 1.015208 0.562524
149.059219 68.683853 0.618321 0.551247
149.059219 68.683853 0.218433 0.792248
149.965561 69.149055 0.000012 0.722942
151.505981 69.939720 0.000010 0.726329
152.640900 70.522247 0.000008 0.726864
148.955490 68.725441 5.026869 0.518181
148.955490 68.725441 4.609880 0.495674
148.873077 68.683861 4.215543 0.703258
148.873077 68.683861 3.806176 0.702495
148.873062 68.683853 3.400766 0.789761
148.873062 68.683853 2.998397 0.657023
148.873047 68.683846 2.598182 0.523751
148.950623 68.722977 2.197830 0.129397
148.950623 68.722977 1.802170 0.127367
148.950623 68.722977 1.406086 0.199344
148.950623 68.722977 1.008726 0.118944
148.950623 68.722984 0.609227 0.069200
148.950623 68.722977 0.206708 0.041352
149.930756 69.217453 0.000012 0.729335
151.476669 69.997337 0.000010 0.737499
152.615631 70.571930 0.000008 0.735561
148.681702 68.683861 5.092865 0.518273
148.681702 68.683861 4.666786 0.561059
148.681702 68.683861 4.246687 0.547387
148.681702 68.683861 3.831566 0.725841
148.681686 68.683853 3.420457 0.687587
148.681671 68.683853 3.012432 0.610636
148.681671 68.683846 2.606591 0.692943
148.654846 68.670547 2.202542 0.319509
148.619843 68.653198 1.796818 0.654566
148.619843 68.653198 1.390019 0.653681
148.619843 68.653191 0.981908 0.648524
148.619843 68.653198 0.571602 0.653117
148.619843 68.653198 0.158192 0.508415
149.896439 69.286079 0.000012 0.741604
151.447754 70.055161 0.000010 0.710033
152.590698 70.621780 0.000008 0.730297
148.477295 68.680183 5.139224 0.522698
148.477295 68.680183 4.706758 0.477104
148.484863 68.683868 4.278832 0.599420
148.484848 68.683861 3.857772 0.552972
148.484833 68.683853 3.440781 0.533227
148.484833 68.683853 3.026918 0.607141
148.484818 68.683846 2.615270 0.751553
148.457428 68.670502 2.205442 0.336233
148.421875 68.653183 1.793911 0.678431
148.421875 68.653191 1.381290 0.678431
148.421875 68.653191 0.967340 0.678431
148.421875 68.653191 0.551162 0.678431
148.518951 68.700470 0.147854 0.258946
149.862595 69.354950 0.000013 0.731365
151.419235 70.113182 0.000010 0.728069
152.566101 70.671814 0.000008 0.742458
148.436783 68.757790 5.139911 0.496666
148.436783 68.757790 4.707349 0.500450
148.435791 68.757309 4.281063 0.395224
148.282272 68.683861 3.884833 0.786954
148.282257 68.683853 3.461768 0.644266
148.282257 68.683853 3.041876 0.722576
148.282257 68.683846 2.624232 0.724071
148.254242 68.670448 2.208437 0.318685
148.263000 68.674637 1.791722 0.344503
148.263000 68.674637 1.374719 0.192157
148.263000 68.674637 0.956373 0.062745
148.263000 68.674637 0.535775 0.036255
148.364029 68.722977 0.128610 0.102174
149.829239 69.424057 0.000012 0.731762
151.391129 70.171402 0.000010 0.741344
152.541870 70.722008 0.000008 0.722911
148.113632 68.702621 5.218970 0.678431
148.113632 68.702621 4.775517 0.678431
148.231033 68.757790 4.314690 0.475013
148.073715 68.683861 3.912788 0.515740
148.073700 68.683853 3.483448 0.572595
148.073685 68.683853 3.057329 0.549599
148.073685 68.683846 2.633490 0.567468
148.026535 68.661697 2.211865 0.241428
148.038528 68.667328 1.788352 0.264118
148.038513 68.667320 1.364601 0.179141
148.038742 68.667435 0.939505 0.120562
148.039032 68.667564 0.512146 0.577020
148.156952 68.722977 0.100855 0.071916
149.796356 69.493385 0.000012 0.736599
151.363434 70.229813 0.000010 0.738277
152.517990 70.772377 0.000008 0.733715
147.899506 68.702621 5.267594 0.678431
147.899506 68.702621 4.817443 0.678431
147.899506 68.702621 4.373611 0.678431
147.858856 68.683861 3.941680 0.706600
147.858841 68.683853 3.505856 0.594400
147.858826 68.683853 3.073299 0.545419
147.858826 68.683846 2.643059 0.519051
147.943619 68.722977 2.212672 0.401404
147.943619 68.722977 1.787328 0.297383
147.943619 68.722977 1.361529 0.103014
147.943619 68.722977 0.934357 0.046967
147.943619 68.722977 0.504887 0.074556
147.943619 68.722977 0.072169 0.064103
149.763962 69.562950 0.000012 0.729488
151.336136 70.288414 0.000010 0.745541
152.494461 70.822906 0.000009 0.739223
147.678802 68.702621 5.317874 0.678431
147.678802 68.702621 4.860796 0.678431
147.678802 68.702621 4.410136 0.678431
147.637390 68.683861 3.971557 0.526528
147.637375 68.683853 3.529026 0.522515
147.637360 68.683853 3.089814 0.743038
147.637360 68.683846 2.652954 0.602274
147.723740 68.722977 2.215944 0.284672
147.638184 68.684219 1.782519 0.678431
147.638184 68.684219 1.347090 0.678431
147.638184 68.684219 0.910259 0.678431
147.638184 68.684219 0.471076 0.678431
147.723755 68.722984 0.042507 0.068132
149.732056 69.632736 0.000013 0.734264
151.309265 70.347206 0.000010 0.729229
152.471283 70.873604 0.000008 0.718868
147.575272 68.757797 5.335872 0.604013
147.575272 68.757797 4.876314 0.577264
147.575272 68.757797 4.423210 0.486046
147.408997 68.683861 4.002466 0.672007
147.408981 68.683853 3.552997 0.505623
147.408966 68.683853 3.106900 0.616190
147.408966 68.683846 2.663191 0.726955
147.496979 68.722977 2.219329 0.178653
147.409805 68.684219 1.779110 0.678431
147.409805 68.684219 1.336855 0.678431
147.409805 68.684227 0.893175 0.678431
147.409805 68.684219 0.447107 0.678431
147.496994 68.722984 0.011819 0.088945
149.700638 69.702744 0.000013 0.735927
151.282791 70.406189 0.000010 0.718242
152.448456 70.924454 0.000008 0.733379
147.216278 68.702606 5.423739 0.678431
147.216278 68.702606 4.952078 0.678431
147.216278 68.702606 4.487037 0.678431
147.173309 68.683861 4.034461 0.620798
147.173294 68.683853 3.577811 0.632609
147.173279 68.683853 3.124586 0.674891
147.173279 68.683846 2.673787 0.746197
147.262970 68.722984 2.222834 0.173632
147.174164 68.684235 1.775581 0.678431
147.174164 68.684235 1.326260 0.678431
147.174164 68.684235 0.875492 0.678431
147.174164 68.684235 0.422298 0.678431
147.386337 68.776802 0.000016 0.734188
149.669708 69.772972 0.000013 0.731243
151.256729 70.465355 0.000010 0.736782
152.425995 70.975464 0.000008 0.737057
146.973755 68.702606 5.479506 0.678431
146.973755 68.702606 5.000161 0.678431
146.973755 68.702606 4.527547 0.678431
146.929962 68.683861 4.067596 0.542702
146.929947 68.683853 3.603509 0.535073
146.929932 68.683853 3.142902 0.595178
146.929932 68.683846 2.684762 0.545327
147.021378 68.722984 2.226463 0.251850
146.953354 68.693878 1.772326 0.298711
146.953522 68.693947 1.316500 0.290196
146.952972 68.693710 0.859152 0.282032
146.953873 68.694092 0.399484 0.434836
147.348999 68.863205 0.000016 0.737896
149.639267 69.843414 0.000013 0.736370
151.231094 70.524696 0.000010 0.727520
152.403885 71.026634 0.000008 0.708934
146.730911 68.705841 5.535197 0.477104
146.730911 68.705841 5.048181 0.463127
146.730911 68.705841 4.568002 0.409262
146.678543 68.683861 4.101933 0.657160
146.678528 68.683853 3.630139 0.671275
146.678513 68.683853 3.161883 0.647181
146.678497 68.683846 2.696134 0.560922
146.678497 68.683846 2.231879 0.590387
146.678497 68.683846 1.768121 0.628061
146.678497 68.683846 1.303866 0.607279
146.678497 68.683846 0.838115 0.644007
146.678497 68.683846 0.369857 0.640864
147.312271 68.949867 0.000016 0.741985
149.609314 69.914063 0.000013 0.736461
151.205856 70.584221 0.000010 0.735164
152.382126 71.077957 0.000009 0.729976
146.418640 68.683868 5.609537 0.617807
146.418640 68.683868 5.112281 0.662333
146.418625 68.683868 4.622005 0.646464
146.418610 68.683861 4.137538 0.642908
146.418594 68.683853 3.657752 0.526238
146.418579 68.683853 3.181564 0.599786
146.418579 68.683846 2.707925 0.529473
146.418564 68.683846 2.235806 0.619745
146.418564 68.683846 1.764193 0.529183
146.418564 68.683846 1.292074 0.621790
146.418579 68.683846 0.818434 0.519509
146.418564 68.683846 0.342245 0.631342
147.276138 69.036789 0.000016 0.740017
149.579865 69.984924 0.000013 0.733440
151.181046 70.643913 0.000010 0.733806
152.360733 71.129433 0.000008 0.719020
146.149734 68.683868 5.671916 0.577951
146.149734 68.683868 5.166064 0.709987
146.149734 68.683868 4.667316 0.567819
146.149719 68.683861 4.174476 0.616922
146.149704 68.683853 3.686398 0.703502
146.149689 68.683853 3.201982 0.640314
146.149689 68.683846 2.720159 0.684504
146.149673 68.683846 2.239881 0.556573
146.149673 68.683846 1.760118 0.573404
146.149673 68.683846 1.279841 0.561135
146.149673 68.683846 0.798016 0.567773
146.149689 68.683846 0.313599 0.686107
147.240616 69.123962 0.000016 0.724346
149.550919 70.055984 0.000013 0.735210
151.156662 70.703781 0.000010 0.729961
152.339691 71.181053 0.000009 0.726497
145.871353 68.683861 5.736674 0.683131
145.871353 68.683861 5.221901 0.731197
145.871353 68.683861 4.714356 0.539223
145.871353 68.683861 4.212823 0.685252
145.871338 68.683853 3.716137 0.699672
145.871323 68.683853 3.223179 0.518120
145.871323 68.683846 2.732858 0.669963
145.871307 68.683846 2.244112 0.617563
145.871307 68.683846 1.755888 0.549020
145.871323 68.683846 1.267141 0.700572
145.871307 68.683846 0.776820 0.692332
145.871323 68.683846 0.283859 0.642359
147.205719 69.211372 0.000016 0.734234
149.522446 70.127251 0.000013 0.735500
151.132675 70.763817 0.000010 0.728054
152.319031 71.232819 0.000009 0.735027
145.582962 68.683853 5.803945 0.545037
145.582962 68.683853 5.279905 0.691539
145.582962 68.683853 4.763223 0.602518
145.582962 68.683853 4.252660 0.630198
145.582962 68.683853 3.747031 0.616968
145.582947 68.683846 3.245199 0.660868
145.582947 68.683846 2.746051 0.676371
145.582947 68.683846 2.248506 0.619623
145.582947 68.683846 1.751494 0.528527
145.582947 68.683846 1.253948 0.660105
145.582947 68.683846 0.754800 0.669703
145.582947 68.683846 0.252965 0.647974
147.171417 69.299026 0.000017 0.738231
149.494492 70.198708 0.000013 0.729778
151.109116 70.824020 0.000010 0.737453
152.298706 71.284729 0.000009 0.732982
145.283981 68.683846 5.873878 0.609796
145.283981 68.683846 5.340204 0.632792
145.283981 68.683846 4.814022 0.703288
145.283981 68.683846 4.294073 0.532235
145.283981 68.683846 3.779150 0.539681
145.283981 68.683846 3.268089 0.548943
145.283981 68.683846 2.759766 0.527199
145.283981 68.683846 2.253075 0.618219
145.283981 68.683846 1.746926 0.556390
145.283981 68.683846 1.240234 0.496559
145.283981 68.683846 0.731910 0.610910
145.283981 68.683846 0.220850 0.682414
147.137726 69.386925 0.000017 0.718196
149.467026 70.270363 0.000013 0.735775
151.085983 70.884392 0.000010 0.740444
152.278763 71.336777 0.000009 0.735409
145.284897 68.799362 5.863496 0.654902
142.327103 67.701103 6.012692 0.450980
142.327103 67.701103 5.380574 0.637568
142.327103 67.701103 4.755943 0.748867
142.327087 67.701103 4.137349 0.549020
142.327087 67.701103 3.523396 0.725811
144.973816 68.683853 2.774032 0.624796
144.973816 68.683853 2.257826 0.656611
144.973816 68.683853 1.742174 0.661891
144.973816 68.683853 1.225968 0.647761
144.973816 68.683853 0.708100 0.584070
144.973816 68.683853 0.187444 0.614267
147.104645 69.475044 0.000016 0.719768
149.440063 70.342209 0.000013 0.735805
151.063263 70.944916 0.000010 0.733806
152.259186 71.388962 0.000009 0.745678
145.281265 68.912605 5.854569 0.644251
142.327103 67.839111 6.002415 0.517647
142.327103 67.839111 5.371916 0.567178
142.327103 67.839104 4.748884 0.711070
142.327087 67.839104 4.131874 0.550637
142.327087 67.839104 3.519495 0.740093
144.651749 68.683846 2.788884 0.644038
144.651764 68.683853 2.262774 0.752972
144.651764 68.683853 1.737227 0.703273
144.651764 68.683853 1.211117 0.697459
144.651764 68.683853 0.683312 0.770108
144.651764 68.683853 0.152667 0.685069
147.072205 69.563400 0.000017 0.741466
149.413605 70.414238 0.000013 0.722179
151.040985 71.005600 0.000010 0.738003
152.239960 71.441284 0.000009 0.717769
145.277618 69.025330 5.845878 0.635294
142.327103 67.976410 5.992384 0.540398
142.327103 67.976410 5.363465 0.523659
142.327087 67.976410 4.741996 0.728695
142.327103 67.976410 4.126532 0.639399
142.327103 67.976410 3.515686 0.770489
144.317047 68.683846 2.804357 0.556374
144.317062 68.683846 2.267927 0.644038
144.317078 68.683853 1.732073 0.745220
144.317093 68.683861 1.195645 0.579232
144.317093 68.683861 0.657489 0.584527
144.317093 68.683861 0.116436 0.698116
147.040359 69.651985 0.000016 0.723934
149.387650 70.486450 0.000013 0.731243
151.019104 71.066437 0.000010 0.712963
152.221100 71.493744 0.000008 0.737362
145.273972 69.137543 5.837417 0.634897
142.327103 68.113037 5.982596 0.725841
142.327103 68.113037 5.355219 0.580392
142.327103 68.113037 4.735273 0.549020
142.327087 68.113037 4.121318 0.634073
142.327087 68.113037 3.511971 0.724102
143.968964 68.683846 2.820489 0.550713
143.968964 68.683846 2.273301 0.560906
143.968994 68.683853 1.726699 0.668055
143.969009 68.683853 1.179512 0.613779
143.969025 68.683861 0.630563 0.636576
143.969009 68.683861 0.078659 0.568566
147.009140 69.740784 0.000017 0.730144
149.362198 70.558838 0.000013 0.722484
150.997665 71.127426 0.000011 0.732769
152.202621 71.546326 0.000009 0.718654
145.270325 69.249260 5.829185 0.654902
142.327103 68.249001 5.973051 0.739086
142.327103 68.249001 5.347178 0.672877
142.327103 68.249001 4.728717 0.517647
142.327087 68.249001 4.116234 0.680110
142.327087 68.249001 3.508347 0.648096
143.606613 68.683846 2.837323 0.687587
143.606613 68.683846 2.278909 0.595666
143.632095 68.692505 1.721532 0.169787
143.632095 68.692505 1.163998 0.189059
143.632095 68.692505 0.604668 0.184268
143.632095 68.692505 0.042327 0.159243
146.978546 69.829796 0.000017 0.731289
149.337250 70.631409 0.000013 0.727520
150.976654 71.188560 0.000011 0.740826
152.184494 71.599045 0.000009 0.724727
145.266815 69.360542 5.821141 0.654902
142.327103 68.384323 5.963743 0.726589
142.327103 68.384323 5.339335 0.670817
142.327087 68.384323 4.722325 0.561532
142.327087 68.384315 4.111277 0.676295
142.327103 68.384323 3.504812 0.698085
143.229065 68.683846 2.854906 0.583398
143.229034 68.683838 2.284766 0.583200
143.278305 68.700195 1.716084 0.470603
143.278305 68.700203 1.147643 0.368032
143.278305 68.700195 0.577370 0.169619
143.377029 68.732986 0.015995 0.129168
146.948563 69.919022 0.000017 0.734386
149.312820 70.704147 0.000013 0.736263
150.956070 71.249840 0.000010 0.724086
152.166748 71.651886 0.000009 0.731960
145.263199 69.471329 5.813348 0.654902
142.327103 68.519012 5.954670 0.618021
142.327103 68.519012 5.331694 0.672831
142.327103 68.519012 4.716094 0.542885
142.327087 68.519012 4.106444 0.723308
142.327087 68.519012 3.501369 0.732448
142.835312 68.683853 2.873286 0.541802
142.835266 68.683838 2.290888 0.625925
142.885712 68.700195 1.709980 0.486748
142.986771 68.732979 1.134537 0.285359
142.885712 68.700195 0.546784 0.151461
143.207413 68.804543 0.000022 0.730816
146.919220 70.008453 0.000017 0.741268
149.288879 70.777054 0.000013 0.725948
150.935913 71.311264 0.000011 0.717723
152.149353 71.704842 0.000009 0.729915
145.259567 69.581665 5.805779 0.628351
142.327087 68.653099 5.945833 0.634882
142.327087 68.653099 5.324247 0.634791
142.327103 68.653099 4.710023 0.644312
142.327087 68.653099 4.101737 0.539406
142.327087 68.653099 3.498013 0.614862
142.424225 68.683853 2.892518 0.691798
142.424179 68.683838 2.297294 0.689448
142.565796 68.728683 1.705137 0.278874
142.579361 68.732979 1.115476 0.247852
142.565796 68.728683 0.522517 0.146975
