# This PCD file was generated using the MATLABÂ® pcwrite function
# from Computer Vision ToolboxÂ®.
# .PCD v.7 - Point Cloud Data file format
VERSION .7
FIELDS x y z intensity
SIZE 4 4 4 4
TYPE F F F F
COUNT 1 1 1 1
WIDTH 1247
HEIGHT 1
VIEWPOINT 0 0 0 1 0 0 0
POINTS 1247
DATA ascii
nan nan nan 0.000000
nan nan nan 0.000000
nan nan nan 0.000000
nan nan nan 0.000000
122.769943 7.996333 -0.000014 0.733074
139.034164 6.653852 -0.000005 0.735241
146.016968 6.077477 0.000003 0.338689
149.905975 5.756471 0.000002 0.337819
152.388779 5.551536 0.000002 0.339208
154.114410 5.409098 0.000001 0.332296
155.385788 5.304156 0.000001 0.341573
nan nan nan 0.000000
nan nan nan 0.000000
nan nan nan 0.000000
nan nan nan 0.000000
nan nan nan 0.000000
nan nan nan 0.000000
nan nan nan 0.000000
nan nan nan 0.000000
nan nan nan 0.000000
122.794312 8.279503 -0.000014 0.732158
139.048752 6.823512 -0.000005 0.727550
146.027374 6.198401 0.000003 0.335866
149.914047 5.850252 0.000002 0.345281
152.395355 5.627989 0.000002 0.337987
154.119965 5.473508 0.000001 0.329183
155.390564 5.359693 0.000001 0.345647
nan nan nan 0.000000
nan nan nan 0.000000
nan nan nan 0.000000
nan nan nan 0.000000
106.065239 10.181355 8.619979 0.586069
106.064941 10.181382 6.718415 0.611048
106.065414 10.181337 4.826977 0.596307
106.065407 10.181337 2.941652 0.610666
106.065407 10.181337 1.058346 0.604150
122.820633 8.562499 -0.000014 0.732982
139.064545 6.993064 -0.000005 0.735988
146.125305 6.310874 0.010021 1.000000
149.922775 5.943975 0.000002 0.340307
152.402466 5.704394 0.000002 0.338796
154.125946 5.537877 0.000002 0.334646
155.395737 5.415195 0.000001 0.344411
nan nan nan 0.000000
nan nan nan 0.000000
nan nan nan 0.000000
nan nan nan 0.000000
109.960831 10.181391 8.174054 0.576959
109.960831 10.181392 6.400559 0.622400
109.961037 10.181370 4.636549 0.575250
109.960983 10.181376 2.878222 0.611124
109.960983 10.181376 1.121777 0.615045
122.848961 8.845303 -0.000015 0.732815
139.081497 7.162503 -0.000005 0.730694
146.137344 6.431036 0.010021 1.000000
149.932159 6.037635 0.000002 0.337240
152.410110 5.780748 0.000002 0.334920
154.132385 5.602203 0.000001 0.341115
155.401291 5.470659 0.000001 0.347539
nan nan nan 0.000000
nan nan nan 0.000000
nan nan nan 0.000000
113.365097 10.181402 9.458857 0.566979
111.238052 10.416929 8.030848 0.682719
111.238045 10.416929 6.298489 0.678431
113.365692 10.181335 4.470242 0.618128
113.365692 10.181335 2.822826 0.554788
113.365692 10.181335 1.177174 0.575051
122.879250 9.127901 -0.000015 0.733074
139.099655 7.331819 -0.000005 0.731289
146.063660 6.560695 0.000003 0.337194
149.942184 6.131227 0.000002 0.337270
152.418289 5.857048 0.000002 0.333547
154.139282 5.666483 0.000001 0.337346
155.407227 5.526083 0.000001 0.341634
nan nan nan 0.000000
nan nan nan 0.000000
nan nan nan 0.000000
116.366455 10.181299 9.016522 0.597894
115.828026 10.244728 7.503975 0.628702
115.828026 10.244728 5.922959 0.668986
116.366463 10.181299 4.323774 0.569497
116.366577 10.181286 2.774036 0.650355
115.215347 10.316903 1.206994 0.640818
122.911514 9.410277 -0.000015 0.732250
139.118988 7.501001 -0.000005 0.732464
146.077408 6.681283 -0.000001 0.731289
149.952866 6.224745 0.000002 0.333989
152.427002 5.933286 0.000002 0.340795
154.146622 5.730712 0.000001 0.337453
155.413559 5.581464 0.000001 0.335500
nan nan nan 0.000000
nan nan nan 0.000000
nan nan nan 0.000000
119.030792 10.181351 8.624180 0.568399
119.030807 10.181349 7.137325 0.581308
119.030800 10.181351 5.661631 0.665370
119.030792 10.181351 4.193838 0.560388
119.031265 10.181292 2.730749 0.565103
117.853027 10.328438 1.249820 0.678431
122.945747 9.692428 -0.000015 0.732982
139.139496 7.670048 -0.000005 0.733196
146.092026 6.801772 -0.000001 0.733349
150.031189 6.309823 0.010016 1.000000
152.436249 6.009464 0.000002 0.340169
154.154404 5.794889 0.000001 0.336660
155.420273 5.636800 0.000001 0.333486
nan nan nan 0.000000
nan nan nan 0.000000
nan nan nan 0.000000
121.413635 10.181322 8.273596 0.611917
120.035927 10.363156 7.025303 0.647059
120.035919 10.363156 5.581786 0.647059
120.160423 10.346724 4.139829 0.598733
121.413818 10.181297 2.692080 0.642969
119.680725 10.410036 1.279315 0.656367
122.981949 9.974333 -0.000015 0.732479
139.161194 7.838947 -0.000005 0.735012
146.107483 6.922154 -0.000001 0.725185
150.043121 6.402717 0.010016 1.000000
152.446030 6.085575 0.000002 0.341756
154.162643 5.859011 0.000002 0.342519
155.427368 5.692088 0.000001 0.338460
nan nan nan 0.000000
nan nan nan 0.000000
123.556656 10.181343 9.309095 0.589715
123.556656 10.181343 7.958589 0.623728
123.556656 10.181343 6.621134 0.545968
123.556656 10.181343 5.293715 0.592355
123.556656 10.181342 3.973403 0.595453
123.556656 10.181343 2.657331 0.541161
123.556656 10.181343 1.342669 0.591043
123.556656 10.181342 0.026597 0.551339
139.184052 8.007689 -0.000006 0.732662
146.123779 7.042425 -0.000001 0.733364
149.988846 6.504824 0.000003 0.335897
152.456329 6.161615 0.000002 0.329870
154.171326 5.923072 0.000001 0.333379
155.434860 5.747324 0.000002 0.335027
nan nan nan 0.000000
nan nan nan 0.000000
125.494843 10.181364 8.959961 0.574517
125.494858 10.181362 7.673963 0.607095
125.494843 10.181364 6.400395 0.572137
125.494858 10.181364 5.136382 0.622843
125.494850 10.181363 3.879138 0.570993
125.494858 10.181363 2.625932 0.586923
125.494858 10.181363 1.374068 0.566995
125.494858 10.181362 0.120861 0.587335
139.208099 8.176270 -0.000006 0.729320
146.140930 7.162580 -0.000001 0.731533
150.002136 6.598009 0.000003 0.337789
152.467163 6.237582 0.000002 0.339788
154.180450 5.987072 0.000001 0.319417
155.442734 5.802507 0.000001 0.331197
nan nan nan 0.000000
nan nan nan 0.000000
127.256607 10.181355 8.642933 0.588098
125.720306 10.416953 7.646066 0.724575
125.720291 10.416955 6.378760 0.670893
127.256866 10.181316 4.993498 0.578637
127.256866 10.181316 3.793530 0.536248
127.256882 10.181314 2.597416 0.566537
127.256882 10.181314 1.402584 0.573678
127.256866 10.181315 0.206469 0.597421
139.233322 8.344679 -0.000006 0.731762
146.158905 7.282614 -0.000002 0.731716
150.016068 6.691102 0.000001 0.741421
152.532913 6.305133 0.010013 1.000000
154.190033 6.051007 0.000002 0.329046
155.450989 5.857635 0.000002 0.331945
nan nan nan 0.000000
nan nan nan 0.000000
128.864899 10.181347 8.353832 0.591821
128.864899 10.181346 7.179829 0.537575
127.584213 10.386906 6.166390 0.653651
128.864807 10.181360 4.863249 0.635416
127.653557 10.375774 3.775759 0.641321
128.864807 10.181362 2.571423 0.583719
127.653549 10.375775 1.408503 0.647059
128.864807 10.181362 0.284506 0.615793
139.259720 8.512903 -0.000006 0.731594
146.177719 7.402515 -0.000002 0.736568
150.030670 6.784090 0.000001 0.734127
152.544754 6.380560 0.010013 1.000000
154.200058 6.114872 0.000002 0.326421
155.459625 5.912702 0.000001 0.329488
nan nan nan 0.000000
130.339142 10.181339 9.227697 0.565423
129.408203 10.337437 8.260876 0.554955
130.339142 10.181339 6.964029 0.574823
129.453979 10.329763 5.953065 0.642008
130.339142 10.181341 4.743955 0.576883
130.339142 10.181341 3.644019 0.572671
130.339142 10.181339 2.547615 0.643488
130.339142 10.181339 1.452385 0.640085
130.339142 10.181341 0.355981 0.539147
139.287292 8.680945 -0.000006 0.733074
146.197372 7.522287 -0.000002 0.729900
150.045898 6.876978 0.000001 0.735851
152.557114 6.455906 0.010013 1.000000
154.210526 6.178668 0.000002 0.332540
155.468658 5.967709 0.000002 0.336309
nan nan nan 0.000000
131.695511 10.181334 8.938952 0.577691
130.347992 10.416965 8.094772 0.678431
131.695511 10.181334 6.765719 0.509300
130.347992 10.416965 5.853385 0.678431
131.695587 10.181318 4.634326 0.583444
131.056412 10.293087 3.610213 0.524437
131.695602 10.181318 2.525735 0.575936
131.056412 10.293089 1.463645 0.454154
131.695618 10.181316 0.421664 0.457115
139.316040 8.848787 -0.000006 0.733867
146.217850 7.641917 -0.000002 0.732280
150.061798 6.969756 0.000000 0.734340
152.515808 6.540639 0.000002 0.335348
154.221436 6.242388 0.000002 0.340261
155.478073 6.022651 0.000002 0.330480
nan nan nan 0.000000
132.947693 10.181331 8.672712 0.586343
131.653580 10.416945 7.860906 0.678431
132.547760 10.254144 6.643161 0.596185
131.653580 10.416945 5.705524 0.678431
132.947693 10.181331 4.533257 0.589700
131.653595 10.416942 3.582401 0.678431
132.947723 10.181325 2.505565 0.592050
131.653595 10.416942 1.472910 0.678431
132.947723 10.181324 0.482220 0.601938
139.345947 9.016423 -0.000006 0.729885
146.239182 7.761399 -0.000002 0.729824
150.078323 7.062418 0.000001 0.734524
152.529297 6.616180 0.000002 0.337224
154.278381 6.297729 0.010010 1.000000
155.487854 6.077525 0.000001 0.339025
134.107346 10.181339 9.453233 0.610025
134.107346 10.181341 8.426460 0.599741
134.107346 10.181339 7.414101 0.549432
134.107346 10.181341 6.413733 0.679622
134.107346 10.181339 5.423034 0.664347
134.107346 10.181341 4.439769 0.554925
133.007813 10.389469 3.516744 0.652873
133.391144 10.316908 2.498836 0.650584
133.007813 10.389469 1.494780 0.647059
134.107391 10.181330 0.538234 0.695735
139.377029 9.183848 -0.000007 0.734066
146.261337 7.880732 -0.000002 0.732845
150.095520 7.154965 0.000001 0.734951
152.543304 6.691628 0.000002 0.712902
154.290131 6.360972 0.010011 1.000000
155.498032 6.132330 0.000002 0.338613
135.184509 10.181346 9.188297 0.625727
134.898956 10.237469 8.260880 0.677791
135.184525 10.181345 7.221649 0.517021
134.726151 10.271429 6.326135 0.676432
134.726135 10.271430 5.355098 0.699458
135.184525 10.181345 4.353044 0.527138
133.985931 10.416904 3.469817 0.678431
134.494568 10.316942 2.481106 0.647059
133.985931 10.416904 1.510411 0.678431
135.184586 10.181334 0.590195 0.532052
139.409286 9.351054 -0.000007 0.730114
146.284317 7.999906 -0.000002 0.732815
150.113342 7.247391 0.000000 0.729809
152.557831 6.766975 0.000002 0.739910
154.302322 6.424133 0.010010 1.000000
155.508591 6.187064 0.000002 0.344671
136.187775 10.181349 8.941882 0.502968
135.392242 10.343472 8.160904 0.652705
136.187790 10.181347 7.042648 0.631846
135.031860 10.416916 6.285906 0.678431
136.187805 10.181345 5.188184 0.649134
136.187805 10.181345 4.272380 0.545785
135.031769 10.416935 3.419438 0.678431
135.522583 10.316910 2.464611 0.650889
135.031754 10.416935 1.527192 0.678431
136.187836 10.181337 0.638524 0.679973
139.442703 9.518026 -0.000007 0.730846
146.308136 8.118914 -0.000002 0.733211
150.131821 7.339686 0.000000 0.723445
152.572891 6.842217 0.000002 0.734020
154.269531 6.496459 0.000002 0.341650
155.519531 6.241720 0.000002 0.338231
137.124603 10.181350 8.712109 0.684276
136.008545 10.416922 8.033792 0.678431
137.124603 10.181349 6.875740 0.641321
136.008530 10.416924 6.144049 0.678431
137.124619 10.181346 5.082657 0.610636
137.124619 10.181346 4.197165 0.500038
136.008560 10.416918 3.372450 0.678431
136.482376 10.316906 2.449232 0.665766
136.008560 10.416916 1.542843 0.678431
137.124634 10.181341 0.683587 0.526299
139.477295 9.684763 -0.000007 0.731350
146.332794 8.237757 -0.000002 0.733318
150.150925 7.431854 0.000000 0.728801
152.588486 6.917355 0.000002 0.727901
154.282654 6.559760 0.000002 0.332753
155.530853 6.296300 0.000002 0.341054
138.001434 10.181355 8.497367 0.562371
136.922668 10.416930 7.840756 0.678431
138.001434 10.181354 6.719751 0.617060
136.922668 10.416929 6.011469 0.678431
138.001450 10.181350 4.984034 0.504265
137.846527 10.215180 4.139872 0.592844
136.922760 10.416909 3.328539 0.678431
137.380569 10.316935 2.434861 0.654704
136.922760 10.416910 1.557470 0.678431
138.001465 10.181347 0.725703 0.678431
139.513046 9.851255 -0.000007 0.732097
146.358276 8.356424 -0.000003 0.732067
150.170685 7.523886 0.000000 0.736171
152.604584 6.992382 0.000002 0.727077
154.296234 6.622968 0.000002 0.335607
155.581589 6.342277 0.010009 1.000000
138.823929 10.181356 8.296238 0.530816
137.780182 10.416934 7.659955 0.678431
138.451080 10.265512 6.643200 0.543709
137.780182 10.416933 5.887293 0.678431
138.823944 10.181353 4.891662 0.678431
138.823959 10.181353 4.061032 0.668940
138.823944 10.181353 3.234851 0.490089
138.823959 10.181353 2.411323 0.629313
138.823944 10.181353 1.588677 0.624277
138.823959 10.181353 0.765149 0.527016
139.549942 10.017495 -0.000007 0.731853
146.384583 8.474911 -0.000003 0.735561
150.191086 7.615777 0.000000 0.733700
152.621216 7.067293 0.000002 0.725399
154.310242 6.686079 0.000002 0.744778
155.593613 6.396421 0.010009 1.000000
139.000534 10.320382 8.260907 0.678965
139.597092 10.181355 7.266094 0.592203
139.015182 10.316971 6.545249 0.657649
138.593796 10.415173 5.769600 0.705318
139.597092 10.181356 4.804970 0.678431
139.597076 10.181357 3.999243 0.670924
139.597076 10.181358 3.197831 0.657893
139.597076 10.181358 2.398992 0.688014
139.597076 10.181358 1.601008 0.658518
139.597076 10.181357 0.802169 0.632471
139.588028 10.183468 -0.000007 0.730922
146.411713 8.593209 -0.000003 0.730678
150.212143 7.707522 0.000000 0.734035
152.638382 7.142086 0.000002 0.719280
154.324707 6.749089 0.000002 0.725231
155.606018 6.450481 0.010009 1.000000
139.428879 10.396866 8.160910 0.647593
140.325256 10.181356 7.113055 0.662959
139.345306 10.416959 6.490986 0.678431
139.345306 10.416960 5.661184 0.678431
140.325226 10.181362 4.723456 0.697215
140.325226 10.181362 3.941145 0.575418
140.325226 10.181362 3.163021 0.481117
140.325226 10.181364 2.387397 0.630564
140.325226 10.181364 1.612603 0.505104
140.325226 10.181362 0.836978 0.527733
140.325226 10.181363 0.058855 0.678431
146.439682 8.711313 -0.000002 0.723720
150.233826 7.799117 0.000000 0.735042
152.656052 7.216758 0.000002 0.734478
154.339600 6.811999 0.000002 0.733349
155.579941 6.513790 0.000002 0.331670
140.465302 10.316927 7.903959 0.667674
141.012344 10.181358 6.968891 0.651576
140.465302 10.316927 6.288693 0.668864
140.465302 10.316927 5.496268 0.653681
141.012299 10.181367 4.646670 0.560449
141.012299 10.181368 3.886415 0.535409
141.012299 10.181368 3.130230 0.678431
141.012299 10.181368 2.376474 0.570718
141.012299 10.181368 1.623526 0.493339
141.012299 10.181368 0.869770 0.677928
141.012299 10.181368 0.113585 0.425879
146.468460 8.829226 -0.000003 0.730053
150.256149 7.890562 -0.000000 0.733608
152.674255 7.291306 0.000001 0.730907
154.354919 6.874803 0.000002 0.743954
155.593170 6.567943 0.000001 0.333104
140.738831 10.416931 7.843622 0.678431
141.661758 10.181359 6.832866 0.559899
140.738831 10.416930 6.244862 0.678431
140.738831 10.416931 5.460536 0.678431
141.661713 10.181372 4.574217 0.607828
141.661713 10.181374 3.834775 0.680522
141.661713 10.181374 3.099290 0.701839
141.661713 10.181374 2.366168 0.550225
141.661713 10.181374 1.633832 0.537469
141.661713 10.181372 0.900709 0.536339
141.661713 10.181374 0.165225 0.616175
146.498062 8.946930 -0.000003 0.740017
150.279099 7.981846 0.000000 0.736538
152.692978 7.365724 0.000001 0.724041
154.370697 6.937497 0.000002 0.730892
155.606766 6.622000 0.000002 0.345083
141.379852 10.416935 7.688182 0.678431
142.276611 10.181362 6.704313 0.569100
141.379852 10.416933 6.131950 0.678431
142.276566 10.181376 5.230960 0.533730
142.276566 10.181376 4.505744 0.654688
141.980362 10.259184 3.811080 0.638605
141.980362 10.259184 3.085094 0.588052
141.980362 10.259184 2.361440 0.550484
141.980362 10.259184 1.638560 0.678431
141.980362 10.259184 0.914906 0.709804
142.276566 10.181374 0.214031 0.656306
146.528488 9.064426 -0.000003 0.731838
150.302704 8.072970 -0.000001 0.727703
152.712204 7.440010 0.000002 0.728740
154.386902 7.000081 0.000002 0.736355
155.620743 6.675962 0.000001 0.725307
142.859619 10.181362 7.314819 0.585931
142.588943 10.254490 6.643193 0.582467
142.361374 10.315973 5.954646 0.648951
142.859589 10.181373 5.147390 0.630304
142.859573 10.181374 4.440933 0.529198
142.080444 10.391872 3.805952 0.672312
142.080444 10.391872 3.082022 0.647059
142.080444 10.391872 2.360416 0.647059
142.080444 10.391872 1.639584 0.647059
142.080444 10.391872 0.917978 0.647059
142.859604 10.181365 0.260226 0.511391
146.559738 9.181705 -0.000003 0.723751
150.326935 8.163925 -0.000000 0.737224
152.731964 7.514159 0.000001 0.729931
154.403549 7.062550 0.000002 0.735119
155.635086 6.729825 0.000002 0.715648
143.413254 10.181363 7.181066 0.663401
142.924988 10.316942 6.576756 0.653605
142.564957 10.416916 5.923771 0.678431
143.413239 10.181370 5.068181 0.473732
143.413239 10.181370 4.379503 0.615488
142.564789 10.416960 3.768191 0.678431
142.564789 10.416962 3.059398 0.678431
142.564789 10.416962 2.352880 0.678431
142.564789 10.416962 1.647120 0.678431
142.564789 10.416963 0.940602 0.678431
143.413284 10.181355 0.304013 0.635203
146.591797 9.298764 -0.000003 0.725231
150.351807 8.254707 0.000000 0.733913
152.752228 7.588169 0.000001 0.734096
154.420624 7.124900 0.000002 0.716991
155.649811 6.783586 0.000002 0.734188
143.939743 10.181364 7.054119 0.632334
143.119431 10.415322 6.542087 0.660349
143.113815 10.416924 5.827637 0.678431
143.939728 10.181368 4.993003 0.528115
143.939728 10.181368 4.321198 0.676707
143.113708 10.416956 3.724866 0.678431
143.113708 10.416956 3.033440 0.678431
143.113708 10.416956 2.344234 0.678431
143.113708 10.416956 1.655766 0.678431
143.113708 10.416957 0.966560 0.678431
143.939789 10.181349 0.345570 0.485679
146.624680 9.415596 -0.000003 0.735027
150.377304 8.345316 -0.000000 0.729381
152.773026 7.662035 0.000001 0.746365
154.438141 7.187131 0.000001 0.740322
155.664917 6.837244 0.000001 0.732815
144.441086 10.181357 6.933474 0.399130
144.441086 10.181358 6.253828 0.646647
144.441086 10.181358 5.583724 0.587976
144.441086 10.181358 4.921556 0.472709
144.441101 10.181356 4.265788 0.489784
143.636383 10.416952 3.683692 0.678431
143.636398 10.416951 3.008771 0.678431
143.636383 10.416952 2.336017 0.678431
143.636383 10.416953 1.663983 0.678431
143.636383 10.416953 0.991228 0.678431
144.441147 10.181341 0.385063 0.596201
146.658371 9.532198 -0.000003 0.730831
150.403427 8.435745 -0.000001 0.733227
152.794327 7.735755 0.000001 0.733028
154.456085 7.249237 0.000002 0.715938
155.680389 6.890793 0.000002 0.724254
144.919098 10.181345 6.818678 0.646464
144.919098 10.181345 6.154846 0.674311
144.919098 10.181345 5.500335 0.665736
144.919098 10.181345 4.853576 0.669352
144.919098 10.181345 4.213067 0.612650
144.134720 10.416948 3.644518 0.678431
144.134720 10.416948 2.985300 0.678431
144.134720 10.416949 2.328199 0.678431
144.134720 10.416949 1.671801 0.678431
144.134720 10.416949 1.014700 0.678431
144.919144 10.181334 0.422639 0.472709
146.692886 9.648558 -0.000003 0.735424
150.430191 8.525987 -0.000001 0.736355
152.816147 7.809323 0.000001 0.728389
154.474472 7.311216 0.000002 0.715648
155.696243 6.944235 0.000001 0.718776
145.375412 10.181334 6.709325 0.693095
145.375412 10.181332 6.060557 0.643763
145.375412 10.181333 5.420899 0.661860
145.375412 10.181333 4.788817 0.680278
145.375412 10.181333 4.162844 0.683711
144.610428 10.416945 3.607200 0.678431
144.610428 10.416945 2.962941 0.678431
144.610428 10.416945 2.320751 0.678431
144.610428 10.416945 1.679249 0.678431
144.610428 10.416946 1.037058 0.678431
145.375427 10.181328 0.458433 0.671656
146.728210 9.764679 -0.000003 0.733791
150.457581 8.616043 -0.000001 0.737377
152.838470 7.882739 0.000001 0.741817
154.493286 7.373067 0.000002 0.720012
155.712463 6.997565 0.000001 0.738781
145.811462 10.181325 6.605050 0.378378
145.811462 10.181325 5.970649 0.602548
145.811462 10.181325 5.345154 0.661677
145.811462 10.181324 4.727067 0.688426
145.811462 10.181326 4.114955 0.457786
145.811462 10.181326 3.507434 0.608423
145.811462 10.181324 2.903167 0.533272
145.811462 10.181324 2.300841 0.671550
145.811462 10.181324 1.699159 0.575036
145.811462 10.181324 1.096833 0.650584
145.811462 10.181324 0.492565 0.644160
146.764328 9.880546 -0.000004 0.726268
150.485611 8.705902 -0.000001 0.736492
152.861313 7.955996 0.000001 0.731319
154.512527 7.434782 0.000002 0.737530
155.729050 7.050778 0.000002 0.730388
146.228607 10.181330 6.505518 0.635493
146.228607 10.181330 5.884828 0.417853
146.228607 10.181332 5.272853 0.677211
146.228607 10.181330 4.668124 0.505882
146.228607 10.181332 4.069242 0.649775
146.228607 10.181332 3.474853 0.436790
146.228607 10.181330 2.883646 0.637537
146.228607 10.181332 2.294338 0.644984
146.228607 10.181332 1.705662 0.589090
146.228607 10.181330 1.116354 0.652735
146.228607 10.181331 0.525147 0.639033
146.801270 9.996160 -0.000004 0.732998
150.514252 8.795567 -0.000001 0.733715
152.884674 8.029092 0.000001 0.740627
154.532196 7.496364 0.000002 0.733944
155.746017 7.103876 0.000002 0.710979
146.628128 10.181334 6.410404 0.668559
146.628128 10.181334 5.802817 0.428229
146.628128 10.181335 5.203760 0.670939
146.628128 10.181334 4.611799 0.496117
146.628128 10.181335 4.025559 0.519188
146.628128 10.181334 3.443717 0.652171
146.628128 10.181334 2.864992 0.664622
146.628128 10.181334 2.288125 0.648356
146.628128 10.181334 1.711875 0.435889
146.628128 10.181334 1.135008 0.556527
146.628128 10.181335 0.556282 0.706020
146.839020 10.111514 -0.000003 0.734386
150.543533 8.885029 -0.000001 0.739483
152.908539 8.102024 0.000001 0.735927
154.552307 7.557808 0.000001 0.745388
155.763351 7.156855 0.000002 0.748043
147.011139 10.181338 6.319432 0.627512
147.011139 10.181338 5.724377 0.493492
147.011139 10.181338 5.137678 0.583459
147.011139 10.181339 4.557927 0.626673
147.011139 10.181338 3.983778 0.594217
147.011139 10.181337 3.413939 0.616464
147.011139 10.181339 2.847150 0.572625
147.011139 10.181339 2.282182 0.566308
147.011139 10.181339 1.717818 0.409049
147.011139 10.181339 1.152849 0.411017
147.011139 10.181339 0.586061 0.388113
147.011139 10.181338 0.016221 0.401923
150.573425 8.974283 -0.000001 0.717174
152.932907 8.174787 0.000001 0.726253
154.572830 7.619108 0.000002 0.746258
155.781052 7.209711 0.000001 0.728283
147.035828 10.300196 6.323235 0.476387
147.035828 10.300197 5.727656 0.632151
147.035828 10.300197 5.140440 0.702205
147.035828 10.300197 4.560179 0.503471
147.035828 10.300197 3.985526 0.460410
147.035828 10.300196 3.415184 0.493385
147.035828 10.300196 2.847896 0.606821
147.035828 10.300197 2.282430 0.644831
147.035828 10.300197 1.717570 0.689403
147.035828 10.300196 1.152104 0.615518
147.035828 10.300196 0.584816 0.667811
147.035828 10.300197 0.014475 0.630381
150.603943 9.063328 -0.000001 0.725353
152.957794 8.247377 0.000001 0.736904
154.593796 7.680264 0.000002 0.734020
155.799133 7.262443 0.000001 0.721752
147.035828 10.428034 6.333828 0.661128
147.035828 10.428034 5.736792 0.550240
147.035828 10.428034 5.148136 0.678431
147.035828 10.428034 4.566453 0.660822
147.035828 10.428034 3.990391 0.385733
147.035828 10.428036 3.418652 0.541772
147.035828 10.428034 2.849974 0.657359
147.035828 10.428034 2.283122 0.644785
147.035828 10.428034 1.716878 0.670527
147.035828 10.428034 1.150026 0.631251
147.035828 10.428036 0.581348 0.665904
147.035828 10.428034 0.009609 0.633082
150.635086 9.152155 -0.000001 0.730526
152.983170 8.319793 0.000001 0.734997
154.615189 7.741272 0.000002 0.730861
155.817566 7.315045 0.000001 0.730343
147.035828 10.556507 6.344688 0.701991
147.035828 10.556506 5.746153 0.379110
147.035828 10.556507 5.156023 0.665476
147.035828 10.556507 4.572883 0.662715
147.035828 10.556507 3.995378 0.404211
147.035828 10.556505 3.422206 0.483574
147.035828 10.556507 2.852103 0.593957
147.035828 10.556507 2.283832 0.639399
147.035828 10.556507 1.716169 0.670527
147.035828 10.556507 1.147896 0.622309
147.035828 10.556505 0.577794 0.680262
147.035828 10.556507 0.004623 0.632441
150.666840 9.240765 -0.000001 0.732189
153.009064 8.392029 0.000001 0.727703
154.636993 7.802129 0.000001 0.724147
155.836380 7.367518 0.000001 0.742931
147.035828 10.685631 6.355812 0.705303
147.035828 10.685631 5.755746 0.395346
147.035828 10.685631 5.164104 0.688731
147.035828 10.685631 4.579471 0.656184
147.035828 10.685631 4.000487 0.609110
147.035828 10.685631 3.425848 0.567895
147.035828 10.685631 2.854285 0.562890
147.035828 10.685631 2.284558 0.657542
147.035828 10.685631 1.715442 0.685222
147.035828 10.685629 1.145715 0.680125
147.035828 10.685631 0.574152 0.711269
147.039764 10.684174 -0.000004 0.727916
150.699219 9.329147 -0.000001 0.738827
153.035461 8.464083 0.000001 0.727565
154.659225 7.862831 0.000002 0.731594
155.855545 7.419858 0.000002 0.732570
147.035828 10.815424 6.367208 0.459495
147.035828 10.815426 5.765572 0.544289
147.035828 10.815424 5.172381 0.680201
147.035828 10.815424 4.586218 0.476234
147.035828 10.815425 4.005720 0.593271
147.035828 10.815424 3.429577 0.406729
147.035828 10.815424 2.856520 0.465705
147.035828 10.815424 2.285303 0.646632
147.035828 10.815424 1.714697 0.359304
147.035828 10.815424 1.143480 0.678431
147.035828 10.815424 0.570422 0.577203
147.082306 10.797845 -0.000004 0.733394
150.732208 9.417305 -0.000001 0.724086
153.062363 8.535951 0.000001 0.725948
154.681900 7.923378 0.000002 0.724498
155.875092 7.472063 0.000001 0.720104
147.035828 10.945904 6.378876 0.575647
147.035828 10.945904 5.775633 0.471794
147.035828 10.945904 5.180859 0.425910
147.035828 10.945904 4.593129 0.678431
147.035828 10.945906 4.011079 0.579446
147.035828 10.945904 3.433398 0.412100
147.035828 10.945904 2.858808 0.638590
147.035828 10.945905 2.286065 0.641611
147.035828 10.945905 1.713935 0.670527
147.035828 10.945904 1.141191 0.702678
147.035828 10.945904 0.566602 0.651804
147.125641 10.911217 -0.000004 0.727306
150.765823 9.505229 -0.000001 0.731517
153.089752 8.607630 0.000001 0.722667
154.704971 7.983765 0.000002 0.734890
155.894989 7.524132 0.000001 0.750118
147.035828 11.077093 6.390825 0.489219
147.035828 11.077093 5.785935 0.679942
147.035828 11.077093 5.189537 0.489570
147.035828 11.077093 4.600204 0.683940
147.035828 11.077093 4.016566 0.670314
147.035828 11.077093 3.437309 0.430823
147.035828 11.077091 2.861151 0.435386
147.035828 11.077093 2.286846 0.636179
147.035828 11.077093 1.713154 0.672053
147.035828 11.077091 1.138848 0.679164
147.035828 11.077093 0.562691 0.660609
147.169769 11.024282 -0.000004 0.735393
150.800034 9.592918 -0.000001 0.727901
153.117645 8.679115 0.000000 0.734264
154.728470 8.043989 0.000002 0.728664
155.915253 7.576059 0.000001 0.736324
147.035828 11.209002 6.403051 0.652110
147.035828 11.209002 5.796477 0.678431
147.035828 11.209002 5.198420 0.515496
147.035828 11.209002 4.607446 0.676280
147.035828 11.209002 4.022182 0.698024
147.035828 11.209002 3.441311 0.464149
147.035828 11.209002 2.863550 0.450553
147.035828 11.209002 2.287644 0.646738
147.035828 11.209002 1.712356 0.678431
147.035828 11.209002 1.136450 0.704433
147.035828 11.209002 0.558689 0.654673
147.214676 11.137039 -0.000005 0.730571
150.834869 9.680364 -0.000001 0.727138
153.146042 8.750403 0.000001 0.733761
154.752396 8.104047 0.000002 0.707118
155.935883 7.627843 0.000002 0.736110
147.035828 11.341658 6.415563 0.638193
147.035828 11.341658 5.807265 0.644892
147.035828 11.341658 5.207507 0.666773
147.035828 11.341658 4.614854 0.660700
147.035828 11.341658 4.027928 0.675029
147.035828 11.341658 3.445406 0.678340
147.035828 11.341658 2.866004 0.419211
147.035828 11.341656 2.288462 0.668803
147.035828 11.341656 1.711538 0.663539
147.035828 11.341658 1.133996 0.678431
147.035828 11.341658 0.554593 0.526802
147.260376 11.249477 -0.000004 0.728328
150.870316 9.767566 -0.000001 0.734264
153.174942 8.821493 0.000000 0.730449
154.776733 8.163939 0.000001 0.728435
155.956879 7.679484 0.000001 0.731685
147.035828 11.475072 6.428362 0.635645
147.035828 11.475071 5.818300 0.551873
147.035828 11.475071 5.216805 0.660502
147.035828 11.475071 4.622433 0.551629
147.035828 11.475071 4.033806 0.666117
147.035828 11.475070 3.449596 0.663767
147.035828 11.475069 2.868514 0.446799
147.035828 11.475071 2.289298 0.671397
147.035828 11.475070 1.710702 0.667857
147.035828 11.475069 1.131486 0.678431
147.035828 11.475070 0.550404 0.530144
147.306854 11.361592 -0.000004 0.734478
150.906357 9.854517 -0.000002 0.733516
153.204330 8.892377 0.000001 0.729091
154.801498 8.223656 0.000002 0.730388
155.978226 7.730975 0.000001 0.732143
147.035828 11.609273 6.441453 0.621668
147.035828 11.609272 5.829588 0.549218
147.035828 11.609272 5.226315 0.695949
147.035828 11.609272 4.630185 0.528878
147.035828 11.609272 4.039819 0.655665
147.035828 11.609272 3.453881 0.662623
147.035828 11.609272 2.871081 0.414984
147.035828 11.609272 2.290153 0.650706
147.035828 11.609272 1.709847 0.658213
147.035828 11.609272 1.128919 0.705669
147.035828 11.609272 0.546118 0.563149
147.354126 11.473386 -0.000005 0.727428
150.943008 9.941216 -0.000001 0.736095
153.234207 8.963057 0.000000 0.741070
154.826675 8.283201 0.000002 0.728817
155.999924 7.782318 0.000001 0.736690
147.035828 11.744273 6.454838 0.640360
147.035828 11.744274 5.841129 0.447410
147.035828 11.744274 5.236038 0.654780
147.035828 11.744274 4.638113 0.540169
147.035828 11.744274 4.045966 0.655329
147.035828 11.744275 3.458263 0.649134
147.035828 11.744274 2.873707 0.408835
147.035828 11.744274 2.291028 0.625345
147.035828 11.744274 1.708973 0.553033
147.035828 11.744274 1.126293 0.674998
147.035828 11.744275 0.541736 0.454551
147.402161 11.584846 -0.000005 0.731624
150.980270 10.027655 -0.000001 0.733684
153.264587 9.033525 0.000000 0.732677
154.852264 8.342569 0.000002 0.748531
156.021988 7.833506 0.000001 0.726619
147.035828 11.880096 6.468522 0.357885
147.035828 11.880098 5.852930 0.658763
147.035828 11.880098 5.245978 0.675746
147.035828 11.880096 4.646217 0.392218
147.035828 11.880098 4.052252 0.510033
147.035828 11.880096 3.462742 0.658763
147.035828 11.880098 2.876391 0.607828
147.035828 11.880098 2.291921 0.351934
147.035828 11.880098 1.708079 0.677302
147.035828 11.880096 1.123609 0.437644
147.035828 11.880096 0.537257 0.385901
147.450989 11.695964 -0.000005 0.731655
151.018143 10.113832 -0.000002 0.734478
153.295456 9.103779 0.000000 0.725261
154.878265 8.401756 0.000001 0.732250
156.044418 7.884540 0.000001 0.731853
147.035828 12.016766 6.482512 0.431403
147.035828 12.016767 5.864991 0.584604
147.035828 12.016766 5.256140 0.483574
147.035828 12.016766 4.654500 0.656718
147.035828 12.016766 4.058676 0.544671
147.035828 12.016767 3.467322 0.572824
147.035828 12.016766 2.879134 0.629984
147.035828 12.016766 2.292835 0.497536
147.035828 12.016765 1.707165 0.692134
147.035828 12.016766 1.120866 0.591546
147.035828 12.016766 0.532678 0.531411
147.500580 11.806740 -0.000005 0.731060
151.056595 10.199745 -0.000002 0.729305
153.326813 9.173817 0.000000 0.735225
154.904678 8.460761 0.000001 0.731044
156.067184 7.935415 0.000001 0.742092
147.035828 12.154297 6.496809 0.664210
147.035828 12.154297 5.877318 0.659037
147.035828 12.154297 5.266525 0.479744
147.035828 12.154297 4.662967 0.666300
147.035828 12.154298 4.065242 0.547906
147.035828 12.154298 3.472002 0.647913
147.035828 12.154297 2.881938 0.625162
147.035828 12.154299 2.293770 0.489311
147.035828 12.154299 1.706230 0.662623
147.035828 12.154297 1.118062 0.592371
147.035828 12.154298 0.527998 0.575311
147.550949 11.917168 -0.000005 0.738659
151.095657 10.285384 -0.000002 0.722805
153.358658 9.243633 0.000000 0.740398
154.931519 8.519578 0.000001 0.738460
156.090317 7.986130 0.000001 0.724346
147.035828 12.292717 6.511417 0.681926
147.035828 12.292719 5.889915 0.668330
147.035828 12.292719 5.277139 0.571160
147.035828 12.292717 4.671618 0.709804
147.035828 12.292717 4.071952 0.452567
147.035828 12.292717 3.476784 0.667643
147.035828 12.292717 2.884803 0.625193
147.035828 12.292717 2.294724 0.475151
147.035828 12.292717 1.705276 0.676081
147.035828 12.292717 1.115196 0.630869
147.035828 12.292716 0.523216 0.637751
147.602081 12.027237 -0.000005 0.728878
151.135315 10.370750 -0.000002 0.729213
153.390991 9.313226 0.000000 0.718990
154.958755 8.578208 0.000002 0.741192
156.113815 8.036682 0.000001 0.729534
147.035828 12.432045 6.526343 0.667384
147.035828 12.432044 5.902783 0.534051
147.035828 12.432045 5.287980 0.572335
147.035828 12.432045 4.680457 0.675868
147.035828 12.432044 4.078806 0.448402
147.035828 12.432043 3.481669 0.674388
147.035828 12.432043 2.887730 0.650401
147.035828 12.432044 2.295699 0.513085
147.035828 12.432044 1.704301 0.671748
147.035828 12.432043 1.112270 0.597345
147.035828 12.432043 0.518330 0.634394
147.653992 12.136950 -0.000005 0.724834
151.175568 10.455836 -0.000002 0.738705
153.423798 9.382591 0.000000 0.725719
154.986404 8.636644 0.000002 0.734615
156.137650 8.087070 0.000001 0.715465
147.035828 12.572308 6.541589 0.508461
147.035828 12.572307 5.915929 0.476646
147.035828 12.572308 5.299054 0.690257
147.035828 12.572308 4.689486 0.676143
147.035828 12.572308 4.085808 0.657847
147.035828 12.572308 3.486660 0.633188
147.035828 12.572308 2.890720 0.664271
147.035828 12.572308 2.296695 0.498833
147.035828 12.572308 1.703305 0.687617
147.035828 12.572308 1.109279 0.417762
147.035828 12.572308 0.513339 0.688731
147.706650 12.246301 -0.000005 0.733257
151.216415 10.540640 -0.000002 0.728420
153.457092 9.451726 0.000000 0.723690
155.014450 8.694889 0.000002 0.743725
156.161835 8.137291 0.000001 0.739010
147.035828 12.713520 6.557161 0.491142
147.035828 12.713521 5.929357 0.443091
147.035828 12.713521 5.310366 0.678431
147.035828 12.713520 4.698707 0.625116
147.035828 12.713521 4.092960 0.655116
147.035828 12.713520 3.491757 0.652216
147.035828 12.713521 2.893775 0.659525
147.035828 12.713519 2.297712 0.508309
147.035828 12.713519 1.702288 0.668513
147.035828 12.713520 1.106225 0.408179
147.035828 12.713519 0.508242 0.680018
147.760086 12.355278 -0.000005 0.727291
151.257858 10.625156 -0.000002 0.723522
153.490875 9.520626 0.000000 0.726513
155.042908 8.752935 0.000001 0.738125
156.186371 8.187340 0.000001 0.726009
147.035828 12.855716 6.573064 0.659159
147.035828 12.855716 5.943068 0.659220
147.035828 12.855716 5.321918 0.646586
147.035828 12.855716 4.708125 0.431266
147.035828 12.855717 4.100264 0.639994
147.035828 12.855717 3.496963 0.632898
147.035828 12.855716 2.896894 0.662150
147.035828 12.855716 2.298751 0.495903
147.035828 12.855716 1.701249 0.660899
147.035828 12.855716 1.103106 0.362646
147.035828 12.855717 0.503036 0.678431
147.814270 12.463881 -0.000005 0.734798
151.299881 10.709381 -0.000002 0.735576
153.525146 9.589289 0.000000 0.741253
155.071777 8.810781 0.000002 0.727077
156.211258 8.237217 0.000001 0.742550
147.035828 12.998915 6.589303 0.657359
147.035828 12.998914 5.957070 0.690684
147.035828 12.998913 5.333714 0.599573
147.035828 12.998915 4.717741 0.403113
147.035828 12.998915 4.107721 0.670344
147.035828 12.998914 3.502279 0.389517
147.035828 12.998913 2.900079 0.665034
147.035828 12.998913 2.299812 0.461982
147.035828 12.998913 1.700188 0.675578
147.035828 12.998913 1.099921 0.400229
147.035828 12.998914 0.497720 0.680262
147.869217 12.572103 -0.000005 0.729763
151.342499 10.793312 -0.000002 0.724804
153.559891 9.657709 0.000000 0.736049
155.101044 8.868425 0.000001 0.748775
156.236496 8.286920 0.000001 0.726329
147.035828 13.143141 6.605883 0.646540
147.035828 13.143140 5.971366 0.674998
147.035828 13.143139 5.345757 0.649790
147.035828 13.143139 4.727560 0.670527
147.035828 13.143140 4.115336 0.667918
147.035828 13.143140 3.507706 0.406073
147.035828 13.143140 2.903331 0.628000
147.035828 13.143139 2.300895 0.547967
147.035828 13.143139 1.699105 0.671809
147.035828 13.143140 1.096669 0.618372
147.035828 13.143140 0.492293 0.678431
147.924927 12.679935 -0.000005 0.733028
151.385696 10.876941 -0.000002 0.732754
153.595108 9.725887 0.000000 0.726955
155.130722 8.925863 0.000001 0.709987
156.262085 8.336445 0.000001 0.727825
147.035828 13.288415 6.622809 0.636606
147.035828 13.288415 5.985961 0.586435
147.035828 13.288416 5.358054 0.436301
147.035828 13.288415 4.737584 0.671809
147.035828 13.288414 4.123110 0.659266
147.035828 13.288415 3.513247 0.375128
147.035828 13.288415 2.906650 0.642802
147.035828 13.288415 2.302001 0.492851
147.035828 13.288415 1.697999 0.669657
147.035828 13.288415 1.093350 0.631983
147.035828 13.288415 0.486752 0.675990
147.981384 12.787376 -0.000005 0.732799
151.429474 10.960267 -0.000002 0.743633
153.630798 9.793818 0.000000 0.724544
155.160782 8.983091 0.000001 0.741833
156.288010 8.385788 0.000001 0.741100
147.035828 13.434772 6.640087 0.607965
147.035828 13.434772 6.000858 0.584695
147.035828 13.434773 5.370605 0.601709
147.035828 13.434772 4.747815 0.670527
147.035828 13.434773 4.131045 0.677424
147.035828 13.434772 3.518903 0.527871
147.035828 13.434772 2.910039 0.675395
147.035828 13.434772 2.303130 0.514809
147.035828 13.434772 1.696870 0.687099
147.035828 13.434772 1.089961 0.654658
147.035828 13.434772 0.481096 0.648280
148.038574 12.894423 -0.000005 0.736248
151.473846 11.043285 -0.000002 0.732403
153.666962 9.861496 0.000000 0.733715
155.191254 9.040110 0.000002 0.737774
156.314285 8.434951 0.000002 0.718151
147.035828 13.582230 6.657722 0.696300
147.035828 13.582232 6.016064 0.704250
147.035828 13.582232 5.383415 0.640162
147.035828 13.582231 4.758259 0.648951
147.035828 13.582231 4.139145 0.400961
147.035828 13.582232 3.524676 0.543694
147.035828 13.582232 2.913497 0.664546
147.035828 13.582230 2.304282 0.503334
147.035828 13.582230 1.695718 0.663355
147.035828 13.582232 1.086502 0.643046
147.035828 13.582232 0.475323 0.601419
148.096527 13.001066 -0.000005 0.737194
151.518784 11.125994 -0.000002 0.733242
153.703598 9.928923 -0.000000 0.730220
155.222122 9.096912 0.000001 0.721859
156.340897 8.483929 0.000001 0.743236
147.035828 13.730829 6.675721 0.673289
147.035828 13.730828 6.031583 0.682841
147.035828 13.730829 5.396489 0.667308
147.035828 13.730829 4.768918 0.676402
147.035828 13.730828 4.147410 0.429694
147.035828 13.730830 3.530568 0.687587
147.035828 13.730828 2.917027 0.645426
147.035828 13.730828 2.305458 0.526268
147.035828 13.730828 1.694542 0.670527
147.035828 13.730828 1.082972 0.639063
147.035828 13.730829 0.469432 0.386526
148.155212 13.107308 -0.000005 0.727443
151.564301 11.208387 -0.000002 0.734508
153.740707 9.996091 0.000000 0.732219
155.253387 9.153501 0.000001 0.728557
156.367844 8.532722 0.000001 0.720790
147.035828 13.880587 6.694091 0.708278
147.035828 13.880585 6.047422 0.700893
147.035828 13.880586 5.409833 0.680247
147.035828 13.880585 4.779795 0.485939
147.035828 13.880585 4.155847 0.489433
147.035828 13.880586 3.536580 0.674113
147.035828 13.880585 2.920630 0.638086
147.035828 13.880585 2.306657 0.550988
147.035828 13.880585 1.693342 0.642222
147.035828 13.880585 1.079370 0.651835
147.035828 13.880585 0.463419 0.404318
148.214645 13.213133 -0.000005 0.740490
151.610397 11.290458 -0.000002 0.733303
153.778275 10.062998 -0.000000 0.737179
155.285034 9.209867 0.000001 0.716930
156.395142 8.581324 0.000001 0.733440
147.035828 14.031527 6.712834 0.467277
147.035828 14.031527 6.063583 0.584878
147.035828 14.031527 5.423449 0.378210
147.035828 14.031526 4.790895 0.514611
147.035828 14.031527 4.164455 0.500191
147.035828 14.031527 3.542716 0.663951
147.035828 14.031527 2.924306 0.639567
147.035828 14.031528 2.307882 0.562982
147.035828 14.031528 1.692118 0.651957
147.035828 14.031527 1.075694 0.662364
147.035828 14.031527 0.457283 0.610361
148.274811 13.318542 -0.000006 0.729931
151.657059 11.372205 -0.000002 0.725917
153.816315 10.129641 -0.000000 0.736782
155.317078 9.266012 0.000001 0.740932
156.422775 8.629734 0.000001 0.749050
147.035828 14.183688 6.731960 0.641642
147.035828 14.183687 6.080074 0.426749
147.035828 14.183687 5.437341 0.480415
147.035828 14.183687 4.802221 0.428168
147.035828 14.183687 4.173239 0.644556
147.035828 14.183688 3.548977 0.699351
147.035828 14.183687 2.928058 0.653300
147.035828 14.183686 2.309132 0.493080
147.035828 14.183686 1.690869 0.641413
147.035828 14.183687 1.071942 0.702892
147.035828 14.183687 0.451023 0.603159
148.335724 13.423523 -0.000005 0.727840
151.704285 11.453625 -0.000002 0.736934
153.854828 10.196014 -0.000000 0.715282
155.349518 9.321934 0.000001 0.737057
156.450745 8.677948 0.000001 0.721202
147.035828 14.337095 6.751473 0.605325
147.035828 14.337097 6.096900 0.668696
147.035828 14.337097 5.451517 0.641550
147.035828 14.337097 4.813778 0.673930
147.035828 14.337096 4.182201 0.677623
147.035828 14.337095 3.555364 0.705562
147.035828 14.337097 2.931884 0.491386
147.035828 14.337095 2.310406 0.477455
147.035828 14.337095 1.689594 0.678431
147.035828 14.337097 1.068115 0.668360
147.035828 14.337095 0.444635 0.584695
148.397354 13.528081 -0.000005 0.722774
151.752090 11.534712 -0.000002 0.727825
153.893784 10.262121 -0.000000 0.738552
155.382355 9.377624 0.000001 0.729564
156.479050 8.725968 0.000001 0.742779
147.035828 14.491784 6.771381 0.649241
147.035828 14.491784 6.114066 0.671687
147.035828 14.491786 5.465980 0.644419
147.035828 14.491784 4.825567 0.674434
147.035828 14.491784 4.191345 0.687251
147.035828 14.491783 3.561882 0.665415
147.035828 14.491783 2.935789 0.522820
147.035828 14.491784 2.311707 0.464652
147.035828 14.491784 1.688293 0.678431
147.035828 14.491783 1.064211 0.698924
147.035828 14.491783 0.438118 0.645624
148.459717 13.632205 -0.000005 0.730556
151.800446 11.615467 -0.000003 0.722499
153.933212 10.327954 -0.000000 0.722408
155.415573 9.433086 0.000001 0.729564
156.507690 8.773790 0.000001 0.740658
147.035828 14.647779 6.791694 0.532784
147.035828 14.647779 6.131579 0.674708
147.035828 14.647778 5.480733 0.646601
147.035828 14.647779 4.837595 0.670787
147.035828 14.647779 4.200673 0.691371
147.035828 14.647778 3.568531 0.665736
147.035828 14.647779 2.939772 0.515007
147.035828 14.647779 2.313034 0.558846
147.035828 14.647779 1.686966 0.664088
147.035828 14.647778 1.060227 0.678431
147.035828 14.647778 0.431469 0.634180
148.522797 13.735894 -0.000006 0.730907
151.849380 11.695879 -0.000003 0.723491
153.973099 10.393509 -0.000000 0.730297
155.449173 9.488314 0.000001 0.710155
156.536667 8.821409 0.000001 0.727443
147.035828 14.805118 6.812414 0.663584
147.035828 14.805118 6.149445 0.528679
147.035828 14.805117 5.495783 0.673381
147.035828 14.805117 4.849866 0.665812
147.035828 14.805120 4.210189 0.619974
147.035828 14.805119 3.575313 0.594827
147.035828 14.805119 2.943836 0.544030
147.035828 14.805119 2.314388 0.533364
147.035828 14.805119 1.685612 0.657359
147.035828 14.805119 1.056163 0.664836
147.035828 14.805119 0.424686 0.684535
148.586609 13.839138 -0.000006 0.729549
151.898865 11.775949 -0.000003 0.734401
154.013443 10.458784 -0.000000 0.734997
155.483154 9.543307 0.000001 0.746242
156.565979 8.868827 0.000001 0.731731
147.035828 14.963829 6.833551 0.668406
147.035828 14.963827 6.167669 0.490379
147.035828 14.963828 5.511138 0.382666
147.035828 14.963829 4.862383 0.655573
147.035828 14.963828 4.219897 0.619791
147.035828 14.963828 3.582232 0.639170
147.035828 14.963829 2.947982 0.541924
147.035828 14.963827 2.315768 0.554437
147.035828 14.963827 1.684232 0.688731
147.035828 14.963828 1.052018 0.678431
147.035828 14.963828 0.417768 0.658763
148.651138 13.941932 -0.000006 0.726909
151.948914 11.855672 -0.000003 0.732097
154.054245 10.523776 -0.000000 0.733623
155.517532 9.598061 0.000001 0.721645
156.595612 8.916037 0.000001 0.718181
147.035828 15.123949 6.855113 0.701717
147.035828 15.123946 6.186259 0.641733
147.035828 15.123947 5.526801 0.556848
147.035828 15.123947 4.875151 0.373770
147.035828 15.123949 4.229800 0.396384
147.035828 15.123946 3.589289 0.392752
147.035828 15.123947 2.952210 0.488487
147.035828 15.123948 2.317177 0.565515
147.035828 15.123948 1.682823 0.657359
147.035828 15.123947 1.047789 0.678431
147.035828 15.123946 0.410710 0.704082
148.716400 14.044273 -0.000006 0.730602
151.999512 11.935040 -0.000002 0.729580
154.095505 10.588480 -0.000000 0.728985
155.552292 9.652571 0.000001 0.739834
156.625580 8.963038 0.000001 0.722515
147.035828 15.285511 6.877105 0.406714
147.035828 15.285510 6.205223 0.649668
147.035828 15.285514 5.542777 0.662623
147.035828 15.285511 4.888175 0.610544
147.035828 15.285510 4.239900 0.626749
147.035828 15.285510 3.596489 0.435569
147.035828 15.285510 2.956524 0.504143
147.035828 15.285511 2.318614 0.556054
147.035828 15.285511 1.681386 0.709804
147.035828 15.285510 1.043476 0.647059
147.035828 15.285509 0.403511 0.709804
148.782349 14.146158 -0.000006 0.735012
152.050659 12.014056 -0.000002 0.739300
154.137192 10.652898 -0.000001 0.719509
155.587418 9.706839 0.000001 0.727687
156.655869 9.009830 0.000001 0.712795
147.035828 15.448551 6.899537 0.655161
147.035828 15.448551 6.224566 0.604868
147.035828 15.448551 5.559072 0.649897
147.035828 15.448552 4.901460 0.673152
147.035828 15.448552 4.250203 0.665614
147.035828 15.448549 3.603832 0.639048
147.035828 15.448551 2.960924 0.644953
147.035828 15.448549 2.320079 0.646876
147.035828 15.448549 1.679921 0.472999
147.035828 15.448551 1.039076 0.546197
147.035828 15.448549 0.396168 0.565820
148.849014 14.247582 -0.000006 0.726940
152.102371 12.092712 -0.000002 0.738781
154.179352 10.717019 -0.000000 0.738903
155.622925 9.760859 0.000001 0.750347
156.686493 9.056410 0.000001 0.733715
147.035828 15.613108 6.922420 0.679042
147.035828 15.613107 6.244295 0.545327
147.035828 15.613106 5.575693 0.653315
147.035828 15.613107 4.915009 0.669841
147.035828 15.613108 4.260712 0.679713
147.035828 15.613111 3.611323 0.609659
147.035828 15.613108 2.965411 0.659327
147.035828 15.613107 2.321574 0.646967
147.035828 15.613107 1.678426 0.527840
147.035828 15.613108 1.034588 0.547250
147.035828 15.613111 0.388677 0.559686
148.916397 14.348532 -0.000005 0.730129
152.154617 12.171005 -0.000002 0.726009
154.221954 10.780846 -0.000000 0.735683
155.658813 9.814634 0.000001 0.728344
156.717438 9.102775 0.000001 0.740169
147.035828 15.779219 6.945758 0.701717
147.035828 15.779219 6.264419 0.676219
147.035828 15.779219 5.592647 0.362387
147.035828 15.779220 4.928831 0.632013
147.035828 15.779219 4.271430 0.678065
147.035828 15.779220 3.618962 0.675090
147.035828 15.779217 2.969988 0.674464
147.035828 15.779217 2.323099 0.677882
147.035828 15.779217 1.676901 0.555993
147.035828 15.779217 1.030011 0.545586
147.035828 15.779218 0.381037 0.487755
148.984467 14.449015 -0.000006 0.734188
152.207413 12.248937 -0.000003 0.744289
154.264984 10.844376 -0.000000 0.738308
155.695084 9.868155 0.000001 0.745281
156.748703 9.148923 0.000001 0.725216
147.035828 15.946917 6.969563 0.641672
147.035828 15.946917 6.284944 0.650660
147.035828 15.946915 5.609938 0.597482
147.035828 15.946917 4.942927 0.453285
147.035828 15.946918 4.282363 0.593118
147.035828 15.946917 3.626754 0.581231
147.035828 15.946915 2.974657 0.556756
147.035828 15.946918 2.324653 0.657359
147.035828 15.946917 1.675346 0.505516
147.035828 15.946915 1.025343 0.436072
147.035828 15.946917 0.373245 0.435157
149.053238 14.549019 -0.000006 0.725170
152.260757 12.326490 -0.000003 0.732311
154.308472 10.907600 -0.000000 0.730877
155.731705 9.921421 0.000001 0.733120
156.780289 9.194849 0.000001 0.736812
147.035828 16.116247 6.993841 0.690089
147.035828 16.116249 6.305879 0.353399
147.035828 16.116249 5.627575 0.609934
147.035828 16.116245 4.957305 0.357916
147.035828 16.116249 4.293513 0.683909
147.035828 16.116249 3.634703 0.696971
147.035828 16.116249 2.979419 0.658259
147.035828 16.116245 2.326240 0.677882
147.035828 16.116245 1.673760 0.533074
147.035828 16.116249 1.020581 0.391760
147.035828 16.116247 0.365298 0.582559
149.122726 14.648540 -0.000006 0.730526
152.314636 12.403671 -0.000002 0.724041
154.352402 10.970524 -0.000001 0.734997
155.768723 9.974430 0.000001 0.726314
156.812195 9.240557 0.000001 0.743679
147.035828 16.287249 7.018604 0.641855
147.035828 16.287247 6.327229 0.637598
147.035828 16.287247 5.645563 0.632456
147.035828 16.287249 4.971970 0.660243
147.035828 16.287247 4.304886 0.522133
147.035828 16.287251 3.642808 0.606302
147.035828 16.287247 2.984275 0.650996
147.035828 16.287249 2.327857 0.668818
147.035828 16.287249 1.672143 0.526635
147.035828 16.287247 1.015725 0.495048
147.035828 16.287249 0.357191 0.687739
149.192886 14.747573 -0.000006 0.727794
152.369049 12.480477 -0.000003 0.734218
154.396759 11.033134 -0.000000 0.728588
155.806091 10.027180 0.000001 0.745449
156.844421 9.286039 0.000001 0.746822
147.035828 16.459961 7.043861 0.505165
147.035828 16.459961 6.349009 0.665293
147.035828 16.459961 5.663910 0.488273
147.035828 16.459959 4.986926 0.674754
