# This PCD file was generated using the MATLAB® pcwrite function
# from Computer Vision Toolbox®.
# .PCD v.7 - Point Cloud Data file format
VERSION .7
FIELDS x y z intensity
SIZE 4 4 4 4
TYPE F F F F
COUNT 1 1 1 1
WIDTH 1236
HEIGHT 1
VIEWPOINT 0 0 0 1 0 0 0
POINTS 1236
DATA ascii
126.716629 103.143471 4.356667 0.396078
126.716637 103.143478 2.784994 0.410437
126.716637 103.143478 1.215005 0.389868
121.089691 98.554245 0.000047 0.292638
108.443611 88.240356 0.000029 0.294942
103.014114 83.812164 0.000021 0.294774
99.990143 81.345879 0.000016 0.289250
97.207840 79.076691 0.200004 0.707088
96.000198 78.091759 0.200004 0.662333
95.110474 77.366119 0.200001 0.701045
126.716629 102.713745 13.948382 0.406119
126.716629 102.713745 12.302346 0.402426
126.796646 102.778084 10.698103 0.678431
126.716644 102.713753 9.075722 0.418280
126.716629 102.713753 7.487514 0.413413
126.796661 102.778091 5.919647 0.678431
126.716629 102.713753 4.343381 0.417502
126.716629 102.713753 2.780569 0.425208
126.716637 102.713753 1.219431 0.434836
121.268524 98.333366 0.000049 0.293889
108.550774 88.108025 0.000029 0.303502
103.090492 83.717842 0.000021 0.302022
100.049385 81.272728 0.000016 0.307301
97.251305 79.023018 0.200004 0.683604
96.036819 78.046547 0.200003 0.694194
95.142052 77.327133 0.200001 0.659449
126.716629 102.288818 13.881978 0.430777
126.716629 102.288818 12.245089 0.405631
126.796646 102.352242 10.649763 0.678431
126.716637 102.288826 9.036395 0.417884
126.716629 102.288818 7.457016 0.402655
126.796661 102.352249 5.897862 0.678431
126.716629 102.288818 4.330356 0.398886
126.716629 102.288826 2.776231 0.383185
126.716629 102.288826 1.223769 0.403128
121.445839 98.111244 0.000049 0.290532
108.657013 87.974945 0.000029 0.300008
103.166214 83.622986 0.000021 0.302144
100.108109 81.199165 0.000016 0.284962
97.294388 78.969040 0.200005 0.680522
96.073120 78.001076 0.200002 0.690990
95.173347 77.287926 0.200001 0.691890
126.702660 101.857666 13.812441 0.454231
126.716629 101.868576 12.188959 0.399847
126.716629 101.868576 10.583897 0.413275
126.716637 101.868584 8.997845 0.375830
126.716629 101.868576 7.427119 0.409400
126.796661 101.931107 5.876508 0.678431
126.716629 101.868576 4.317591 0.415335
126.716629 101.868576 2.771978 0.392981
126.716637 101.868584 1.228021 0.408606
121.621582 97.887886 0.000049 0.288228
108.762314 87.841125 0.000029 0.290242
103.241264 83.527611 0.000021 0.299702
100.166313 81.125198 0.000016 0.294041
97.337097 78.914764 0.200005 0.687007
96.109108 77.955360 0.200000 0.686168
95.204369 77.248505 0.200000 0.690822
126.796646 101.514503 13.778357 0.677028
126.716629 101.452881 12.133931 0.395575
126.716621 101.452881 10.537537 0.412497
126.716629 101.452888 8.960052 0.407935
126.716629 101.452881 7.397810 0.404196
126.796661 101.514519 5.855573 0.678431
126.716629 101.452888 4.305073 0.408942
126.716629 101.452881 2.767809 0.395514
126.716629 101.452888 1.232191 0.410681
121.795776 97.663322 0.000049 0.291844
108.866676 87.706573 0.000029 0.283940
103.315651 83.431702 0.000021 0.283604
100.223999 81.050819 0.000017 0.281727
97.379425 78.860199 0.200005 0.677501
96.144775 77.909386 0.199999 0.695964
95.235123 77.208862 0.200000 0.689982
126.796646 101.102379 13.715657 0.678431
126.716629 101.041641 12.079982 0.394491
126.716629 101.041649 10.492089 0.413993
126.716637 101.041649 8.923000 0.393698
126.716629 101.041641 7.369073 0.418372
126.796661 101.102386 5.835048 0.678431
126.716629 101.041641 4.292802 0.406012
126.716629 101.041641 2.763722 0.417487
126.716629 101.041641 1.236279 0.398505
121.968391 97.437531 0.000050 0.295598
108.970100 87.571297 0.000030 0.293507
103.389366 83.335289 0.000021 0.286305
100.281174 80.976044 0.000016 0.263584
97.421379 78.805336 0.200003 0.742947
96.180122 77.863174 0.199998 0.683497
95.265594 77.169006 0.200000 0.754528
126.796646 100.694595 13.654187 0.678431
126.716629 100.634735 12.027095 0.439902
126.716629 100.634735 10.447529 0.410330
126.796654 100.694603 8.901499 0.678431
126.716629 100.634735 7.340901 0.375952
126.796661 100.694611 5.814925 0.678431
126.716629 100.634735 4.280772 0.423819
126.716629 100.634735 2.759714 0.431373
126.716629 100.634735 1.240285 0.388235
122.139435 97.210556 0.000050 0.294377
109.072578 87.435303 0.000030 0.289631
103.462410 83.238358 0.000021 0.286076
100.337822 80.900871 0.000016 0.341939
97.462952 78.750191 0.200001 0.687465
96.215134 77.816704 0.199999 0.657954
95.295784 77.128944 0.200000 0.650675
126.796646 100.291046 13.593915 0.678431
126.716629 100.232056 11.975241 0.399542
126.716629 100.232056 10.403844 0.419562
126.796646 100.291046 8.865807 0.678431
126.716629 100.232056 7.313282 0.424125
126.796661 100.291061 5.795197 0.678431
126.716629 100.232056 4.268977 0.396078
126.716629 100.232056 2.755786 0.438804
126.716629 100.232056 1.244214 0.426505
122.308899 96.982391 0.000049 0.292088
109.174110 87.298599 0.000030 0.295003
103.534775 83.140915 0.000021 0.285267
100.393944 80.825302 0.000016 0.298665
97.504135 78.694748 0.199999 0.714946
96.249817 77.769989 0.200000 0.749096
95.325699 77.088669 0.200000 0.779629
126.796646 99.891647 13.534828 0.678431
126.716629 99.833504 11.924402 0.389609
126.716629 99.833504 10.361013 0.418738
126.796654 99.891647 8.830817 0.678431
126.716629 99.833504 7.286203 0.397238
126.796661 99.891647 5.775854 0.678431
126.716629 99.833504 4.257413 0.419059
126.716629 99.833504 2.751934 0.408164
126.716629 99.833511 1.248066 0.396078
122.476746 96.753052 0.000049 0.288701
109.274673 87.161179 0.000030 0.283848
103.606453 83.042984 0.000021 0.319966
100.449532 80.749344 0.000016 0.318532
97.544937 78.639030 0.199996 0.678203
96.284172 77.723030 0.200002 0.646952
95.355324 77.048187 0.200000 0.729442
126.745255 99.459465 13.461063 0.285908
126.716621 99.438965 11.874555 0.438788
126.716629 99.438965 10.319021 0.395331
126.745255 99.459465 8.787132 0.287526
126.716621 99.438965 7.259653 0.398932
126.745270 99.459473 5.751707 0.288594
126.716629 99.438965 4.246076 0.401205
126.716629 99.438972 2.748157 0.448859
126.716629 99.438972 1.251843 0.442100
122.642982 96.522530 0.000050 0.287343
109.374275 87.023071 0.000030 0.302708
103.677444 82.944534 0.000022 0.284718
100.504593 80.672997 0.000016 0.307378
97.585342 78.583015 0.199995 0.781353
96.318207 77.675835 0.200003 0.795499
95.384674 77.007492 0.200000 0.687510
126.796646 99.104813 13.420094 0.678431
126.716629 99.048370 11.825687 0.397910
126.716629 99.048370 10.277850 0.402380
126.796654 99.104813 8.762873 0.678431
126.716629 99.048363 7.233623 0.392950
126.796646 99.104813 5.738295 0.678431
126.716629 99.048363 4.234959 0.439490
126.716629 99.048363 2.744454 0.405371
126.716629 99.048363 1.255546 0.381796
122.807617 96.290863 0.000050 0.294499
109.472923 86.884270 0.000030 0.283268
103.747757 82.845612 0.000021 0.260273
100.559120 80.596275 0.000017 0.253010
97.625351 78.526733 0.199993 0.678248
96.351906 77.628410 0.200004 0.681788
95.413734 76.966599 0.200000 0.772274
126.796646 98.717201 13.364404 0.678431
126.716629 98.661583 11.777770 0.406561
126.716629 98.661591 10.237483 0.407080
126.796654 98.717209 8.729893 0.678431
126.716629 98.661591 7.208101 0.396002
126.716629 98.661591 5.712075 0.404410
126.716629 98.661583 4.224060 0.419379
126.716629 98.661583 2.740823 0.418845
126.716629 98.661583 1.259176 0.396170
122.970627 96.058052 0.000051 0.295079
109.570587 86.744774 0.000031 0.292180
103.817368 82.746185 0.000021 0.272587
100.613113 80.519173 0.000016 0.282307
97.664963 78.470154 0.199994 0.735744
96.385277 77.580750 0.200004 0.742947
95.442505 76.925507 0.200000 0.640009
126.745247 98.298134 13.294197 0.318532
126.716629 98.278542 11.730794 0.409964
126.716629 98.278534 10.197905 0.402396
126.745255 98.298141 8.688318 0.320424
126.716629 98.278542 7.183078 0.414389
126.716629 98.278542 5.694241 0.417533
126.716629 98.278542 4.213375 0.361898
126.716629 98.278542 2.737265 0.401190
126.716629 98.278542 1.262735 0.395499
123.131996 95.824097 0.000052 0.295750
109.667282 86.604614 0.000031 0.297154
103.886292 82.646286 0.000022 0.277104
100.666557 80.441689 0.000017 0.261585
97.704178 78.413300 0.199995 0.670176
96.418312 77.532852 0.200005 0.674434
95.470993 76.884209 0.200000 0.793179
126.796661 97.953125 13.256274 0.678431
126.716629 97.899139 11.684734 0.414694
126.716629 97.899147 10.159102 0.420356
126.796646 97.953117 8.665857 0.678431
126.716621 97.899139 7.158544 0.400168
126.716629 97.899147 5.676754 0.390845
126.716629 97.899147 4.202898 0.377172
126.716629 97.899139 2.733775 0.386816
126.716629 97.899147 1.266225 0.394308
123.291756 95.589035 0.000051 0.286107
109.762985 86.463768 0.000031 0.300267
103.954506 82.545898 0.000022 0.308629
100.719467 80.363838 0.000017 0.317784
97.742996 78.356186 0.199995 0.709194
96.451012 77.484726 0.200005 0.763622
95.499191 76.842720 0.200000 0.727459
126.796646 97.576462 13.203787 0.678431
126.716621 97.523293 11.639576 0.401862
126.716629 97.523300 10.121058 0.426093
126.796654 97.576469 8.634778 0.678431
126.716621 97.523300 7.134491 0.403800
126.716629 97.523300 5.659611 0.407614
126.716629 97.523300 4.192627 0.407965
126.716629 97.523300 2.730353 0.367788
126.716629 97.523300 1.269646 0.392676
123.449860 95.352859 0.000052 0.294301
109.857719 86.322266 0.000031 0.290593
104.022026 82.445038 0.000022 0.281041
99.648972 79.539597 0.199988 0.702922
97.781418 78.298798 0.199994 0.669566
96.483376 77.436378 0.200006 0.689219
95.527100 76.801033 0.200000 0.697688
126.745224 97.169647 13.136936 0.260166
126.716629 97.150925 11.595304 0.408820
126.716629 97.150932 10.083760 0.411383
126.745224 97.169647 8.595186 0.263218
126.716621 97.150925 7.110910 0.388876
126.716629 97.150932 5.642804 0.379477
126.716629 97.150932 4.182556 0.400366
126.716629 97.150925 2.726999 0.417288
126.716629 97.150925 1.273001 0.406973
123.606293 95.115585 0.000052 0.293828
109.951454 86.180107 0.000031 0.280949
104.088837 82.343719 0.000022 0.307134
99.695602 79.468864 0.199989 0.761257
97.819435 78.241142 0.199994 0.707469
96.515404 77.387802 0.200007 0.714107
95.554718 76.759148 0.199999 0.756008
126.796654 96.833519 13.101885 0.678431
126.716614 96.781944 11.551899 0.376471
126.716621 96.781944 10.047193 0.399893
126.796654 96.833519 8.574430 0.678431
126.716629 96.781944 7.087791 0.448341
126.716629 96.781952 5.626325 0.419059
126.716621 96.781944 4.172684 0.411795
126.716621 96.781944 2.723711 0.372030
126.716621 96.781944 1.276290 0.388556
123.761078 94.877228 0.000052 0.294911
110.044197 86.037300 0.000031 0.305196
104.154938 82.241928 0.000022 0.316167
99.741730 79.397812 0.199990 0.702358
97.857048 78.183212 0.199995 0.737774
96.547089 77.339005 0.200007 0.692241
95.582047 76.717079 0.199999 0.683909
126.716614 96.416260 13.028682 0.395727
126.716629 96.416260 11.509347 0.396811
126.716621 96.416260 10.011345 0.408988
126.796661 96.467056 8.545143 0.678431
126.716629 96.416260 7.065127 0.423194
126.716629 96.416267 5.610169 0.393439
126.716629 96.416267 4.163004 0.416983
126.716621 96.416260 2.720487 0.417304
126.716629 96.416267 1.279513 0.406149
123.914215 94.637802 0.000052 0.285863
110.135941 85.893845 0.000031 0.282307
104.220329 82.139679 0.000022 0.273884
99.787369 79.326439 0.199991 0.706752
97.894257 78.125031 0.199995 0.671061
96.578438 77.289986 0.200008 0.700008
95.609077 76.674812 0.199998 0.709484
126.716614 96.053802 12.980302 0.401877
126.716629 96.053810 11.467634 0.390723
126.716621 96.053810 9.976200 0.416190
126.796654 96.103821 8.516430 0.678431
126.716621 96.053802 7.042906 0.431373
126.716629 96.053810 5.594332 0.418921
126.716629 96.053810 4.153516 0.396078
126.716629 96.053810 2.717327 0.387533
126.716629 96.053810 1.282674 0.392370
124.065643 94.397293 0.000052 0.287434
110.226685 85.749756 0.000031 0.296529
104.285004 82.036980 0.000022 0.299779
99.832512 79.254753 0.199992 0.691051
97.931053 78.066589 0.199996 0.758862
96.609436 77.240753 0.200008 0.689479
95.635811 76.632362 0.199997 0.673594
126.716614 95.694496 12.932874 0.429908
126.716621 95.694504 11.426741 0.405447
126.716621 95.694504 9.941748 0.422232
126.796661 95.743744 8.488284 0.678431
126.716621 95.694504 7.021124 0.450858
126.716629 95.694504 5.578810 0.431586
126.716629 95.694504 4.144215 0.435996
126.716629 95.694504 2.714228 0.424887
126.716629 95.694504 1.285773 0.388113
124.215408 94.155746 0.000053 0.293950
110.316406 85.605026 0.000032 0.285237
104.348953 81.933823 0.000023 0.293202
99.877144 79.182747 0.199993 0.741848
97.967445 78.007896 0.199996 0.701457
96.640099 77.191299 0.200009 0.738338
95.662247 76.589729 0.199997 0.737118
126.716614 95.338272 12.886385 0.421347
126.716629 95.338272 11.386656 0.404578
126.716629 95.338272 9.907978 0.384894
126.796661 95.386742 8.460695 0.678431
126.716629 95.338272 6.999774 0.367056
126.716629 95.338272 5.563589 0.378439
126.716629 95.338272 4.135096 0.379446
126.716621 95.338272 2.711190 0.393484
126.716621 95.338272 1.288810 0.355138
124.363480 93.913155 0.000053 0.295842
110.405121 85.459679 0.000032 0.301411
104.412186 81.830231 0.000023 0.308141
99.921280 79.110435 0.199993 0.695827
98.003418 77.948936 0.199998 0.725460
96.670410 77.141640 0.200009 0.708232
95.733711 76.574356 0.186723 0.727749
126.716614 94.985039 12.840813 0.396078
126.796661 95.032753 11.367486 0.671931
126.716629 94.985046 9.874876 0.419638
126.796661 95.032753 8.433650 0.678431
126.716614 94.985039 6.978844 0.443427
126.716629 94.985046 5.548673 0.363470
126.716621 94.985046 4.126159 0.407660
126.716621 94.985039 2.708213 0.403403
126.716621 94.985039 1.291786 0.396490
124.509865 93.669556 0.000053 0.287297
110.492821 85.313721 0.000032 0.282383
104.474701 81.726196 0.000023 0.287068
99.964897 79.037811 0.199996 0.677607
98.038986 77.889740 0.199999 0.732998
96.700378 77.091774 0.200007 0.714641
95.832413 76.574356 0.165531 0.677043
126.716614 94.634735 12.796146 0.406943
126.745239 94.651527 11.316013 0.312108
126.716629 94.634735 9.842428 0.407843
126.745247 94.651535 8.398299 0.313222
126.716614 94.634735 6.958330 0.437507
126.716629 94.634735 5.534050 0.387015
126.716629 94.634735 4.117398 0.367483
126.716629 94.634743 2.705296 0.397452
126.716629 94.634743 1.294705 0.437644
124.654518 93.424904 0.000054 0.290852
110.579506 85.167145 0.000032 0.295109
104.536484 81.621727 0.000023 0.294133
100.008003 78.964882 0.199999 0.748577
98.074135 77.830292 0.200000 0.661662
96.730003 77.041695 0.200006 0.699367
95.933456 76.574364 0.143746 0.677821
126.716614 94.287292 12.752370 0.406302
126.796654 94.333496 11.291059 0.678431
126.716621 94.287292 9.810628 0.402625
126.796661 94.333496 8.381161 0.678431
126.716629 94.287292 6.938224 0.392370
126.716629 94.287292 5.519721 0.409674
126.716621 94.287292 4.108813 0.386282
126.716621 94.287292 2.702436 0.394934
126.716621 94.287292 1.297565 0.396078
124.797485 93.179276 0.000054 0.290944
110.665161 85.019974 0.000032 0.286397
104.597534 81.516830 0.000022 0.279927
100.050598 78.891655 0.200002 0.709773
98.108887 77.770607 0.199998 0.698039
96.759277 76.991409 0.200005 0.760052
96.036926 76.574364 0.121346 0.731945
126.716621 93.942635 12.709466 0.399161
126.796654 93.988098 11.253985 0.678431
126.716629 93.942642 9.779461 0.440726
126.796661 93.988098 8.355698 0.678431
126.716614 93.942627 6.918519 0.392889
126.716629 93.942642 5.505675 0.408576
126.716621 93.942635 4.100398 0.419608
126.716621 93.942635 2.699632 0.429038
126.716621 93.942635 1.300367 0.431327
124.938736 92.932648 0.000053 0.293019
110.749786 84.872208 0.000032 0.298741
104.657852 81.411507 0.000023 0.274174
100.092697 78.818138 0.200003 0.683406
98.143219 77.710686 0.199996 0.679255
96.788193 76.940926 0.200004 0.700923
96.142929 76.574364 0.098304 0.751003
126.716621 93.600708 12.667419 0.410330
126.796654 93.645432 11.217655 0.678431
126.716629 93.600708 9.748918 0.407752
126.796654 93.645432 8.330744 0.678431
126.716614 93.600700 6.899208 0.390509
126.716629 93.600708 5.491912 0.396078
126.716629 93.600708 4.092152 0.408942
126.716621 93.600708 2.696886 0.396979
126.716621 93.600708 1.303114 0.405066
125.078239 92.685043 0.000054 0.289494
110.833374 84.723862 0.000032 0.285100
104.717430 81.305771 0.000023 0.277882
100.134270 78.744331 0.200005 0.686595
98.177132 77.650520 0.199993 0.673442
96.816765 76.890236 0.200002 0.674128
96.251564 76.574356 0.074596 0.732830
126.716614 93.261421 12.626217 0.400961
126.796654 93.305420 11.182053 0.678431
126.716629 93.261429 9.718990 0.386084
126.796661 93.305428 8.306293 0.678431
126.716614 93.261421 6.880286 0.409583
126.716629 93.261429 5.478426 0.406195
126.716629 93.261429 4.084070 0.403998
126.716629 93.261429 2.694194 0.399207
126.716629 93.261429 1.305806 0.401846
125.216019 92.436462 0.000054 0.293187
110.915924 84.574921 0.000032 0.288945
104.776276 81.199615 0.000023 0.285969
100.175346 78.670235 0.200004 0.693919
98.210625 77.590126 0.199991 0.749325
96.844978 76.839355 0.200001 0.673426
96.362953 76.574356 0.050192 0.644572
126.716614 92.924744 12.585846 0.395697
126.796654 92.968018 11.147168 0.678431
126.716621 92.924744 9.689663 0.404944
126.796654 92.968018 8.282335 0.678431
126.716614 92.924744 6.861745 0.395682
126.716629 92.924751 5.465211 0.412985
126.716614 92.924744 4.076152 0.411215
126.716629 92.924744 2.691558 0.400229
126.716629 92.924751 1.308443 0.395575
125.352058 92.186928 0.000054 0.289906
110.997444 84.425415 0.000033 0.281453
104.834366 81.093056 0.000023 0.302708
100.215919 78.595871 0.200000 0.724514
98.243683 77.529488 0.199991 0.680735
96.872833 76.788269 0.199999 0.747143
96.477211 76.574356 0.025066 0.662058
126.716614 92.590591 12.546294 0.398566
126.796646 92.633148 11.112989 0.678431
126.716621 92.590599 9.660933 0.397543
126.796654 92.633148 8.258861 0.678431
126.716614 92.590591 6.843580 0.406714
126.716629 92.590599 5.452264 0.425742
126.716621 92.590599 4.068396 0.389746
126.716614 92.590591 2.688973 0.393774
126.716621 92.590599 1.311027 0.397131
125.486374 91.936462 0.000054 0.290181
111.077911 84.275345 0.000033 0.292927
104.891716 80.986092 0.000023 0.324956
100.255966 78.521217 0.199998 0.668025
98.276321 77.468620 0.199991 0.753948
96.900337 76.737000 0.199998 0.668147
96.594460 76.574364 -0.000818 0.792615
126.716614 92.258919 12.507545 0.436484
126.745239 92.273880 11.066978 0.286397
126.716629 92.258926 9.632786 0.363653
126.745239 92.273880 8.227259 0.288258
126.716614 92.258919 6.825784 0.388724
126.716629 92.258926 5.439579 0.359258
126.716614 92.258919 4.060797 0.401495
126.716629 92.258926 2.686441 0.396811
126.716629 92.258926 1.313558 0.405493
125.618912 91.685059 0.000054 0.291905
111.157326 84.124718 0.000033 0.279484
104.948318 80.878731 0.000023 0.282246
100.295509 78.446297 0.199993 0.704326
98.308533 77.407532 0.199991 0.670314
96.927475 76.685532 0.199997 0.721798
96.617599 76.523529 -0.000007 0.334127
126.716614 91.929649 12.469590 0.407340
126.796646 91.970779 11.046711 0.678431
126.716621 91.929657 9.605215 0.419608
126.796654 91.970787 8.213340 0.678431
126.716614 91.929649 6.808351 0.399405
126.716621 91.929657 5.427155 0.431754
126.541092 91.839447 4.043657 0.250248
126.716621 91.929657 2.683962 0.423819
126.716629 91.929657 1.316038 0.405020
125.749710 91.432724 0.000055 0.295750
111.235687 83.973534 0.000033 0.281529
105.004181 80.770981 0.000023 0.312047
100.334526 78.371101 0.199988 0.726375
98.340317 77.346214 0.199991 0.672770
96.954247 76.633873 0.199998 0.676829
96.643250 76.474045 -0.000007 0.341924
126.716614 91.602745 12.432414 0.450431
126.796654 91.643173 11.014589 0.678431
126.716629 91.602753 9.578209 0.418021
126.796661 91.643173 8.191278 0.678431
126.716614 91.602745 6.791278 0.446067
126.716629 91.602753 5.414986 0.411109
126.672943 91.580681 4.043657 0.256718
126.716629 91.602745 2.681534 0.396735
126.716629 91.602745 1.318467 0.393591
125.878723 91.179489 0.000055 0.288594
111.312988 83.821808 0.000033 0.282002
105.059280 80.662842 0.000023 0.286854
100.373001 78.295624 0.199986 0.762173
98.371666 77.284683 0.199991 0.745678
96.980659 76.582031 0.199998 0.752972
96.632896 76.406364 0.009999 1.000000
126.716614 91.278130 12.396006 0.419547
126.796646 91.317856 10.983127 0.678431
126.716621 91.278137 9.551762 0.400443
126.796661 91.317863 8.169672 0.669581
126.716614 91.278130 6.774557 0.430869
126.716629 91.278137 5.403067 0.397314
126.802979 91.320999 4.043657 0.253223
126.716614 91.278130 2.679154 0.385199
126.716614 91.278130 1.320846 0.424109
126.005989 90.925369 0.000055 0.288914
111.389236 83.669556 0.000033 0.285054
105.113625 80.554314 0.000023 0.325322
100.410919 78.219872 0.199987 0.683543
98.402596 77.222931 0.199991 0.666362
97.096046 76.574348 0.178458 0.688548
96.657722 76.356766 0.010003 1.000000
126.716614 90.955757 12.360353 0.419532
126.750412 90.972244 10.941210 0.332448
126.716621 90.955765 9.525864 0.396216
126.716629 90.955765 8.135303 0.409125
126.716614 90.955765 6.758183 0.429145
126.716621 90.955765 5.391397 0.438422
126.931213 91.060425 4.043657 0.254719
126.716614 90.955765 2.676825 0.402747
126.716621 90.955765 1.323174 0.406470
126.131470 90.670364 0.000055 0.293156
111.464424 83.516769 0.000033 0.299443
105.167213 80.445412 0.000023 0.278096
100.448318 78.143860 0.199988 0.698131
98.433083 77.160965 0.199991 0.757458
97.230354 76.574348 0.152430 0.674006
96.682190 76.306992 0.010009 1.000000
126.716614 90.635574 12.325450 0.415702
126.796646 90.673920 10.922157 0.678431
126.716629 90.635582 9.500509 0.386282
126.716621 90.635582 8.114633 0.396216
126.716614 90.635574 6.742152 0.396551
126.716621 90.635582 5.379971 0.437461
126.796646 90.673920 4.029441 0.678431
126.716621 90.635582 2.674545 0.407599
126.716629 90.635582 1.325454 0.407843
126.255142 90.414474 0.000056 0.292042
111.538521 83.363457 0.000033 0.282673
105.220024 80.336136 0.000024 0.280262
100.485184 78.067581 0.199989 0.745296
98.463150 77.098785 0.199989 0.690089
97.368568 76.574348 0.125554 0.717556
96.706390 76.257088 0.009991 1.000000
126.716614 90.317528 12.291275 0.444389
126.796646 90.355194 10.892632 0.678431
126.716621 90.317535 9.475683 0.404288
126.716621 90.317535 8.094398 0.395422
126.716614 90.317528 6.726457 0.398383
126.716621 90.317535 5.368784 0.388251
126.796646 90.355194 4.022725 0.678431
126.716621 90.317535 2.672313 0.374060
126.716621 90.317535 1.327687 0.385458
126.377045 90.157738 0.000056 0.288579
111.611557 83.209633 0.000033 0.306050
103.699196 79.486359 0.200003 0.732540
100.521484 77.991043 0.199994 0.698009
98.492775 77.036400 0.199989 0.676020
97.510880 76.574356 0.097788 0.664897
96.766296 76.223984 -0.000008 0.338018
126.716614 90.001572 12.257830 0.379370
126.796646 90.038544 10.863728 0.678431
126.716614 90.001572 9.451385 0.330373
126.716629 90.001572 8.074589 0.398810
126.716614 90.001564 6.711096 0.394705
126.716629 90.001572 5.357835 0.396033
126.796646 90.038544 4.016151 0.678431
126.716621 90.001572 2.670128 0.376242
126.716621 90.001572 1.329872 0.372091
126.497162 89.900162 0.000056 0.289540
111.683533 83.055305 0.000033 0.297047
103.745361 79.387360 0.200003 0.716884
100.557259 77.914246 0.200000 0.670542
98.521957 76.973808 0.199990 0.710369
97.657471 76.574356 0.069094 0.688396
96.789856 76.173462 -0.000008 0.335317
126.716621 89.687637 12.225095 0.377432
126.796646 89.723938 10.835442 0.678431
126.716621 89.687637 9.427607 0.405966
126.716621 89.687637 8.055204 0.407935
126.716614 89.687637 6.696062 0.398489
126.716621 89.687637 5.347119 0.433005
126.796646 89.723938 4.009717 0.678431
126.716621 89.687637 2.667989 0.423239
126.716621 89.687637 1.332011 0.430228
126.615479 89.641754 0.000056 0.291203
111.754410 82.900475 0.000034 0.304402
103.790833 79.288040 0.200003 0.706905
100.592514 77.837212 0.200002 0.666972
98.550697 76.911011 0.199991 0.686915
97.808533 76.574348 0.039429 0.689662
96.813065 76.122780 -0.000008 0.342458
126.716614 89.375687 12.193060 0.390295
126.796646 89.411316 10.807762 0.678431
126.716621 89.375687 9.404340 0.387243
126.716614 89.375687 8.036234 0.411109
126.716614 89.375687 6.681349 0.398581
126.716614 89.375687 5.336634 0.424887
126.796646 89.411316 4.003422 0.678431
126.716629 89.375687 2.665896 0.411292
126.716629 89.375687 1.334104 0.396078
126.731979 89.382523 0.000056 0.293050
111.824219 82.745163 0.000033 0.299886
103.835609 79.188400 0.200003 0.701259
100.627213 77.759933 0.200006 0.756405
98.579002 76.848015 0.199992 0.676875
97.964340 76.574341 0.008737 0.797269
96.835915 76.071938 -0.000008 0.340078
126.716614 89.065666 12.161723 0.379690
126.796646 89.100632 10.780685 0.678431
126.716629 89.065666 9.381576 0.396841
126.716621 89.065666 8.017677 0.390570
126.716614 89.065666 6.666958 0.409979
126.716629 89.065666 5.326377 0.406516
126.796654 89.100632 3.997262 0.678431
126.716621 89.065666 2.663849 0.443381
126.716629 89.065674 1.336151 0.405524
126.716629 89.065674 0.007028 0.418357
111.892937 82.589355 0.000033 0.289647
103.879692 79.088463 0.200003 0.732036
100.661392 77.682419 0.200007 0.744808
98.606873 76.784821 0.199993 0.751812
98.027390 76.531654 -0.000003 0.341588
96.858406 76.020935 -0.000009 0.338231
126.716614 88.757530 12.131071 0.407156
126.796646 88.791832 10.754196 0.678431
126.716621 88.757538 9.359310 0.365835
126.716614 88.757530 7.999523 0.445228
126.716614 88.757530 6.652880 0.379644
126.716621 88.757538 5.316341 0.364935
126.796646 88.791832 3.991237 0.678431
126.716614 88.757530 2.661848 0.344411
126.716614 88.757530 1.338153 0.428580
126.716621 88.757538 0.013040 0.418967
111.960556 82.433075 0.000034 0.284688
103.923073 78.988205 0.200003 0.715496
100.695015 77.604660 0.200011 0.680690
98.634293 76.721436 0.199994 0.655558
98.053062 76.472321 -0.000003 0.331807
96.880547 75.969780 -0.000008 0.338521
126.716614 88.451241 12.101091 0.395544
126.796646 88.484879 10.728293 0.678431
126.716621 88.451241 9.337534 0.386572
126.716614 88.451241 7.981770 0.422492
126.716614 88.451241 6.639112 0.449470
126.716629 88.451241 5.306529 0.397574
126.796646 88.484879 3.985345 0.678431
126.716614 88.451241 2.659888 0.396170
126.716621 88.451241 1.340111 0.396033
126.716621 88.451241 0.018919 0.424109
112.027092 82.276329 0.000034 0.305013
103.965752 78.887657 0.200003 0.717952
100.728104 77.526680 0.200012 0.686564
98.661270 76.657860 0.199995 0.739742
98.035614 76.394859 0.010005 1.000000
96.902321 75.918465 -0.000008 0.344503
126.716614 88.146744 12.071781 0.389212
126.796646 88.179726 10.702965 0.678431
126.716629 88.146744 9.316240 0.406485
126.716614 88.146744 7.964413 0.417121
126.716614 88.146736 6.625650 0.388235
126.716629 88.146744 5.296934 0.407156
126.796646 88.179726 3.979583 0.678431
126.716614 88.146744 2.657973 0.435920
126.716614 88.146744 1.342027 0.400809
126.716621 88.146744 0.024668 0.406790
112.092529 82.119125 0.000034 0.286351
104.007729 78.786812 0.200004 0.738552
100.760704 77.448486 0.200005 0.700481
98.687813 76.594101 0.199995 0.718074
98.060326 76.335472 0.010006 1.000000
96.923744 75.867004 -0.000007 0.339620
126.716614 87.843987 12.043127 0.397375
126.796638 87.876320 10.678204 0.678431
126.716629 87.843987 9.295427 0.408484
126.716614 87.843987 7.947445 0.447608
126.716614 87.843987 6.612490 0.396078
126.716629 87.843987 5.287555 0.384329
126.796646 87.876320 3.973952 0.678431
126.716614 87.843987 2.656101 0.372747
126.716614 87.843987 1.343898 0.394278
126.716629 87.843987 0.030288 0.419608
112.156860 81.961464 0.000034 0.289113
104.049004 78.685677 0.200003 0.704234
100.792747 77.370064 0.199999 0.748837
98.823288 76.574348 0.178529 0.760647
98.084686 76.275940 0.009992 1.000000
96.944801 75.815392 -0.000007 0.339544
126.716614 87.542938 12.015123 0.396078
126.796646 87.574623 10.654006 0.678431
126.716621 87.542938 9.275084 0.432517
126.716614 87.542938 7.930860 0.443000
126.716614 87.542938 6.599628 0.415198
126.716629 87.542938 5.278388 0.388968
126.796654 87.574623 3.968447 0.678431
126.716621 87.542938 2.654272 0.407691
126.716621 87.542938 1.345728 0.403616
126.716629 87.542938 0.035780 0.400931
112.220100 81.803360 0.000034 0.281727
104.089569 78.584251 0.200004 0.719768
100.824219 77.291412 0.199998 0.698451
99.013138 76.574356 0.146456 0.670466
98.151604 76.233246 -0.000003 0.343374
96.965500 75.763634 -0.000006 0.337453
126.716614 87.243546 11.987756 0.400671
126.796638 87.274582 10.630360 0.678431
126.716629 87.243546 9.255206 0.397452
126.716621 87.243546 7.914656 0.450477
126.716614 87.243546 6.587060 0.400778
126.716621 87.243546 5.269430 0.403265
126.796646 87.274582 3.963068 0.678431
126.716621 87.243546 2.652484 0.376944
126.716621 87.243546 1.347515 0.417868
126.716621 87.243546 0.041146 0.396735
112.282234 81.644821 0.000034 0.283436
104.129425 78.482552 0.200004 0.705470
100.855156 77.212547 0.199993 0.671717
99.209793 76.574356 0.113139 0.754086
98.175194 76.173058 -0.000003 0.335744
96.985840 75.711739 -0.000006 0.338338
126.716614 86.945770 11.961029 0.414054
126.716614 86.945770 10.588776 0.396078
126.716621 86.945770 9.235788 0.388647
126.716614 86.945770 7.898826 0.445624
126.716614 86.945770 6.574784 0.397726
126.716629 86.945778 5.260679 0.396078
126.796646 86.976173 3.957816 0.678431
126.716614 86.945770 2.650739 0.412711
126.716614 86.945770 1.349262 0.401602
126.716629 86.945778 0.046389 0.403845
112.343254 81.485847 0.000034 0.295216
104.168571 78.380569 0.200004 0.737636
100.885529 77.133461 0.199992 0.676539
99.413681 76.574364 0.078504 0.718639
98.198364 76.112701 -0.000003 0.335744
97.005814 75.659698 -0.000005 0.336309
126.716614 86.649574 11.934922 0.437156
126.716614 86.649574 10.566266 0.418708
126.716621 86.649574 9.216825 0.389899
126.716621 86.649574 7.883368 0.447272
126.716614 86.649567 6.562796 0.438025
126.716629 86.649574 5.252135 0.411994
126.796646 86.679337 3.952685 0.678431
126.716621 86.649574 2.649033 0.440314
126.716629 86.649574 1.350967 0.401907
126.716621 86.649574 0.051509 0.412055
112.403168 81.326447 0.000035 0.299580
104.207001 78.278320 0.200004 0.723095
100.915367 77.054176 0.199987 0.748699
99.625198 76.574364 0.042479 0.674769
98.221107 76.052185 -0.000003 0.330968
97.025421 75.607521 -0.000005 0.332662
126.716614 86.354904 11.909438 0.400763
126.716614 86.354904 10.544291 0.419608
126.716621 86.354912 9.198313 0.408804
126.716614 86.354904 7.868274 0.408576
126.716614 86.354904 6.551090 0.411582
126.716629 86.354912 5.243793 0.407797
126.796646 86.384033 3.947675 0.678431
126.716614 86.354912 2.647369 0.402930
126.716614 86.354912 1.352632 0.407340
126.716629 86.354912 0.056507 0.411276
112.461967 81.166641 0.000034 0.285054
104.244713 78.175804 0.200004 0.702678
100.944626 76.974670 0.199985 0.745037
99.844788 76.574364 0.004980 0.761166
98.243431 75.991516 -0.000003 0.341939
97.044670 75.555206 -0.000005 0.335775
126.716621 86.061737 11.884562 0.406790
126.716614 86.061737 10.522842 0.443320
126.716629 86.061737 9.180243 0.409705
126.716614 86.061737 7.853544 0.407843
126.716614 86.061737 6.539666 0.436728
126.716629 86.061737 5.235650 0.410941
126.796646 86.090233 3.942786 0.678431
126.716614 86.061737 2.645743 0.413230
126.716614 86.061737 1.354257 0.396994
126.716621 86.061737 0.061386 0.461433
112.519653 81.006424 0.000034 0.308553
104.281723 78.073029 0.200004 0.752667
100.973328 76.894966 0.199984 0.747738
99.896545 76.511543 -0.000009 0.336278
98.265327 75.930695 -0.000003 0.329824
97.063553 75.502754 -0.000005 0.337224
126.716629 85.770027 11.860291 0.396750
126.716614 85.770020 10.501913 0.379507
126.716614 85.770020 9.162611 0.393820
126.716614 85.770020 7.839170 0.430625
126.716614 85.770020 6.528519 0.379980
126.716621 85.770020 5.227705 0.381292
126.796646 85.797890 3.938015 0.678431
126.716614 85.770020 2.644158 0.393042
126.716614 85.770020 1.355843 0.403861
126.716621 85.770020 0.066146 0.429877
112.576202 80.845810 0.000035 0.293828
104.318008 77.970001 0.200004 0.711864
101.001434 76.815048 0.199989 0.660716
99.870132 76.421089 0.009991 1.000000
98.286804 75.869713 -0.000003 0.336980
97.082062 75.450180 -0.000004 0.342962
126.716614 85.479721 11.836616 0.397162
126.716614 85.479721 10.481502 0.368948
126.716621 85.479721 9.145414 0.395102
126.716614 85.479721 7.825150 0.395712
126.716614 85.479721 6.517646 0.404822
126.716621 85.479721 5.219955 0.393866
126.796646 85.506966 3.933362 0.678431
126.716614 85.479721 2.642611 0.420706
126.716621 85.479721 1.357390 0.402106
126.716621 85.479721 0.070789 0.378866
112.631645 80.684807 0.000034 0.303563
104.353561 77.866714 0.200004 0.709545
101.029007 76.734947 0.199991 0.668269
99.894875 76.348854 0.010013 1.000000
98.307846 75.808586 -0.000003 0.331853
97.100212 75.397476 -0.000003 0.328969
126.716621 85.190796 11.813535 0.400671
126.716614 85.190796 10.461597 0.416938
126.716629 85.190796 9.128646 0.418067
126.716614 85.190796 7.811481 0.394934
126.716614 85.190796 6.507045 0.413260
126.716614 85.190796 5.212398 0.410788
126.796646 85.217415 3.928824 0.678431
126.716621 85.190796 2.641103 0.419608
126.716629 85.190796 1.358898 0.450980
126.716629 85.190796 0.075316 0.351247
112.685959 80.523415 0.000035 0.289845
104.388405 77.763191 0.200004 0.739330
101.055992 76.654640 0.199996 0.736492
99.919235 76.276489 0.010013 1.000000
98.328468 75.747314 -0.000003 0.334707
97.117989 75.344643 -0.000003 0.333913
126.812691 84.934425 11.816336 0.404623
126.812683 84.934425 10.464013 0.400351
126.812698 84.934433 9.130684 0.396353
126.812683 84.934425 7.813138 0.416739
126.812683 84.934425 6.508331 0.408850
126.812698 84.934433 5.213316 0.402167
127.064674 85.016304 3.938249 0.678431
126.812683 84.934425 2.641285 0.406073
126.812683 84.934425 1.358714 0.438514
126.812691 84.934425 0.074767 0.412192
112.739151 80.361656 0.000034 0.290867
104.422523 77.659424 0.200004 0.699580
101.083069 76.574364 0.199900 0.716381
99.995461 76.220978 -0.000009 0.341329
98.348648 75.685898 -0.000001 0.336126
97.135399 75.291687 -0.000003 0.337316
127.717499 84.934425 12.032130 0.387625
127.832100 84.970779 10.676049 0.423407
127.717514 84.934425 9.287439 0.395956
127.717491 84.934425 7.940932 0.378134
127.717499 84.934425 6.607440 0.419608
127.717499 84.934425 5.283955 0.404074
127.832092 84.970779 3.973462 0.422843
127.717499 84.934425 2.655384 0.410925
127.717499 84.934425 1.344617 0.400702
127.717499 84.934425 0.032444 0.402533
110.466461 79.462074 0.200013 0.702586
104.455917 77.555412 0.200004 0.714351
101.363235 76.574364 0.160331 0.688701
100.018921 76.147919 -0.000009 0.336263
98.368416 75.624344 -0.000001 0.325216
97.152435 75.238617 -0.000002 0.341360
128.663025 84.934418 12.258139 0.397147
128.780579 84.970810 10.871530 0.504372
128.663040 84.934425 9.451612 0.401770
128.663025 84.934418 8.074771 0.401495
128.663025 84.934418 6.711237 0.413413
128.663040 84.934425 5.357936 0.400381
128.780579 84.970810 4.017926 0.497704
128.663025 84.934418 2.670148 0.414694
128.663025 84.934418 1.329852 0.408850
128.430847 84.862549 0.000059 0.292821
110.512283 79.315826 0.200013 0.700557
104.488579 77.451180 0.200004 0.720500
101.656052 76.574364 0.118882 0.689677
100.041855 76.074692 -0.000007 0.337423
98.387741 75.562653 0.000000 0.341207
97.169106 75.185425 -0.000002 0.326543
129.652176 84.934418 12.495080 0.424872
129.772797 84.970833 11.076466 0.487678
129.652191 84.934418 9.623732 0.389563
129.772797 84.970833 8.233777 0.475868
129.652176 84.934418 6.820058 0.430564
129.652191 84.934418 5.435498 0.444419
129.652191 84.934418 4.058352 0.432349
129.652191 84.934418 2.685628 0.413947
129.652191 84.934418 1.314373 0.401389
128.513947 84.590759 0.000059 0.292363
110.557098 79.169273 0.200013 0.714244
104.520515 77.346718 0.200004 0.678996
101.962334 76.574356 0.075436 0.711452
100.064293 76.001305 -0.000007 0.332586
98.406647 75.500832 0.000000 0.328679
97.185402 75.132118 -0.000002 0.331762
130.688171 84.934410 12.743768 0.427207
130.811813 84.970802 11.291520 0.502846
130.688171 84.934418 9.804380 0.405234
130.811813 84.970802 8.381475 0.508782
130.688171 84.934410 6.934273 0.421027
130.688187 84.934418 5.516905 0.424674
130.688171 84.934410 4.107126 0.392477
130.688171 84.934410 2.701874 0.410117
130.688171 84.934410 1.298126 0.366659
128.595154 84.318398 0.000059 0.296834
110.600876 79.022400 0.200013 0.702373
104.551720 77.242035 0.200004 0.680858
102.283142 76.574356 0.029831 0.683879
100.086212 75.927765 -0.000006 0.340002
98.425102 75.438873 0.000002 0.341985
97.201324 75.078697 -0.000001 0.337423
131.774506 84.934402 13.005076 0.409186
131.774506 84.934410 11.488997 0.384573
131.774506 84.934410 9.994198 0.395270
132.191223 85.053902 8.581406 0.678431
131.774506 84.934410 7.054285 0.391714
131.774521 84.934410 5.602444 0.376669
131.774506 84.934410 4.158375 0.385519
131.774506 84.934410 2.718945 0.356756
131.774521 84.934410 1.281056 0.404868
128.674438 84.045479 0.000059 0.293858
110.643631 78.875229 0.200013 0.712627
104.582191 77.137138 0.200005 0.712276
102.502434 76.540779 -0.000017 0.335470
100.107620 75.854080 -0.000006 0.336553
98.443146 75.376793 0.000002 0.339055
97.216873 75.025169 -0.000001 0.343511
133.374710 85.062744 13.399521 0.678431
132.915054 84.934402 11.726023 0.403845
132.915054 84.934402 10.193887 0.434592
133.374725 85.062744 8.750689 0.678431
132.915054 84.934402 7.180538 0.418402
132.915054 84.934402 5.692429 0.400320
132.915054 84.934402 4.212289 0.409613
132.915039 84.934402 2.736903 0.398413
132.915039 84.934402 1.263097 0.394369
128.751785 83.772003 0.000060 0.294041
110.685364 78.727768 0.200013 0.702831
104.611938 77.032036 0.200005 0.682612
102.463028 76.432045 0.009999 1.000000
100.128510 75.780243 -0.000006 0.338064
98.460739 75.314590 0.000003 0.337697
97.232048 74.971535 -0.000000 0.343038
134.618927 85.071556 13.700579 0.678431
134.114105 84.934402 11.975695 0.414771
134.114105 84.934402 10.404228 0.392645
134.618927 85.071564 8.928972 0.569879
134.114105 84.934402 7.313525 0.413901
134.618927 85.071564 5.830111 0.678431
134.114105 84.934402 4.269081 0.390127
134.114105 84.934402 2.755819 0.410742
134.114105 84.934402 1.244180 0.382498
128.827271 83.498001 0.000060 0.291737
110.726059 78.580009 0.200014 0.707881
104.640945 76.926720 0.200005 0.675731
102.487900 76.341751 0.009999 1.000000
100.148880 75.706253 -0.000005 0.329244
98.477905 75.252258 0.000003 0.338415
97.246849 74.917793 -0.000000 0.331380
135.376373 84.934395 13.874952 0.407706
135.376373 84.934395 12.239033 0.402502
135.766815 85.037552 10.699562 0.261173
135.376389 84.934395 9.032236 0.415381
135.376373 84.934395 7.453790 0.397482
135.766830 85.037552 5.920302 0.254612
135.376389 84.934395 4.328980 0.396689
135.376373 84.934395 2.775773 0.406668
135.376373 84.934395 1.224228 0.441489
128.900818 83.223480 0.000060 0.292332
110.765724 78.431976 0.200014 0.703105
104.669212 76.821213 0.200005 0.674784
102.512146 76.251289 0.009999 1.000000
100.168747 75.632133 -0.000005 0.337545
98.494629 75.189819 0.000005 0.339040
97.261276 74.863953 0.000000 0.321157
136.707199 84.934387 14.197545 0.415076
136.707199 84.934387 12.517183 0.389166
136.849014 84.970802 10.887055 0.423697
136.707214 84.934395 9.223270 0.395254
136.707199 84.934387 7.601946 0.405447
136.849030 84.970802 6.004796 0.399954
136.707199 84.934387 4.392248 0.373526
136.707199 84.934387 2.796846 0.394522
136.707199 84.934387 1.203154 0.385611
128.972443 82.948441 0.000061 0.292943
110.804352 78.283669 0.200014 0.705303
104.696747 76.715500 0.200005 0.677791
102.601151 76.177444 -0.000017 0.330144
100.188080 75.557877 -0.000004 0.329595
98.510925 75.127258 0.000005 0.330968
97.275330 74.810005 0.000000 0.340795
138.112396 84.934387 14.538774 0.401038
138.112396 84.934387 12.811405 0.407523
138.737625 85.090271 11.225535 0.678431
138.112411 84.934387 9.425344 0.415198
138.112411 84.934387 7.758665 0.396536
138.737625 85.090271 6.157324 0.678431
138.112411 84.934387 4.459171 0.414466
138.112411 84.934387 2.819139 0.404410
138.112411 84.934387 1.180861 0.413718
129.042175 82.672928 0.000061 0.291432
110.841942 78.135101 0.200014 0.698497
104.723541 76.609604 0.200005 0.692119
102.624237 76.086189 -0.000016 0.337438
100.206902 75.483482 -0.000004 0.345159
98.526779 75.064583 0.000006 0.338766
97.289001 74.755966 0.000000 0.340246
139.598618 84.934395 14.900309 0.401556
139.792694 84.981346 13.166257 0.240833
139.598618 84.934395 11.370910 0.415976
139.598618 84.934395 9.639440 0.385351
139.598618 84.934395 7.924703 0.399496
139.792679 84.981339 6.239206 0.233570
139.598633 84.934395 4.530078 0.405615
139.598633 84.934395 2.842757 0.408392
139.598633 84.934395 1.157242 0.395727
129.109970 82.396919 0.000060 0.291203
110.878502 77.986267 0.200014 0.722835
105.042389 76.574364 0.165351 0.687968
102.646698 75.994781 -0.000016 0.333608
100.225212 75.408966 -0.000004 0.336431
98.542198 75.001801 0.000006 0.336416
97.302292 74.701836 0.000001 0.340856
141.173187 84.934402 15.283984 0.398627
141.805603 85.082733 13.594248 0.342458
141.173187 84.934402 11.649615 0.372824
141.173187 84.934402 9.866648 0.400580
141.173187 84.934402 8.100912 0.410788
141.805618 85.082733 6.401690 0.337484
141.173187 84.934402 4.605328 0.400534
141.173187 84.934402 2.867822 0.404990
141.173187 84.934402 1.132178 0.398001
129.175827 82.120445 0.000061 0.290761
110.914017 77.837181 0.200014 0.704082
105.529961 76.574364 0.110787 0.758312
102.668503 75.903214 -0.000017 0.334142
100.242989 75.334312 -0.000003 0.338979
98.557175 74.938911 0.000008 0.333974
97.315208 74.647614 0.000002 0.330694
143.453690 85.072853 15.848385 0.678431
142.874893 84.941353 13.812407 0.427161
142.844330 84.934410 11.945900 0.420462
142.844330 84.934410 10.108188 0.429450
143.453690 85.072853 8.360126 0.678431
142.890182 84.944824 6.485799 0.475471
142.844345 84.934410 4.685322 0.439536
142.844345 84.934410 2.894468 0.431403
142.844345 84.934410 1.105533 0.378302
129.239761 81.843529 0.000061 0.293828
110.948502 77.687851 0.200014 0.697383
106.047440 76.574364 0.052781 0.673686
102.689682 75.811501 -0.000016 0.333364
100.260254 75.259544 -0.000003 0.337118
98.571716 74.875916 0.000008 0.339864
97.327751 74.593300 0.000002 0.330449
144.786667 84.970741 16.168659 0.342870
144.621475 84.934418 14.180221 0.409674
144.621460 84.934418 12.261474 0.403204
144.621460 84.934418 10.365455 0.406363
144.786667 84.970741 8.507217 0.355703
144.621460 84.934418 6.624151 0.391928
144.621475 84.934418 4.770525 0.395148
144.621460 84.934418 2.922847 0.399924
144.621460 84.934418 1.077152 0.402533
129.301758 81.566162 0.000061 0.293263
110.981926 77.538284 0.200014 0.703212
106.521423 76.557579 -0.000012 0.334005
102.710213 75.719635 -0.000016 0.341802
100.276993 75.184654 -0.000003 0.338735
98.585815 74.812828 0.000008 0.336690
97.339905 74.538895 0.000002 0.340124
146.515167 84.934433 16.589928 0.417227
146.515152 84.934425 14.579984 0.432731
146.515137 84.934425 12.598263 0.401587
146.837936 85.003036 10.688963 0.261646
146.837921 85.003036 8.738652 0.259907
146.515167 84.934433 6.775920 0.415595
146.515167 84.934433 4.861454 0.401862
146.515167 84.934425 2.953137 0.415045
146.515167 84.934425 1.046863 0.394202
129.361816 81.288376 0.000061 0.291752
111.014313 77.388496 0.200014 0.714931
106.461990 76.420868 0.009993 1.000000
102.730103 75.627632 -0.000016 0.338079
100.293198 75.109650 -0.000002 0.336645
98.599472 74.749641 0.000009 0.336629
97.351685 74.484413 0.000002 0.343725
148.537445 84.934433 17.085781 0.385687
148.537460 84.934441 15.007532 0.417273
148.537445 84.934433 12.958459 0.420554
148.850845 84.998764 10.981115 0.258701
148.537445 84.934433 8.928422 0.400275
148.537460 84.934441 6.938234 0.405722
148.537460 84.934441 4.958705 0.429129
148.537460 84.934441 2.985530 0.415229
148.537460 84.934441 1.014469 0.402640
129.419952 81.010178 0.000061 0.291676
111.045647 77.238480 0.200014 0.704585
106.486694 76.302658 0.009993 1.000000
102.749352 75.535492 -0.000016 0.339330
100.308891 75.034538 -0.000002 0.332815
98.612694 74.686356 0.000010 0.333471
97.363083 74.429848 0.000003 0.332403
150.702179 84.934448 17.617325 0.395911
150.702179 84.934448 15.465846 0.429618
150.885605 84.970772 13.378600 0.375174
150.885590 84.970772 11.276166 0.381277
150.702164 84.934448 9.172542 0.413489
150.702179 84.934448 7.112231 0.420905
150.702164 84.934448 5.062953 0.388846
150.702164 84.934448 3.020255 0.399725
150.702164 84.934448 0.979745 0.403189
129.476120 80.731583 0.000061 0.295155
111.075943 77.088249 0.200014 0.726589
106.595879 76.201172 -0.000012 0.340597
102.767960 75.443222 -0.000016 0.332723
100.324059 74.959312 -0.000002 0.334020
98.625465 74.622986 0.000011 0.336065
97.374100 74.375206 0.000003 0.344671
153.550629 85.034698 18.322510 0.678431
153.550629 85.034706 16.073887 0.678431
153.310471 84.988892 13.812344 0.497841
153.025131 84.934464 11.586678 0.400229
153.025116 84.934456 9.434867 0.409583
153.025131 84.934464 7.299204 0.393500
153.025131 84.934464 5.174975 0.398459
153.025131 84.934464 3.057569 0.409949
153.025131 84.934464 0.942430 0.390249
129.530334 80.452591 0.000061 0.293431
111.105186 76.937805 0.200014 0.689479
106.619034 76.082024 -0.000012 0.339010
102.785919 75.350822 -0.000016 0.336812
100.338692 74.883987 -0.000000 0.335012
98.637794 74.559525 0.000011 0.337591
97.384735 74.320488 0.000004 0.343130
155.524582 84.934479 18.803909 0.423377
155.524597 84.934479 16.488964 0.405020
155.524567 84.934471 14.206518 0.430594
155.524567 84.934471 11.951110 0.416068
155.524536 84.934471 9.717501 0.401892
155.524567 84.934471 7.500651 0.400870
155.524551 84.934471 5.295671 0.419089
155.524567 84.934471 3.097773 0.418311
155.524567 84.934471 0.902227 0.398688
125.578918 79.438416 0.200035 0.712474
111.133377 76.787163 0.200014 0.725582
106.641357 75.962723 -0.000012 0.335012
102.803238 75.258301 -0.000016 0.331823
100.352806 74.808563 -0.000000 0.330739
98.649689 74.495979 0.000011 0.337255
97.394989 74.265701 0.000003 0.338613
158.221710 84.934486 19.468830 0.395392
158.221710 84.934486 17.062283 0.417334
158.221680 84.934479 14.689525 0.406165
158.221680 84.934479 12.344871 0.394522
158.221680 84.934479 10.022877 0.404990
158.221680 84.934479 7.718307 0.403052
158.221680 84.934479 5.426079 0.401404
158.221680 84.934479 3.141209 0.402228
158.221680 84.934479 0.858789 0.409751
125.624207 79.186668 0.200035 0.701915
111.160507 76.636330 0.200015 0.717525
106.662857 75.843269 -0.000012 0.338125
102.819901 75.165657 -0.000016 0.332723
100.366394 74.733040 -0.000000 0.334325
98.661140 74.432358 0.000010 0.337697
97.404854 74.210838 0.000004 0.335500
nan nan nan 0.000000
nan nan nan 0.000000
nan nan nan 0.000000
nan nan nan 0.000000
nan nan nan 0.000000
nan nan nan 0.000000
nan nan nan 0.000000
nan nan nan 0.000000
nan nan nan 0.000000
125.667755 78.934616 0.200035 0.706737
111.713120 76.574364 0.156229 0.684871
106.683517 75.723671 -0.000012 0.335424
102.835922 75.072899 -0.000016 0.341680
100.379456 74.657425 -0.000000 0.337926
98.672150 74.368652 0.000010 0.336629
97.414345 74.155907 0.000004 0.344106
nan nan nan 0.000000
nan nan nan 0.000000
nan nan nan 0.000000
nan nan nan 0.000000
nan nan nan 0.000000
nan nan nan 0.000000
nan nan nan 0.000000
nan nan nan 0.000000
nan nan nan 0.000000
125.709518 78.682259 0.200036 0.711757
112.694992 76.574364 0.076801 0.703685
106.703339 75.603928 -0.000012 0.337438
102.851295 74.980034 -0.000016 0.338842
100.391983 74.581711 0.000001 0.327352
98.682709 74.304871 0.000010 0.340261
97.423447 74.100914 0.000004 0.337545
nan nan nan 0.000000
nan nan nan 0.000000
nan nan nan 0.000000
nan nan nan 0.000000
nan nan nan 0.000000
nan nan nan 0.000000
nan nan nan 0.000000
nan nan nan 0.000000
nan nan nan 0.000000
125.749527 78.429619 0.200036 0.703273
113.646278 76.555939 -0.000004 0.335790
106.722321 75.484055 -0.000012 0.337560
102.866028 74.887070 -0.000016 0.339742
100.403992 74.505920 0.000000 0.333639
98.692818 74.241020 0.000010 0.333745
97.432167 74.045860 0.000004 0.339940
nan nan nan 0.000000
nan nan nan 0.000000
nan nan nan 0.000000
nan nan nan 0.000000
nan nan nan 0.000000
nan nan nan 0.000000
nan nan nan 0.000000
nan nan nan 0.000000
nan nan nan 0.000000
125.787781 78.176712 0.200036 0.712474
