# This PCD file was generated using the MATLABÂ® pcwrite function
# from Computer Vision ToolboxÂ®.
# .PCD v.7 - Point Cloud Data file format
VERSION .7
FIELDS x y z intensity
SIZE 4 4 4 4
TYPE F F F F
COUNT 1 1 1 1
WIDTH 1264
HEIGHT 1
VIEWPOINT 0 0 0 1 0 0 0
POINTS 1264
DATA ascii
188.169373 185.756668 0.000040 0.336751
181.261322 186.925079 0.000019 0.332479
177.413895 187.575821 -0.000001 0.337957
174.957581 187.991287 -0.000010 0.325841
173.250305 188.280045 -0.000010 0.339117
171.992462 188.492798 -0.000008 0.340017
226.343536 178.852631 17.826677 0.621363
226.153519 178.886124 15.604687 0.646265
226.343506 178.852631 13.496648 0.603449
226.153503 178.886139 11.343785 0.700618
226.343536 178.852631 9.268692 0.618021
226.343536 178.852631 7.180761 0.501320
226.343506 178.852631 5.104012 0.579629
226.223541 178.873779 3.031937 0.126070
226.223541 178.873779 0.968062 0.069612
200.203094 183.461899 0.199995 0.704814
188.140381 185.588867 0.000040 0.338201
181.240662 186.805481 0.000019 0.338933
177.397873 187.483078 -0.000002 0.336248
174.944519 187.915665 -0.000010 0.333852
173.239304 188.216339 -0.000010 0.341634
171.982971 188.437866 -0.000009 0.336843
226.153534 178.439026 17.798185 0.448722
226.153534 178.439041 15.621787 0.527565
226.153519 178.439041 13.475952 0.576501
226.153503 178.439041 11.355528 0.643336
226.153534 178.439026 9.255606 0.677821
226.153519 178.439041 7.171433 0.611765
226.153519 178.439041 5.098423 0.605020
226.248535 178.421600 3.033651 0.678431
226.248535 178.421600 0.966349 0.678431
200.157990 183.210114 0.199986 0.711818
188.110245 185.421280 0.000039 0.340063
181.219177 186.686035 0.000019 0.337621
177.381210 187.390427 -0.000001 0.335531
174.930923 187.840149 -0.000009 0.332921
173.227859 188.152710 -0.000009 0.340719
171.973114 188.382996 -0.000010 0.331563
224.662064 178.275299 17.438507 0.637293
224.662033 178.275299 15.311659 0.545907
224.662048 178.275299 13.214679 0.652873
224.662048 178.275299 11.142532 0.641138
224.662048 178.275299 9.090414 0.538659
224.662048 178.275299 7.053697 0.569482
224.662048 178.275299 5.027883 0.648905
225.115875 178.188736 3.016132 0.274464
225.115860 178.188736 0.983866 0.291310
204.110901 182.195648 -0.000064 0.292592
188.078918 185.253906 0.000039 0.338582
181.196838 186.566742 0.000019 0.333181
177.363892 187.297913 -0.000001 0.341360
174.916809 187.764709 -0.000010 0.338796
173.215958 188.089172 -0.000008 0.336278
171.962860 188.328217 -0.000009 0.339910
222.446457 178.275360 16.893715 0.480095
222.446426 178.275360 14.841920 0.565072
222.446442 178.275360 12.818935 0.705837
222.446442 178.275360 10.819912 0.646311
222.446442 178.275360 8.840210 0.514687
222.446442 178.275360 6.875361 0.484154
222.446442 178.275360 4.921034 0.563088
222.926758 178.180252 2.980995 0.667796
222.926758 178.180252 1.019005 0.610910
204.056671 181.916641 -0.000064 0.294514
188.046432 185.086746 0.000039 0.339178
181.173691 186.447586 0.000019 0.339010
177.345932 187.205505 -0.000001 0.342855
174.902176 187.689392 -0.000010 0.327642
173.203629 188.025711 -0.000009 0.343954
171.952225 188.273499 -0.000011 0.338247
220.382614 178.275253 16.386951 0.657038
220.504761 178.250183 14.431908 0.719112
220.382599 178.275253 12.450820 0.539498
220.504761 178.250183 10.538315 0.708659
220.504776 178.250183 8.621817 0.489921
220.504761 178.250183 6.719704 0.534188
220.504761 178.250183 4.827773 0.568124
220.723572 178.205261 2.945572 0.117433
220.723572 178.205261 1.054427 0.152087
204.000458 181.638031 -0.000062 0.292699
188.012772 184.919830 0.000039 0.338460
181.150101 186.328537 -0.000028 0.336172
177.327332 187.113235 -0.000002 0.339284
174.887009 187.614166 -0.000010 0.330861
173.190842 187.962341 -0.000007 0.336309
171.941208 188.218857 -0.000011 0.327825
218.453796 178.275299 15.914016 0.681819
218.514877 178.262329 14.010673 0.534829
218.453812 178.275299 12.107277 0.502297
218.514893 178.262314 10.249010 0.499168
218.453812 178.275299 8.390268 0.640375
218.514877 178.262314 6.559784 0.713420
218.514877 178.262329 4.731957 0.439216
218.900620 178.180328 2.916456 0.679225
218.900620 178.180328 1.083544 0.678431
203.942337 181.359818 -0.000062 0.293370
187.977951 184.753143 0.000039 0.337346
181.125275 186.209732 -0.000028 0.338903
177.308075 187.021103 -0.000002 0.335882
174.871307 187.539047 -0.000010 0.334646
173.177628 187.899048 -0.000008 0.347463
171.929810 188.164291 -0.000011 0.336767
216.647827 178.275314 15.471853 0.674174
216.647827 178.275314 13.615940 0.597375
216.647827 178.275314 11.786085 0.720485
216.647827 178.275314 9.977905 0.592706
216.647827 178.275314 8.187197 0.663767
216.647812 178.275314 6.409924 0.690883
216.647827 178.275314 4.642172 0.639948
216.966263 178.205307 2.885429 0.161425
216.966263 178.205307 1.114570 0.160830
203.882278 181.082001 -0.000062 0.290608
187.941956 184.586716 0.000039 0.337469
181.099625 186.091095 -0.000028 0.340002
177.288193 186.929092 -0.000002 0.332753
174.855103 187.464050 -0.000010 0.333791
173.163956 187.835861 -0.000006 0.335744
171.918030 188.109802 -0.000011 0.345251
214.953033 178.275314 15.057550 0.543572
214.953049 178.275314 13.258716 0.592432
214.953033 178.275314 11.485132 0.645975
214.953049 178.275314 9.732558 0.647669
214.953049 178.275314 7.996923 0.491310
214.953049 178.275314 6.274308 0.549416
214.953064 178.275314 4.560919 0.774792
215.371475 178.180252 2.860052 0.677424
215.371460 178.180252 1.139948 0.677928
203.820282 180.804626 -0.000062 0.294148
187.904816 184.420532 0.000039 0.338613
181.073151 185.972641 -0.000028 0.335821
177.267654 186.837234 -0.000002 0.336706
174.838348 187.389160 -0.000010 0.340871
173.149857 187.772781 -0.000007 0.334051
171.905869 188.055405 -0.000010 0.334707
213.992813 178.126740 14.831564 0.522225
213.992798 178.126740 13.063856 0.731838
213.921631 178.143433 11.307670 0.643961
213.992798 178.126740 9.598726 0.546304
213.359406 178.275299 7.818285 0.604776
213.992813 178.126740 6.200330 0.694301
213.992798 178.126740 4.516595 0.614343
213.727905 178.188873 2.833813 0.189792
213.727905 178.188873 1.166187 0.078721
203.756332 180.527679 -0.000062 0.291890
187.866516 184.254608 0.000039 0.336645
181.045853 185.854385 -0.000028 0.336233
177.246490 186.745514 -0.000002 0.335836
174.821091 187.314392 -0.000010 0.337865
173.135315 187.709793 -0.000006 0.333013
171.893326 188.001083 -0.000010 0.337133
211.857635 178.275360 14.302656 0.511940
211.857635 178.275360 12.607821 0.437675
211.857635 178.275360 10.936772 0.555459
211.857635 178.275360 9.285519 0.707393
211.857635 178.275360 7.650224 0.727214
211.857635 178.275360 6.027198 0.532525
211.857635 178.275360 4.412864 0.531426
212.132904 178.208755 2.808347 0.177996
212.132904 178.208755 1.191652 0.094118
203.690460 180.251205 -0.000062 0.292699
187.709000 184.117523 0.009997 1.000000
180.933121 185.756790 0.009985 1.000000
177.224670 186.653961 -0.000002 0.339559
174.803314 187.239746 -0.000010 0.337606
173.120316 187.646896 -0.000005 0.335088
171.880402 187.946869 -0.000009 0.331090
210.440628 178.275269 13.957965 0.646738
210.440613 178.275269 12.310607 0.675868
210.440613 178.275269 10.686383 0.683925
210.440613 178.275269 9.081392 0.575830
210.440613 178.275269 7.491916 0.594858
210.440613 178.275269 5.914363 0.577249
210.440613 178.275269 4.345259 0.538323
210.721512 178.205231 2.785932 0.117327
210.721512 178.205231 1.214068 0.088029
203.622681 179.975174 -0.000062 0.293233
187.668594 183.952972 0.009997 1.000000
179.301575 186.039108 0.200010 0.719951
177.202209 186.562546 -0.000002 0.329381
174.785004 187.165222 -0.000010 0.333211
173.104904 187.584122 -0.000005 0.331472
171.867111 187.892731 -0.000010 0.341024
209.525330 178.166199 13.742405 0.796201
209.100189 178.275360 12.029942 0.507179
209.525330 178.166199 10.529795 0.671504
209.525330 178.166199 8.953739 0.671229
209.100174 178.275360 7.342417 0.556115
209.525345 178.166199 5.843802 0.666529
209.100159 178.275360 4.281418 0.482200
209.470200 178.180344 2.766181 0.678431
209.470200 178.180344 1.233819 0.628550
203.552933 179.699646 -0.000062 0.290562
187.744659 183.758514 0.000039 0.338033
179.274780 185.933212 0.200010 0.676066
177.179123 186.471283 -0.000002 0.335851
174.766174 187.090836 -0.000010 0.333974
173.089035 187.521439 -0.000005 0.332876
171.853424 187.838699 -0.000008 0.337011
207.831024 178.275345 13.324813 0.562081
207.831024 178.275345 11.764683 0.567681
207.831024 178.275345 10.226453 0.514260
207.831024 178.275345 8.706446 0.588129
207.831009 178.275345 7.201126 0.641993
207.831024 178.275345 5.707106 0.662394
207.831024 178.275345 4.221083 0.555566
208.157364 178.189117 2.745356 0.188144
208.157364 178.189117 1.254644 0.281376
203.481308 179.424591 -0.000062 0.292912
187.701736 183.593735 0.000038 0.336599
179.247238 185.827515 0.200011 0.678187
177.090286 186.397400 0.009988 1.000000
174.746841 187.016571 -0.000010 0.341360
173.072739 187.458878 -0.000005 0.337285
171.839386 187.784760 -0.000008 0.336477
207.246948 178.106964 13.194411 0.223163
206.627365 178.275299 11.513574 0.573770
207.246948 178.106964 10.131729 0.231983
207.246964 178.106964 8.629223 0.217990
207.246948 178.106964 7.141237 0.094118
207.246948 178.106964 5.664419 0.163821
206.627380 178.275299 4.163966 0.681880
206.977203 178.180252 2.726738 0.678431
206.977203 178.180252 1.273261 0.678431
203.407745 179.150055 -0.000062 0.290730
187.657669 183.429260 0.000038 0.338262
179.218964 185.722000 0.200012 0.679438
177.066040 186.306931 0.009988 1.000000
174.726974 186.942444 -0.000010 0.329946
173.056015 187.396439 -0.000005 0.332952
171.824951 187.730911 -0.000007 0.336797
205.483704 178.275345 12.757395 0.539925
205.483704 178.275345 11.275434 0.689479
205.483704 178.275345 9.814278 0.703700
205.483704 178.275345 8.370427 0.576226
205.483704 178.275345 6.940532 0.555184
205.483704 178.275345 5.521364 0.646998
205.483704 178.275345 4.109797 0.599207
205.734726 178.205261 2.707029 0.143496
205.734726 178.205261 1.292971 0.150729
203.332260 178.876038 -0.000062 0.291752
187.612457 183.265091 0.000038 0.340764
179.190109 185.616653 0.199993 0.677562
177.041168 186.216644 0.009988 1.000000
174.706604 186.868469 -0.000010 0.339132
173.038849 187.334106 -0.000005 0.333440
171.810150 187.677170 -0.000007 0.331930
204.396072 178.275314 12.495248 0.482368
205.011246 178.098923 11.187620 0.074510
205.011246 178.098923 9.740297 0.194217
204.396072 178.275314 8.215186 0.546395
205.011246 178.098923 6.893757 0.179797
205.011246 178.098923 5.488027 0.198764
204.396072 178.275314 4.058384 0.593713
204.640335 178.205276 2.689797 0.094118
204.640335 178.205276 1.310204 0.157809
203.254868 178.602554 -0.000061 0.289189
187.566086 183.101242 0.000038 0.338720
179.160431 185.511520 0.199985 0.688945
177.080414 186.107956 -0.000002 0.338476
174.685715 186.794632 -0.000010 0.338262
173.021240 187.271912 -0.000004 0.340490
171.794968 187.623535 -0.000006 0.327092
203.360046 178.275330 12.246041 0.533043
203.360031 178.275330 10.834520 0.463203
203.360046 178.275314 9.442825 0.599512
203.360046 178.275314 8.067608 0.405432
203.360046 178.275330 6.705682 0.564416
203.360046 178.275314 5.353976 0.620844
203.360046 178.275314 4.009508 0.510369
203.599457 178.204865 2.673442 0.094118
203.599457 178.204865 1.326558 0.195590
203.175552 178.329620 -0.000061 0.291020
187.518585 182.937714 0.000038 0.338628
179.129959 185.406616 0.199984 0.683238
176.861176 186.074371 0.029837 0.686381
174.664307 186.720932 -0.000010 0.340887
173.003204 187.209824 -0.000004 0.340230
171.779419 187.570007 -0.000006 0.339590
202.372162 178.275284 12.008905 0.564508
202.824036 178.138855 10.732001 0.616663
202.824036 178.138855 9.356453 0.647211
202.372177 178.275284 7.927180 0.354604
202.824036 178.138855 6.651075 0.281682
202.824036 178.138855 5.315055 0.362524
202.372177 178.275284 3.963000 0.693172
202.660431 178.188263 2.658794 0.094118
202.660431 178.188263 1.341207 0.160754
202.372162 178.275284 0.037000 0.494408
187.469940 182.774536 0.000038 0.338155
179.098724 185.301956 0.199987 0.687846
176.540405 186.074356 0.075436 0.704997
174.642380 186.647400 -0.000010 0.344366
172.984726 187.147873 -0.000003 0.336797
171.763489 187.516586 -0.000005 0.338430
201.428848 178.275269 11.782940 0.378744
201.428848 178.275269 10.435220 0.780118
201.428848 178.275269 9.106423 0.568551
201.428848 178.275269 7.793365 0.634180
201.428848 178.275269 6.492995 0.538750
201.428848 178.275269 5.202383 0.482292
201.428864 178.275269 3.918683 0.389563
201.654816 178.205322 2.642975 0.065919
201.654816 178.205322 1.357025 0.075441
201.428635 178.275330 0.081328 0.552789
187.420151 182.611694 0.000038 0.338125
179.066788 185.197479 0.199987 0.695598
176.234100 186.074356 0.118885 0.757153
174.619949 186.574020 -0.000010 0.334020
172.965836 187.086044 -0.000004 0.341924
171.747177 187.463287 -0.000004 0.337499
200.626434 178.243774 11.593498 0.551781
200.626434 178.243774 10.271880 0.558022
200.626434 178.243774 8.968813 0.556344
200.626419 178.243774 7.681180 0.625727
200.626434 178.243774 6.405991 0.515480
200.626434 178.243774 5.140372 0.605371
200.626434 178.243774 3.881529 0.526085
200.747742 178.205292 2.628812 0.163622
200.747742 178.205292 1.371189 0.181903
200.626434 178.243774 0.118471 0.500633
187.369232 182.449203 0.000038 0.334890
179.034149 185.093246 0.199984 0.745113
175.941315 186.074356 0.160329 0.681483
174.597000 186.500793 -0.000010 0.339010
172.946487 187.024368 -0.000003 0.330236
171.730515 187.410095 -0.000003 0.343557
200.626434 177.962631 11.615028 0.608484
200.626434 177.962631 10.290440 0.528588
200.626434 177.962631 8.984451 0.446891
200.626419 177.962631 7.693926 0.474830
200.626419 177.962631 6.415877 0.680034
200.626434 177.962631 5.147418 0.496208
200.626434 177.962631 3.885751 0.734096
200.721436 177.931763 2.629769 0.678431
200.721436 177.931763 1.370230 0.678431
200.626434 177.962631 0.114249 0.704082
187.317184 182.287064 0.000037 0.336706
179.000763 184.989243 0.199983 0.721813
175.661133 186.074356 0.199903 0.742489
174.573532 186.427734 -0.000010 0.339696
172.926727 186.962814 -0.000002 0.340810
171.713470 187.357025 -0.000003 0.328161
200.626434 177.680206 11.637123 0.548608
200.626434 177.680206 10.309494 0.514748
200.626434 177.680206 9.000500 0.547387
200.626434 177.680206 7.707013 0.636652
200.626419 177.680206 6.426025 0.559258
200.626419 177.680206 5.154650 0.590280
200.626419 177.680206 3.890084 0.648081
200.721451 177.648605 2.631217 0.678431
200.721451 177.648605 1.368784 0.678431
200.626434 177.680206 0.109915 0.591409
187.264008 182.125305 0.000037 0.338201
178.966568 184.885483 0.199993 0.712703
175.633942 185.994110 0.200016 0.725139
174.497391 186.372192 0.009996 1.000000
172.906540 186.901398 -0.000002 0.340841
171.696045 187.304077 -0.000001 0.337942
200.626419 177.396484 11.659791 0.602472
200.626434 177.396484 10.329037 0.589059
200.626434 177.396484 9.016968 0.323095
200.626419 177.396484 7.720436 0.501503
200.626419 177.396484 6.436436 0.732692
200.626419 177.396484 5.162072 0.488731
200.626419 177.396484 3.894529 0.536065
200.719238 177.364883 2.632664 0.228504
200.719238 177.364883 1.367337 0.137972
200.626434 177.396484 0.105469 0.487846
187.209686 181.963913 0.000037 0.336721
178.931595 184.782013 0.200009 0.735775
175.606918 185.913818 0.200016 0.662547
174.473038 186.299820 0.009996 1.000000
172.885910 186.840118 -0.000002 0.333944
171.678268 187.251236 -0.000002 0.331502
200.626419 177.111389 11.683039 0.612192
200.816422 177.045227 10.392535 0.678431
200.816437 177.045227 9.070462 0.678431
200.626419 177.111404 7.734203 0.591531
200.816437 177.045227 6.470261 0.678431
200.816422 177.045227 5.186179 0.678431
200.626419 177.111404 3.899088 0.590692
200.721420 177.078308 2.634224 0.678431
200.721420 177.078308 1.365776 0.678431
200.626434 177.111389 0.100909 0.510628
187.154251 181.802902 0.000037 0.338216
178.895966 184.678741 0.200016 0.734844
175.579346 185.833710 0.200015 0.663584
174.448181 186.227631 0.009996 1.000000
172.864868 186.778992 -0.000001 0.328084
171.660126 187.198532 -0.000001 0.344930
200.626419 176.824936 11.706872 0.584802
200.816406 176.757278 10.413192 0.678431
200.816422 176.757263 9.087868 0.678431
200.626419 176.824921 7.748318 0.585855
200.816422 176.757263 6.481264 0.678431
200.816422 176.757278 5.194022 0.678431
200.626404 176.824936 3.903763 0.544610
200.696442 176.799988 2.635351 0.062745
200.696442 176.799988 1.364649 0.062745
200.626434 176.824921 0.096235 0.519081
187.097687 181.642288 0.000037 0.338582
178.859741 184.575699 0.200010 0.726146
175.551208 185.753815 0.200014 0.702129
174.474625 186.137161 -0.000011 0.331518
172.843399 186.718018 -0.000001 0.335988
171.641602 187.145966 0.000000 0.340932
200.626419 176.537033 11.731302 0.530007
200.626419 176.537033 10.390696 0.756573
200.626419 176.537033 9.068913 0.767880
200.626419 176.537033 7.762784 0.551934
200.626419 176.537033 6.469279 0.462409
200.626434 176.537018 5.185481 0.609171
200.626419 176.537033 3.908555 0.495430
200.721420 176.502441 2.637386 0.678431
200.721420 176.502441 1.362615 0.678431
200.626434 176.537018 0.091443 0.563012
187.040009 181.482071 0.000037 0.338567
178.822815 184.472900 0.200001 0.710674
175.522522 185.674103 0.200014 0.739483
174.422821 186.074356 0.004988 0.719524
172.821487 186.657196 -0.000001 0.336461
171.622711 187.093521 0.000002 0.326146
200.626419 176.247665 11.756329 0.532341
200.626419 176.247665 10.412277 0.779828
200.626434 176.247665 9.087095 0.442847
200.626419 176.247665 7.777605 0.473915
200.626404 176.247665 6.480773 0.517540
200.626419 176.247665 5.193673 0.611734
200.626419 176.247665 3.913464 0.588663
200.696442 176.221619 2.638588 0.094118
200.696442 176.221619 1.361412 0.094118
200.626434 176.247665 0.086535 0.594980
186.981201 181.322266 0.000037 0.338674
178.785049 184.370392 0.200007 0.749447
175.493271 185.594604 0.200014 0.717464
174.203232 186.074356 0.042486 0.685618
172.799164 186.596527 -0.000001 0.330922
171.603470 187.041199 0.000002 0.344121
200.626404 175.956787 11.781964 0.417823
200.626419 175.956787 10.434381 0.625818
200.626419 175.956787 9.105714 0.465415
200.626419 175.956787 7.792786 0.755138
200.626419 175.956787 6.492547 0.620523
200.626419 175.956787 5.202063 0.592126
200.626404 175.956787 3.918491 0.559808
200.721436 175.920700 2.640704 0.678431
200.721436 175.920700 1.359297 0.678431
200.626419 175.956787 0.081508 0.511193
186.921310 181.162872 0.000036 0.336660
178.746536 184.268173 0.200016 0.716823
175.463455 185.515305 0.200014 0.689250
173.991730 186.074356 0.078508 0.708003
172.776428 186.536011 -0.000000 0.347478
171.583847 186.989029 0.000003 0.338018
200.626404 175.664368 11.808211 0.763836
200.626404 175.664368 10.457012 0.568307
200.626419 175.664368 9.124783 0.851011
200.626419 175.664368 7.808330 0.769497
200.626404 175.664368 6.504601 0.555962
200.626419 175.664368 5.210657 0.854414
200.626419 175.664368 3.923638 0.591455
200.721451 175.627502 2.642422 0.678431
200.721451 175.627502 1.357577 0.678431
200.626419 175.664368 0.076359 0.580423
186.860291 181.003906 0.000036 0.338750
178.707458 184.166183 0.200009 0.710964
175.433105 185.436218 0.200014 0.666377
173.787872 186.074356 0.113140 0.679103
172.753250 186.475662 0.000000 0.342504
171.563873 186.936981 0.000004 0.335073
200.626419 175.370361 11.835089 0.561273
200.816437 175.295120 10.524324 0.678431
200.816452 175.295120 9.181491 0.678431
200.626419 175.370361 7.824245 0.365927
200.816452 175.295120 6.540456 0.678431
200.816452 175.295120 5.236213 0.678431
200.626419 175.370361 3.928909 0.651987
200.721436 175.332733 2.644183 0.678431
200.721436 175.332733 1.355817 0.678431
200.626419 175.370361 0.071089 0.541985
186.798157 180.845352 0.000036 0.337942
178.667694 184.064438 0.199997 0.724468
175.402191 185.357330 0.200013 0.745159
173.591202 186.074356 0.146456 0.662242
172.729660 186.415466 0.000000 0.344457
171.543533 186.885086 0.000005 0.342336
200.626434 175.074722 11.862592 0.483711
200.816437 174.997955 10.548158 0.678431
200.816437 174.997955 9.201571 0.678431
200.626434 175.074707 7.840534 0.504921
200.816437 174.997955 6.553151 0.678431
200.816437 174.997940 5.245260 0.678431
200.626434 175.074707 3.934305 0.594308
200.721436 175.036331 2.645984 0.678431
200.721436 175.036331 1.354016 0.678431
200.626434 175.074722 0.065696 0.561608
186.734909 180.687256 0.000036 0.338277
178.627167 183.962997 0.199991 0.705333
175.370743 185.278687 0.200012 0.685588
173.401367 186.074356 0.178528 0.713695
172.662689 186.372803 0.010008 1.000000
171.522827 186.833344 0.000006 0.333303
200.626450 174.777390 11.890737 0.551690
200.626450 174.777390 10.528166 0.501579
200.626450 174.777390 9.184727 0.400610
200.626450 174.777390 7.857200 0.635569
200.626450 174.777390 6.542502 0.644419
200.626450 174.777390 5.237669 0.626993
200.626450 174.777390 3.939825 0.585687
200.721436 174.738235 2.647827 0.678431
200.721436 174.738235 1.352173 0.678431
200.626419 174.777405 0.060177 0.609842
186.670578 180.529587 0.000036 0.338048
178.585861 183.861877 0.199995 0.727382
175.338730 185.200241 0.200012 0.702632
173.265839 186.054626 0.200004 0.757031
172.638367 186.313248 0.010012 1.000000
171.501770 186.781723 0.000005 0.339529
200.626434 174.478378 11.919518 0.647517
200.626450 174.478378 10.552986 0.373342
200.626450 174.478378 9.205637 0.573114
200.626450 174.478378 7.874244 0.531838
200.626450 174.478378 6.555722 0.524453
200.626450 174.478378 5.247092 0.560708
200.626450 174.478378 3.945469 0.360159
200.721436 174.438446 2.649712 0.678431
200.721436 174.438446 1.350287 0.678431
200.626419 174.478378 0.054532 0.524849
186.605148 180.372391 0.000036 0.337285
178.543701 183.761108 0.200019 0.713970
175.306183 185.122040 0.200011 0.685832
173.239288 185.990875 0.200006 0.727718
172.613708 186.253845 0.009997 1.000000
171.480347 186.730270 0.000005 0.343389
200.626450 174.177582 11.948958 0.385885
200.626450 174.177582 10.578369 0.422553
200.626465 174.177582 9.227024 0.787243
200.626450 174.177582 7.891678 0.561593
200.626450 174.177582 6.569242 0.550881
200.626450 174.177582 5.256728 0.593362
200.626450 174.177582 3.951243 0.802426
200.721436 174.136871 2.651641 0.577325
200.721436 174.136871 1.348359 0.583398
200.626419 174.177597 0.048759 0.540597
186.538605 180.215637 0.000036 0.336583
178.500977 183.660568 0.200024 0.726131
175.273087 185.044052 0.200011 0.704051
173.212311 185.927292 0.200004 0.673472
172.631119 186.176392 0.000002 0.335180
171.458572 186.678955 0.000004 0.330053
200.626450 173.874985 11.979062 0.713909
200.626465 173.874985 10.604325 0.711437
200.626450 173.874985 9.248888 0.810437
200.626450 173.874985 7.909506 0.339742
200.626450 173.874985 6.583067 0.662150
200.626450 173.874985 5.266583 0.563653
200.626450 173.874985 3.957147 0.625513
200.721451 173.833481 2.653613 0.678431
200.721451 173.833481 1.346387 0.678431
200.626434 173.875000 0.042853 0.506035
186.470993 180.059357 0.000034 0.337072
178.457596 183.560318 0.200024 0.725460
175.239441 184.966309 0.200011 0.745190
173.184906 185.863907 0.200002 0.704051
172.605438 186.117065 0.000002 0.334737
171.436432 186.627792 0.000004 0.342260
200.626434 173.570541 12.009833 0.454017
200.816437 173.485962 10.675776 0.678431
200.816437 173.485947 9.309084 0.678431
200.626450 173.570541 7.927731 0.475990
200.816437 173.485947 6.621127 0.678431
200.816437 173.485947 5.293709 0.678431
200.626450 173.570541 3.963182 0.471962
200.696442 173.539383 2.655180 0.094118
200.696442 173.539383 1.344820 0.094118
200.626419 173.570557 0.036819 0.501900
186.402267 179.903549 0.000034 0.337865
178.413513 183.460388 0.200024 0.684581
175.205261 184.888794 0.200010 0.706477
173.157028 185.800720 0.200003 0.753521
172.542435 186.074356 0.008730 0.731548
171.413940 186.576797 0.000003 0.337331
200.626434 173.264206 12.041289 0.309972
200.816437 173.178009 10.703039 0.678431
200.816452 173.178009 9.332054 0.678431
200.626450 173.264191 7.946356 0.849683
200.816452 173.178009 6.635650 0.678431
200.816452 173.178009 5.304060 0.678431
200.626434 173.264191 3.969352 0.498802
200.701660 173.230072 2.657333 0.218677
200.701660 173.230087 1.342667 0.331090
200.626419 173.264206 0.030650 0.528252
186.332474 179.748230 0.000035 0.337240
178.368744 183.360748 0.200024 0.727779
175.170532 184.811523 0.200010 0.669734
173.128723 185.737732 0.200001 0.691936
172.386642 186.074341 0.039422 0.686778
171.391098 186.525955 0.000003 0.338811
200.626434 172.955917 12.073437 0.600244
200.626434 172.955917 10.685697 0.797879
200.626434 172.955917 9.317442 0.605356
200.626434 172.955917 7.965392 0.510201
200.626434 172.955917 6.626410 0.661357
200.626450 172.955917 5.297476 0.604349
200.626434 172.955917 3.975656 0.404578
200.721436 172.912018 2.659794 0.678431
200.721436 172.912018 1.340206 0.678431
200.626419 172.955917 0.024344 0.479088
186.261597 179.593414 0.000034 0.336767
178.323273 183.261429 0.200024 0.720958
175.135269 184.734497 0.200009 0.677668
173.099976 185.674927 0.199999 0.750957
172.235550 186.074356 0.069093 0.679500
171.367889 186.475266 0.000003 0.335180
200.626434 172.645630 12.106282 0.508736
200.626450 172.645630 10.714020 0.498436
200.626450 172.645630 9.341305 0.569223
200.626450 172.645630 7.984846 0.603021
200.626434 172.645630 6.641497 0.632685
200.626450 172.645630 5.308228 0.686046
200.626434 172.645630 3.982098 0.833097
200.696426 172.612701 2.661493 0.094118
200.696426 172.612701 1.338507 0.079103
200.626419 172.645645 0.017902 0.502342
186.189621 179.439087 0.000034 0.337285
178.277100 183.162430 0.200024 0.719860
175.099472 184.657715 0.200009 0.729519
173.070801 185.612335 0.199998 0.676890
172.088943 186.074356 0.097792 0.765316
171.344330 186.424744 0.000002 0.332570
200.626434 172.333298 12.139842 0.573053
200.626450 172.333298 10.742955 0.610605
200.626450 172.333298 9.365681 0.652827
200.626450 172.333298 8.004717 0.456825
200.626434 172.333298 6.656909 0.534569
200.626434 172.333298 5.319212 0.668254
200.626434 172.333298 3.988679 0.640345
200.721405 172.287796 2.664142 0.678431
200.721405 172.287796 1.335857 0.678431
200.626419 172.333313 0.011321 0.481300
186.116592 179.285263 0.000034 0.338918
178.230255 183.063766 0.200024 0.705303
175.063141 184.581192 0.200009 0.750103
173.041168 185.549942 0.199999 0.707210
171.946625 186.074371 0.125557 0.692058
171.284439 186.391632 0.009995 1.000000
200.626434 172.018875 12.174118 0.719387
200.816437 171.926208 10.818165 0.678431
200.816437 171.926193 9.429045 0.678431
200.626434 172.018860 8.025017 0.563943
200.816452 171.926193 6.696972 0.678431
200.816452 171.926193 5.347768 0.678431
200.626434 172.018875 3.995402 0.576211
200.721420 171.972549 2.666388 0.678431
200.721420 171.972549 1.333611 0.678431
200.711578 171.977341 -0.000057 0.287037
186.042480 179.131943 0.000034 0.337819
178.182709 182.965408 0.200023 0.733135
175.026260 184.504913 0.200008 0.700267
173.011124 185.487762 0.199997 0.704509
171.808426 186.074356 0.152432 0.668193
171.260315 186.341690 0.009995 1.000000
200.626434 171.702301 12.209128 0.557870
200.816437 171.607986 10.848509 0.678431
200.816437 171.607986 9.454607 0.678431
200.626434 171.702301 8.045750 0.429099
200.816437 171.607986 6.713133 0.678431
200.816437 171.607986 5.359286 0.678431
200.626434 171.702301 4.002270 0.459709
200.721436 171.655151 2.668681 0.678431
200.721436 171.655151 1.331319 0.678431
200.586105 171.722321 -0.000057 0.296208
185.967300 178.979156 0.000034 0.337148
178.134491 182.867401 0.200023 0.709880
174.988861 184.428909 0.200008 0.685771
172.980637 185.425797 0.199995 0.675410
171.674118 186.074356 0.178459 0.721736
171.235825 186.291931 0.009995 1.000000
200.626434 171.383530 12.244881 0.800839
200.776428 171.307755 10.869821 0.252079
200.776428 171.307755 9.472563 0.270237
200.626434 171.383514 8.066921 0.544915
200.776428 171.307755 6.724483 0.234897
200.776428 171.307755 5.367376 0.252308
200.626434 171.383514 4.009281 0.423255
200.721436 171.335526 2.671024 0.678431
200.721436 171.335526 1.328977 0.678431
200.458832 171.468185 -0.000057 0.291325
185.891052 178.826904 0.000034 0.338460
178.085571 182.769730 0.200023 0.706996
174.950928 184.353149 0.200008 0.717067
172.949722 185.364044 0.199994 0.741482
171.558762 186.066666 0.199993 0.716945
171.210968 186.242340 0.010000 1.000000
200.626434 171.062485 12.281389 0.492088
200.626434 171.062485 10.865003 0.530587
200.626434 171.062485 9.468502 0.554391
200.626434 171.062485 8.088540 0.735393
200.626434 171.062485 6.721916 0.757717
200.626434 171.062485 5.365548 0.504524
200.626434 171.062485 4.016442 0.658335
200.721436 171.013657 2.673415 0.678431
200.721436 171.013657 1.326585 0.678431
200.329803 171.214935 -0.000057 0.288182
185.813751 178.675171 0.000033 0.336919
178.035995 182.672409 0.200023 0.719615
174.912476 184.277664 0.200007 0.753292
172.918365 185.302505 0.199994 0.684077
171.532349 186.014832 0.199993 0.687587
171.221298 186.174683 -0.000001 0.347585
200.626434 170.739136 12.318662 0.584665
200.626434 170.739136 10.897141 0.596170
200.626434 170.739136 9.495577 0.453254
200.626434 170.739136 8.110616 0.591531
200.626434 170.739136 6.739035 0.591608
200.626434 170.739136 5.377748 0.617670
200.626434 170.739136 4.023752 0.514366
200.721451 170.689468 2.675856 0.678431
200.721451 170.689468 1.324143 0.678431
200.198975 170.962616 -0.000056 0.292714
185.735382 178.523987 0.000033 0.338750
177.985718 182.575424 0.200023 0.746014
174.873489 184.202454 0.200006 0.690211
172.886597 185.241180 0.199994 0.671748
171.505569 185.963165 0.199993 0.698528
171.195648 186.125183 -0.000001 0.334447
200.626434 170.413437 12.356712 0.613230
200.626434 170.413437 10.929952 0.375921
200.626434 170.413437 9.523219 0.674586
200.626434 170.413437 8.133149 0.508782
200.626434 170.413437 6.756511 0.524010
200.626434 170.413422 5.390205 0.466331
200.626434 170.413437 4.031214 0.478157
200.721436 170.362915 2.678349 0.678431
200.721436 170.362915 1.321651 0.678431
200.066406 170.711197 -0.000056 0.296391
185.655975 178.373367 0.000033 0.336217
177.934769 182.478806 0.200023 0.709316
174.833984 184.127518 0.200006 0.696437
172.854370 185.180099 0.199994 0.739773
171.478424 185.911697 0.199992 0.699458
171.172516 186.074356 -0.000815 0.712963
200.626419 170.085297 12.395554 0.456657
200.816422 169.982559 11.010090 0.678431
200.816422 169.982559 9.590734 0.678431
200.626434 170.085297 8.156150 0.752575
200.816437 169.982559 6.799199 0.678431
200.816437 169.982559 5.420630 0.678431
200.626434 170.085297 4.038833 0.551888
200.721420 170.033920 2.680893 0.678431
200.721420 170.033920 1.319108 0.678431
199.932098 170.460709 -0.000056 0.290166
185.575500 178.223297 0.000033 0.337804
177.883163 182.382538 0.200023 0.699229
174.793961 184.052856 0.200006 0.674693
172.821732 185.119232 0.199995 0.674266
171.450943 185.860428 0.199991 0.750546
171.055283 186.074356 0.025066 0.715557
200.626419 169.754669 12.435196 0.754116
200.816437 169.650208 11.044455 0.678431
200.816437 169.650208 9.619686 0.673396
200.626419 169.754669 8.179625 0.767315
200.816452 169.650208 6.817503 0.678431
200.816437 169.650208 5.433676 0.678431
200.626419 169.754669 4.046606 0.603815
200.721420 169.702438 2.683489 0.676219
200.721420 169.702438 1.316511 0.678431
199.796051 170.211166 -0.000055 0.288777
185.493988 178.073792 0.000033 0.337331
177.830872 182.286636 0.200023 0.688441
174.753418 183.978485 0.200005 0.776745
172.788681 185.058594 0.199995 0.679042
171.423080 185.809341 0.199991 0.707515
170.941025 186.074356 0.050192 0.658854
200.626419 169.421494 12.475657 0.774899
200.626434 169.421478 11.032509 0.620142
200.626434 169.421478 9.609620 0.598733
200.626419 169.421478 8.203585 0.619715
200.626419 169.421494 6.811138 0.837049
200.626434 169.421478 5.429140 0.774136
200.626419 169.421494 4.054542 0.700542
200.721436 169.368378 2.686140 0.678431
200.721436 169.368378 1.313860 0.678431
199.658234 169.962585 -0.000055 0.292714
185.411453 177.924850 0.000032 0.336660
177.777908 182.191086 0.200023 0.742397
174.712341 183.904373 0.200004 0.677867
172.755188 184.998199 0.199996 0.733059
171.394882 185.758453 0.199991 0.735531
170.829636 186.074356 0.074594 0.664057
200.626419 169.085709 12.516947 0.475441
200.626419 169.085693 11.068110 0.748913
200.626434 169.085693 9.639614 0.695140
200.626419 169.085693 8.228036 0.775753
200.626404 169.085709 6.830101 0.571252
200.626419 169.085693 5.442655 0.578653
200.626419 169.085709 4.062640 0.632929
200.721405 169.031738 2.688843 0.678431
200.721405 169.031738 1.311157 0.678431
199.518723 169.714966 -0.000055 0.293553
185.327850 177.776489 0.000032 0.338247
177.724289 182.095917 0.200022 0.711131
174.670776 183.830566 0.200002 0.687236
172.721283 184.938034 0.199996 0.676860
171.366318 185.707764 0.199992 0.687175
170.720993 186.074356 0.098303 0.738354
200.626419 168.747253 12.559080 0.545419
200.626419 168.747238 11.104440 0.748745
200.626419 168.747238 9.670220 0.549233
200.626419 168.747238 8.252987 0.348150
200.626419 168.747253 6.849452 0.589944
200.626419 168.747253 5.456449 0.462119
200.626419 168.747253 4.070904 0.509499
200.696426 168.706833 2.691132 0.094118
200.696426 168.706833 1.308869 0.094118
199.377472 169.468323 -0.000055 0.290150
185.243240 177.628738 0.000031 0.338979
177.670013 182.001129 0.200022 0.707713
174.628601 183.757095 0.200014 0.704494
172.686966 184.878098 0.199997 0.741176
171.337402 185.657272 0.199991 0.758709
170.614990 186.074356 0.121346 0.716396
nan nan nan 0.000000
nan nan nan 0.000000
nan nan nan 0.000000
nan nan nan 0.000000
nan nan nan 0.000000
216.138245 159.305313 6.945162 0.718959
212.091354 161.679596 4.732353 0.830060
212.091354 161.679596 2.910134 0.833661
212.091354 161.679596 1.089867 0.828992
199.234497 169.222687 -0.000055 0.289403
185.157578 177.481552 0.000031 0.337957
177.615067 181.906723 0.200023 0.693187
174.585983 183.683884 0.200014 0.694606
172.652222 184.818420 0.199998 0.675761
171.308136 185.606979 0.199992 0.671229
170.511520 186.074356 0.143746 0.672450
nan nan nan 0.000000
nan nan nan 0.000000
nan nan nan 0.000000
nan nan nan 0.000000
nan nan nan 0.000000
216.138229 158.815140 6.965619 0.732357
211.333054 161.679596 4.700287 0.788724
211.333054 161.679611 2.899452 0.797574
211.333054 161.679611 1.100547 0.793194
199.089798 168.978058 -0.000054 0.294881
185.070892 177.334991 0.000031 0.338140
177.559464 181.812714 0.200022 0.702678
174.542862 183.610962 0.200014 0.714641
172.617065 184.758972 0.199998 0.745052
171.278519 185.556900 0.199992 0.678828
170.410477 186.074356 0.165531 0.676249
nan nan nan 0.000000
nan nan nan 0.000000
nan nan nan 0.000000
nan nan nan 0.000000
nan nan nan 0.000000
nan nan nan 0.000000
210.592300 161.679596 4.669093 0.839811
210.592285 161.679596 2.889062 0.827817
210.592285 161.679596 1.110938 0.840726
198.943405 168.734421 -0.000054 0.293370
184.983200 177.189026 0.000031 0.337896
177.503204 181.719086 0.200023 0.701656
174.499252 183.538330 0.200010 0.671016
172.581482 184.699768 0.199999 0.683055
171.248550 185.507034 0.199992 0.669779
170.311783 186.074356 0.186724 0.789120
nan nan nan 0.000000
nan nan nan 0.000000
nan nan nan 0.000000
nan nan nan 0.000000
nan nan nan 0.000000
nan nan nan 0.000000
209.868439 161.679596 4.638740 0.841474
209.868439 161.679596 2.878953 0.846189
209.868439 161.679596 1.121048 0.842527
198.795319 168.491821 -0.000054 0.293217
184.894485 177.043686 0.000031 0.337209
177.446289 181.625839 0.200022 0.679240
174.455109 183.466019 0.200010 0.738674
172.545502 184.640823 0.199999 0.686061
171.218231 185.457367 0.199993 0.688548
170.240311 186.058990 0.199998 0.735653
nan nan nan 0.000000
nan nan nan 0.000000
nan nan nan 0.000000
nan nan nan 0.000000
nan nan nan 0.000000
nan nan nan 0.000000
209.160797 161.679596 4.609195 0.818936
209.160797 161.679596 2.869111 0.818570
209.160797 161.679596 1.130889 0.818570
198.645554 168.250259 -0.000054 0.294911
184.804764 176.898956 0.000030 0.337819
177.388733 181.533005 0.200022 0.703151
174.410477 183.394028 0.200010 0.702831
172.509109 184.582138 0.200000 0.690944
171.187576 185.407913 0.199992 0.690044
170.213882 186.016342 0.199998 0.679789
nan nan nan 0.000000
nan nan nan 0.000000
nan nan nan 0.000000
nan nan nan 0.000000
nan nan nan 0.000000
nan nan nan 0.000000
208.468842 161.679596 4.580428 0.779293
208.468842 161.679596 2.859529 0.758709
208.468842 161.679596 1.140471 0.789212
198.494080 168.009766 -0.000053 0.298451
184.714020 176.754868 0.000030 0.336843
177.330521 181.440567 0.200022 0.697139
174.365311 183.322357 0.200014 0.682475
172.472305 184.523697 0.200000 0.676020
171.156570 185.358688 0.199992 0.761181
170.187149 185.973892 0.199998 0.764691
nan nan nan 0.000000
nan nan nan 0.000000
nan nan nan 0.000000
nan nan nan 0.000000
nan nan nan 0.000000
nan nan nan 0.000000
207.791901 161.679596 4.552413 0.854780
207.791901 161.679596 2.850197 0.855512
207.791901 161.679596 1.149804 0.840436
198.340942 167.770325 -0.000053 0.292714
184.622284 176.611404 0.000030 0.338125
177.271667 181.348557 0.200022 0.702785
174.319687 183.250977 0.200010 0.699657
172.435089 184.465515 0.200000 0.732067
171.125214 185.309677 0.199993 0.666423
170.160110 185.931641 0.199998 0.695888
nan nan nan 0.000000
nan nan nan 0.000000
nan nan nan 0.000000
nan nan nan 0.000000
nan nan nan 0.000000
nan nan nan 0.000000
207.129501 161.679596 4.525120 0.870588
207.129486 161.679596 2.841106 0.870588
207.129486 161.679596 1.158894 0.870588
198.186157 167.531952 -0.000053 0.293492
184.529541 176.468597 0.000029 0.337377
177.212189 181.256943 0.200022 0.702663
174.273514 183.179947 0.200016 0.691646
172.397476 184.407593 0.200001 0.706127
171.093521 185.260880 0.199993 0.743938
170.132797 185.889557 0.199998 0.736156
nan nan nan 0.000000
nan nan nan 0.000000
nan nan nan 0.000000
nan nan nan 0.000000
nan nan nan 0.000000
nan nan nan 0.000000
206.481064 161.679596 4.498526 0.865812
206.481049 161.679596 2.832246 0.866911
206.481064 161.679596 1.167753 0.853620
198.029678 167.294678 -0.000052 0.295644
184.435806 176.326431 0.000030 0.339284
177.152054 181.165741 0.200022 0.709453
174.226883 183.109222 0.200016 0.702693
172.359467 184.349930 0.200001 0.686839
171.061493 185.212296 0.199993 0.682109
170.105179 185.847672 0.199999 0.723491
nan nan nan 0.000000
nan nan nan 0.000000
nan nan nan 0.000000
nan nan nan 0.000000
nan nan nan 0.000000
nan nan nan 0.000000
205.846115 161.679596 4.472604 0.837903
205.846115 161.679596 2.823613 0.837903
205.846115 161.679596 1.176387 0.811170
197.871552 167.058502 -0.000052 0.298589
184.341080 176.184937 0.000030 0.338689
177.091278 181.074982 0.200022 0.739330
174.179749 183.038834 0.200017 0.673854
172.321030 184.292557 0.200002 0.725795
171.029129 185.163956 0.199993 0.769192
170.077271 185.805984 0.199999 0.671275
nan nan nan 0.000000
nan nan nan 0.000000
nan nan nan 0.000000
nan nan nan 0.000000
nan nan nan 0.000000
nan nan nan 0.000000
205.532532 161.468445 4.465693 0.776471
205.532532 161.468460 2.821311 0.776471
205.532532 161.468460 1.178689 0.783764
197.711807 166.823425 -0.000052 0.288518
184.245361 176.044083 0.000029 0.335424
177.029892 180.984634 0.200022 0.722820
174.132141 182.968765 0.200016 0.743084
172.282211 184.235428 0.200002 0.702449
170.996429 185.115829 0.199993 0.664714
170.049072 185.764496 0.199999 0.749599
nan nan nan 0.000000
nan nan nan 0.000000
nan nan nan 0.000000
nan nan nan 0.000000
nan nan nan 0.000000
nan nan nan 0.000000
205.532532 161.041748 4.477597 0.854719
205.532532 161.041748 2.825275 0.863539
205.532532 161.041748 1.174724 0.861204
197.550415 166.589478 -0.000051 0.288029
184.148682 175.903915 0.000029 0.339101
176.967865 180.894714 0.200021 0.685878
174.084045 182.899033 0.200016 0.729244
172.242996 184.178589 0.200002 0.752804
170.963394 185.067932 0.199993 0.763546
170.020584 185.723206 0.200000 0.648768
nan nan nan 0.000000
nan nan nan 0.000000
nan nan nan 0.000000
nan nan nan 0.000000
nan nan nan 0.000000
nan nan nan 0.000000
205.532532 160.610886 4.489738 0.851698
205.532532 160.610870 2.829320 0.858717
205.532532 160.610870 1.170680 0.860578
197.387390 166.356644 -0.000051 0.295186
184.051010 175.764420 0.000028 0.339437
176.905212 180.805237 0.200021 0.722652
174.035446 182.829636 0.200016 0.665843
172.203384 184.122009 0.200001 0.673609
170.930008 185.020279 0.199994 0.670817
169.991806 185.682114 0.200000 0.659403
nan nan nan 0.000000
nan nan nan 0.000000
nan nan nan 0.000000
nan nan nan 0.000000
nan nan nan 0.000000
nan nan nan 0.000000
205.532532 160.175735 4.502122 0.870588
205.532532 160.175735 2.833445 0.870588
205.532532 160.175735 1.166555 0.862623
197.222748 166.124969 -0.000051 0.291142
183.952377 175.625626 0.000027 0.337972
176.841934 180.716202 0.200021 0.713741
173.986374 182.760574 0.200016 0.719799
172.163391 184.065704 0.200000 0.748165
170.896301 184.972855 0.199994 0.703365
169.962738 185.641220 0.200001 0.691295
nan nan nan 0.000000
nan nan nan 0.000000
nan nan nan 0.000000
nan nan nan 0.000000
nan nan nan 0.000000
nan nan nan 0.000000
205.532532 159.736237 4.514751 0.776471
205.532532 159.736237 2.837652 0.750271
205.532532 159.736237 1.162348 0.783093
197.056473 165.894455 -0.000051 0.291768
183.852768 175.487518 0.000028 0.338704
176.778061 180.627594 0.200019 0.698482
173.936813 182.691864 0.200016 0.745953
172.122986 184.009689 0.199999 0.675914
170.862274 184.925659 0.199994 0.661067
169.933395 185.600540 0.200002 0.737133
nan nan nan 0.000000
nan nan nan 0.000000
nan nan nan 0.000000
nan nan nan 0.000000
nan nan nan 0.000000
nan nan nan 0.000000
205.532532 159.292252 4.527633 0.848447
205.532532 159.292236 2.841943 0.851209
205.532532 159.292236 1.158057 0.853529
196.888596 165.665100 -0.000051 0.286397
183.752197 175.350098 0.000028 0.338323
176.713562 180.539429 0.200016 0.695186
173.886795 182.623505 0.200014 0.675303
172.082199 183.953964 0.199999 0.692302
170.827911 184.878708 0.199994 0.707668
169.903763 185.560059 0.200003 0.659083
nan nan nan 0.000000
nan nan nan 0.000000
nan nan nan 0.000000
nan nan nan 0.000000
nan nan nan 0.000000
nan nan nan 0.000000
205.532532 158.843658 4.540773 0.870588
205.532532 158.843674 2.846319 0.870588
205.532532 158.843658 1.153680 0.854719
196.719147 165.436920 -0.000051 0.295247
183.650665 175.213394 0.000027 0.338170
176.648453 180.451721 0.200013 0.699367
174.154221 182.317642 0.141117 0.722011
172.041031 183.898514 0.199997 0.693355
170.793213 184.832001 0.199995 0.659648
169.873840 185.519775 0.200003 0.667933
nan nan nan 0.000000
nan nan nan 0.000000
nan nan nan 0.000000
nan nan nan 0.000000
nan nan nan 0.000000
nan nan nan 0.000000
205.532532 158.390366 4.554175 0.870588
205.532532 158.390381 2.850784 0.870588
205.532532 158.390381 1.149217 0.870588
196.548065 165.209946 -0.000050 0.294530
183.548187 175.077393 0.000027 0.336370
176.582733 180.364471 0.200011 0.730144
174.603394 181.866867 0.047662 0.688518
171.999481 183.843353 0.199997 0.673609
170.758194 184.785538 0.199995 0.730785
169.843643 185.479721 0.200004 0.742672
nan nan nan 0.000000
nan nan nan 0.000000
nan nan nan 0.000000
nan nan nan 0.000000
nan nan nan 0.000000
nan nan nan 0.000000
205.532532 157.932251 4.567844 0.842893
205.532516 157.932266 2.855337 0.842893
205.532516 157.932266 1.144664 0.842893
196.375458 164.984161 -0.000050 0.291279
183.444778 174.942123 0.000026 0.338506
176.516403 180.277679 0.200009 0.714122
174.802246 181.597763 -0.000015 0.293904
171.957535 183.788483 0.199997 0.751919
170.722855 184.739319 0.199995 0.697993
169.813171 185.439865 0.200005 0.655879
nan nan nan 0.000000
nan nan nan 0.000000
nan nan nan 0.000000
nan nan nan 0.000000
nan nan nan 0.000000
nan nan nan 0.000000
205.532532 157.469177 4.581789 0.824872
205.532516 157.469177 2.859981 0.822919
205.532516 157.469193 1.140018 0.814710
196.201233 164.759583 -0.000050 0.289219
183.340408 174.807571 0.000026 0.336522
176.449463 180.191360 0.200006 0.702083
174.744553 181.523392 -0.000015 0.244099
171.915207 183.733917 0.199995 0.665858
170.687195 184.693344 0.199995 0.749279
169.782425 185.400223 0.200005 0.747906
nan nan nan 0.000000
nan nan nan 0.000000
nan nan nan 0.000000
nan nan nan 0.000000
nan nan nan 0.000000
nan nan nan 0.000000
205.532532 157.001022 4.596010 0.755840
205.532516 157.001038 2.864719 0.755840
205.532516 157.001038 1.135281 0.781140
196.025467 164.536224 -0.000049 0.287282
183.235123 174.673737 0.000026 0.337057
176.381927 180.105499 0.200004 0.694362
174.686340 181.449417 -0.000015 0.279179
171.872498 183.679642 0.199995 0.740185
170.651215 184.647614 0.199996 0.727184
169.751404 185.360794 0.200006 0.737591
nan nan nan 0.000000
nan nan nan 0.000000
nan nan nan 0.000000
nan nan nan 0.000000
nan nan nan 0.000000
nan nan nan 0.000000
205.532532 156.527664 4.610519 0.803677
205.532516 156.527664 2.869551 0.803677
205.532516 156.527664 1.130449 0.806256
195.848160 164.314087 -0.000049 0.295079
183.128876 174.540649 0.000025 0.338506
177.019638 179.452606 0.095810 0.679179
174.627609 181.375854 -0.000015 0.253864
171.829422 183.625656 0.199993 0.663767
170.614914 184.602142 0.199998 0.708553
169.720093 185.321594 0.200007 0.676448
nan nan nan 0.000000
nan nan nan 0.000000
nan nan nan 0.000000
nan nan nan 0.000000
nan nan nan 0.000000
nan nan nan 0.000000
205.532532 156.048950 4.625319 0.869047
205.532516 156.048965 2.874481 0.867094
205.532516 156.048965 1.125519 0.868589
195.669281 164.093231 -0.000048 0.293675
183.021729 174.408325 0.000024 0.337102
177.592453 178.836319 -0.000020 0.290639
174.568375 181.302704 -0.000014 0.280949
171.785950 183.571991 0.199993 0.755627
170.578293 184.556946 0.199999 0.764538
169.688522 185.282608 0.200008 0.756817
nan nan nan 0.000000
nan nan nan 0.000000
nan nan nan 0.000000
nan nan nan 0.000000
nan nan nan 0.000000
nan nan nan 0.000000
205.532532 155.564758 4.640417 0.845380
205.532516 155.564774 2.879511 0.842298
205.532516 155.564774 1.120490 0.845380
195.488861 163.873596 -0.000048 0.299519
181.034210 175.831543 0.200027 0.688334
177.515411 178.742538 -0.000020 0.288273
174.508636 181.229965 -0.000015 0.298939
171.742126 183.518616 0.199992 0.674846
170.541367 184.511978 0.199998 0.717403
169.656677 185.243851 0.200009 0.701656
nan nan nan 0.000000
nan nan nan 0.000000
nan nan nan 0.000000
nan nan nan 0.000000
nan nan nan 0.000000
nan nan nan 0.000000
238.102631 127.745392 6.744559 0.937255
238.186142 127.675308 3.582173 0.776471
238.186142 127.675308 0.417827 0.776471
195.306915 163.655258 -0.000047 0.290333
180.936127 175.713776 0.200026 0.705730
177.437714 178.649292 -0.000019 0.279637
174.448380 181.157654 -0.000014 0.276646
171.697922 183.465561 0.199992 0.767727
170.504105 184.467285 0.200000 0.752956
169.624573 185.205307 0.200009 0.707652
nan nan nan 0.000000
nan nan nan 0.000000
nan nan nan 0.000000
nan nan nan 0.000000
nan nan nan 0.000000
nan nan nan 0.000000
237.121078 127.695381 6.709312 0.611765
237.144684 127.675293 3.569156 0.753033
237.144684 127.675293 0.430843 0.765438
195.123474 163.438156 -0.000047 0.289876
180.837204 175.596725 0.200026 0.704219
177.359375 178.556580 -0.000019 0.286122
174.387619 181.085754 -0.000014 0.302037
171.653351 183.412796 0.199991 0.690410
170.466553 184.422836 0.200001 0.651118
169.592194 185.166992 0.200008 0.749111
nan nan nan 0.000000
nan nan nan 0.000000
nan nan nan 0.000000
nan nan nan 0.000000
nan nan nan 0.000000
nan nan nan 0.000000
236.096939 127.695343 6.671113 0.611765
236.120132 127.675308 3.556426 0.776471
236.120132 127.675308 0.443572 0.772152
194.938492 163.222366 -0.000047 0.291417
180.737488 175.480347 0.200024 0.706691
177.280396 178.464432 -0.000019 0.289784
174.326370 181.014282 -0.000015 0.281132
171.608398 183.360367 0.199990 0.770123
170.428680 184.378662 0.200002 0.753689
169.559540 185.128891 0.200008 0.672480
nan nan nan 0.000000
nan nan nan 0.000000
nan nan nan 0.000000
nan nan nan 0.000000
nan nan nan 0.000000
nan nan nan 0.000000
235.051117 127.728676 6.631262 0.931823
235.112061 127.675316 3.543977 0.776059
235.112061 127.675316 0.456022 0.776196
191.687805 165.690384 0.200024 0.712001
