# This PCD file was generated using the MATLABÂ® pcwrite function
# from Computer Vision ToolboxÂ®.
# .PCD v.7 - Point Cloud Data file format
VERSION .7
FIELDS x y z intensity
SIZE 4 4 4 4
TYPE F F F F
COUNT 1 1 1 1
WIDTH 1186
HEIGHT 1
VIEWPOINT 0 0 0 1 0 0 0
POINTS 1186
DATA ascii
96.749031 117.565262 -0.000022 0.295598
94.374352 116.811974 -0.000019 0.275227
92.723862 116.288406 -0.000016 0.288258
91.507866 115.902672 -0.000014 0.254765
108.601440 121.135666 8.477812 0.678431
108.521446 121.110901 7.567326 0.377813
108.521439 121.110901 6.690307 0.429252
108.601433 121.135658 5.836097 0.678431
108.521439 121.110901 4.965419 0.419471
108.521439 121.110901 4.113604 0.394491
108.521347 121.110870 3.266344 0.395392
108.521347 121.110870 2.421813 0.428595
108.521347 121.110870 1.578187 0.410132
108.521355 121.110870 0.733655 0.379309
107.198334 120.701324 -0.000036 0.294942
100.505005 118.629395 -0.000029 0.296971
96.777184 117.475441 -0.000022 0.281224
94.397301 116.738747 -0.000018 0.276509
92.743195 116.226715 -0.000016 0.307897
91.524536 115.849480 -0.000014 0.261662
108.601440 120.947075 8.464001 0.678431
108.521439 120.922920 7.555456 0.334127
108.521439 120.922920 6.680306 0.338384
108.601440 120.947067 5.827918 0.678431
108.521439 120.922920 4.959097 0.363546
108.521439 120.922920 4.109097 0.356649
108.521347 120.922890 3.263644 0.339544
108.521347 120.922890 2.420914 0.328634
108.521347 120.922890 1.579086 0.395605
108.521347 120.922890 0.736356 0.336034
107.248123 120.538483 -0.000036 0.292576
100.540489 118.513329 -0.000029 0.299199
96.804703 117.385429 -0.000022 0.260365
94.419731 116.665359 -0.000018 0.286427
92.762100 116.164894 -0.000016 0.264698
91.540833 115.796173 -0.000013 0.345800
108.545547 120.742821 8.435966 0.201221
108.521439 120.735725 7.543906 0.422599
108.521439 120.735725 6.670576 0.406729
108.545547 120.742821 5.811317 0.199908
108.521439 120.735725 4.952944 0.409476
108.521439 120.735725 4.104712 0.391638
108.521339 120.735703 3.261016 0.391745
108.521339 120.735703 2.420039 0.410300
108.521339 120.735703 1.579961 0.423911
108.521339 120.735703 0.738984 0.398993
107.296768 120.375290 -0.000036 0.289708
100.575165 118.397011 -0.000029 0.311070
96.831596 117.295219 -0.000023 0.290715
94.441658 116.591827 -0.000019 0.252155
92.780563 116.102936 -0.000015 0.276158
91.556755 115.742752 -0.000013 0.267567
108.601440 120.572250 8.437490 0.678431
108.521446 120.549309 7.532674 0.419883
108.521439 120.549309 6.661112 0.386236
108.601433 120.572243 5.812218 0.678431
108.521439 120.549309 4.946961 0.405966
108.521439 120.549309 4.100447 0.408835
108.521339 120.549278 3.258461 0.419425
108.521339 120.549278 2.419188 0.398993
108.521339 120.549278 1.580813 0.436149
108.521339 120.549278 0.741539 0.430365
107.344276 120.211761 -0.000037 0.283345
100.609009 118.280457 -0.000026 0.307393
96.857857 117.204826 -0.000022 0.294224
94.463066 116.518135 -0.000018 0.327596
92.798607 116.040855 -0.000016 0.271534
91.572304 115.689224 -0.000014 0.314443
108.601440 120.385971 8.424786 0.678431
108.521439 120.363632 7.521753 0.398886
108.521439 120.363632 6.651913 0.406760
108.601433 120.385963 5.804695 0.678431
108.521439 120.363632 4.941146 0.389258
108.521439 120.363632 4.096302 0.395972
108.521339 120.363602 3.255977 0.388510
108.521339 120.363602 2.418360 0.410025
108.521339 120.363602 1.581640 0.418647
108.521339 120.363602 0.744022 0.393942
107.390640 120.047905 -0.000036 0.292546
100.642052 118.163666 -0.000026 0.284199
96.883484 117.114258 -0.000022 0.278798
94.483963 116.444298 -0.000018 0.239109
92.816208 115.978653 -0.000015 0.270039
91.587486 115.635590 -0.000013 0.305760
108.601440 120.200417 8.412443 0.678431
108.521439 120.178680 7.511144 0.417166
108.521439 120.178680 6.642976 0.376745
108.601433 120.200409 5.797386 0.678431
108.521439 120.178680 4.935494 0.438712
108.521439 120.178680 4.092275 0.409979
108.521332 120.178650 3.253564 0.420645
108.521332 120.178650 2.417556 0.412390
108.521332 120.178650 1.582444 0.436439
108.521332 120.178650 0.746436 0.425345
107.435867 119.883736 -0.000037 0.277913
100.674286 118.046654 -0.000027 0.298817
96.908485 117.023506 -0.000022 0.290288
94.504341 116.370316 -0.000019 0.274754
92.833374 115.916321 -0.000015 0.275456
91.602287 115.581848 -0.000013 0.261723
108.601440 120.015564 8.400458 0.678431
108.521439 119.994423 7.500845 0.400626
108.521431 119.994423 6.634298 0.403586
108.601433 120.015564 5.790290 0.678431
108.521439 119.994423 4.930009 0.419608
108.521439 119.994423 4.088364 0.393545
108.521324 119.994392 3.251221 0.388556
108.521324 119.994392 2.416776 0.401862
108.521332 119.994392 1.583224 0.399985
108.521332 119.994392 0.748778 0.429023
107.479950 119.719254 -0.000037 0.292317
100.705696 117.929413 -0.000026 0.289845
96.932846 116.932587 -0.000022 0.283604
94.524200 116.296196 -0.000018 0.292103
92.850105 115.853882 -0.000015 0.298939
91.616714 115.528000 -0.000013 0.279423
108.545532 119.817032 8.374372 0.224781
108.521439 119.810852 7.490851 0.373846
108.521439 119.810844 6.625877 0.405173
108.545532 119.817032 5.774842 0.228672
108.521439 119.810844 4.924685 0.369650
108.521439 119.810844 4.084570 0.400061
108.521324 119.810822 3.248948 0.409537
108.521332 119.810822 2.416018 0.425254
108.521332 119.810822 1.583981 0.370077
108.521324 119.810822 0.751052 0.383642
107.522873 119.554459 -0.000037 0.300526
100.736298 117.811966 -0.000027 0.290990
96.956573 116.841492 -0.000022 0.307591
94.543541 116.221931 -0.000018 0.286839
92.866402 115.791321 -0.000016 0.334310
91.630760 115.474060 -0.000013 0.284260
108.601440 119.647881 8.377554 0.678431
108.521439 119.627930 7.481160 0.404852
108.521439 119.627930 6.617715 0.419303
108.601433 119.647873 5.776725 0.678431
108.521439 119.627930 4.919523 0.387915
108.521439 119.627930 4.080891 0.406744
108.521324 119.627899 3.246743 0.403525
108.521317 119.627899 2.415284 0.407843
108.521324 119.627899 1.584716 0.422324
108.521324 119.627899 0.753256 0.377783
107.564636 119.389374 -0.000037 0.291341
100.766068 117.694298 -0.000026 0.274952
96.979660 116.750244 -0.000022 0.309529
94.562363 116.147545 -0.000018 0.264424
92.882263 115.728645 -0.000016 0.293660
91.644440 115.420021 -0.000014 0.331762
108.601440 119.465004 8.366625 0.678431
108.521439 119.445648 7.471768 0.405447
108.521439 119.445648 6.609802 0.394339
108.601433 119.464996 5.770253 0.678431
108.521439 119.445648 4.914520 0.390616
108.521439 119.445648 4.077326 0.400961
108.521317 119.445618 3.244607 0.435004
108.521317 119.445618 2.414572 0.396445
108.521317 119.445618 1.585427 0.375448
108.521324 119.445618 0.755392 0.407599
107.605255 119.223999 -0.000037 0.303075
100.795021 117.576431 -0.000027 0.282979
97.002121 116.658829 -0.000022 0.285008
94.580673 116.073021 -0.000018 0.275715
92.897682 115.665863 -0.000016 0.306203
91.657730 115.365891 -0.000013 0.274235
108.601440 119.282745 8.356047 0.678431
108.521439 119.263977 7.462675 0.366232
108.521439 119.263977 6.602141 0.403525
108.601433 119.282738 5.763988 0.678431
108.521439 119.263977 4.909677 0.397925
108.521439 119.263977 4.073873 0.398291
108.521309 119.263947 3.242539 0.429526
108.521317 119.263947 2.413884 0.430777
108.521317 119.263947 1.586116 0.389425
108.521317 119.263947 0.757461 0.415030
107.644722 119.058350 -0.000037 0.316518
100.823151 117.458359 -0.000027 0.277302
97.023933 116.567261 -0.000022 0.301320
94.598450 115.998375 -0.000018 0.253529
92.912666 115.602974 -0.000015 0.287709
91.670654 115.311661 -0.000013 0.287022
108.601440 119.101082 8.345810 0.678431
108.521439 119.082901 7.453878 0.365393
108.521439 119.082901 6.594729 0.407385
108.601433 119.101082 5.757926 0.678431
108.521439 119.082901 4.904992 0.401205
108.521439 119.082901 4.070534 0.397452
108.521317 119.082878 3.240538 0.419013
108.521317 119.082878 2.413218 0.414939
108.521317 119.082878 1.586783 0.368826
108.521317 119.082878 0.759462 0.421180
107.683044 118.892426 -0.000037 0.299382
100.850449 117.340103 -0.000027 0.289769
97.045105 116.475548 -0.000022 0.286412
94.615715 115.923599 -0.000019 0.278218
92.927208 115.539986 -0.000015 0.281392
91.683189 115.257347 -0.000013 0.279896
108.601448 118.919998 8.335917 0.678431
108.521439 118.902405 7.445374 0.422919
108.521431 118.902405 6.587565 0.417990
108.601433 118.919991 5.752068 0.678431
108.521439 118.902405 4.900462 0.394400
108.521439 118.902405 4.067305 0.429252
108.521309 118.902374 3.238603 0.414298
108.521309 118.902374 2.412572 0.420844
108.521309 118.902374 1.587427 0.395666
108.521317 118.902374 0.761397 0.388754
107.720184 118.726234 -0.000037 0.302174
100.876930 117.221649 -0.000027 0.283848
97.065636 116.383682 -0.000022 0.269902
94.632454 115.848717 -0.000018 0.325444
92.941307 115.476891 -0.000015 0.300725
91.695351 115.202950 -0.000014 0.268894
108.545532 118.727577 8.312042 0.198611
108.521439 118.722458 7.437161 0.421469
108.521439 118.722458 6.580646 0.411658
108.545540 118.727577 5.737931 0.197665
108.521431 118.722458 4.896087 0.402136
108.521439 118.722458 4.064187 0.387396
108.521301 118.722427 3.236734 0.376349
108.521301 118.722427 2.411950 0.408576
108.521301 118.722427 1.588050 0.434684
108.521309 118.722427 0.763265 0.413916
107.756172 118.559792 -0.000038 0.290257
100.902573 117.103020 -0.000027 0.292485
97.085526 116.291679 -0.000022 0.302037
94.648674 115.773712 -0.000018 0.252079
92.954971 115.413704 -0.000015 0.250263
91.707130 115.148468 -0.000013 0.326024
108.601440 118.559464 8.317138 0.678431
108.521439 118.543045 7.429236 0.423102
108.521431 118.543045 6.573969 0.390448
108.601433 118.559464 5.740949 0.678431
108.521439 118.543045 4.891866 0.404028
108.521439 118.543045 4.061177 0.405112
108.521301 118.543015 3.234932 0.443793
108.521301 118.543015 2.411350 0.438575
108.521301 118.543015 1.588650 0.431006
108.521301 118.543015 0.765068 0.429114
107.791000 118.393105 -0.000038 0.306310
100.927399 116.984215 -0.000027 0.288441
97.104774 116.199539 -0.000022 0.309026
94.664368 115.698593 -0.000018 0.333440
92.968193 115.350418 -0.000015 0.317906
91.718529 115.093903 -0.000013 0.284153
108.601440 118.379982 8.308250 0.678431
108.521439 118.364143 7.421599 0.345602
108.521439 118.364143 6.567536 0.432837
108.521439 118.364143 5.723589 0.406226
108.521439 118.364143 4.887798 0.403983
108.521439 118.364143 4.058279 0.422568
108.521301 118.364120 3.233195 0.422980
108.521301 118.364120 2.410771 0.436271
108.521301 118.364120 1.589229 0.398840
108.521301 118.364120 0.766805 0.407431
107.824661 118.226181 -0.000038 0.287495
100.951393 116.865234 -0.000027 0.293523
97.123383 116.107269 -0.000022 0.280430
94.679535 115.623375 -0.000018 0.290959
92.980972 115.287048 -0.000015 0.274754
91.729546 115.039261 -0.000013 0.244892
108.601440 118.200996 8.299698 0.678431
108.521439 118.185738 7.414247 0.397971
108.521439 118.185738 6.561341 0.468772
108.521439 118.185738 5.718538 0.392905
108.521439 118.185738 4.883882 0.433585
108.521439 118.185738 4.055488 0.431708
108.521301 118.185707 3.231522 0.414267
108.521301 118.185707 2.410214 0.373938
108.521301 118.185707 1.589786 0.399832
108.521309 118.185715 0.768477 0.402731
107.857147 118.059013 -0.000037 0.290059
100.974548 116.746094 -0.000027 0.306813
97.141342 116.014870 -0.000022 0.296345
94.694176 115.548042 -0.000018 0.258000
92.993301 115.223587 -0.000015 0.311650
91.740181 114.984543 -0.000013 0.285756
108.601448 118.022491 8.291473 0.678431
108.521439 118.007805 7.407177 0.434577
108.521439 118.007805 6.555387 0.406287
108.521439 118.007805 5.713684 0.401526
108.521439 118.007805 4.880117 0.393637
108.521439 118.007805 4.052804 0.397864
108.521294 118.007782 3.229914 0.409445
108.521301 118.007782 2.409679 0.409094
108.521301 118.007782 1.590321 0.407614
108.521301 118.007782 0.770085 0.416190
107.888474 117.891632 -0.000038 0.286763
100.996872 116.626793 -0.000027 0.301656
97.158653 115.922348 -0.000022 0.294118
94.708290 115.472618 -0.000018 0.278462
93.005196 115.160042 -0.000015 0.279927
91.750435 114.929749 -0.000013 0.289509
108.601448 117.844437 8.283577 0.678431
108.521439 117.830330 7.400390 0.432273
108.521439 117.830330 6.549667 0.416251
108.521439 117.830330 5.709023 0.394934
108.521439 117.830330 4.876501 0.431617
108.442863 117.816475 4.043685 0.382010
108.521286 117.830299 3.228370 0.415076
108.521294 117.830299 2.409164 0.434546
108.521294 117.830299 1.590836 0.404730
108.521286 117.830299 0.771630 0.434607
107.918625 117.724037 -0.000037 0.297032
101.018372 116.507332 -0.000027 0.328496
97.175323 115.829704 -0.000022 0.265019
94.721878 115.397095 -0.000018 0.338125
93.016640 115.096413 -0.000015 0.303670
91.760307 114.874886 -0.000013 0.360891
108.601440 117.666817 8.276000 0.678431
108.521439 117.653290 7.393882 0.412512
108.521439 117.653290 6.544185 0.388357
108.521439 117.653290 5.704552 0.442161
108.521439 117.653290 4.873034 0.408392
108.472481 117.645004 4.043685 0.382696
108.521286 117.653259 3.226889 0.436011
108.521294 117.653259 2.408671 0.433310
108.521294 117.653259 1.591329 0.396109
108.521286 117.653259 0.773110 0.405539
107.947617 117.556236 -0.000038 0.300206
101.039032 116.387733 -0.000027 0.301106
97.191345 115.736946 -0.000022 0.341054
94.734940 115.321480 -0.000018 0.307225
93.027649 115.032707 -0.000015 0.354437
91.769798 114.819962 -0.000013 0.278737
108.601448 117.489624 8.268753 0.678431
108.521439 117.476669 7.387650 0.355688
108.521431 117.476669 6.538934 0.419196
108.521439 117.476669 5.700273 0.396353
108.521439 117.476669 4.869716 0.418204
108.500893 117.473343 4.043685 0.394018
108.521286 117.476639 3.225472 0.436164
108.521286 117.476639 2.408199 0.405829
108.521286 117.476639 1.591801 0.411109
108.521286 117.476639 0.774527 0.402670
107.975433 117.388229 -0.000038 0.286687
101.058853 116.267990 -0.000027 0.322087
97.206726 115.644081 -0.000022 0.287892
94.747467 115.245773 -0.000018 0.306783
93.038208 114.968933 -0.000015 0.360937
91.778900 114.764969 -0.000013 0.329686
108.601440 117.312828 8.261824 0.678431
108.521439 117.300446 7.381697 0.421256
108.521439 117.300446 6.533920 0.380850
108.521439 117.300446 5.696183 0.445014
108.521439 117.300446 4.866544 0.408560
108.528130 117.301476 4.043685 0.391638
108.521286 117.300415 3.224117 0.417350
108.521278 117.300415 2.407748 0.401221
108.521278 117.300415 1.592252 0.419669
108.521286 117.300415 0.775882 0.422049
108.002068 117.220039 -0.000038 0.294743
101.077835 116.148109 -0.000027 0.278569
97.221451 115.551109 -0.000022 0.269673
94.759476 115.169975 -0.000018 0.261418
93.048317 114.905075 -0.000015 0.279164
91.787621 114.709908 -0.000013 0.254444
108.601440 117.136414 8.255217 0.678431
108.521439 117.124603 7.376017 0.400229
108.521439 117.124603 6.529134 0.432151
108.521439 117.124603 5.692283 0.399069
108.521439 117.124603 4.863519 0.395865
108.554146 117.129433 4.043685 0.382559
108.521278 117.124580 3.222826 0.428428
108.521278 117.124580 2.407317 0.411337
108.521278 117.124580 1.592682 0.419562
108.521286 117.124580 0.777174 0.374060
108.027534 117.051666 -0.000038 0.306859
101.095985 116.028107 -0.000027 0.305135
97.235527 115.458038 -0.000022 0.287083
94.770950 115.094109 -0.000018 0.299413
93.057991 114.841156 -0.000015 0.240177
91.795959 114.654793 -0.000013 0.254978
108.601448 116.960365 8.248928 0.678431
108.521439 116.949120 7.370612 0.449989
108.521439 116.949120 6.524580 0.398703
108.521439 116.949120 5.688571 0.449973
108.521439 116.949120 4.860641 0.384146
108.578957 116.957207 4.043685 0.389563
108.521278 116.949097 3.221596 0.364401
108.521278 116.949097 2.406908 0.427512
108.521278 116.949097 1.593092 0.449134
108.521278 116.949097 0.778404 0.375860
108.051819 116.883118 -0.000038 0.287800
101.113297 115.907974 -0.000027 0.281331
97.248947 115.364876 -0.000022 0.302190
94.781898 115.018150 -0.000018 0.284108
93.067207 114.777168 -0.000015 0.306401
91.803909 114.599625 -0.000013 0.273976
108.545540 116.777199 8.228827 0.244602
108.521439 116.773979 7.365478 0.392752
108.521439 116.773979 6.520256 0.406348
108.521439 116.773979 5.685045 0.404974
108.521439 116.773979 4.857905 0.433021
108.545540 116.777199 4.038967 0.250599
108.521271 116.773956 3.220428 0.350973
108.521271 116.773956 2.406519 0.405768
108.521271 116.773956 1.593481 0.354482
108.521271 116.773956 0.779572 0.364675
108.074921 116.714401 -0.000037 0.301198
101.129768 115.787720 -0.000027 0.298207
97.261719 115.271614 -0.000022 0.298939
94.792313 114.942123 -0.000018 0.257343
93.075981 114.713120 -0.000015 0.284993
91.811470 114.544395 -0.000013 0.247227
108.601448 116.609276 8.237297 0.678431
108.521439 116.599167 7.360617 0.396979
108.521431 116.599167 6.516158 0.396399
108.521439 116.599167 5.681705 0.392035
108.521439 116.599167 4.855315 0.374014
108.624992 116.612251 4.043685 0.388449
108.521271 116.599152 3.219322 0.374594
108.521271 116.599152 2.406150 0.388205
108.521271 116.599152 1.593849 0.350545
108.521271 116.599152 0.780678 0.382040
108.096863 116.545532 -0.000037 0.318349
101.145401 115.667358 -0.000027 0.278004
97.273849 115.178268 -0.000022 0.263264
94.802193 114.866028 -0.000018 0.267659
93.084305 114.649010 -0.000015 0.273289
91.818649 114.489120 -0.000013 0.365911
108.601448 116.434212 8.231953 0.678431
108.521439 116.424667 7.356022 0.389975
108.521439 116.424667 6.512290 0.411337
108.521439 116.424667 5.678552 0.427024
108.521439 116.424667 4.852869 0.424491
108.646187 116.439545 4.043685 0.376272
108.521271 116.424644 3.218277 0.446387
108.521271 116.424644 2.405802 0.442390
108.521271 116.424652 1.594198 0.409476
108.521271 116.424652 0.781722 0.416541
108.117607 116.376511 -0.000037 0.288304
101.160187 115.546890 -0.000027 0.314824
97.285316 115.084839 -0.000022 0.287098
94.811546 114.789864 -0.000018 0.273899
93.092186 114.584839 -0.000015 0.254292
91.825439 114.433792 -0.000013 0.302617
108.601448 116.259430 8.226921 0.678431
108.521439 116.250458 7.351697 0.402518
108.521439 116.250458 6.508646 0.392264
108.521439 116.250458 5.675580 0.393484
108.521439 116.250458 4.850565 0.409186
108.666183 116.266693 4.043685 0.377508
108.521271 116.250435 3.217293 0.409018
108.521271 116.250435 2.405475 0.398291
108.521271 116.250435 1.594525 0.388510
108.521271 116.250435 0.782706 0.407797
108.137184 116.207352 -0.000037 0.296757
101.174149 115.426323 -0.000027 0.286259
97.296135 114.991333 -0.000022 0.318791
94.820366 114.713631 -0.000018 0.278004
93.099617 114.520622 -0.000015 0.264637
91.831848 114.378418 -0.000013 0.266102
108.601448 116.084923 8.222199 0.678431
108.521439 116.076515 7.347640 0.381399
108.521439 116.076515 6.505228 0.395483
108.521439 116.076515 5.672794 0.399893
108.521439 116.076515 4.848404 0.426215
108.684982 116.093704 4.043685 0.393942
108.521263 116.076500 3.216370 0.410925
108.521263 116.076500 2.405167 0.421363
108.521263 116.076500 1.594833 0.389609
108.521271 116.076500 0.783629 0.417517
108.155579 116.038063 -0.000038 0.313130
101.187256 115.305664 -0.000027 0.288090
97.306305 114.897758 -0.000022 0.279973
94.828651 114.637344 -0.000018 0.257267
93.106598 114.456352 -0.000015 0.271275
91.837868 114.323006 -0.000013 0.260105
108.601448 115.910675 8.217789 0.678431
108.521439 115.902832 7.343849 0.411337
108.521439 115.902832 6.502034 0.406409
108.521439 115.902832 5.670190 0.409262
108.521439 115.902832 4.846385 0.408911
108.601440 115.910675 4.035353 0.678431
108.521263 115.902817 3.215508 0.390936
108.521263 115.902817 2.404880 0.437430
108.521263 115.902817 1.595120 0.410971
108.521263 115.902817 0.784492 0.403067
108.172783 115.868645 -0.000038 0.292393
101.199509 115.184914 -0.000026 0.283909
97.315811 114.804108 -0.000022 0.278264
94.836411 114.561005 -0.000018 0.267735
93.113129 114.392036 -0.000015 0.237675
91.843498 114.267548 -0.000013 0.262181
108.545532 115.731575 8.199623 0.208942
108.521439 115.729385 7.340324 0.431678
108.521439 115.729385 6.499065 0.399985
108.521439 115.729385 5.667769 0.397864
108.521439 115.729385 4.844508 0.437598
108.545540 115.731575 4.029408 0.209140
108.521255 115.729370 3.214705 0.401846
108.521255 115.729370 2.404613 0.405600
108.521255 115.729370 1.595387 0.425681
108.521255 115.729370 0.785294 0.393194
108.188812 115.699112 -0.000038 0.289311
101.210938 115.064079 -0.000026 0.297230
97.324669 114.710396 -0.000022 0.273655
94.843628 114.484604 -0.000018 0.318837
93.119217 114.327675 -0.000015 0.312322
91.848747 114.212051 -0.000012 0.324575
108.601448 115.562874 8.209892 0.678431
108.521439 115.556160 7.337064 0.413703
108.521439 115.556160 6.496317 0.433845
108.521439 115.556160 5.665530 0.442206
108.521439 115.556160 4.842771 0.391791
108.601433 115.562874 4.032768 0.678431
108.521255 115.556145 3.213964 0.394827
108.521248 115.556137 2.404366 0.368246
108.521255 115.556145 1.595634 0.404578
108.521255 115.556145 0.786036 0.417838
108.203644 115.529472 -0.000038 0.286732
101.221519 114.943169 -0.000027 0.276783
97.332878 114.616631 -0.000022 0.275578
94.850311 114.408165 -0.000018 0.322240
93.124847 114.263268 -0.000015 0.281331
91.853607 114.156525 -0.000013 0.240696
108.601448 115.389290 8.206406 0.678431
108.521439 115.383133 7.334067 0.450980
108.521439 115.383133 6.493792 0.404166
108.521439 115.383133 5.663471 0.403235
108.521439 115.383133 4.841174 0.396307
108.601433 115.389290 4.031626 0.678431
108.521255 115.383118 3.213282 0.417624
108.521248 115.383118 2.404139 0.393881
108.521248 115.383118 1.595861 0.413611
108.521255 115.383118 0.786717 0.423713
108.217308 115.359734 -0.000038 0.286152
101.231247 114.822182 -0.000027 0.259236
97.340424 114.522804 -0.000022 0.276661
94.856468 114.331673 -0.000018 0.305089
93.130035 114.198830 -0.000015 0.345037
91.858078 114.100960 -0.000013 0.268330
108.601448 115.215889 8.203225 0.678431
108.521439 115.210297 7.331333 0.407935
108.521439 115.210297 6.491489 0.428672
108.521439 115.210297 5.661593 0.412924
108.521439 115.210297 4.839718 0.362737
108.601433 115.215889 4.030585 0.678431
108.521248 115.210281 3.212661 0.350347
108.521248 115.210281 2.403932 0.379324
108.521248 115.210281 1.596069 0.391745
108.521255 115.210281 0.787339 0.394659
108.229790 115.189903 -0.000038 0.286244
101.240143 114.701141 -0.000027 0.288319
97.347321 114.428925 -0.000022 0.320699
94.862091 114.255142 -0.000018 0.338293
93.134766 114.134354 -0.000015 0.258915
91.862160 114.045364 -0.000013 0.278782
108.601448 115.042656 8.200349 0.678431
108.521439 115.037628 7.328861 0.407279
108.521439 115.037628 6.489407 0.423316
108.521439 115.037628 5.659896 0.394751
108.521439 115.037628 4.838402 0.408469
108.601440 115.042656 4.029644 0.678431
108.521248 115.037613 3.212097 0.376989
108.521240 115.037613 2.403744 0.394705
108.521248 115.037613 1.596256 0.394171
108.521248 115.037613 0.787902 0.384955
108.241074 115.019989 -0.000038 0.290242
101.248184 114.580032 -0.000027 0.290425
97.353554 114.334999 -0.000022 0.284871
94.867172 114.178574 -0.000017 0.304921
93.139053 114.069847 -0.000015 0.308736
91.865852 113.989746 -0.000013 0.300893
108.601448 114.869583 8.197777 0.678431
108.521439 114.865112 7.326653 0.422644
108.521439 114.865112 6.487545 0.406973
108.521439 114.865112 5.658379 0.404639
108.521439 114.865112 4.837225 0.409873
108.601433 114.869583 4.028802 0.678431
108.521240 114.865097 3.211594 0.354742
108.521248 114.865097 2.403577 0.421683
108.521248 114.865097 1.596423 0.395895
108.521248 114.865097 0.788404 0.409751
108.251167 114.849998 -0.000038 0.284321
101.255379 114.458878 -0.000027 0.276555
97.359138 114.241043 -0.000022 0.317510
94.871719 114.101974 -0.000017 0.286778
93.142883 114.005318 -0.000015 0.326894
91.869156 113.934105 -0.000013 0.316503
108.619186 114.697502 8.199961 0.328618
108.521439 114.692726 7.324703 0.350271
108.521439 114.692726 6.485903 0.396124
108.521439 114.692726 5.657041 0.419471
108.521439 114.692726 4.836186 0.412695
108.619186 114.697502 4.029517 0.328618
108.521240 114.692719 3.211152 0.357259
108.521240 114.692719 2.403429 0.435233
108.521240 114.692719 1.596571 0.405814
108.521240 114.692719 0.788848 0.396490
108.260078 114.679939 -0.000038 0.285481
101.261734 114.337669 -0.000027 0.282536
97.364059 114.147041 -0.000021 0.278355
94.875740 114.025337 -0.000017 0.313115
93.146271 113.940758 -0.000015 0.257511
91.872070 113.878433 -0.000012 0.234241
111.531052 114.646599 8.928019 0.487221
111.590897 114.649109 7.986536 0.394369
111.590897 114.649109 7.043478 0.401129
112.547943 114.689217 6.253680 0.180499
111.590897 114.649109 5.188710 0.394995
111.590897 114.649109 4.272754 0.399451
112.547943 114.689217 3.408761 0.175174
111.590706 114.649101 2.453573 0.417075
111.590706 114.649101 1.546427 0.403204
111.590714 114.649101 0.638306 0.404761
108.267807 114.509827 -0.000038 0.296056
101.267242 114.216423 -0.000027 0.296407
97.368332 114.053009 -0.000021 0.293492
94.879227 113.948685 -0.000017 0.278874
93.149200 113.876175 -0.000014 0.255680
91.874603 113.822754 -0.000013 0.286671
117.134811 114.649078 10.330687 0.398566
117.134804 114.649078 9.183030 0.401282
117.134819 114.649078 8.051492 0.405371
117.134811 114.649078 6.933352 0.401648
117.597946 114.665253 5.879332 0.142031
117.134811 114.649078 4.726997 0.403998
117.597946 114.665253 3.656624 0.138125
117.134659 114.649071 2.544228 0.387793
117.134659 114.649071 1.455772 0.402548
117.134659 114.649071 0.366149 0.403784
108.274338 114.339668 -0.000038 0.285161
101.271896 114.095139 -0.000027 0.290517
97.371948 113.958946 -0.000021 0.283284
94.882164 113.872002 -0.000017 0.256138
93.151680 113.811569 -0.000014 0.267109
91.876747 113.767052 -0.000013 0.333104
125.448700 114.649033 12.412191 0.398520
125.677933 114.655434 11.027314 0.197955
125.448692 114.649033 9.563515 0.396063
125.448700 114.649033 8.165998 0.407614
125.448700 114.649033 6.781991 0.404685
125.448700 114.649033 5.408365 0.409079
125.677933 114.655434 4.053360 0.190738
125.448662 114.649033 2.680211 0.404822
125.448662 114.649033 1.319788 0.394247
125.448662 114.649033 -0.042093 0.408377
108.279694 114.169464 -0.000038 0.284718
101.275711 113.973824 -0.000027 0.297627
97.374901 113.864861 -0.000021 0.293812
94.884583 113.795303 -0.000017 0.294804
93.153717 113.746956 -0.000014 0.314305
91.878494 113.711334 -0.000013 0.281453
126.716644 114.385330 12.728088 0.384329
126.796616 114.387009 11.267440 0.678431
126.716637 114.385330 9.792985 0.419516
126.796631 114.387009 8.364940 0.678431
126.716637 114.385330 6.927070 0.438468
126.716637 114.385330 5.511771 0.396078
126.716629 114.385330 4.104050 0.377737
126.716629 114.385330 2.700850 0.396078
126.716637 114.385330 1.299151 0.392248
124.600418 114.341003 -0.000064 0.293904
108.283852 113.999222 -0.000038 0.300557
101.278679 113.852486 -0.000027 0.279866
97.377197 113.770760 -0.000021 0.324987
94.886452 113.718590 -0.000017 0.282155
93.155296 113.682327 -0.000015 0.300343
91.879860 113.655609 -0.000012 0.307195
126.716644 114.086304 12.726779 0.403403
126.796623 114.087418 11.266311 0.678431
126.716629 114.086304 9.792034 0.410697
126.796631 114.087425 8.364162 0.678431
126.716644 114.086304 6.926471 0.407828
126.716629 114.086304 5.511343 0.419211
126.716629 114.086304 4.103792 0.403861
126.716629 114.086304 2.700763 0.361471
126.716637 114.086304 1.299236 0.419059
124.605392 114.056824 -0.000064 0.293248
108.286835 113.828964 -0.000038 0.285512
101.280792 113.731133 -0.000027 0.289952
97.378845 113.676651 -0.000021 0.312520
94.887787 113.641861 -0.000017 0.295872
93.156418 113.617691 -0.000014 0.284688
91.880829 113.599876 -0.000012 0.305486
126.716644 113.787338 12.725996 0.393957
126.796623 113.787895 11.265634 0.678431
126.716629 113.787338 9.791466 0.436454
126.796631 113.787895 8.363699 0.678431
126.716629 113.787338 6.926108 0.427878
126.716629 113.787338 5.511086 0.418555
126.716629 113.787338 4.103638 0.400412
126.716629 113.787338 2.700712 0.392920
126.716637 113.787338 1.299288 0.406470
124.608353 113.772614 -0.000064 0.296666
108.288605 113.658684 -0.000038 0.283574
101.282066 113.609764 -0.000026 0.282032
97.379829 113.582527 -0.000021 0.308278
94.888596 113.565132 -0.000017 0.273381
93.157097 113.553040 -0.000014 0.356725
91.881409 113.544136 -0.000012 0.351766
126.716652 113.488396 12.725735 0.450889
126.796623 113.488396 11.265406 0.678431
126.716629 113.488396 9.791276 0.436118
126.796631 113.488396 8.363544 0.678431
126.716629 113.488396 6.925989 0.445594
126.716629 113.488396 5.511001 0.433371
126.716629 113.488396 4.103587 0.427008
126.716629 113.488396 2.700695 0.430304
126.716629 113.488396 1.299305 0.397238
124.609352 113.488396 -0.000064 0.291554
108.289200 113.488396 -0.000038 0.297841
101.282486 113.488396 -0.000027 0.297154
97.380157 113.488396 -0.000021 0.307698
94.888863 113.488396 -0.000017 0.313100
93.157318 113.488396 -0.000014 0.351125
91.881607 113.488396 -0.000012 0.325292
126.716644 113.189453 12.725996 0.407233
126.796623 113.188896 11.265634 0.678431
126.716629 113.189453 9.791466 0.341787
126.796631 113.188896 8.363699 0.678431
126.716629 113.189453 6.926108 0.363516
126.716629 113.189453 5.511086 0.365759
126.716629 113.189453 4.103638 0.364508
126.716629 113.189453 2.700712 0.377417
126.716637 113.189453 1.299288 0.387274
124.608353 113.204170 -0.000064 0.292531
108.288605 113.318108 -0.000038 0.289570
101.282066 113.367020 -0.000026 0.279225
97.379829 113.394264 -0.000021 0.270008
94.888596 113.411659 -0.000017 0.292271
93.157097 113.423744 -0.000014 0.334905
91.881409 113.432655 -0.000012 0.349554
126.716644 112.890480 12.726779 0.415061
126.796623 112.889366 11.266311 0.678431
126.716629 112.890480 9.792034 0.403754
126.796631 112.889366 8.364164 0.678431
126.716637 112.890480 6.926471 0.433234
126.716629 112.890480 5.511343 0.390494
126.716629 112.890480 4.103792 0.410651
126.716629 112.890480 2.700763 0.405539
126.716629 112.890480 1.299236 0.438209
124.605392 112.919960 -0.000064 0.292470
108.286835 113.147827 -0.000038 0.278874
101.280792 113.245659 -0.000027 0.290135
97.378845 113.300140 -0.000021 0.324605
94.887787 113.334923 -0.000017 0.312856
93.156418 113.359100 -0.000014 0.291157
91.880829 113.376915 -0.000012 0.323568
126.716644 112.591454 12.728088 0.414099
126.796623 112.589775 11.267441 0.678431
126.716629 112.591454 9.792986 0.403662
126.796638 112.589775 8.364941 0.678431
126.716629 112.591454 6.927070 0.418280
126.716629 112.591454 5.511770 0.399954
126.716629 112.591454 4.104050 0.409369
126.716629 112.591454 2.700850 0.406516
126.716629 112.591454 1.299151 0.407843
124.600418 112.635780 -0.000064 0.291966
108.283852 112.977562 -0.000038 0.293523
101.278679 113.124306 -0.000027 0.283467
97.377197 113.206024 -0.000021 0.288594
94.886452 113.258202 -0.000017 0.357076
93.155289 113.294464 -0.000014 0.323568
91.879852 113.321182 -0.000012 0.280583
126.716644 112.292336 12.729919 0.418143
126.745239 112.291542 11.257920 0.273808
126.716629 112.292336 9.794313 0.401450
126.745255 112.291542 8.358399 0.276555
126.716637 112.292336 6.927912 0.389975
126.716637 112.292336 5.512370 0.431754
126.716629 112.292336 4.104407 0.407095
126.716629 112.292336 2.700968 0.388464
126.716629 112.292336 1.299031 0.427604
124.593475 112.351646 -0.000064 0.294957
108.279694 112.807327 -0.000038 0.292287
101.275711 113.002968 -0.000026 0.288045
97.374901 113.111923 -0.000021 0.284352
94.884575 113.181488 -0.000017 0.312535
93.153709 113.229836 -0.000014 0.393881
91.878494 113.265457 -0.000012 0.306142
126.716644 111.993103 12.732273 0.408606
126.796616 111.990311 11.271053 0.678431
126.716621 111.993103 9.796022 0.424857
126.796638 111.990311 8.367422 0.678431
126.716629 111.993103 6.928992 0.417700
126.716629 111.993103 5.513140 0.394873
126.716629 111.993103 4.104870 0.398077
126.716637 111.993103 2.701122 0.397391
126.716637 111.993103 1.298878 0.406577
124.584564 112.067558 -0.000065 0.296117
108.274338 112.637123 -0.000038 0.281956
101.271896 112.881653 -0.000027 0.308141
97.371941 113.017845 -0.000021 0.307958
94.882164 113.104790 -0.000017 0.289418
93.151680 113.165222 -0.000014 0.241199
91.876740 113.209740 -0.000012 0.315328
126.716652 111.693726 12.735152 0.412161
126.796631 111.690369 11.273542 0.678431
126.716629 111.693726 9.798115 0.442130
126.796646 111.690369 8.369129 0.678431
126.716637 111.693726 6.930314 0.401770
126.716629 111.693726 5.514082 0.398581
126.716629 111.693726 4.105434 0.399619
126.716629 111.693726 2.701310 0.443229
126.716629 111.693726 1.298690 0.439338
124.573654 111.783546 -0.000064 0.296147
108.267807 112.466957 -0.000038 0.289601
101.267242 112.760368 -0.000027 0.290852
97.368332 112.923782 -0.000021 0.331106
94.879219 113.028107 -0.000017 0.318441
93.149200 113.100616 -0.000014 0.308370
91.874603 113.154037 -0.000012 0.316869
126.716644 111.394165 12.738557 0.405631
126.745247 111.392769 11.265373 0.318410
126.716629 111.394165 9.800587 0.422629
126.745247 111.392769 8.363518 0.320714
126.716629 111.394165 6.931876 0.407462
126.716629 111.394165 5.515196 0.397086
126.716629 111.394165 4.106102 0.389059
126.716629 111.394165 2.701532 0.407843
126.716629 111.394165 1.298468 0.408438
124.560745 111.499611 -0.000065 0.291814
108.260078 112.296844 -0.000038 0.294865
101.261734 112.639122 -0.000026 0.274083
97.364059 112.829750 -0.000021 0.290990
94.875732 112.951454 -0.000017 0.273228
93.146263 113.036034 -0.000014 0.307134
91.872070 113.098358 -0.000012 0.287449
126.716644 111.094414 12.742482 0.433951
126.796631 111.089943 11.279880 0.678431
126.716629 111.094414 9.803441 0.391943
126.796631 111.089943 8.373482 0.678431
126.716629 111.094414 6.933683 0.405707
126.716629 111.094414 5.516482 0.406653
126.716621 111.094414 4.106872 0.397818
126.716629 111.094414 2.701790 0.401465
126.716629 111.094414 1.298210 0.406378
124.545860 111.215775 -0.000064 0.291905
108.251167 112.126793 -0.000038 0.284825
101.255379 112.517921 -0.000026 0.274739
97.359131 112.735748 -0.000021 0.293736
94.871719 112.874817 -0.000016 0.283818
93.142883 112.971474 -0.000014 0.272374
91.869156 113.042686 -0.000012 0.287022
126.716644 110.794418 12.746940 0.381170
126.796631 110.789383 11.283728 0.678431
126.716629 110.794418 9.806679 0.398749
126.796646 110.789383 8.376126 0.678431
126.716629 110.794418 6.935730 0.402365
126.716637 110.794418 5.517941 0.407843
126.716629 110.794418 4.107746 0.418463
126.590210 110.802368 2.700007 0.678431
126.590210 110.802368 1.299992 0.678431
124.529022 110.932053 -0.000064 0.292149
108.241074 111.956802 -0.000038 0.287282
101.248184 112.396759 -0.000027 0.305562
97.353546 112.641785 -0.000021 0.271107
94.867172 112.798218 -0.000016 0.322393
93.139046 112.906944 -0.000014 0.283986
91.865852 112.987045 -0.000012 0.309957
126.716644 110.494164 12.751926 0.434424
126.745239 110.492157 11.276908 0.255604
126.716629 110.494164 9.810301 0.388342
126.745247 110.492157 8.371440 0.257038
126.716637 110.494164 6.938018 0.408743
126.716629 110.494164 5.519573 0.411063
126.716629 110.494164 4.108725 0.396780
126.590210 110.502998 2.700333 0.678431
126.590210 110.502998 1.299668 0.678431
124.510178 110.648453 -0.000064 0.291905
108.229782 111.786888 -0.000038 0.296895
101.240143 112.275650 -0.000027 0.296681
97.347305 112.547867 -0.000021 0.280766
94.862083 112.721649 -0.000017 0.294560
93.134758 112.842438 -0.000014 0.302815
91.862152 112.931427 -0.000012 0.338735
126.716637 110.193611 12.757438 0.403143
126.796631 110.187454 11.292797 0.678431
126.716629 110.193611 9.814304 0.381949
126.796638 110.187454 8.382354 0.678431
126.716637 110.193611 6.940550 0.403433
126.716629 110.193611 5.521378 0.424399
126.716629 110.193611 4.109806 0.413535
126.590210 110.203339 2.700692 0.678431
126.590210 110.203339 1.299308 0.678431
124.489365 110.364990 -0.000064 0.295003
108.217308 111.617058 -0.000038 0.288136
101.231247 112.154602 -0.000027 0.269535
97.340408 112.453987 -0.000020 0.265446
94.856461 112.645119 -0.000016 0.284611
93.130028 112.777962 -0.000014 0.305196
91.858070 112.875832 -0.000011 0.242802
126.716637 109.892738 12.763480 0.401266
126.796631 109.886017 11.298018 0.678431
126.716629 109.892738 9.818695 0.400244
126.796646 109.886017 8.385941 0.678431
126.716629 109.892738 6.943326 0.431373
126.716629 109.892738 5.523357 0.401404
126.716629 109.892738 4.110991 0.407843
126.590210 109.903351 2.701085 0.681422
126.590202 109.903351 1.298915 0.690196
124.466553 110.081680 -0.000063 0.288701
108.203644 111.447319 -0.000038 0.292226
101.221512 112.033623 -0.000027 0.271702
97.332863 112.360161 -0.000021 0.278645
94.850311 112.568626 -0.000016 0.276005
93.124840 112.713524 -0.000014 0.271687
91.853600 112.820267 -0.000011 0.277272
126.716629 109.591507 12.770057 0.365698
126.796631 109.584229 11.303699 0.678431
126.716629 109.591507 9.823474 0.398856
126.796646 109.584229 8.389842 0.678431
126.716629 109.591507 6.946347 0.376791
126.716629 109.591507 5.525510 0.431373
126.716621 109.591507 4.112280 0.420066
126.564697 109.605339 2.701094 0.649454
126.564697 109.605339 1.298906 0.582696
124.441757 109.798538 -0.000063 0.294606
108.188812 111.277672 -0.000038 0.299748
101.210938 111.912712 -0.000026 0.289937
97.324661 112.266388 -0.000020 0.294682
94.843620 112.492188 -0.000016 0.317464
93.119209 112.649117 -0.000014 0.292226
91.848740 112.764740 -0.000011 0.346456
126.716637 109.289902 12.777168 0.402991
126.796631 109.282059 11.309838 0.678431
126.716621 109.289902 9.828637 0.379675
126.796646 109.282059 8.394060 0.678431
126.716629 109.289902 6.949612 0.335866
126.716629 109.289902 5.527837 0.366339
126.716629 109.289902 4.113675 0.366949
126.658379 109.295609 2.703097 0.683070
126.658379 109.295609 1.296902 0.683238
124.415039 109.515572 -0.000063 0.293660
108.172791 111.108139 -0.000038 0.289342
101.199509 111.791878 -0.000026 0.284947
97.315804 112.172684 -0.000020 0.276219
94.836395 112.415787 -0.000016 0.303838
93.113121 112.584755 -0.000013 0.255436
91.843498 112.709244 -0.000011 0.293416
126.716644 108.987877 12.784813 0.394278
126.796631 108.979469 11.316443 0.678431
126.716629 108.987877 9.834190 0.396674
126.796631 108.979469 8.398597 0.678431
126.716629 108.987877 6.953122 0.403861
126.716629 108.987877 5.530339 0.418479
126.716629 108.987877 4.115174 0.407538
126.658386 108.994003 2.703595 0.678431
126.658386 108.994003 1.296404 0.678431
124.386307 109.232803 -0.000064 0.294301
108.155579 110.938728 -0.000038 0.274510
101.187241 111.671127 -0.000026 0.283391
97.306290 112.079033 -0.000021 0.299779
94.828644 112.339447 -0.000016 0.288014
93.106590 112.520439 -0.000013 0.258610
91.837860 112.653786 -0.000011 0.243534
126.716644 108.685410 12.792997 0.435386
126.796631 108.676437 11.323513 0.678431
126.716629 108.685410 9.840135 0.434974
126.796638 108.676437 8.403450 0.678431
126.716629 108.685410 6.956881 0.407843
126.716629 108.685410 5.533018 0.424155
126.716629 108.685410 4.116779 0.409232
126.658394 108.691948 2.704131 0.678431
126.658386 108.691948 1.295869 0.678431
124.355614 108.950241 -0.000063 0.291188
108.137184 110.769432 -0.000037 0.295613
101.174141 111.550468 -0.000026 0.318502
97.296127 111.985451 -0.000020 0.306203
94.820358 112.263153 -0.000016 0.281041
93.099609 112.456169 -0.000013 0.265507
91.831841 112.598373 -0.000011 0.253712
126.716644 108.382477 12.801719 0.439216
126.796631 108.372940 11.331048 0.678431
126.716621 108.382477 9.846472 0.409964
126.796638 108.372940 8.408626 0.678431
126.716629 108.382477 6.960887 0.395483
126.716629 108.382477 5.535873 0.439750
126.716629 108.382477 4.118489 0.410437
126.658386 108.389420 2.704699 0.689189
126.658386 108.389420 1.295301 0.689555
124.322937 108.667908 -0.000064 0.288548
108.117607 110.600273 -0.000037 0.282994
101.160187 111.429901 -0.000026 0.262776
97.285301 111.891953 -0.000020 0.271260
94.811531 112.186928 -0.000016 0.255619
93.092178 112.391953 -0.000013 0.241505
91.825432 112.542999 -0.000011 0.222736
126.716637 108.079033 12.810981 0.444083
126.745239 108.075417 11.327865 0.266377
126.716614 108.079033 9.853197 0.376028
126.745239 108.075417 8.406434 0.268269
126.716629 108.079033 6.965140 0.400534
126.716629 108.079033 5.538905 0.415656
126.716629 108.079033 4.120307 0.444541
126.658386 108.086388 2.705303 0.653742
126.658386 108.086388 1.294696 0.616297
124.288307 108.385796 -0.000063 0.290242
108.096855 110.431259 -0.000037 0.277195
101.145401 111.309433 -0.000026 0.289967
97.273834 111.798523 -0.000020 0.281331
94.802185 112.110764 -0.000016 0.280034
93.084297 112.327782 -0.000013 0.247013
91.818642 112.487671 -0.000011 0.359106
126.716644 107.775047 12.820789 0.377676
126.796631 107.764374 11.347521 0.674083
126.716629 107.775047 9.860323 0.367575
126.796638 107.764374 8.419939 0.678431
126.716629 107.775047 6.969645 0.395270
126.716629 107.775047 5.542116 0.406653
126.716621 107.775047 4.122230 0.417517
126.658386 107.782822 2.705944 0.678431
126.658386 107.782822 1.294057 0.678431
124.251694 108.103943 -0.000063 0.286778
108.074921 110.262383 -0.000037 0.292683
101.129761 111.189064 -0.000026 0.295048
97.261703 111.705177 -0.000020 0.331014
94.792297 112.034668 -0.000016 0.255970
93.075974 112.263672 -0.000013 0.360372
91.811462 112.432396 -0.000011 0.311269
126.716644 107.470505 12.831143 0.422797
126.796631 107.459259 11.356465 0.674083
126.716629 107.470505 9.867844 0.363638
126.796646 107.459259 8.426083 0.678431
126.716629 107.470505 6.974400 0.405692
126.716629 107.470505 5.545505 0.413031
126.716629 107.470505 4.124261 0.404608
126.658386 107.478691 2.706618 0.678431
126.658386 107.478691 1.293382 0.678431
124.213135 107.822350 -0.000063 0.294682
108.051819 110.093674 -0.000038 0.289265
101.113297 111.068817 -0.000026 0.317327
97.248932 111.611923 -0.000020 0.294331
94.781883 111.958641 -0.000016 0.268528
93.067200 112.199623 -0.000013 0.308492
91.803894 112.377167 -0.000010 0.263813
126.716629 107.165359 12.842042 0.395773
126.745239 107.161133 11.354664 0.278080
126.716629 107.165359 9.875762 0.391196
126.745239 107.161133 8.424843 0.278508
126.716629 107.165359 6.979405 0.387106
126.716629 107.165359 5.549073 0.393027
126.716621 107.165359 4.126398 0.371939
126.658386 107.173958 2.707329 0.678431
126.658386 107.173958 1.292670 0.678431
124.172592 107.541031 -0.000063 0.293797
108.027534 109.925125 -0.000038 0.279225
101.095978 110.948685 -0.000026 0.261662
97.235504 111.518753 -0.000020 0.279118
94.770935 111.882690 -0.000016 0.324041
93.057976 112.135635 -0.000013 0.325872
91.795944 112.321999 -0.000011 0.260166
126.716637 106.859581 12.853494 0.397360
126.716614 106.859581 11.358290 0.401770
126.716621 106.859581 9.884083 0.396078
126.796646 106.847191 8.439346 0.678431
126.716629 106.859581 6.984666 0.431571
126.716629 106.859581 5.552821 0.395834
126.716629 106.859581 4.128644 0.391180
126.658386 106.868599 2.708077 0.629755
126.658386 106.868599 1.291923 0.622095
124.130081 107.259995 -0.000063 0.293950
108.002068 109.756752 -0.000037 0.311788
101.077835 110.828674 -0.000026 0.289616
97.221436 111.425682 -0.000020 0.272938
94.759460 111.806816 -0.000015 0.303212
93.048302 112.071716 -0.000012 0.283803
91.787613 112.266884 -0.000010 0.336675
126.716644 106.553146 12.865504 0.423651
126.716614 106.553146 11.368643 0.416663
126.716614 106.553146 9.892803 0.407507
126.796646 106.540192 8.446469 0.678431
126.716629 106.553146 6.990181 0.409186
126.716629 106.553146 5.556754 0.375250
126.716621 106.553146 4.131000 0.373007
126.590210 106.573624 2.707731 0.690654
126.590210 106.573624 1.292269 0.678431
124.085617 106.979279 -0.000063 0.290822
107.975433 109.588562 -0.000038 0.291218
101.058838 110.708801 -0.000026 0.285405
97.206703 111.332710 -0.000019 0.272786
94.747452 111.731026 -0.000015 0.258976
93.038193 112.007866 -0.000012 0.365911
91.778893 112.211823 -0.000011 0.246876
126.716629 106.246010 12.878070 0.398322
126.716614 106.246010 11.379478 0.394217
126.716629 106.246010 9.901934 0.404028
126.796646 106.232475 8.453924 0.678431
126.716629 106.246010 6.995953 0.410666
126.716629 106.246010 5.560866 0.415793
126.716621 106.246010 4.133464 0.376745
126.590210 106.267395 2.708549 0.678431
126.590210 106.267395 1.291451 0.678431
124.039200 106.698868 -0.000063 0.288136
107.947617 109.420555 -0.000038 0.278981
101.039017 110.589058 -0.000026 0.269230
97.191330 111.239845 -0.000019 0.305745
94.734924 111.655312 -0.000015 0.310643
93.027634 111.944084 -0.000013 0.289570
91.769783 112.156830 -0.000010 0.261738
126.716644 105.938148 12.891197 0.406012
126.716621 105.938156 11.390796 0.384817
126.716621 105.938156 9.911467 0.400305
126.796646 105.924042 8.461714 0.678431
126.716629 105.938156 7.001980 0.395071
126.716629 105.938156 5.565163 0.407614
126.716621 105.938156 4.136038 0.403967
126.590210 105.960442 2.709403 0.678431
126.590210 105.960442 1.290596 0.678431
123.990814 106.418793 -0.000063 0.291722
107.918625 109.252754 -0.000037 0.296071
101.018356 110.469452 -0.000026 0.307561
97.175308 111.147087 -0.000019 0.289265
94.721863 111.579697 -0.000015 0.307561
93.016632 111.880379 -0.000012 0.289647
91.760300 112.101906 -0.000010 0.327611
126.716644 105.629539 12.904886 0.405478
126.716621 105.629547 11.402598 0.401724
126.716621 105.629547 9.921412 0.387594
126.796646 105.614853 8.469835 0.678431
126.716629 105.629539 7.008268 0.434180
126.716629 105.629539 5.569644 0.392004
126.716621 105.629547 4.138723 0.394751
126.590210 105.652740 2.710296 0.678431
126.590210 105.652740 1.289704 0.678431
123.940491 106.139061 -0.000063 0.290593
107.888474 109.085159 -0.000037 0.289693
100.996864 110.350006 -0.000026 0.288701
97.158638 111.054451 -0.000019 0.330312
94.708275 111.504173 -0.000015 0.330861
93.005188 111.816750 -0.000013 0.289815
91.750427 112.047043 -0.000010 0.248951
126.716644 105.320129 12.919141 0.409491
126.716614 105.320137 11.414892 0.391714
126.716621 105.320137 9.931768 0.414054
126.796646 105.304871 8.478292 0.678431
126.716629 105.320129 7.014814 0.423743
126.716629 105.320129 5.574311 0.395544
126.716629 105.320129 4.141521 0.418753
126.716629 105.320129 2.713330 0.414115
126.716629 105.320129 1.286669 0.402975
123.888206 105.859680 -0.000063 0.293645
107.857147 108.917770 -0.000037 0.296101
100.974541 110.230698 -0.000026 0.277852
97.141327 110.961929 -0.000019 0.268666
94.694153 111.428749 -0.000015 0.282979
92.993286 111.753204 -0.000012 0.304662
91.740173 111.992249 -0.000010 0.289693
126.716637 105.009895 12.933967 0.375341
126.716614 105.009903 11.427677 0.404166
126.716629 105.009903 9.942539 0.395453
126.796646 104.994057 8.487089 0.648463
126.716629 105.009895 7.021625 0.426780
126.716629 105.009895 5.579165 0.407843
126.716621 105.009903 4.144427 0.418967
126.716629 105.009895 2.714298 0.419242
126.716629 105.009895 1.285701 0.395392
123.833969 105.580681 -0.000063 0.291432
107.824654 108.750610 -0.000037 0.293599
100.951385 110.111557 -0.000026 0.276417
97.123367 110.869522 -0.000019 0.271626
94.679512 111.353424 -0.000015 0.290959
92.980957 111.689743 -0.000013 0.279942
91.729538 111.937531 -0.000010 0.327169
126.716644 104.698807 12.949373 0.367788
126.716614 104.698814 11.440958 0.368139
126.716614 104.698814 9.953726 0.357931
126.745255 104.692932 8.488448 0.320333
126.716637 104.698807 7.028699 0.382467
126.716629 104.698807 5.584208 0.371725
126.716629 104.698807 4.147449 0.374075
126.716629 104.698807 2.715304 0.394553
126.716629 104.698807 1.284695 0.382376
123.777771 105.302071 -0.000062 0.292866
107.791000 108.583687 -0.000037 0.291463
100.927383 109.992584 -0.000026 0.305562
97.104752 110.777252 -0.000019 0.297551
94.664345 111.278198 -0.000015 0.276295
92.968170 111.626373 -0.000012 0.299611
91.718513 111.882889 -0.000010 0.389166
126.716644 104.386826 12.965354 0.442618
126.716621 104.386826 11.454738 0.394736
126.716629 104.386826 9.965336 0.405020
126.796654 104.369812 8.505711 0.678431
126.716621 104.386826 7.036038 0.438361
126.716637 104.386826 5.589438 0.439216
126.716629 104.386826 4.150582 0.407645
126.716629 104.386826 2.716349 0.437995
126.716629 104.386826 1.283651 0.419379
123.719635 105.023857 -0.000062 0.291875
107.756172 108.416992 -0.000038 0.294026
100.902565 109.873772 -0.000026 0.290318
97.085510 110.685112 -0.000019 0.297368
94.648651 111.203087 -0.000015 0.344244
