# This PCD file was generated using the MATLABÂ® pcwrite function
# from Computer Vision ToolboxÂ®.
# .PCD v.7 - Point Cloud Data file format
VERSION .7
FIELDS x y z intensity
SIZE 4 4 4 4
TYPE F F F F
COUNT 1 1 1 1
WIDTH 1277
HEIGHT 1
VIEWPOINT 0 0 0 1 0 0 0
POINTS 1277
DATA ascii
-133.186661 400.046570 9.894873 0.361608
-126.358170 388.915405 6.088616 0.517647
-125.668427 387.791077 3.340314 0.516518
-132.504608 398.934753 0.445753 0.858930
-104.127098 352.676453 -0.000013 0.229915
-95.593399 338.765625 0.000018 0.336324
-91.929710 332.793427 0.000015 0.337850
-89.889229 329.467224 0.000014 0.336873
-88.586548 327.343750 0.000013 0.337850
-87.681145 325.867828 0.000010 0.331060
-86.993233 324.746460 0.009997 1.000000
nan nan nan 0.000000
nan nan nan 0.000000
nan nan nan 0.000000
nan nan nan 0.000000
nan nan nan 0.000000
-132.690598 400.525421 9.907263 0.340337
-118.063278 376.303589 5.347489 0.772488
-118.125870 376.407227 3.117014 0.806592
-117.828186 375.914276 0.892409 0.356573
-103.884331 352.824219 -0.000014 0.229292
-95.448204 338.854584 -0.000024 0.224996
-91.826035 332.856537 0.000015 0.335164
-89.808823 329.516174 0.000014 0.337926
-88.521004 327.383636 0.000013 0.335058
-87.625923 325.901428 0.000011 0.341634
-86.945854 324.775299 0.009997 1.000000
nan nan nan 0.000000
nan nan nan 0.000000
nan nan nan 0.000000
nan nan nan 0.000000
-116.553757 374.695007 9.590850 0.805463
-116.676796 374.902039 7.430126 0.816022
-116.212814 374.121429 5.208806 0.667948
-116.791000 375.094177 3.087355 0.607980
-115.989746 373.746155 0.938305 0.351766
-103.640533 352.970337 -0.000015 0.231411
-95.302132 338.942108 -0.000025 0.232763
-91.721924 332.918915 0.000016 0.335851
-89.728081 329.564545 0.000014 0.338430
-88.455177 327.423065 0.000013 0.334279
-87.570465 325.934662 0.000011 0.341772
-86.918655 324.838074 0.000009 0.337240
nan nan nan 0.000000
nan nan nan 0.000000
nan nan nan 0.000000
nan nan nan 0.000000
-114.552139 372.185730 9.225225 0.635111
-114.509171 372.112274 7.142805 0.834928
-114.509171 372.112274 5.081269 0.825589
-114.694809 372.429596 3.032373 0.827817
-114.509064 372.112091 0.973647 0.829770
-103.395721 353.114716 -0.000016 0.228586
-95.155457 339.028625 -0.000026 0.229651
-91.617371 332.980560 0.000016 0.340551
-89.646996 329.612366 0.000014 0.339010
-88.389076 327.462036 0.000013 0.342199
-87.514778 325.967499 0.000011 0.328161
-86.870636 324.866394 0.000009 0.332006
nan nan nan 0.000000
nan nan nan 0.000000
nan nan nan 0.000000
nan nan nan 0.000000
-114.355637 372.723236 9.267361 0.537255
-113.104599 370.550018 6.974205 0.647074
-113.093102 370.530029 4.979122 0.839216
-113.093102 370.530029 2.992332 0.839216
-113.093109 370.530029 1.007668 0.839216
-103.149902 353.257385 -0.000017 0.230800
-95.008179 339.114105 -0.000027 0.228945
-91.512398 333.041473 0.000016 0.335424
-89.565582 329.659607 0.000014 0.335531
-88.322708 327.500549 0.000013 0.339300
-87.458870 325.999939 0.000010 0.341939
-86.822426 324.894379 0.000009 0.345663
nan nan nan 0.000000
nan nan nan 0.000000
nan nan nan 0.000000
nan nan nan 0.000000
-114.016190 373.018799 9.277524 0.503578
-112.880211 371.013184 6.998062 0.563470
-112.764397 370.808716 4.983005 0.641566
-112.764404 370.808716 2.993625 0.654536
-112.764404 370.808716 1.006375 0.674144
-102.903107 353.398346 -0.000018 0.229950
-94.860306 339.198578 -0.000029 0.225463
-91.406998 333.101654 0.000016 0.336553
-89.483841 329.706268 0.000014 0.337026
-88.256073 327.538605 0.000013 0.338369
-87.402725 326.032013 0.000011 0.346090
-86.774017 324.921997 0.000009 0.332006
nan nan nan 0.000000
nan nan nan 0.000000
nan nan nan 0.000000
nan nan nan 0.000000
-113.673447 373.311005 9.287519 0.475120
-112.556335 371.306183 7.006000 0.503548
-112.434845 371.088165 4.987043 0.647059
-112.434845 371.088165 2.994969 0.644755
-112.434853 371.088196 1.005030 0.665064
-102.655334 353.537598 -0.000019 0.228837
-94.711853 339.281982 -0.000029 0.231243
-91.301186 333.161102 0.000016 0.335348
-89.401779 329.752380 0.000014 0.335531
-88.189171 327.576202 0.000013 0.335531
-87.346367 326.063660 0.000011 0.340276
-86.725418 324.949310 0.000009 0.328008
nan nan nan 0.000000
nan nan nan 0.000000
nan nan nan 0.000000
nan nan nan 0.000000
-113.332222 373.608551 9.298492 0.545434
-112.237549 371.611359 7.015256 0.468574
-112.104378 371.368378 4.991239 0.647059
-112.104385 371.368408 2.996368 0.661845
-112.104385 371.368408 1.003632 0.654414
-102.406586 353.675049 -0.000020 0.230704
-94.562813 339.364349 -0.000031 0.229280
-91.194962 333.219818 0.000016 0.337606
-89.319397 329.797913 0.000014 0.335042
-88.122009 327.613312 0.000013 0.341329
-87.289780 326.094940 0.000011 0.339055
-86.676636 324.976288 0.000009 0.333028
nan nan nan 0.000000
nan nan nan 0.000000
nan nan nan 0.000000
nan nan nan 0.000000
-112.990074 373.907257 9.309883 0.541222
-111.911438 371.906281 7.023732 0.506661
-111.772964 371.649414 4.995593 0.635294
-111.772964 371.649414 2.997819 0.676478
-111.772964 371.649414 1.002182 0.614664
-102.156891 353.810852 -0.000021 0.230597
-94.413208 339.445709 -0.000032 0.233720
-91.088326 333.277771 0.000016 0.337331
-89.236694 329.842865 0.000014 0.338186
-88.054588 327.649963 0.000013 0.338170
-87.232986 326.125824 0.000010 0.336736
-86.627663 325.002899 0.000009 0.340414
nan nan nan 0.000000
nan nan nan 0.000000
nan nan nan 0.000000
nan nan nan 0.000000
-112.644730 374.202911 9.321150 0.481804
-111.584496 372.202789 7.032536 0.499504
-111.440567 371.931274 5.000106 0.635294
-111.440567 371.931274 2.999322 0.635950
-111.440575 371.931274 1.000678 0.647257
-101.906235 353.944824 -0.000022 0.229699
-94.263039 339.526001 -0.000033 0.222734
-90.981285 333.334991 0.000016 0.338659
-89.153687 329.887238 0.000014 0.338094
-87.986916 327.686127 0.000013 0.336522
-87.175972 326.156281 0.000011 0.336217
-86.578506 325.029175 0.000009 0.345922
nan nan nan 0.000000
nan nan nan 0.000000
nan nan nan 0.000000
nan nan nan 0.000000
-112.300522 374.503754 9.333364 0.541329
-111.256729 372.500977 7.041674 0.487953
-111.107155 372.213989 5.004780 0.622477
-111.107162 372.213989 3.000879 0.635294
-111.107155 372.213989 0.999122 0.677607
-101.654671 354.077087 -0.000023 0.231961
-94.112312 339.605225 -0.000034 0.233637
-90.873856 333.391449 0.000016 0.337285
-89.070366 329.931030 0.000014 0.334829
-87.918991 327.721832 0.000013 0.339712
-87.118752 326.186371 0.000010 0.338918
-86.529160 325.055115 0.000009 0.335943
nan nan nan 0.000000
nan nan nan 0.000000
nan nan nan 0.000000
nan nan nan 0.000000
-111.955269 374.805878 9.346008 0.547738
-110.927994 372.800781 7.051137 0.556893
-110.772675 372.497620 5.009614 0.646738
-110.772675 372.497620 3.002488 0.621347
-110.772675 372.497620 0.997512 0.655222
-101.402176 354.207581 -0.000025 0.229556
-93.961029 339.683411 -0.000035 0.227641
-90.766029 333.447174 0.000016 0.339300
-88.986740 329.974243 0.000014 0.333150
-87.850822 327.757080 0.000013 0.343496
-87.061317 326.216064 0.000011 0.343450
-86.479645 325.080688 0.000009 0.340734
nan nan nan 0.000000
nan nan nan 0.000000
nan nan nan 0.000000
nan nan nan 0.000000
-111.608925 375.109253 9.359081 0.527047
-110.605576 373.116699 7.062261 0.522896
-110.437103 372.782135 5.014612 0.654902
-110.437111 372.782135 3.004154 0.662577
-110.437111 372.782135 0.995847 0.657771
-101.148788 354.336304 -0.000026 0.231602
-93.809212 339.760529 -0.000036 0.227784
-90.618698 333.424438 0.010023 1.000000
-88.902824 330.016876 0.000015 0.334218
-87.782410 327.791809 0.000013 0.335485
-87.003677 326.245331 0.000011 0.337850
-86.429939 325.105927 0.000010 0.339010
nan nan nan 0.000000
nan nan nan 0.000000
nan nan nan 0.000000
nan nan nan 0.000000
-111.259384 375.409821 9.372059 0.473167
-110.274139 373.418732 7.072282 0.488563
-110.100403 373.067627 5.019773 0.647059
-110.100410 373.067657 3.005871 0.654902
-110.100410 373.067657 0.994127 0.648951
-100.894501 354.463287 -0.000026 0.227521
-93.656860 339.836609 -0.000037 0.239369
-90.510696 333.478485 0.010011 1.000000
-88.818604 330.058899 0.000015 0.330297
-87.713745 327.826080 0.000013 0.337804
-86.945831 326.274200 0.000011 0.334264
-86.380066 325.130829 0.000009 0.332982
nan nan nan 0.000000
nan nan nan 0.000000
nan nan nan 0.000000
nan nan nan 0.000000
-110.910629 375.715698 9.385983 0.488884
-109.941635 373.722565 7.082642 0.544396
-109.762527 373.354126 5.025102 0.608118
-104.262268 362.040558 2.801793 0.513649
-109.762527 373.354156 0.992354 0.656550
-100.639320 354.588440 -0.000027 0.229029
-93.503967 339.911621 -0.000037 0.229520
-90.440254 333.609802 0.000017 0.335393
-88.734093 330.100342 0.000015 0.342107
-87.644852 327.859894 0.000013 0.339345
-86.887794 326.302673 0.000010 0.333883
-86.330025 325.155396 0.000009 0.331640
nan nan nan 0.000000
nan nan nan 0.000000
nan nan nan 0.000000
nan nan nan 0.000000
-110.560654 376.022949 9.400347 0.531289
-109.608047 374.028198 7.093349 0.565118
-104.262924 362.835693 4.442300 0.513069
-109.423447 373.641663 3.009477 0.654368
-109.423447 373.641663 0.990524 0.647059
-100.383293 354.711853 -0.000029 0.229161
-93.350571 339.985535 -0.000039 0.213578
-90.331139 333.662933 -0.000042 0.229029
-88.649300 330.141235 0.000015 0.333059
-87.575722 327.893188 0.000013 0.337438
-86.829552 326.330719 0.000011 0.331655
-86.279808 325.179565 0.000009 0.341909
nan nan nan 0.000000
nan nan nan 0.000000
nan nan nan 0.000000
nan nan nan 0.000000
-110.207558 376.327698 9.414663 0.524529
-109.282135 374.354614 7.106107 0.533837
-103.644485 362.334442 4.407045 0.507393
-103.694962 362.442078 2.803722 0.511635
-109.083107 373.930237 0.988638 0.664164
-100.126396 354.833466 -0.000030 0.228538
-93.196655 340.058411 -0.000039 0.226324
-90.221436 333.714874 -0.000044 0.223165
-88.564217 330.181488 0.000015 0.337865
-87.506363 327.926025 0.000013 0.336538
-86.771118 326.358398 0.000011 0.336996
-86.229424 325.203430 0.000009 0.333165
nan nan nan 0.000000
nan nan nan 0.000000
nan nan nan 0.000000
nan nan nan 0.000000
-103.483818 362.803284 7.677724 0.510567
-103.493874 362.825134 6.048771 0.514366
-103.327194 362.463196 4.406213 0.512886
-103.444984 362.718964 2.806106 0.514046
-108.741486 374.219910 0.986695 0.654902
-99.868668 354.953247 -0.000031 0.228000
-93.042236 340.130188 -0.000040 0.228119
-90.111374 333.766052 -0.000044 0.225151
-88.478859 330.221161 0.000015 0.334813
-87.436775 327.958374 0.000013 0.337789
-86.712494 326.385620 0.000011 0.334615
-86.178879 325.226929 0.000009 0.339132
nan nan nan 0.000000
nan nan nan 0.000000
nan nan nan 0.000000
nan nan nan 0.000000
-103.163330 362.930786 7.675762 0.512871
-102.883209 362.311188 5.989645 0.520256
-102.680542 361.862885 4.366194 0.511299
-102.780678 362.084412 2.792147 0.513710
-108.398529 374.510742 0.984696 0.675792
-99.610100 355.071259 -0.000032 0.232021
-92.887314 340.200897 -0.000041 0.225977
-90.000946 333.816437 -0.000045 0.245604
-88.393227 330.260223 0.000015 0.339376
-87.366966 327.990204 0.000014 0.336522
-86.653679 326.412476 0.000011 0.335378
-86.128166 325.250061 0.000009 0.339117
nan nan nan 0.000000
nan nan nan 0.000000
nan nan nan 0.000000
nan nan nan 0.000000
-102.771873 362.897797 7.653890 0.517433
-102.612854 362.539429 5.997663 0.514412
-101.980240 361.113678 4.318540 0.490715
-108.054207 374.802704 3.017362 0.676402
-108.054207 374.802704 0.982638 0.618585
-99.350716 355.187439 -0.000032 0.227090
-92.731911 340.270508 -0.000042 0.230932
-89.890182 333.866058 -0.000046 0.241057
-88.307320 330.298706 0.000015 0.341054
-87.296936 328.021576 0.000013 0.337469
-86.594681 326.438904 0.000011 0.340429
-86.077293 325.272858 0.000009 0.336370
nan nan nan 0.000000
nan nan nan 0.000000
nan nan nan 0.000000
nan nan nan 0.000000
-102.531998 363.206329 7.675280 0.511849
-102.341965 362.769867 6.006023 0.513573
-101.862534 361.668701 4.341176 0.522744
-102.015793 362.020721 2.786118 0.516548
nan nan nan 0.000000
-99.090530 355.301849 -0.000033 0.230286
-92.576019 340.339020 -0.000043 0.227665
-89.779076 333.914886 -0.000047 0.230621
-88.221146 330.336578 0.000015 0.338766
-87.226685 328.052460 0.000014 0.333074
-86.535500 326.464905 0.000011 0.333227
-86.026260 325.295258 0.000009 0.335683
nan nan nan 0.000000
nan nan nan 0.000000
nan nan nan 0.000000
nan nan nan 0.000000
-101.787811 362.340790 7.549942 0.517861
-101.654587 362.028870 5.927913 0.512245
-101.856667 362.502014 4.378652 0.511955
-101.451080 361.552368 2.775419 0.516091
nan nan nan 0.000000
-98.829544 355.414398 -0.000034 0.228574
-92.419655 340.406464 -0.000044 0.222901
-89.667625 333.962952 -0.000047 0.238041
-88.134712 330.373840 0.000016 0.338064
-87.156219 328.082855 0.000014 0.333623
-86.476135 326.490509 0.000011 0.333364
-85.975075 325.317352 0.000010 0.333349
nan nan nan 0.000000
nan nan nan 0.000000
nan nan nan 0.000000
nan nan nan 0.000000
-101.632362 362.841431 7.596021 0.516289
-101.413101 362.317993 5.942033 0.512154
-101.597404 362.757965 4.385272 0.509880
-101.089973 361.546539 2.773031 0.513466
nan nan nan 0.000000
-98.567780 355.525116 -0.000035 0.228658
-92.262817 340.472839 -0.000045 0.227629
-89.555840 334.010254 -0.000048 0.216846
-88.048019 330.410522 0.000015 0.339117
-87.085548 328.112732 0.000013 0.338247
-86.416595 326.515686 0.000011 0.330175
-85.923737 325.339050 0.000009 0.337728
nan nan nan 0.000000
nan nan nan 0.000000
nan nan nan 0.000000
nan nan nan 0.000000
-100.958931 362.095581 7.487082 0.516350
-100.976151 362.137512 5.914637 0.516793
-101.190315 362.658966 4.373118 0.514153
-101.616173 363.695923 2.808817 0.592340
-101.622185 363.710571 1.190923 0.574563
-98.305267 355.634064 -0.000035 0.230752
-92.105530 340.538086 -0.000046 0.237622
-89.443733 334.056763 -0.000049 0.220879
-87.961075 330.446594 0.000015 0.332982
-87.014671 328.142151 0.000013 0.335454
-86.356880 326.540466 0.000011 0.331609
-85.872253 325.360413 0.000009 0.342809
-96.166199 351.081421 10.939525 0.302083
nan nan nan 0.000000
nan nan nan 0.000000
nan nan nan 0.000000
-101.280083 363.785065 7.681047 0.511437
-100.921127 362.893372 5.970349 0.515923
-100.657845 362.239319 4.344168 0.516960
-100.760498 362.494324 2.785329 0.513512
nan nan nan 0.000000
-98.041977 355.741119 -0.000036 0.228131
-91.947784 340.602234 -0.000046 0.218210
-89.331299 334.102478 -0.000049 0.234367
-87.873886 330.482025 0.000015 0.335103
-86.943588 328.171051 0.000013 0.336629
-86.296997 326.564819 0.000011 0.339986
-85.820610 325.381409 0.000009 0.334142
-95.821686 350.886993 10.862342 0.312215
-95.927299 351.154755 9.703609 0.555108
-95.927299 351.154755 8.490062 0.479744
-95.927299 351.154755 7.290886 0.443793
-95.927299 351.154755 6.103303 0.548501
-95.927299 351.154755 4.924631 0.518944
-95.927299 351.154755 3.752269 0.568170
-95.927299 351.154755 2.583672 0.477180
-95.927299 351.154755 1.416327 0.658000
-95.927254 351.154633 0.247736 0.537331
-91.789597 340.665283 -0.000047 0.236174
-89.218552 334.147430 -0.000050 0.231710
-87.761703 330.454163 0.010016 1.000000
-86.872299 328.199432 0.000014 0.332372
-86.236938 326.588745 0.000011 0.340047
-85.768829 325.402039 0.000009 0.332937
-95.463646 350.645721 10.773424 0.528862
-95.592026 350.977966 9.641704 0.842939
-95.592033 350.977966 8.437912 0.876524
-95.463699 350.645874 7.195561 0.613031
-95.588554 350.968964 6.069222 0.906386
-95.534561 350.829224 4.888054 0.845045
-95.463707 350.645874 3.720698 0.586755
-95.591255 350.975952 2.578948 0.911131
-95.591255 350.975952 1.421053 0.886488
-95.463638 350.645691 0.279311 0.520180
-91.630974 340.727203 -0.000048 0.237000
-89.105492 334.191559 -0.000051 0.255035
-87.674461 330.488220 0.010017 1.000000
-86.800819 328.227356 0.000013 0.335180
-86.176720 326.612244 0.000011 0.340703
-85.716911 325.422333 0.000009 0.340703
-95.016457 350.154877 10.618571 0.551553
-95.114723 350.414551 9.491224 0.902876
-95.156013 350.523682 8.332363 0.683070
-95.016479 350.154938 7.103845 0.966705
-95.159950 350.534058 6.004879 0.828351
-95.084854 350.335602 4.837081 1.000000
-95.016479 350.154938 3.690323 0.546746
-95.156006 350.523651 2.569489 0.794202
-95.156006 350.523651 1.430510 0.811032
-95.016434 350.154785 0.309683 0.568795
-91.471924 340.788055 -0.000049 0.228861
-88.992126 334.234924 -0.000052 0.225630
-87.610840 330.584747 0.000016 0.337743
-86.729149 328.254761 0.000014 0.336095
-86.116333 326.635345 0.000011 0.335393
-85.664841 325.442230 0.000009 0.342153
-94.584747 349.681000 10.469486 0.515160
-94.719299 350.044189 9.386368 0.678431
-94.584755 349.681000 8.152320 0.599054
-94.612946 349.757111 7.027589 0.976349
-94.719322 350.044250 5.934334 0.681651
-94.584740 349.680969 4.772431 0.990021
-94.584755 349.681000 3.661082 0.449516
-94.719284 350.044159 2.559635 0.678431
-94.719284 350.044159 1.440365 0.669429
-94.584717 349.680908 0.338924 0.593713
-91.312447 340.847778 -0.000049 0.232356
-88.878456 334.277496 -0.000052 0.223344
-87.522690 330.617737 0.000016 0.331411
-86.657280 328.281677 0.000014 0.338476
-86.055794 326.658020 0.000011 0.335836
-85.612640 325.461792 0.000009 0.338369
-94.167686 349.223175 10.325861 0.624567
-94.167679 349.223145 9.178869 0.466773
-94.167679 349.223145 8.047981 0.582010
-94.167679 349.223145 6.930493 0.621317
-94.167679 349.223145 5.823804 0.572427
-94.167679 349.223175 4.725417 0.526802
-94.167679 349.223145 3.632912 0.598260
-94.167679 349.223145 2.543915 0.562112
-94.167679 349.223145 1.456085 0.575784
-94.167648 349.223083 0.367092 0.475898
-91.152557 340.906372 -0.000050 0.237155
-88.764503 334.319275 -0.000054 0.212657
-87.434471 330.650574 -0.000055 0.225331
-86.585236 328.308075 0.000014 0.335607
-85.995094 326.680267 0.000011 0.336400
-85.560303 325.480957 0.000009 0.345876
-93.764481 348.780487 10.187397 0.604242
-93.764488 348.780518 9.059486 0.569802
-93.764488 348.780518 7.947407 0.462715
-93.764488 348.780518 6.848499 0.443503
-93.764488 348.780518 5.760214 0.599191
-93.764488 348.780518 4.680093 0.610468
-93.764488 348.780518 3.605757 0.573800
-93.764488 348.780518 2.534870 0.653620
-93.764488 348.780518 1.465130 0.473762
-93.764488 348.780518 0.394243 0.538018
-90.992264 340.963867 -0.000051 0.213854
-88.650253 334.360229 -0.000054 0.257417
-87.345871 330.682343 -0.000055 0.216020
-86.513000 328.333984 0.000014 0.332876
-85.934242 326.702087 0.000011 0.339727
-85.507835 325.499786 0.000010 0.334646
-93.471306 348.631561 10.127887 0.854566
-93.495239 348.700562 9.023942 0.678431
-93.374489 348.352386 7.850411 0.597772
-93.495239 348.700562 6.824092 0.678431
-93.495239 348.700562 5.741285 0.678431
-93.374489 348.352386 4.636384 0.524849
-93.374504 348.352448 3.579571 0.881453
-93.495262 348.700623 2.532178 0.673961
-93.495262 348.700623 1.467822 0.680919
-93.374496 348.352417 0.420430 0.553246
-90.831573 341.020233 -0.000051 0.238448
-88.535721 334.400421 -0.000054 0.246514
-87.257042 330.713531 -0.000057 0.242002
-86.440590 328.359375 0.000014 0.338033
-85.873238 326.723480 0.000011 0.334615
-85.455231 325.518219 0.000010 0.338308
-93.113380 348.281342 10.015821 0.678431
-93.113373 348.281311 8.911539 0.683528
-92.996986 347.937988 7.756806 0.595422
-93.113388 348.281342 6.746893 0.678431
-93.113380 348.281342 5.681413 0.665278
-92.996986 347.937988 4.594202 0.588846
-93.054047 348.106323 3.563026 0.992309
-93.113403 348.281403 2.523661 0.678431
-93.113403 348.281403 1.476338 0.679042
-92.996994 347.938019 0.445703 0.561486
-90.670502 341.075470 -0.000052 0.228526
-88.420906 334.439789 -0.000055 0.234355
-87.168007 330.744049 -0.000057 0.251493
-86.368004 328.384277 0.000014 0.336675
-85.812088 326.744446 0.000011 0.334752
-85.402504 325.536316 0.000009 0.337133
-92.730743 347.836700 9.879758 0.901198
-92.730728 347.836639 8.794212 0.815137
-92.631363 347.536652 7.666422 0.522881
-92.739304 347.862518 6.670353 0.864149
-92.739304 347.862518 5.622054 0.873701
-92.631355 347.536621 4.553471 0.530785
-92.686371 347.702728 3.538486 0.984695
-92.741676 347.869690 2.515341 0.928908
-92.741676 347.869690 1.484659 0.995865
-92.631363 347.536652 0.470106 0.464469
-90.509033 341.129578 -0.000052 0.226420
-88.305824 334.478363 -0.000056 0.247232
-87.078751 330.773956 -0.000057 0.194944
-86.295242 328.408661 0.000014 0.339452
-85.750786 326.764984 0.000011 0.339040
-85.349655 325.554016 0.000009 0.333211
-92.277039 347.147736 9.680391 0.569146
-92.277039 347.147736 8.622322 0.536309
-92.277023 347.147705 7.579101 0.583886
-92.277008 347.147644 6.548238 0.574319
-92.277008 347.147644 5.527349 0.596521
-92.277008 347.147644 4.514119 0.585122
-92.277039 347.147736 3.506320 0.554955
-92.277039 347.147736 2.501747 0.433646
-92.277039 347.147736 1.498253 0.655619
-92.277031 347.147705 0.493682 0.613245
-90.347198 341.182587 -0.000053 0.227880
-88.190475 334.516144 -0.000057 0.238484
-86.989296 330.803253 -0.000057 0.255849
-86.222321 328.432526 0.000014 0.338399
-85.689346 326.785095 0.000011 0.342229
-85.296677 325.571350 0.000009 0.338720
-91.933426 346.770538 9.564184 0.424704
-91.933426 346.770538 8.522125 0.600076
-91.933426 346.770538 7.494696 0.515480
-91.933411 346.770477 6.479431 0.560098
-91.933411 346.770477 5.473985 0.505333
-91.933411 346.770477 4.476083 0.492363
-91.933426 346.770538 3.483528 0.585580
-91.933426 346.770538 2.494157 0.419608
-91.933426 346.770538 1.505844 0.651255
-91.933426 346.770508 0.516472 0.510430
-90.184998 341.234436 -0.000054 0.225379
-88.074867 334.553101 -0.000057 0.211388
-86.899635 330.831909 -0.000058 0.219862
-86.149223 328.455902 0.000014 0.335393
-85.627769 326.804779 0.000011 0.342596
-85.243584 325.588318 0.000009 0.353384
-91.627045 346.492188 9.474768 0.870588
-91.627045 346.492188 8.445028 0.807843
-91.600044 346.404541 7.413059 0.509331
-91.624771 346.484772 6.425337 0.798520
-91.624763 346.484772 5.432033 0.819318
-91.600044 346.404541 4.439300 0.467811
-91.625748 346.487976 3.465775 0.884428
-91.625748 346.487946 2.488243 0.955703
-91.625748 346.487976 1.511757 0.992157
-91.600052 346.404572 0.538512 0.516518
-90.022438 341.285156 -0.000055 0.234235
-87.959007 334.589264 -0.000058 0.246825
-86.809776 330.859955 -0.000059 0.238496
-86.075974 328.478729 0.000013 0.337285
-85.566055 326.824036 0.000011 0.335088
-85.190369 325.604919 0.000009 0.340185
-91.373100 346.371002 9.427208 0.678431
-91.373100 346.371033 8.404024 0.678431
-91.276405 346.049286 7.334069 0.506432
-91.373085 346.370972 6.398317 0.678431
-91.373085 346.370972 5.411077 0.678431
-91.276405 346.049286 4.403703 0.484459
-91.373100 346.371033 3.456665 0.647059
-91.373100 346.371033 2.485208 0.678431
-91.373100 346.371033 1.514792 0.678431
-91.276413 346.049316 0.559838 0.563012
-89.859528 341.334747 -0.000055 0.231099
-87.842888 334.624603 -0.000058 0.243654
-86.719727 330.887360 -0.000060 0.247938
-86.002563 328.501099 0.000014 0.341039
-85.504211 326.842865 0.000011 0.337026
-85.137047 325.621155 0.000009 0.330449
-91.055161 346.021973 9.320738 0.679194
-90.962097 345.704285 8.240721 0.879591
-90.962082 345.704254 7.257614 0.572519
-91.055145 346.021942 6.335267 0.678431
-91.055145 346.021942 5.362180 0.673228
-90.962082 345.704224 4.369249 0.622248
-91.055145 346.021942 3.435781 0.662989
-91.055145 346.021942 2.478252 0.678431
-91.055145 346.021942 1.521748 0.678431
-90.962082 345.704254 0.580482 0.571557
-89.696274 341.383209 -0.000056 0.226899
-87.726532 334.659119 -0.000059 0.229352
-86.629486 330.914154 -0.000060 0.198068
-85.929001 328.522919 0.000013 0.334874
-85.442230 326.861267 0.000011 0.339529
-85.083611 325.637024 0.000009 0.341024
-90.715210 345.574280 9.189352 0.929274
-90.656601 345.368896 8.152804 0.923461
-90.656616 345.368958 7.183566 0.651148
-90.700539 345.522858 6.249535 0.839216
-90.722984 345.601501 5.305101 0.905882
-90.656609 345.368927 4.335879 0.612390
-90.725098 345.608917 3.411785 0.925139
-90.725098 345.608917 2.470259 0.941299
-90.725098 345.608917 1.529741 0.976898
-90.656609 345.368896 0.600477 0.541833
-89.532692 341.430511 -0.000056 0.237933
-87.609940 334.692841 -0.000059 0.223177
-86.539055 330.940308 -0.000060 0.239369
-85.840202 328.491394 0.010013 1.000000
-85.380127 326.879211 0.000011 0.333303
-85.030060 325.652496 0.000009 0.337301
-90.359612 345.042877 9.037083 0.950591
-90.359604 345.042847 8.067635 0.628962
-90.359627 345.042938 7.111820 0.938170
-90.359634 345.042969 6.167305 0.913725
-90.359634 345.042969 5.231920 0.918227
-90.359619 345.042908 4.303548 0.444968
-90.359604 345.042847 3.380149 0.953170
-90.359604 345.042847 2.459721 0.980392
-90.359604 345.042847 1.540279 0.997299
-90.359612 345.042877 0.619850 0.535973
-89.368774 341.476685 -0.000057 0.211472
-87.493103 334.725739 -0.000060 0.229101
-86.448456 330.965820 -0.000061 0.233158
-85.766708 328.512085 0.010013 1.000000
-85.317902 326.896729 0.000011 0.339696
-84.976402 325.667603 0.000009 0.345068
-90.070709 344.725769 8.941349 0.525872
-90.070717 344.725769 7.985095 0.531014
-90.070717 344.725769 7.042264 0.644892
-90.070709 344.725769 6.110600 0.630579
-90.070709 344.725769 5.187943 0.612116
-90.070717 344.725769 4.272206 0.551171
-90.070709 344.725769 3.361374 0.448035
-90.070717 344.725769 2.453468 0.598535
-90.070709 344.725769 1.546533 0.562005
-90.070702 344.725739 0.638627 0.622477
-89.204544 341.521698 -0.000057 0.244264
-87.376045 334.757843 -0.000060 0.215194
-86.357674 330.990723 -0.000062 0.202424
-85.693069 328.532257 0.010012 1.000000
-85.255554 326.913818 0.000011 0.338277
-84.922646 325.682343 0.000009 0.333547
-89.835297 344.591156 8.893578 0.475273
-89.835297 344.591156 7.943903 0.508537
-89.835297 344.591156 7.007563 0.532479
-89.835297 344.591156 6.082311 0.562951
-89.835297 344.591156 5.166002 0.462898
-89.835297 344.591156 4.256568 0.578302
-89.835297 344.591156 3.352005 0.445228
-89.835297 344.591156 2.450346 0.703334
-89.835297 344.591156 1.549653 0.486336
-89.835297 344.591156 0.647994 0.727672
-89.040001 341.565582 -0.000057 0.239106
-87.258774 334.789093 -0.000061 0.218629
-86.266716 331.014954 -0.000062 0.200569
-85.633270 328.605072 0.000013 0.334600
-85.193085 326.930481 0.000011 0.344884
-84.868782 325.696716 0.000009 0.340520
-89.674431 344.737701 8.919005 0.748470
-89.674431 344.737701 7.965827 0.646433
-89.674431 344.737701 7.026033 0.773739
-89.674431 344.737701 6.097369 0.613016
-89.674431 344.737701 5.177680 0.695689
-89.674431 344.737701 4.264893 0.594766
-89.674431 344.737701 3.356992 0.436271
-89.674431 344.737701 2.452008 0.708354
-89.674431 344.737701 1.547992 0.743069
-89.674431 344.737701 0.643008 0.686885
-88.875160 341.608276 -0.000058 0.220711
-87.141281 334.819550 -0.000062 0.251768
-86.175598 331.038574 -0.000062 0.203525
-85.558983 328.624329 0.000013 0.343297
-85.130508 326.946686 0.000011 0.327276
-84.814827 325.710693 0.000009 0.339956
-89.512360 344.885345 8.944960 0.469657
-89.512360 344.885345 7.988206 0.529625
-89.512360 344.885345 7.044885 0.504616
-89.512360 344.885345 6.112739 0.419608
-89.512360 344.885345 5.189600 0.508919
-89.512360 344.885345 4.273389 0.643961
-89.512360 344.885345 3.362083 0.457847
-89.512360 344.885345 2.453704 0.676936
-89.512360 344.885345 1.546297 0.483284
-89.512360 344.885345 0.637917 0.626795
-88.710022 341.649872 -0.000059 0.230956
-87.023575 334.849182 -0.000062 0.237550
-86.084312 331.061554 -0.000063 0.216534
-85.484673 328.643463 -0.000063 0.252283
-85.067818 326.962463 0.000010 0.344076
-84.760773 325.724304 0.000009 0.342855
-89.349068 345.034119 8.971451 0.475410
-89.349068 345.034119 8.011047 0.426642
-89.349068 345.034119 7.064130 0.454520
-89.349068 345.034119 6.128427 0.450980
-89.349068 345.034119 5.201766 0.684688
-89.349068 345.034119 4.282060 0.713115
-89.349068 345.034119 3.367278 0.647623
-89.349068 345.034088 2.455434 0.662287
-89.349068 345.034088 1.544566 0.451102
-89.349068 345.034119 0.632721 0.505531
-88.544594 341.690277 -0.000059 0.219299
-86.905670 334.877991 -0.000062 0.226683
-85.992874 331.083893 -0.000063 0.255538
-85.410126 328.661682 -0.000064 0.228790
-85.005013 326.977814 0.000011 0.332204
-84.706619 325.737518 0.000009 0.335576
-89.184509 345.184021 8.998486 0.579446
-89.184509 345.184021 8.034359 0.606806
-89.184509 345.184021 7.083770 0.489799
-89.184509 345.184021 6.144437 0.537331
-89.184509 345.184021 5.214184 0.628122
-89.184509 345.184021 4.290911 0.434867
-89.184509 345.184021 3.372580 0.458442
-89.184509 345.184021 2.457200 0.632959
-89.184509 345.184021 1.542800 0.441764
-89.184509 345.184021 0.627419 0.514870
-88.378891 341.729523 -0.000059 0.228694
-86.787560 334.905975 -0.000062 0.240877
-85.901276 331.105591 -0.000064 0.210311
-85.335457 328.679382 -0.000064 0.260492
-84.942108 326.992706 0.000011 0.343923
-84.652382 325.750366 0.000009 0.332555
-89.018669 345.335083 9.026077 0.472007
-89.018669 345.335083 8.058149 0.523995
-89.018669 345.335083 7.103810 0.625834
-89.018669 345.335083 6.160776 0.490745
-89.018669 345.335083 5.226855 0.517464
-89.018669 345.335083 4.299942 0.463127
-89.018669 345.335083 3.377991 0.465293
-89.018669 345.335083 2.459003 0.732754
-89.018669 345.335083 1.540998 0.434089
-89.018669 345.335083 0.622008 0.540490
-88.212921 341.767639 -0.000060 0.224948
-86.669266 334.933136 -0.000063 0.249602
-85.809532 331.126648 -0.000064 0.240279
-85.260658 328.696533 -0.000064 0.222854
-84.879097 327.007172 0.000011 0.335897
-84.598053 325.762848 0.000009 0.332982
-88.851501 345.487366 9.054232 0.585245
-88.851501 345.487366 8.082424 0.462745
-88.851501 345.487366 7.124262 0.464546
-88.851501 345.487366 6.177449 0.429480
-88.851501 345.487366 5.239785 0.437232
-88.851501 345.487366 4.309158 0.496666
-88.851501 345.487366 3.383513 0.458183
-88.851501 345.487366 2.460842 0.670100
-88.851501 345.487366 1.539158 0.464073
-88.851501 345.487366 0.616486 0.519234
-88.046677 341.804565 -0.000060 0.229137
-86.550781 334.959442 -0.000063 0.249793
-85.717636 331.147064 -0.000064 0.234738
-85.185745 328.713196 -0.000064 0.233134
-84.815994 327.021210 0.000010 0.340185
-84.543640 325.774933 0.000008 0.337804
-88.682991 345.640869 9.082957 0.509590
-88.682991 345.640869 8.107193 0.598581
-88.682983 345.640869 7.145130 0.479515
-88.682983 345.640869 6.194461 0.440650
-88.682983 345.640869 5.252979 0.518334
-88.682983 345.640869 4.318561 0.442725
-88.682983 345.640869 3.389147 0.674235
-88.682983 345.640869 2.462719 0.685969
-88.682983 345.640869 1.537281 0.441855
-88.682983 345.640869 0.610852 0.431128
-87.880196 341.840363 -0.000061 0.224373
-86.432114 334.984955 -0.000063 0.220257
-85.625610 331.166840 -0.000065 0.228754
-85.110725 328.729309 -0.000065 0.222782
-84.752785 327.034790 0.000010 0.334707
-84.489136 325.786652 0.000009 0.339895
-88.513084 345.795654 9.112268 0.482948
-88.513077 345.795654 8.132465 0.542489
-88.513084 345.795654 7.166421 0.549661
-88.513084 345.795654 6.211818 0.530755
-88.513077 345.795654 5.266440 0.486427
-88.513084 345.795654 4.328156 0.580758
-88.513084 345.795654 3.394896 0.627298
-88.513084 345.795654 2.464633 0.674205
-88.513084 345.795654 1.535367 0.450980
-88.513077 345.795654 0.605103 0.442283
-87.713463 341.874969 -0.000061 0.228179
-86.313278 335.009613 -0.000064 0.227042
-85.533447 331.185974 -0.000065 0.215410
-85.035591 328.744904 -0.000065 0.249865
-84.689491 327.047913 0.000011 0.341390
-84.434563 325.797974 0.000009 0.338048
-88.341759 345.951721 9.142172 0.595880
-88.341759 345.951721 8.158249 0.511803
-88.341759 345.951721 7.188144 0.639292
-88.341759 345.951721 6.229527 0.580255
-88.341759 345.951721 5.280174 0.634775
-88.341759 345.951721 4.337945 0.530953
-88.341759 345.951721 3.400761 0.593057
-88.341759 345.951721 2.466587 0.649119
-88.341759 345.951721 1.533413 0.502739
-88.341759 345.951721 0.599239 0.473259
-87.546486 341.908417 -0.000062 0.233062
-86.194267 335.033478 -0.000064 0.245676
-85.441147 331.204468 -0.000065 0.207678
-84.960342 328.759979 -0.000065 0.281987
-84.626099 327.060638 0.000010 0.341619
-84.379906 325.808929 0.000009 0.333196
-88.168976 346.109131 9.172678 0.460716
-88.168976 346.109131 8.184554 0.667430
-88.168976 346.109131 7.210305 0.534859
-88.168976 346.109131 6.247593 0.640192
-88.168976 346.109131 5.294185 0.704555
-88.168976 346.109131 4.347930 0.733379
-88.168976 346.109131 3.406744 0.600793
-88.168976 346.109131 2.468579 0.627512
-88.168976 346.109131 1.531420 0.585992
-88.168976 346.109131 0.593256 0.593072
-87.379280 341.940704 -0.000061 0.227784
-86.075089 335.056488 -0.000064 0.219275
-85.348724 331.222321 -0.000065 0.207439
-84.884995 328.774536 -0.000066 0.235480
-84.562622 327.072876 0.000010 0.335805
-84.325172 325.819489 0.000009 0.341604
-87.994705 346.267883 9.203799 0.518212
-87.994705 346.267883 8.211387 0.542962
-87.994705 346.267883 7.232912 0.522957
-87.994705 346.267883 6.266022 0.474968
-87.994705 346.267883 5.308478 0.531350
-87.994705 346.267883 4.358118 0.595224
-87.994705 346.267883 3.412847 0.564630
-87.994705 346.267883 2.470613 0.430732
-87.994705 346.267883 1.529387 0.613916
-87.994705 346.267883 0.587152 0.454017
-87.211861 341.971832 -0.000062 0.220843
-85.955757 335.078674 -0.000064 0.233948
-85.256172 331.239532 -0.000065 0.243067
-84.809547 328.788544 -0.000066 0.223021
-84.499069 327.084686 0.000011 0.330663
-84.270370 325.829681 0.000009 0.333455
-87.818909 346.428040 9.235547 0.516533
-87.818909 346.428040 8.238762 0.460075
-87.818909 346.428040 7.255972 0.614969
-87.818909 346.428040 6.284822 0.503365
-87.818909 346.428040 5.323058 0.452873
-87.818909 346.428040 4.368510 0.420386
-87.818909 346.428040 3.419074 0.547753
-87.818909 346.428040 2.472687 0.430945
-87.818909 346.428040 1.527313 0.566323
-87.818909 346.428040 0.580925 0.450980
-87.044220 342.001770 -0.000062 0.239549
-85.836273 335.100006 -0.000065 0.236820
-85.163513 331.256073 -0.000066 0.240243
-84.734009 328.802063 -0.000066 0.201228
-84.427444 327.050446 0.010010 1.000000
-84.215500 325.839478 0.000009 0.338460
-87.641541 346.589600 9.267931 0.451957
-87.641541 346.589600 8.266684 0.723125
-87.641541 346.589600 7.279495 0.720363
-87.641548 346.589600 6.303999 0.544640
-87.641548 346.589600 5.337931 0.451102
-87.641548 346.589600 4.379111 0.476753
-87.641548 346.589600 3.425425 0.454932
-87.641548 346.589600 2.474802 0.472618
-87.641548 346.589600 1.525198 0.574411
-87.641541 346.589600 0.574574 0.670390
-86.876381 342.030548 -0.000062 0.214524
-85.716652 335.120514 -0.000066 0.240805
-85.070732 331.271973 -0.000067 0.199277
-84.658371 328.815002 -0.000066 0.236664
-84.364044 327.061310 0.010009 1.000000
-84.160561 325.848877 0.000009 0.337774
-87.462578 346.752625 9.300963 0.581842
-87.462578 346.752625 8.295167 0.549020
-87.462578 346.752625 7.303491 0.437507
-87.462578 346.752625 6.323561 0.555077
-87.462578 346.752625 5.353101 0.503410
-87.462578 346.752625 4.389924 0.450980
-87.462578 346.752625 3.431904 0.451072
-87.462578 346.752625 2.476960 0.461265
-87.462578 346.752625 1.523040 0.562402
-87.462578 346.752625 0.568096 0.616892
-86.708344 342.058167 -0.000062 0.233218
-85.596878 335.140198 -0.000066 0.225427
-84.977844 331.287231 -0.000066 0.248405
-84.582649 328.827454 -0.000066 0.207056
-84.300568 327.071747 0.010010 1.000000
-84.105553 325.857941 0.000008 0.344732
-87.281967 346.917175 9.334656 0.449104
-87.281967 346.917175 8.324217 0.518776
-87.281967 346.917175 7.327967 0.530159
-87.281967 346.917175 6.343514 0.487098
-87.281967 346.917175 5.368575 0.592599
-87.281967 346.917175 4.400953 0.533654
-87.281967 346.917175 3.438512 0.437217
-87.281967 346.917175 2.479161 0.462715
-87.281967 346.917175 1.520839 0.547387
-87.281967 346.917145 0.561488 0.690822
-86.540115 342.084595 -0.000063 0.243259
-85.476974 335.159027 -0.000066 0.230728
-84.884857 331.301849 -0.000067 0.237730
-84.506836 328.839355 -0.000066 0.211364
-84.244049 327.127502 0.000010 0.318700
-84.050484 325.866577 0.000009 0.338628
-87.099670 347.083221 9.369022 0.649088
-87.099670 347.083221 8.353849 0.642847
-87.099670 347.083221 7.352931 0.635721
-87.099670 347.083221 6.363865 0.476249
-87.099670 347.083221 5.384358 0.492729
-87.099670 347.083221 4.412203 0.738445
-87.099670 347.083221 3.445252 0.494484
-87.099670 347.083221 2.481406 0.528572
-87.099670 347.083221 1.518594 0.555154
-87.099670 347.083221 0.554748 0.559762
-86.371712 342.109833 -0.000063 0.216235
-85.356941 335.177032 -0.000066 0.230190
-84.791763 331.315796 -0.000066 0.232464
-84.430946 328.850739 -0.000067 0.216726
-84.180115 327.137085 0.000010 0.341527
-83.995361 325.874847 0.000009 0.330449
-86.915649 347.250854 9.404075 0.442893
-86.915649 347.250854 8.384073 0.467430
-86.915657 347.250854 7.378391 0.471061
-86.915649 347.250854 6.384623 0.508247
-86.915657 347.250854 5.400456 0.436698
-86.915649 347.250854 4.423677 0.619089
-86.915649 347.250854 3.452126 0.544976
-86.915649 347.250854 2.483697 0.455695
-86.915649 347.250854 1.516303 0.624170
-86.915649 347.250854 0.547873 0.515618
-86.203125 342.133911 -0.000063 0.232512
-85.236786 335.194183 -0.000066 0.235982
-84.698578 331.329102 -0.000067 0.226695
-84.354980 328.861603 -0.000067 0.250236
-84.116119 327.146210 0.000010 0.340444
-83.940178 325.882721 0.000008 0.330007
-86.729866 347.420105 9.439827 0.598444
-86.729866 347.420105 8.414899 0.469398
-86.729866 347.420105 7.404363 0.601007
-86.729866 347.420105 6.405794 0.660044
-86.729866 347.420105 5.416876 0.497810
-86.729866 347.420105 4.435380 0.585718
-86.729866 347.420105 3.459139 0.453986
-86.729866 347.420105 2.486032 0.434745
-86.729866 347.420105 1.513968 0.583124
-86.729866 347.420105 0.540861 0.599054
-86.034386 342.156799 -0.000063 0.223679
-85.116516 335.210510 -0.000066 0.219838
-84.605301 331.341766 -0.000067 0.201922
-84.278938 328.871918 -0.000067 0.229400
-84.052101 327.155273 -0.000066 0.233984
-83.884941 325.890228 0.000008 0.332677
-86.542267 347.591003 9.476290 0.435813
-86.542267 347.591003 8.446341 0.519142
-86.542267 347.591003 7.430851 0.519982
-86.542267 347.591003 6.427389 0.443595
-86.542267 347.591003 5.433625 0.566262
-86.542267 347.591003 4.447316 0.497887
-86.542267 347.591003 3.466290 0.589059
-86.542267 347.591003 2.488415 0.419608
-86.542267 347.591003 1.511586 0.623957
-86.542267 347.591003 0.533709 0.515816
-85.865479 342.178528 -0.000063 0.225199
-84.996124 335.225983 -0.000066 0.237813
-84.511940 331.353790 -0.000067 0.211305
-84.202827 328.881683 -0.000067 0.243773
-83.987984 327.163513 -0.000066 0.251349
-83.829659 325.897339 0.000008 0.341634
-86.352814 347.763611 9.513483 0.721752
-86.352814 347.763580 8.478407 0.455344
-86.352814 347.763580 7.457867 0.719265
-86.352814 347.763580 6.449413 0.482139
-86.352814 347.763580 5.450706 0.678401
-86.352814 347.763580 4.459491 0.654521
-86.352814 347.763580 3.473584 0.723095
-86.352814 347.763580 2.490844 0.501869
-86.352814 347.763580 1.509156 0.755306
-86.352814 347.763580 0.526415 0.663966
-85.696442 342.199066 -0.000064 0.228383
-84.875641 335.240631 -0.000066 0.213818
-84.418495 331.365143 -0.000067 0.221705
-84.126648 328.890961 -0.000067 0.204435
-83.923805 327.171295 -0.000066 0.245569
-83.774323 325.904053 0.000008 0.327581
-86.161453 347.937927 9.551417 0.671031
-86.161453 347.937927 8.511116 0.631739
-86.161453 347.937927 7.485424 0.675151
-86.161453 347.937927 6.471877 0.551507
-86.161453 347.937927 5.468128 0.498024
-86.161453 347.937927 4.471909 0.655314
-86.161453 347.937927 3.481025 0.693690
-86.161453 347.937927 2.493322 0.461036
-86.161453 347.937927 1.506678 0.687312
-86.161453 347.937927 0.518975 0.560800
-85.527252 342.218445 -0.000064 0.231135
-84.755051 335.254425 -0.000067 0.219897
-84.324974 331.375824 -0.000067 0.239848
-84.050407 328.899689 -0.000067 0.272795
-83.859573 327.178650 -0.000067 0.249099
-83.718941 325.910400 0.000008 0.325765
-85.968140 348.114014 9.590107 0.466361
-85.968140 348.114014 8.544477 0.448524
-85.968140 348.114014 7.513527 0.437064
-85.968140 348.114014 6.494790 0.480644
-85.968140 348.114014 5.485896 0.440436
-85.968140 348.114014 4.484573 0.543786
-85.968140 348.114014 3.488612 0.548379
-85.968140 348.114014 2.495850 0.450980
-85.968140 348.114014 1.504150 0.634638
-85.968140 348.114014 0.511387 0.484871
-85.357933 342.236603 -0.000064 0.231566
-84.634369 335.267395 -0.000067 0.221178
-84.231384 331.385895 -0.000067 0.262228
-83.974106 328.907867 -0.000067 0.193975
-83.795296 327.185547 -0.000066 0.250655
-83.663521 325.916351 0.000008 0.348272
-85.772827 348.291931 9.629568 0.477211
-85.772820 348.291931 8.578503 0.589654
-85.772827 348.291931 7.542194 0.546319
-85.772827 348.291931 6.518158 0.457420
-85.772827 348.291931 5.504020 0.487556
-85.772827 348.291931 4.497491 0.677134
-85.772827 348.291931 3.496352 0.508797
-85.772827 348.291931 2.498428 0.429664
-85.772827 348.291931 1.501572 0.660731
-85.772827 348.291931 0.503648 0.489632
-85.188492 342.253601 -0.000064 0.227413
-84.513603 335.279510 -0.000067 0.213961
-84.137718 331.395264 -0.000067 0.227820
-83.897751 328.915527 -0.000067 0.202173
-83.730965 327.192017 -0.000067 0.203130
-83.608055 325.921906 0.000008 0.345586
-85.575462 348.471710 9.669819 0.512078
-85.575470 348.471741 8.613211 0.459251
-85.575470 348.471710 7.571432 0.609369
-85.575462 348.471741 6.541996 0.582452
-85.575462 348.471741 5.522506 0.569619
-85.575462 348.471710 4.510667 0.663615
-85.575470 348.471710 3.504246 0.450980
-85.575462 348.471741 2.501057 0.450004
-85.575462 348.471741 1.498943 0.631281
-85.575462 348.471710 0.495754 0.573587
-85.018936 342.269409 -0.000064 0.235073
-84.392754 335.290771 -0.000067 0.224996
-84.043999 331.404022 -0.000067 0.251792
-83.821350 328.922638 -0.000067 0.250607
-83.666595 327.197998 -0.000066 0.263867
-83.552559 325.927063 0.000008 0.342611
-85.375999 348.653442 9.710878 0.546090
-85.375999 348.653442 8.648609 0.455756
-85.375999 348.653442 7.601256 0.432380
-85.375999 348.653442 6.566308 0.520439
-85.375999 348.653442 5.541363 0.568673
-85.375992 348.653442 4.524107 0.522652
-85.375992 348.653442 3.512299 0.450980
-85.375999 348.653442 2.503740 0.420279
-85.375999 348.653442 1.496261 0.640040
-85.375999 348.653442 0.487701 0.559670
-84.849274 342.284027 -0.000064 0.235049
-84.271820 335.301178 -0.000067 0.215242
-83.950211 331.412109 -0.000067 0.205871
-83.744888 328.929260 -0.000067 0.257453
-83.602180 327.203552 -0.000067 0.246023
-83.497017 325.931854 0.000008 0.336904
-85.174377 348.837097 9.752755 0.671824
-85.174377 348.837097 8.684717 0.585260
-85.174377 348.837097 7.631678 0.517220
-85.174377 348.837097 6.591107 0.443168
-85.174377 348.837097 5.560595 0.466514
-85.174377 348.837097 4.537815 0.690364
-85.174377 348.837097 3.520512 0.449760
-85.174377 348.837097 2.506475 0.576135
-85.174377 348.837097 1.493525 0.565377
-85.174377 348.837097 0.479488 0.540063
-84.679520 342.297485 -0.000064 0.233110
-84.150826 335.310760 -0.000066 0.256196
-83.856377 331.419525 -0.000067 0.227952
-83.668396 328.935303 -0.000067 0.241739
-83.537735 327.208649 -0.000066 0.202915
-83.441452 325.936249 0.000008 0.346075
nan nan nan 0.000000
nan nan nan 0.000000
nan nan nan 0.000000
nan nan nan 0.000000
nan nan nan 0.000000
nan nan nan 0.000000
nan nan nan 0.000000
nan nan nan 0.000000
nan nan nan 0.000000
-85.627426 358.591095 -0.000056 0.225690
-84.509666 342.309753 -0.000064 0.236305
-84.029770 335.319519 -0.000066 0.238950
-83.762489 331.426300 -0.000067 0.211269
-83.591850 328.940826 -0.000067 0.248943
-83.473251 327.213318 -0.000067 0.209270
-83.383118 325.900452 0.010008 1.000000
nan nan nan 0.000000
nan nan nan 0.000000
nan nan nan 0.000000
nan nan nan 0.000000
nan nan nan 0.000000
nan nan nan 0.000000
nan nan nan 0.000000
nan nan nan 0.000000
nan nan nan 0.000000
-85.343803 358.609558 -0.000057 0.227617
-84.339737 342.320801 -0.000064 0.229771
-83.908646 335.327393 -0.000067 0.224409
-83.668556 331.432434 -0.000067 0.290568
-83.515274 328.945801 -0.000067 0.226731
-83.408737 327.217529 -0.000067 0.228155
-83.327774 325.904053 0.010008 1.000000
nan nan nan 0.000000
nan nan nan 0.000000
nan nan nan 0.000000
nan nan nan 0.000000
nan nan nan 0.000000
nan nan nan 0.000000
nan nan nan 0.000000
nan nan nan 0.000000
nan nan nan 0.000000
-85.060066 358.626068 -0.000057 0.233589
-84.169731 342.330688 -0.000064 0.246562
-83.787476 335.334442 -0.000067 0.236832
-83.574585 331.437897 -0.000067 0.240219
-83.438667 328.950256 -0.000067 0.216319
-83.344200 327.221283 -0.000066 0.228072
-83.272408 325.907288 0.010008 1.000000
nan nan nan 0.000000
nan nan nan 0.000000
nan nan nan 0.000000
nan nan nan 0.000000
nan nan nan 0.000000
nan nan nan 0.000000
nan nan nan 0.000000
nan nan nan 0.000000
nan nan nan 0.000000
-84.776207 358.640594 -0.000057 0.233301
-83.999664 342.339386 -0.000064 0.238244
-83.666260 335.340637 -0.000066 0.266859
-83.480576 331.442688 -0.000067 0.231949
-83.362030 328.954193 -0.000067 0.203202
-83.279633 327.224579 -0.000066 0.242792
-83.217018 325.910095 0.010008 1.000000
nan nan nan 0.000000
nan nan nan 0.000000
nan nan nan 0.000000
nan nan nan 0.000000
nan nan nan 0.000000
nan nan nan 0.000000
nan nan nan 0.000000
nan nan nan 0.000000
nan nan nan 0.000000
-84.492264 358.653107 -0.000057 0.233505
-83.829536 342.346893 -0.000064 0.238795
-83.545006 335.345978 -0.000066 0.234594
-83.386536 331.446838 -0.000067 0.227377
-83.285362 328.957581 -0.000067 0.241703
-83.215042 327.227417 -0.000066 0.229065
-83.161606 325.912567 0.010007 1.000000
nan nan nan 0.000000
nan nan nan 0.000000
nan nan nan 0.000000
nan nan nan 0.000000
nan nan nan 0.000000
nan nan nan 0.000000
nan nan nan 0.000000
nan nan nan 0.000000
nan nan nan 0.000000
-84.208229 358.663666 -0.000057 0.229268
-83.659363 342.353210 -0.000064 0.247388
-83.423714 335.350494 -0.000066 0.231279
-83.292465 331.450348 -0.000067 0.229795
-83.208679 328.960419 -0.000067 0.227461
-83.150436 327.229828 -0.000066 0.194011
-83.107521 325.954498 0.000008 0.324056
nan nan nan 0.000000
nan nan nan 0.000000
nan nan nan 0.000000
nan nan nan 0.000000
nan nan nan 0.000000
nan nan nan 0.000000
nan nan nan 0.000000
nan nan nan 0.000000
nan nan nan 0.000000
-83.924141 358.672241 -0.000057 0.220328
-83.489151 342.358337 -0.000064 0.230286
-83.302391 335.354156 -0.000066 0.249901
-83.198380 331.453186 -0.000067 0.250104
-83.131973 328.962738 -0.000067 0.202436
-83.085815 327.231781 -0.000066 0.253443
-83.051811 325.956177 0.000008 0.331563
nan nan nan 0.000000
nan nan nan 0.000000
nan nan nan 0.000000
nan nan nan 0.000000
nan nan nan 0.000000
nan nan nan 0.000000
nan nan nan 0.000000
nan nan nan 0.000000
nan nan nan 0.000000
-83.639992 358.678833 -0.000057 0.228251
-83.318901 342.362305 -0.000063 0.236174
-83.181046 335.356964 -0.000066 0.233158
-83.104271 331.455353 -0.000066 0.209019
-83.055252 328.964508 -0.000066 0.263688
-83.021187 327.233276 -0.000066 0.187141
-82.996078 325.957489 0.000008 0.347646
nan nan nan 0.000000
nan nan nan 0.000000
nan nan nan 0.000000
nan nan nan 0.000000
nan nan nan 0.000000
nan nan nan 0.000000
nan nan nan 0.000000
nan nan nan 0.000000
nan nan nan 0.000000
-83.355812 358.683411 -0.000057 0.227509
-83.148636 342.365051 -0.000063 0.234738
-83.059692 335.358917 -0.000065 0.241667
-83.010155 331.456879 -0.000066 0.216020
-82.978531 328.965759 -0.000066 0.217995
-82.956543 327.234314 -0.000065 0.231087
-82.940353 325.958679 -0.000064 0.234845
nan nan nan 0.000000
nan nan nan 0.000000
nan nan nan 0.000000
nan nan nan 0.000000
nan nan nan 0.000000
nan nan nan 0.000000
nan nan nan 0.000000
nan nan nan 0.000000
nan nan nan 0.000000
-83.071594 358.686005 -0.000056 0.230836
-82.978355 342.366608 -0.000063 0.240051
-82.938324 335.360046 -0.000066 0.209426
-82.916023 331.457733 -0.000066 0.215840
-82.901794 328.966461 -0.000066 0.234187
-82.891899 327.234894 -0.000065 0.252079
-82.884613 325.959167 -0.000064 0.250595
nan nan nan 0.000000
nan nan nan 0.000000
nan nan nan 0.000000
nan nan nan 0.000000
nan nan nan 0.000000
nan nan nan 0.000000
nan nan nan 0.000000
nan nan nan 0.000000
nan nan nan 0.000000
-82.787376 358.686676 -0.000057 0.232619
-82.808067 342.367004 -0.000063 0.238902
-82.816948 335.360321 -0.000066 0.247340
-82.821892 331.457947 -0.000066 0.248130
-82.825050 328.966614 -0.000066 0.243331
-82.827248 327.235046 -0.000065 0.245269
-82.828865 325.959320 -0.000064 0.246945
nan nan nan 0.000000
nan nan nan 0.000000
