# This PCD file was generated using the MATLABÂ® pcwrite function
# from Computer Vision ToolboxÂ®.
# .PCD v.7 - Point Cloud Data file format
VERSION .7
FIELDS x y z intensity
SIZE 4 4 4 4
TYPE F F F F
COUNT 1 1 1 1
WIDTH 1271
HEIGHT 1
VIEWPOINT 0 0 0 1 0 0 0
POINTS 1271
DATA ascii
-146.181885 395.711487 -0.000062 0.231889
-145.295593 391.911072 -0.000060 0.268535
-144.729782 389.484863 -0.000059 0.198774
-144.336456 387.798309 -0.000009 0.343954
-144.046722 386.555939 -0.000007 0.332616
nan nan nan 0.000000
nan nan nan 0.000000
nan nan nan 0.000000
nan nan nan 0.000000
nan nan nan 0.000000
nan nan nan 0.000000
nan nan nan 0.000000
nan nan nan 0.000000
nan nan nan 0.000000
-151.202744 418.492157 -0.000071 0.230908
-147.607254 402.573212 -0.000065 0.230070
-146.063599 395.738647 -0.000063 0.207523
-145.203857 391.932129 -0.000061 0.249458
-144.654984 389.502014 -0.000059 0.232524
-144.273453 387.812775 -0.000009 0.336034
-143.992401 386.568420 -0.000007 0.333013
nan nan nan 0.000000
nan nan nan 0.000000
nan nan nan 0.000000
nan nan nan 0.000000
nan nan nan 0.000000
nan nan nan 0.000000
-149.927246 413.986938 3.770419 0.506233
nan nan nan 0.000000
nan nan nan 0.000000
-150.925278 418.553833 -0.000072 0.229089
-147.441025 402.610138 -0.000065 0.214488
-145.945114 395.764954 -0.000062 0.218796
-145.111969 391.952576 -0.000061 0.245413
-144.580078 389.518677 -0.000059 0.210730
-144.210342 387.826813 -0.000009 0.340124
-143.937988 386.580505 -0.000007 0.337942
nan nan nan 0.000000
nan nan nan 0.000000
nan nan nan 0.000000
nan nan nan 0.000000
nan nan nan 0.000000
-149.800018 414.601898 5.002030 0.505882
-149.689056 414.076660 3.772269 0.512001
nan nan nan 0.000000
nan nan nan 0.000000
-150.647400 418.613525 -0.000071 0.227509
-147.274536 402.645935 -0.000066 0.233230
-145.826447 395.790466 -0.000062 0.223931
-145.019943 391.972351 -0.000061 0.234570
-144.505051 389.534790 -0.000059 0.241930
-144.147141 387.840393 -0.000009 0.334600
-143.883484 386.592224 -0.000007 0.339803
nan nan nan 0.000000
nan nan nan 0.000000
nan nan nan 0.000000
nan nan nan 0.000000
-149.772720 415.747131 6.340258 0.525399
-149.406357 413.950775 4.943193 0.522683
-149.324951 413.551636 3.743379 0.510018
-149.231583 413.093811 2.573066 0.512154
nan nan nan 0.000000
-150.369095 418.671295 -0.000071 0.225056
-147.107788 402.680542 -0.000066 0.226540
-145.707596 395.815125 -0.000063 0.224912
-144.927765 391.991455 -0.000061 0.233218
-144.429916 389.550385 -0.000060 0.206027
-144.083832 387.853516 -0.000009 0.341390
-143.828903 386.603546 -0.000006 0.337972
nan nan nan 0.000000
nan nan nan 0.000000
nan nan nan 0.000000
nan nan nan 0.000000
-149.168060 414.037659 6.133767 0.525902
-149.136276 413.876068 4.932840 0.510094
-149.099197 413.687622 3.747751 0.521202
-149.178345 414.089966 2.588878 0.537758
nan nan nan 0.000000
-150.090424 418.727142 -0.000071 0.228502
-146.940826 402.713989 -0.000066 0.230609
-145.588593 395.838989 -0.000063 0.207295
-144.835464 392.009949 -0.000061 0.220819
-144.354675 389.565460 -0.000060 0.261785
-144.020447 387.866211 -0.000009 0.341924
-143.774246 386.614502 -0.000007 0.333288
nan nan nan 0.000000
nan nan nan 0.000000
nan nan nan 0.000000
-148.918045 414.065704 7.327220 0.515938
-148.948349 414.225677 6.150211 0.544518
-148.937180 414.166687 4.953140 0.520287
-148.879150 413.860352 3.754035 0.523339
-148.925171 414.103363 2.588307 0.509010
nan nan nan 0.000000
-149.811340 418.781006 -0.000071 0.230250
-146.773621 402.746277 -0.000065 0.227258
-145.469421 395.862000 -0.000063 0.224697
-144.743042 392.027802 -0.000061 0.231075
-144.279327 389.580017 -0.000061 0.200629
-143.956970 387.878479 -0.000009 0.335851
-143.719513 386.625061 -0.000007 0.342077
nan nan nan 0.000000
nan nan nan 0.000000
nan nan nan 0.000000
-148.719574 414.375061 7.366956 0.511711
-148.902756 415.380310 6.279849 0.508766
-148.558365 413.490417 4.892947 0.507836
-148.647446 413.979248 3.757697 0.508614
-148.676575 414.139130 2.588140 0.510628
nan nan nan 0.000000
-149.531906 418.832947 -0.000071 0.233553
-146.606201 402.777374 -0.000066 0.219562
-145.350082 395.884155 -0.000063 0.227222
-144.650497 392.045013 -0.000061 0.254915
-144.203873 389.594025 -0.000061 0.244432
-143.893417 387.890289 -0.000008 0.330571
-143.664719 386.635254 -0.000006 0.333486
nan nan nan 0.000000
nan nan nan 0.000000
nan nan nan 0.000000
-148.554016 414.894287 7.438461 0.518410
-148.341415 413.679596 6.075888 0.505882
-148.189667 412.812500 4.832913 0.505013
-148.423965 414.151276 3.764086 0.505882
nan nan nan 0.000000
nan nan nan 0.000000
-149.252106 418.882935 -0.000072 0.230310
-146.438553 402.807312 -0.000066 0.216654
-145.230606 395.905518 -0.000063 0.249063
-144.557831 392.061554 -0.000062 0.232500
-144.128326 389.607544 -0.000060 0.251421
-143.821777 387.855988 0.010006 1.000000
-143.609833 386.645050 -0.000006 0.338338
nan nan nan 0.000000
nan nan nan 0.000000
nan nan nan 0.000000
-148.242401 414.583954 7.385277 0.525734
-148.142319 413.987701 6.106953 0.506737
-148.079834 413.615326 4.896271 0.523110
-148.062332 413.511047 3.730083 0.515328
-148.600082 416.715179 2.629448 0.517647
nan nan nan 0.000000
-148.971970 418.930969 -0.000072 0.222578
-146.270721 402.836121 -0.000066 0.235013
-145.110977 395.926025 -0.000063 0.224768
-144.465057 392.077454 -0.000062 0.279856
-144.052704 389.620483 -0.000061 0.270833
-143.758377 387.866852 0.010007 1.000000
-143.554901 386.654449 -0.000006 0.337652
nan nan nan 0.000000
nan nan nan 0.000000
-148.033539 414.881775 8.653161 0.515908
-147.957138 414.406189 7.352401 0.517388
-147.940918 414.305298 6.139253 0.505882
-147.731644 413.002747 4.842080 0.510765
-147.851151 413.746552 3.739820 0.517174
nan nan nan 0.000000
nan nan nan 0.000000
-148.691498 418.977020 -0.000072 0.233373
-146.102676 402.863708 -0.000066 0.214464
-144.991196 395.945679 -0.000064 0.223667
-144.372177 392.092712 -0.000062 0.217815
-143.976974 389.632935 -0.000061 0.225139
-143.694901 387.877289 0.010005 1.000000
-143.499893 386.663483 -0.000006 0.344564
nan nan nan 0.000000
nan nan nan 0.000000
-147.839722 415.301544 8.723141 0.505882
-147.697586 414.375610 7.341941 0.513237
-148.062149 416.750519 6.419311 0.504555
-147.723022 414.541321 4.966599 0.512734
-147.395706 412.409119 3.671440 0.507515
nan nan nan 0.000000
nan nan nan 0.000000
-148.410721 419.021149 -0.000072 0.222925
-145.934448 402.890137 -0.000066 0.218270
-144.871292 395.964508 -0.000063 0.214273
-144.279175 392.107330 -0.000062 0.215589
-143.901169 389.644836 -0.000061 0.208265
-143.638397 387.933075 -0.000008 0.319142
-143.444824 386.672150 -0.000006 0.338720
nan nan nan 0.000000
nan nan nan 0.000000
-147.520615 414.902527 8.642731 0.510735
-147.394073 414.037994 7.285740 0.505882
-147.399857 414.077454 6.103901 0.516777
-147.397644 414.062439 4.923810 0.510246
-147.248917 413.046234 3.701323 0.518502
-147.321014 413.538849 2.574850 0.510201
-147.589615 415.373932 1.394801 0.598169
-147.581451 415.318146 0.185876 0.601572
-145.766037 402.915375 -0.000066 0.230573
-144.751266 395.982513 -0.000063 0.217133
-144.186096 392.121277 -0.000062 0.234606
-143.825272 389.656219 -0.000061 0.303397
-143.574463 387.942688 -0.000008 0.341436
-143.389694 386.680420 -0.000006 0.330663
nan nan nan 0.000000
nan nan nan 0.000000
-147.235809 414.705109 8.599842 0.493248
-147.156815 414.137817 7.295423 0.515572
-147.210678 414.524719 6.151760 0.511177
-147.114700 413.835419 4.902104 0.516396
-146.951675 412.664673 3.680701 0.512306
nan nan nan 0.000000
nan nan nan 0.000000
-147.848267 419.103455 -0.000072 0.227246
-145.597458 402.939453 -0.000066 0.219874
-144.631104 395.999664 -0.000063 0.225427
-144.092911 392.134583 -0.000062 0.216929
-143.749313 389.667084 -0.000061 0.206374
-143.510468 387.951813 -0.000008 0.340581
-143.334518 386.688293 -0.000006 0.329870
nan nan nan 0.000000
nan nan nan 0.000000
-147.052246 415.249023 8.693420 0.520241
-147.206604 416.417114 7.631450 0.520073
-146.885574 413.987610 6.085501 0.492470
-146.863129 413.817841 4.897902 0.513130
-146.730621 412.814941 3.686557 0.509712
-147.419708 418.029907 2.647863 0.517647
nan nan nan 0.000000
-147.566620 419.141663 -0.000072 0.229185
-145.428711 402.962341 -0.000066 0.221932
-144.510834 396.015991 -0.000063 0.226145
-143.999634 392.147247 -0.000062 0.228119
-143.673264 389.677399 -0.000061 0.225702
-143.446426 387.960754 -0.000060 0.242218
-143.279282 386.695801 -0.000006 0.332525
nan nan nan 0.000000
nan nan nan 0.000000
-146.889282 416.015503 8.827967 0.515724
-146.615280 413.824219 7.238780 0.519265
-146.724823 414.700256 6.164457 0.505959
-146.616653 413.835266 4.896740 0.517494
-146.640930 414.029358 3.745169 0.477546
-146.609161 413.775269 2.577117 0.495445
nan nan nan 0.000000
-147.284714 419.177917 -0.000071 0.229962
-145.259811 402.984070 -0.000066 0.225642
-144.390457 396.031464 -0.000064 0.215505
-143.906265 392.159241 -0.000062 0.219634
-143.597153 389.687164 -0.000061 0.246406
-143.382309 387.968994 -0.000060 0.243546
-143.223999 386.702881 -0.000006 0.341497
nan nan nan 0.000000
nan nan nan 0.000000
nan nan nan 0.000000
-146.487854 414.848694 7.387360 0.514611
-146.397751 414.084747 6.089630 0.517021
-146.369751 413.847351 4.895284 0.503120
-146.410431 414.192291 3.751748 0.520470
-146.351593 413.693451 2.575280 0.522927
nan nan nan 0.000000
-147.002563 419.212189 -0.000071 0.233613
-145.090775 403.004608 -0.000066 0.229962
-144.269958 396.046112 -0.000063 0.221070
-143.812820 392.170593 -0.000062 0.236545
-143.520981 389.696442 -0.000061 0.213698
-143.318130 387.976776 -0.000060 0.238220
-143.168655 386.709625 -0.000006 0.327581
nan nan nan 0.000000
nan nan nan 0.000000
nan nan nan 0.000000
nan nan nan 0.000000
-146.331345 415.737793 6.277698 0.509972
-146.120102 413.832794 4.891769 0.519036
-146.177612 414.351349 3.758213 0.502525
-146.352905 415.932312 2.611681 0.507393
nan nan nan 0.000000
-146.720184 419.244507 -0.000071 0.228909
-144.921585 403.023987 -0.000066 0.213351
-144.149384 396.059906 -0.000064 0.226911
-143.719299 392.181305 -0.000062 0.234175
-143.444733 389.705139 -0.000061 0.208696
-143.253906 387.984131 -0.000060 0.198750
-143.113281 386.715942 -0.000005 0.325689
nan nan nan 0.000000
nan nan nan 0.000000
nan nan nan 0.000000
nan nan nan 0.000000
-146.053711 415.577515 6.255953 0.517739
-145.857330 413.686035 4.877504 0.506386
-145.927872 414.365387 3.757588 0.558480
-145.842178 413.540070 2.571867 0.509667
nan nan nan 0.000000
-146.437576 419.274841 -0.000071 0.219850
-144.752258 403.042145 -0.000066 0.224744
-144.028702 396.072876 -0.000063 0.227258
-143.625702 392.191345 -0.000062 0.226540
-143.368439 389.713348 -0.000061 0.208588
-143.189621 387.991028 -0.000060 0.243785
-143.057861 386.721893 -0.000005 0.348592
nan nan nan 0.000000
nan nan nan 0.000000
nan nan nan 0.000000
nan nan nan 0.000000
-145.777908 415.408813 6.233477 0.514626
-145.667297 414.265869 4.923256 0.516121
-145.662231 414.213531 3.748863 0.511467
-145.839859 416.048981 2.612713 0.511574
nan nan nan 0.000000
-146.154770 419.303223 -0.000071 0.233768
-144.582825 403.059143 -0.000066 0.231638
-143.907928 396.084991 -0.000063 0.210275
-143.532043 392.200745 -0.000062 0.223871
-143.292084 389.721008 -0.000061 0.231877
-143.125290 387.997498 -0.000060 0.201934
-143.002396 386.727478 -0.000006 0.345663
nan nan nan 0.000000
nan nan nan 0.000000
nan nan nan 0.000000
nan nan nan 0.000000
-145.507294 415.267609 6.214412 0.517784
-145.445389 414.577698 4.947024 0.506554
-145.435150 414.463562 3.760057 0.511528
-145.491791 415.094727 2.596636 0.507759
nan nan nan 0.000000
-145.871780 419.329590 -0.000071 0.226013
-144.413269 403.074951 -0.000065 0.213243
-143.787079 396.096252 -0.000063 0.237191
-143.438324 392.209473 -0.000061 0.220723
-143.215668 389.728119 -0.000061 0.237706
-143.060928 388.003479 -0.000060 0.222040
-142.946884 386.732635 -0.000005 0.342596
nan nan nan 0.000000
nan nan nan 0.000000
nan nan nan 0.000000
nan nan nan 0.000000
-145.242752 415.171936 6.200833 0.516167
-145.197113 414.620056 4.948736 0.521889
-145.181244 414.428131 3.757251 0.496925
-145.247421 415.228271 2.598471 0.505882
nan nan nan 0.000000
-145.588593 419.354004 -0.000071 0.228861
-144.243607 403.089569 -0.000066 0.221525
-143.666153 396.106689 -0.000063 0.231171
-143.344543 392.217590 -0.000062 0.217384
-143.139221 389.734711 -0.000061 0.199037
-142.996506 388.009033 -0.000060 0.225139
-142.891357 386.737427 -0.000005 0.336736
nan nan nan 0.000000
nan nan nan 0.000000
nan nan nan 0.000000
nan nan nan 0.000000
nan nan nan 0.000000
-145.000839 415.353363 5.007406 0.508202
-144.988770 415.193970 3.794012 0.518395
-144.992737 415.246307 2.598435 0.504784
nan nan nan 0.000000
-145.305267 419.376434 -0.000070 0.233828
-144.073853 403.103027 -0.000065 0.233409
-143.545151 396.116241 -0.000063 0.255286
-143.250702 392.225006 -0.000062 0.238687
-143.062714 389.740784 -0.000061 0.191845
-142.932068 388.014130 -0.000059 0.231458
-142.835785 386.741821 -0.000005 0.346105
nan nan nan 0.000000
nan nan nan 0.000000
nan nan nan 0.000000
nan nan nan 0.000000
nan nan nan 0.000000
nan nan nan 0.000000
-144.775711 415.812714 3.823576 0.509026
-144.768311 415.704956 2.605657 0.504936
nan nan nan 0.000000
-145.021774 419.396881 -0.000070 0.234821
-143.903992 403.115265 -0.000065 0.221046
-143.424088 396.125000 -0.000063 0.211759
-143.156815 392.231781 -0.000061 0.244755
-142.986176 389.746307 -0.000060 0.241870
-142.867584 388.018799 -0.000060 0.208887
-142.777451 386.705963 0.010003 1.000000
nan nan nan 0.000000
nan nan nan 0.000000
nan nan nan 0.000000
nan nan nan 0.000000
nan nan nan 0.000000
nan nan nan 0.000000
nan nan nan 0.000000
nan nan nan 0.000000
nan nan nan 0.000000
-144.738144 419.415344 -0.000070 0.226958
-143.734055 403.126343 -0.000065 0.228155
-143.302979 396.132874 -0.000063 0.242206
-143.062881 392.237915 -0.000062 0.218988
-142.909607 389.751282 -0.000061 0.237909
-142.803070 388.023010 -0.000060 0.248417
-142.722107 386.709564 0.010004 1.000000
nan nan nan 0.000000
nan nan nan 0.000000
nan nan nan 0.000000
nan nan nan 0.000000
nan nan nan 0.000000
nan nan nan 0.000000
nan nan nan 0.000000
nan nan nan 0.000000
nan nan nan 0.000000
-144.454407 419.431854 -0.000070 0.223763
-143.564056 403.136200 -0.000065 0.240123
-143.181808 396.139923 -0.000063 0.241595
-142.968903 392.243347 -0.000061 0.255741
-142.832993 389.755737 -0.000060 0.206362
-142.738525 388.026764 -0.000059 0.246694
-142.666733 386.712799 0.010004 1.000000
nan nan nan 0.000000
nan nan nan 0.000000
nan nan nan 0.000000
nan nan nan 0.000000
nan nan nan 0.000000
nan nan nan 0.000000
nan nan nan 0.000000
nan nan nan 0.000000
nan nan nan 0.000000
-144.170547 419.446350 -0.000070 0.234534
-143.393982 403.144897 -0.000064 0.211484
-143.060593 396.146118 -0.000062 0.245724
-142.874893 392.248169 -0.000061 0.198655
-142.756363 389.759644 -0.000060 0.209055
-142.673965 388.030060 -0.000059 0.219395
-142.611343 386.715637 0.010006 1.000000
nan nan nan 0.000000
nan nan nan 0.000000
nan nan nan 0.000000
nan nan nan 0.000000
nan nan nan 0.000000
nan nan nan 0.000000
nan nan nan 0.000000
nan nan nan 0.000000
nan nan nan 0.000000
-143.886597 419.458893 -0.000070 0.222770
-143.223862 403.152405 -0.000064 0.219694
-142.939331 396.151459 -0.000062 0.220400
-142.780869 392.252319 -0.000061 0.235300
-142.679688 389.763031 -0.000060 0.207080
-142.609375 388.032898 -0.000059 0.239022
-142.555939 386.718079 0.010004 1.000000
nan nan nan 0.000000
nan nan nan 0.000000
nan nan nan 0.000000
nan nan nan 0.000000
nan nan nan 0.000000
nan nan nan 0.000000
nan nan nan 0.000000
nan nan nan 0.000000
nan nan nan 0.000000
-143.602554 419.469421 -0.000070 0.226552
-143.053696 403.158722 -0.000064 0.227712
-142.818039 396.155975 -0.000062 0.237706
-142.686798 392.255798 -0.000061 0.211951
-142.603012 389.765900 -0.000060 0.204902
-142.544769 388.035309 -0.000059 0.226647
-142.501862 386.760071 -0.000005 0.323888
nan nan nan 0.000000
nan nan nan 0.000000
nan nan nan 0.000000
nan nan nan 0.000000
nan nan nan 0.000000
nan nan nan 0.000000
nan nan nan 0.000000
nan nan nan 0.000000
nan nan nan 0.000000
-143.318466 419.477997 -0.000069 0.235336
-142.883484 403.163879 -0.000064 0.214943
-142.696716 396.159637 -0.000062 0.227018
-142.592712 392.258636 -0.000060 0.236784
-142.526306 389.768188 -0.000060 0.213650
-142.480148 388.037262 -0.000059 0.233086
-142.446136 386.761749 -0.000005 0.331533
nan nan nan 0.000000
nan nan nan 0.000000
nan nan nan 0.000000
nan nan nan 0.000000
nan nan nan 0.000000
nan nan nan 0.000000
nan nan nan 0.000000
nan nan nan 0.000000
nan nan nan 0.000000
-143.034317 419.484589 -0.000069 0.234043
-142.713226 403.167816 -0.000064 0.227126
-142.575378 396.162445 -0.000062 0.245999
-142.498596 392.260834 -0.000061 0.246861
-142.449585 389.769989 -0.000059 0.243761
-142.415512 388.038757 -0.000059 0.213961
-142.390411 386.763031 -0.000004 0.347677
nan nan nan 0.000000
nan nan nan 0.000000
nan nan nan 0.000000
nan nan nan 0.000000
nan nan nan 0.000000
nan nan nan 0.000000
nan nan nan 0.000000
nan nan nan 0.000000
nan nan nan 0.000000
-142.750137 419.489166 -0.000069 0.225989
-142.542969 403.170563 -0.000063 0.234247
-142.454025 396.164398 -0.000061 0.224828
-142.404480 392.262329 -0.000060 0.225259
-142.372864 389.771210 -0.000059 0.202006
-142.350876 388.039795 -0.000058 0.230788
-142.334686 386.764160 -0.000058 0.194909
nan nan nan 0.000000
nan nan nan 0.000000
nan nan nan 0.000000
nan nan nan 0.000000
nan nan nan 0.000000
nan nan nan 0.000000
nan nan nan 0.000000
nan nan nan 0.000000
nan nan nan 0.000000
-142.465927 419.491760 -0.000068 0.229244
-142.372681 403.172119 -0.000063 0.215338
-142.332657 396.165527 -0.000061 0.247603
-142.310349 392.263214 -0.000060 0.236246
-142.296127 389.771912 -0.000059 0.242936
-142.286224 388.040375 -0.000058 0.212394
-142.278946 386.764679 -0.000057 0.250463
nan nan nan 0.000000
nan nan nan 0.000000
nan nan nan 0.000000
nan nan nan 0.000000
nan nan nan 0.000000
nan nan nan 0.000000
nan nan nan 0.000000
nan nan nan 0.000000
nan nan nan 0.000000
-142.181702 419.492401 -0.000068 0.236078
-142.202393 403.172485 -0.000063 0.232320
-142.211273 396.165771 -0.000061 0.237083
-142.216217 392.263428 -0.000060 0.247531
-142.219376 389.772095 -0.000059 0.231590
-142.221573 388.040527 -0.000058 0.184868
-142.223190 386.764801 -0.000057 0.230932
nan nan nan 0.000000
nan nan nan 0.000000
nan nan nan 0.000000
nan nan nan 0.000000
nan nan nan 0.000000
nan nan nan 0.000000
nan nan nan 0.000000
nan nan nan 0.000000
nan nan nan 0.000000
-141.897476 419.491028 -0.000067 0.222722
-142.032104 403.171692 -0.000062 0.223727
-142.089905 396.165192 -0.000060 0.236617
-142.122101 392.262970 -0.000059 0.240159
-142.142639 389.771729 -0.000058 0.246143
-142.156937 388.040222 -0.000057 0.243953
-142.167450 386.764526 -0.000057 0.259798
-142.477585 362.743744 6.017371 0.741176
-142.477585 362.743744 5.463928 0.741176
-142.477585 362.743744 4.918257 0.741176
-142.473083 363.039459 4.335178 0.676616
-142.470535 363.206970 3.791754 0.703822
-142.475266 362.895691 3.302601 0.741176
-142.473083 363.039429 2.773380 0.762387
-142.476364 362.823761 2.261139 0.741176
-142.476364 362.823761 1.738861 0.741176
-142.476364 362.823761 1.216024 0.741176
-142.476089 362.841858 0.692986 0.047547
-142.470825 363.187073 0.205956 0.607156
-142.438660 365.298828 0.000009 0.204172
-142.400726 367.789764 0.000007 0.210766
-142.374359 369.521088 0.000005 0.222758
-142.354919 370.796600 0.000004 0.274279
-142.586990 362.860291 5.988695 0.741176
-142.586990 362.860291 5.439202 0.741176
-142.586990 362.860291 4.897427 0.741176
-142.580475 363.153870 4.318510 0.613413
-142.576782 363.320160 3.778965 0.694484
-142.583633 363.011108 3.293303 0.741176
-142.580475 363.153839 2.767859 0.771862
-142.585220 362.939728 2.259275 0.741176
-142.585220 362.939728 1.740725 0.741176
-142.585220 362.939728 1.221620 0.741176
-142.585144 362.943237 0.701130 0.074510
-142.577209 363.300415 0.218762 0.622889
-142.532776 365.300598 0.000010 0.230561
-142.477448 367.791199 0.000007 0.267601
-142.438995 369.522278 0.000005 0.214249
-142.410660 370.797668 0.000004 0.205895
-142.694763 362.978363 5.959819 0.111254
-142.694763 362.978363 5.414305 0.088914
-142.694763 362.978394 4.876451 0.074968
-142.686340 363.266632 4.302188 0.647334
-142.681519 363.431732 3.766442 0.733333
-142.690475 363.124939 3.284199 0.741176
-142.686340 363.266632 2.762453 0.741024
-142.692551 363.054077 2.257449 0.741176
-142.692551 363.054077 1.742550 0.741176
-142.692551 363.054077 1.227099 0.741176
-142.692444 363.057556 0.710273 0.074556
-142.682098 363.412140 0.231302 0.644160
-142.626877 365.303040 0.000010 0.241320
-142.554153 367.793182 0.000007 0.231016
-142.503616 369.523956 0.000005 0.246514
-142.466385 370.799103 0.000004 0.268116
-142.801208 363.088501 5.933121 0.741176
-142.801208 363.088501 5.391284 0.741176
-142.801208 363.088501 4.857056 0.741176
-142.790741 363.377869 4.286205 0.611948
-142.784805 363.541779 3.754179 0.729198
-142.795822 363.237152 3.275284 0.741176
-142.790741 363.377838 2.757160 0.764935
-142.798309 363.168579 2.255633 0.167834
-142.798309 363.168579 1.744367 0.169848
-142.798309 363.168579 1.232551 0.167834
-142.798248 363.170258 0.719227 0.075380
-142.787170 363.476532 0.238312 0.629816
-142.720947 365.306091 0.000010 0.202975
-142.630859 367.795685 0.000007 0.258183
-142.568222 369.526062 0.000005 0.195220
-142.522095 370.800903 0.000004 0.194406
-142.906097 363.200256 5.906192 0.741176
-142.906097 363.200256 5.368067 0.741176
-142.906097 363.200256 4.837497 0.741176
-142.893692 363.487549 4.270554 0.630106
-142.887192 363.638336 3.743546 0.722759
-142.899734 363.347839 3.266553 0.741176
-142.893692 363.487518 2.751977 0.753201
-142.902740 363.278015 2.253912 0.741176
-142.902740 363.278015 1.746088 0.741176
-142.902740 363.278015 1.237720 0.741176
-142.902603 363.281433 0.727995 0.061219
-142.893692 363.487518 0.239089 0.757397
-142.815002 365.309845 0.000010 0.226540
-142.707535 367.798737 0.000007 0.234175
-142.632828 369.528625 0.000005 0.200198
-142.577789 370.803131 0.000004 0.222135
-143.004898 363.403687 5.856443 0.075944
-143.009583 363.310486 5.345326 0.741176
-143.009583 363.310486 4.818338 0.741176
-142.995270 363.595734 4.255224 0.645365
-142.990082 363.698914 3.737137 0.713420
-143.002228 363.457031 3.258002 0.741176
-142.995270 363.595734 2.746900 0.751644
-143.005707 363.387695 2.252198 0.741176
-143.005707 363.387695 1.747802 0.741176
-143.005707 363.387695 1.242867 0.741176
-143.005539 363.391083 0.736584 0.069230
-142.995270 363.595734 0.250978 0.774441
-142.909027 365.314209 0.000010 0.232799
-142.784180 367.802307 0.000007 0.233732
-142.697403 369.531647 0.000005 0.243199
-142.633469 370.805725 0.000004 0.258877
-143.105759 363.522522 5.828074 0.072557
-143.111664 363.419250 5.323052 0.741176
-143.111664 363.419250 4.799573 0.741176
-143.095474 363.702484 4.240208 0.681285
-143.091049 363.779907 3.728454 0.695369
-143.103348 363.564758 3.249625 0.741176
-143.095474 363.702484 2.741926 0.780453
-143.103317 363.565247 2.249381 0.074510
-143.103287 363.565857 1.750629 0.072435
-143.103287 363.565887 1.251351 0.054932
-143.103622 363.559998 0.749983 0.049332
-143.095474 363.702484 0.262625 0.761807
-143.003021 365.319275 0.000010 0.228646
-142.860809 367.806427 0.000007 0.235839
-142.761963 369.535095 0.000005 0.193089
-142.689133 370.808716 0.000004 0.232715
-143.190598 363.866547 5.743342 0.765072
-143.190598 363.866547 5.227652 0.747387
-143.190598 363.866547 4.719200 0.760571
-143.194366 363.807831 4.225498 0.634241
-143.190292 363.871277 3.718652 0.728054
-143.194366 363.807831 3.230184 0.684764
-143.194366 363.807831 2.737055 0.721569
-143.194366 363.807831 2.245510 0.700893
-143.194366 363.807831 1.754490 0.684840
-143.194366 363.807831 1.262945 0.726055
-143.194366 363.807831 0.769816 0.695583
-143.194366 363.807831 0.274033 0.730144
-143.096985 365.324982 0.000010 0.202448
-142.937408 367.811066 0.000007 0.183407
-142.826492 369.539001 0.000005 0.206829
-142.744766 370.812073 0.000004 0.192862
-143.291962 363.911804 5.733745 0.677943
-143.291962 363.911804 5.219377 0.684215
-143.291962 363.911804 4.712229 0.613855
-143.291962 363.911804 4.211088 0.623484
-143.287140 363.979614 3.706972 0.730190
-143.280701 364.070038 3.209210 0.691112
-143.280701 364.070038 2.724489 0.658274
-143.280701 364.070038 2.241324 0.698634
-143.280701 364.070038 1.758676 0.698314
-143.280701 364.070038 1.275511 0.733791
-143.280701 364.070038 0.790789 0.714397
-143.280701 364.070038 0.303459 0.721035
-143.190887 365.331329 0.000010 0.220556
-143.013962 367.816254 0.000007 0.195758
-142.890991 369.543396 0.000005 0.191211
-142.800385 370.815857 0.000004 0.282477
-143.388321 364.014465 5.709906 0.657298
-143.388321 364.014465 5.198820 0.649836
-143.388306 364.014465 4.694911 0.625406
-143.388321 364.014465 4.196970 0.657618
-143.383041 364.081787 3.696072 0.697978
-143.388321 364.014465 3.214414 0.704295
-143.388321 364.014465 2.727606 0.697627
-143.388321 364.014465 2.242362 0.732189
-143.388321 364.014465 1.757638 0.705287
-143.388321 364.014465 1.272393 0.692378
-143.388321 364.014465 0.785586 0.719783
-143.388321 364.014465 0.296158 0.721019
-143.284760 365.338348 0.000010 0.202759
-143.090485 367.821991 0.000007 0.195004
-142.955460 369.548187 0.000005 0.207642
-142.855972 370.820007 0.000004 0.248441
-143.483444 364.115784 5.686545 0.672175
-143.483444 364.115784 5.178679 0.659144
-143.483444 364.115814 4.677942 0.655543
-143.483444 364.115784 4.183137 0.680644
-143.477753 364.182678 3.685392 0.691264
-143.483444 364.115784 3.206767 0.691630
-143.483444 364.115784 2.723025 0.705257
-143.483444 364.115784 2.240836 0.719570
-143.483444 364.115784 1.759164 0.701167
-143.483444 364.115784 1.276975 0.703090
-143.483444 364.115784 0.793232 0.717845
-143.483444 364.115784 0.306887 0.721386
-143.378571 365.346008 0.000010 0.239872
-143.166962 367.828217 0.000007 0.276912
-143.019882 369.553467 0.000005 0.242038
-142.911530 370.824554 0.000004 0.278337
-143.584244 364.141663 5.682325 0.654047
-143.584244 364.141663 5.175040 0.681941
-143.584244 364.141663 4.674877 0.698390
-143.584244 364.141663 4.180638 0.626642
-143.584244 364.141663 3.691176 0.639033
-143.584244 364.141663 3.205386 0.663783
-143.584244 364.141663 2.722197 0.661524
-143.584244 364.141663 2.240560 0.669413
-143.584244 364.141663 1.759439 0.675929
-143.584244 364.141663 1.277802 0.700328
-143.584244 364.141663 0.794614 0.629435
-143.584244 364.141663 0.308824 0.644770
-143.472336 365.354340 0.000010 0.253719
-143.243408 367.835022 0.000008 0.235037
-143.084290 369.559174 0.000005 0.199911
-142.967056 370.829468 0.000004 0.266046
-143.697983 364.034882 5.711665 0.649363
-143.697983 364.034882 5.200337 0.671977
-143.697983 364.034882 4.696189 0.637644
-143.697983 364.034882 4.198012 0.667994
-143.697983 364.034882 3.704650 0.671946
-143.697983 364.034882 3.214990 0.634607
-143.697983 364.034882 2.727952 0.704326
-143.697983 364.034882 2.242477 0.677684
-143.697983 364.034882 1.757523 0.647562
-143.697983 364.034882 1.272048 0.630945
-143.697983 364.034882 0.785010 0.673518
-143.697983 364.034882 0.295350 0.659129
-143.566025 365.363312 0.000010 0.236868
-143.319794 367.842316 0.000007 0.240207
-143.148636 369.565338 0.000005 0.231315
-143.022537 370.834778 0.000004 0.206864
-143.813553 363.926422 5.741657 0.682948
-143.813553 363.926392 5.226199 0.687694
-143.813553 363.926392 4.717977 0.670924
-143.813553 363.926392 4.215774 0.681010
-143.813553 363.926422 3.718425 0.684947
-143.813553 363.926422 3.224808 0.663996
-143.813553 363.926392 2.733834 0.711040
-143.813553 363.926392 2.244437 0.668833
-143.813553 363.926392 1.755563 0.677516
-143.813553 363.926392 1.266166 0.681605
-143.813553 363.926422 0.775192 0.684916
-143.813553 363.926422 0.281575 0.650019
-143.659668 365.372925 0.000010 0.267159
-143.396118 367.850189 0.000007 0.237945
-143.212952 369.571960 0.000005 0.208947
-143.077988 370.840485 0.000004 0.205943
-143.931015 363.816132 5.772326 0.650294
-143.931015 363.816132 5.252643 0.639353
-143.931015 363.816132 4.740254 0.688426
-143.931015 363.816132 4.233936 0.680003
-143.931015 363.816132 3.732510 0.711467
-143.931015 363.816132 3.234847 0.667933
-143.931015 363.816132 2.739849 0.655940
-143.931015 363.816132 2.246440 0.682109
-143.931015 363.816132 1.753560 0.613657
-143.931015 363.816132 1.260151 0.672297
-143.931015 363.816132 0.765152 0.656229
-143.931015 363.816132 0.267490 0.639490
-143.753235 365.383240 0.000010 0.217444
-143.472397 367.858582 0.000008 0.250727
-143.277206 369.579041 0.000005 0.178489
-143.133392 370.846588 0.000004 0.172804
-144.050430 363.704071 5.803688 0.662257
-144.050430 363.704071 5.279684 0.640269
-144.050430 363.704071 4.763036 0.685176
-144.050430 363.704071 4.252508 0.643992
-144.050430 363.704041 3.746914 0.674144
-144.050430 363.704041 3.245113 0.703166
-144.050430 363.704071 2.746000 0.684993
-144.050430 363.704071 2.248489 0.688426
-144.050430 363.704071 1.751511 0.637568
-144.050430 363.704071 1.254000 0.648081
-144.050430 363.704071 0.754886 0.647700
-144.050430 363.704041 0.253086 0.691478
-143.846725 365.394165 0.000010 0.253132
-143.548615 367.867493 0.000007 0.286511
-143.341415 369.586548 0.000005 0.234881
-143.188766 370.853058 0.000004 0.237754
-144.171844 363.590088 5.835765 0.676448
-144.171844 363.590088 5.307341 0.691051
-144.171844 363.590088 4.786337 0.628153
-144.171844 363.590088 4.271503 0.625772
-144.171844 363.590088 3.761645 0.696345
-144.171844 363.590088 3.255613 0.688533
-144.171844 363.590088 2.752290 0.658640
-144.171844 363.590088 2.250585 0.648463
-144.171844 363.590088 1.749415 0.693187
-144.171844 363.590088 1.247709 0.656657
-144.171844 363.590088 0.744386 0.701671
-144.171844 363.590088 0.238355 0.656458
-143.940125 365.405762 0.000010 0.203992
-143.624771 367.876923 0.000007 0.188350
-143.405579 369.594482 0.000005 0.206482
-143.244080 370.859924 0.000004 0.261821
-144.295334 363.474152 5.868577 0.708247
-144.295334 363.474182 5.335633 0.656733
-144.295334 363.474152 4.810172 0.661219
-144.295334 363.474152 4.290935 0.612100
-144.295334 363.474182 3.776715 0.688731
-144.295334 363.474182 3.266354 0.683772
-144.295334 363.474152 2.758726 0.613596
-144.295334 363.474152 2.252728 0.627466
-144.295334 363.474152 1.747272 0.661646
-144.295334 363.474152 1.241274 0.659800
-144.295334 363.474182 0.733645 0.683848
-144.295334 363.474182 0.223285 0.649882
-144.033463 365.417999 0.000010 0.224098
-143.700851 367.886902 0.000007 0.235001
-143.469666 369.602905 0.000005 0.302571
-143.299347 370.867188 0.000004 0.258027
-144.420959 363.356232 5.902147 0.672435
-144.420959 363.356232 5.364579 0.694514
-144.420959 363.356232 4.834558 0.656092
-144.420959 363.356232 4.310814 0.591882
-144.420959 363.356232 3.792133 0.649927
-144.420959 363.356232 3.277343 0.665263
-144.420959 363.356232 2.765310 0.637034
-144.420959 363.356232 2.254921 0.639246
-144.420959 363.356232 1.745079 0.646937
-144.420959 363.356232 1.234690 0.647059
-144.420959 363.356232 0.722656 0.665843
-144.420959 363.356232 0.207867 0.634470
-144.126694 365.430878 0.000010 0.222147
-143.776855 367.897430 0.000008 0.242624
-143.533707 369.611755 0.000005 0.234750
-143.354568 370.874817 0.000004 0.292842
-144.548782 363.236237 5.936499 0.716167
-144.548782 363.236237 5.394197 0.658366
-144.548782 363.236237 4.859511 0.634256
-144.548782 363.236237 4.331157 0.662165
-144.548782 363.236237 3.807909 0.645396
-144.548782 363.236237 3.288588 0.608927
-144.548782 363.236237 2.772047 0.686839
-144.548782 363.236237 2.257165 0.663066
-144.548782 363.236237 1.742835 0.612238
-144.548782 363.236237 1.227952 0.644800
-144.548782 363.236237 0.711411 0.658396
-144.548782 363.236237 0.192090 0.629938
-144.219849 365.444427 0.000010 0.200162
-143.852798 367.908478 0.000008 0.248788
-143.597687 369.621063 0.000006 0.238364
-143.409729 370.882843 0.000004 0.196417
-144.678894 363.114105 5.971656 0.627787
-144.678894 363.114105 5.424512 0.652827
-144.678894 363.114105 4.885049 0.684901
-144.678894 363.114105 4.351977 0.637903
-144.678894 363.114105 3.824056 0.625467
-144.678894 363.114105 3.300097 0.667903
-144.678894 363.114105 2.778943 0.669291
-144.678894 363.114105 2.259462 0.618601
-144.678894 363.114105 1.740538 0.653529
-144.678894 363.114105 1.221057 0.662303
-144.678894 363.114105 0.699903 0.698146
-144.678894 363.114105 0.175944 0.630457
-144.312897 365.458618 0.000010 0.249961
-143.928650 367.920044 0.000007 0.256950
-143.661591 369.630798 0.000005 0.194585
-143.464828 370.891235 0.000004 0.202939
-144.811356 362.989777 6.007644 0.627466
-144.811356 362.989777 5.455543 0.675792
-144.811356 362.989777 4.911192 0.638010
-144.811356 362.989777 4.373289 0.659434
-144.811356 362.989777 3.840584 0.685908
-144.811356 362.989777 3.311877 0.656947
-144.811356 362.989777 2.786000 0.674983
-144.811356 362.989777 2.261813 0.657710
-144.811356 362.989777 1.738187 0.698299
-144.811356 362.989777 1.213999 0.656657
-144.811356 362.989777 0.688123 0.653529
-144.811356 362.989777 0.159416 0.646403
-144.405853 365.473480 0.000010 0.252402
-144.004425 367.932129 0.000007 0.217671
-143.725433 369.640991 0.000005 0.275488
-143.519882 370.900024 0.000004 0.232631
-144.946243 362.863159 6.044488 0.655680
-144.946243 362.863159 5.487310 0.616388
-144.946243 362.863159 4.937955 0.662440
-144.946243 362.863159 4.395108 0.662654
-144.946243 362.863159 3.857506 0.652384
-144.946243 362.863159 3.323938 0.669490
-144.946243 362.863159 2.793227 0.676265
-144.946243 362.863159 2.264220 0.659434
-144.946243 362.863159 1.735780 0.647059
-144.946243 362.863159 1.206773 0.632624
-144.946243 362.863159 0.676062 0.657588
-144.946243 362.863159 0.142494 0.679057
-144.498688 365.488953 0.000010 0.198666
-144.080124 367.944763 0.000007 0.235767
-143.789200 369.651642 0.000005 0.260253
-143.574860 370.909210 0.000004 0.190804
-145.083633 362.734192 6.082219 0.617258
-145.083633 362.734192 5.519843 0.680369
-145.083633 362.734192 4.965364 0.671031
-145.083633 362.734192 4.417451 0.628809
-145.083633 362.734192 3.874834 0.650492
-145.083633 362.734192 3.336288 0.649821
-145.083633 362.734192 2.800627 0.650965
-145.083633 362.734192 2.266685 0.652262
-145.083633 362.734192 1.733315 0.679164
-145.083633 362.734192 1.199373 0.657435
-145.083633 362.734192 0.663711 0.654871
-145.083633 362.734192 0.125166 0.647395
-144.591431 365.505096 0.000010 0.228873
-144.155716 367.957916 0.000007 0.216666
-143.852890 369.662720 0.000005 0.245736
-143.629776 370.918762 0.000004 0.216810
-145.223633 362.602783 6.120861 0.610712
-145.223633 362.602783 5.553162 0.662074
-145.223633 362.602783 4.993433 0.652888
-145.223633 362.602783 4.440334 0.664073
-145.223633 362.602783 3.892581 0.688609
-145.223633 362.602783 3.348938 0.654902
-145.223633 362.602783 2.808205 0.653391
-145.223633 362.602783 2.269209 0.690028
-145.223633 362.602783 1.730791 0.640925
-145.223633 362.602783 1.191795 0.658839
-145.223633 362.602783 0.651062 0.666926
-145.223633 362.602783 0.107419 0.664714
-144.684052 365.521881 0.000010 0.243414
-144.231232 367.971619 0.000008 0.190564
-143.916504 369.674255 0.000005 0.215230
-143.684616 370.928680 0.000004 0.266656
-145.366302 362.468842 6.160446 0.706889
-145.366302 362.468842 5.587294 0.656123
-145.366302 362.468842 5.022189 0.647608
-145.366302 362.468842 4.463777 0.700160
-145.366302 362.468842 3.910762 0.650599
-145.366302 362.468842 3.361896 0.653239
-145.366302 362.468842 2.815969 0.696086
-145.366302 362.468842 2.271795 0.666209
-145.366302 362.468842 1.728204 0.664683
-145.366302 362.468842 1.184031 0.643000
-145.366302 362.468842 0.638104 0.665385
-145.366302 362.468842 0.089238 0.671565
-144.776550 365.539307 0.000010 0.213926
-144.306641 367.985809 0.000007 0.224338
-143.980026 369.686218 0.000005 0.244420
-143.739395 370.939026 0.000004 0.214871
-145.511749 362.332306 6.201006 0.617853
-145.511749 362.332306 5.622267 0.655726
-145.511749 362.332306 5.051653 0.660380
-145.511749 362.332306 4.487797 0.634668
-145.511749 362.332306 3.929390 0.646021
-145.511749 362.332306 3.375173 0.659175
-145.511749 362.332306 2.823924 0.644358
-145.511749 362.332306 2.274445 0.654307
-145.511749 362.332306 1.725555 0.647501
-145.511749 362.332306 1.176076 0.661280
-145.511749 362.332306 0.624826 0.661158
-145.511749 362.332306 0.070610 0.649775
-144.868927 365.557404 0.000010 0.214368
-144.381943 368.000549 0.000007 0.206482
-144.043472 369.698639 0.000005 0.193101
-143.794098 370.949738 0.000004 0.259786
-145.660080 362.193085 6.242576 0.666010
-145.660080 362.193085 5.658109 0.628901
-145.660080 362.193085 5.081848 0.673625
-145.660080 362.193085 4.512413 0.645411
-145.660080 362.193085 3.948481 0.651865
-145.660080 362.193085 3.388780 0.669856
-145.660080 362.193085 2.832076 0.664454
-145.660080 362.193085 2.277161 0.690425
-145.660080 362.193085 1.722839 0.649973
-145.660080 362.193085 1.167923 0.683223
-145.660080 362.193085 0.611219 0.687190
-145.660080 362.193085 0.051519 0.647059
-144.961166 365.576111 0.000010 0.243953
-144.457138 368.015808 0.000007 0.201132
-144.106827 369.711517 0.000005 0.219886
-143.848724 370.960815 0.000004 0.187764
-145.811371 362.051056 6.285185 0.662257
-145.811371 362.051056 5.694849 0.696178
-145.811371 362.051056 5.112801 0.625834
-145.811371 362.051056 4.537646 0.642130
-145.811371 362.051056 3.968050 0.666850
-145.811371 362.051056 3.402728 0.625269
-145.811371 362.051056 2.840434 0.641993
-145.811371 362.051056 2.279944 0.694850
-145.811371 362.051056 1.720055 0.623697
-145.811371 362.051056 1.159566 0.647288
-145.811371 362.051056 0.597271 0.695491
-145.811371 362.051056 0.031950 0.618021
-145.053284 365.595490 0.000010 0.271108
-144.532242 368.031616 0.000007 0.235839
-144.170090 369.724792 0.000005 0.256435
-143.903275 370.972290 0.000004 0.227018
-145.965744 361.906158 6.328874 0.665446
-145.965744 361.906158 5.732518 0.667582
-145.965744 361.906158 5.144536 0.662257
-145.965744 361.906158 4.563517 0.667796
-145.965744 361.906158 3.988114 0.684565
-145.965744 361.906158 3.417029 0.682689
-145.965744 361.906158 2.849002 0.672358
-145.965744 361.906158 2.282799 0.673396
-145.965744 361.906158 1.717201 0.679667
-145.965744 361.906158 1.150998 0.672358
-145.965744 361.906158 0.582970 0.684504
-145.965744 361.906158 0.011886 0.689616
-145.145264 365.615479 0.000010 0.228347
-144.607224 368.047913 0.000007 0.242146
-144.233261 369.738556 0.000005 0.246047
-143.957748 370.984131 0.000004 0.255789
-146.123306 361.758240 6.373676 0.694224
-146.123306 361.758240 5.771148 0.654658
-146.123306 361.758240 5.177081 0.659800
-146.123306 361.758270 4.590049 0.672709
-146.123291 361.758240 4.008691 0.656489
-146.123306 361.758240 3.431695 0.668940
-146.123306 361.758240 2.857789 0.648066
-146.123306 361.758240 2.285726 0.645472
-146.123306 361.758240 1.714275 0.663859
-146.123306 361.758240 1.142211 0.647059
-146.123306 361.758240 0.568304 0.647059
-146.106445 361.832031 0.000014 0.206733
-145.237091 365.636139 0.000010 0.227928
-144.682083 368.064758 0.000008 0.205907
-144.296341 369.752716 0.000006 0.251289
-144.012131 370.996368 0.000004 0.237981
-146.284164 361.607239 6.419634 0.672175
-146.284164 361.607269 5.810773 0.659861
-146.284164 361.607239 5.210465 0.692607
-146.284164 361.607239 4.617266 0.669703
-146.284164 361.607239 4.029799 0.669184
-146.284164 361.607269 3.446739 0.668742
-146.284164 361.607239 2.866802 0.662852
-146.284164 361.607239 2.288728 0.685420
-146.284164 361.607239 1.711272 0.662959
-146.284164 361.607239 1.133198 0.669413
-146.284164 361.607239 0.553261 0.648478
-146.224670 361.859497 0.000015 0.215637
-145.328781 365.657440 0.000010 0.261929
-144.756836 368.082092 0.000008 0.263843
-144.359314 369.767365 0.000005 0.214392
-144.066437 371.008972 0.000004 0.190181
-146.448456 361.453033 6.466789 0.689158
-146.448456 361.453033 5.851434 0.667399
-146.448456 361.453033 5.244719 0.673121
-146.448456 361.453033 4.645189 0.684169
-146.448456 361.453033 4.051455 0.676997
-146.448456 361.453033 3.462174 0.622126
-146.448456 361.453033 2.876050 0.675715
-146.448456 361.453033 2.291808 0.703426
-146.448456 361.453033 1.708192 0.616953
-146.448456 361.453033 1.123949 0.701473
-146.448456 361.453033 0.537825 0.703593
-146.342697 361.887756 0.000015 0.239968
-145.420319 365.679352 0.000010 0.229376
-144.831451 368.099976 0.000008 0.208851
-144.422180 369.782410 0.000005 0.217157
-144.120636 371.021942 0.000004 0.223608
-146.616287 361.295502 6.515181 0.629252
-146.616287 361.295502 5.893160 0.677607
-146.616287 361.295471 5.279871 0.633066
-146.616287 361.295471 4.673847 0.644892
-146.616287 361.295502 4.073680 0.678813
-146.616287 361.295502 3.478016 0.660487
-146.616287 361.295471 2.885541 0.631449
-146.616287 361.295471 2.294970 0.679713
-146.616287 361.295471 1.705030 0.663035
-146.616287 361.295471 1.114458 0.682841
-146.616287 361.295471 0.521984 0.646693
-146.460526 361.916870 0.000015 0.216894
-145.511703 365.701935 0.000010 0.258673
-144.905960 368.118378 0.000008 0.206039
-144.484940 369.797913 0.000006 0.237837
-144.174759 371.035309 0.000004 0.228167
-146.787811 361.134491 6.564859 0.662455
-146.787811 361.134491 5.935994 0.703929
-146.787811 361.134491 5.315958 0.689693
-146.787811 361.134491 4.703267 0.654322
-146.787811 361.134491 4.096496 0.673152
-146.787811 361.134491 3.494277 0.675242
-146.787811 361.134460 2.895285 0.681147
-146.787811 361.134460 2.298215 0.672312
-146.787811 361.134460 1.701785 0.668986
-146.787811 361.134460 1.104715 0.610895
-146.787811 361.134460 0.505722 0.634714
-146.578156 361.946777 0.000015 0.226671
-145.602921 365.725128 0.000010 0.244623
-144.980316 368.137299 0.000008 0.238950
-144.547592 369.813843 0.000005 0.203657
-144.228775 371.049072 0.000005 0.199720
-146.963165 360.969879 6.615870 0.648951
-146.963165 360.969879 5.979979 0.640513
-146.963165 360.969879 5.353013 0.621027
-146.963165 360.969879 4.733475 0.660670
-146.963165 360.969879 4.119924 0.679332
-146.963165 360.969879 3.510976 0.674083
-146.963165 360.969879 2.905289 0.658900
-146.963165 360.969879 2.301547 0.656825
-146.963165 360.969879 1.698452 0.651453
-146.963165 360.969879 1.094711 0.647028
-146.963165 360.969879 0.489023 0.642741
-146.695557 361.977539 0.000015 0.238304
-145.693985 365.748962 0.000010 0.201359
-145.054550 368.156738 0.000008 0.235731
-144.610138 369.830231 0.000006 0.206206
-144.282700 371.063171 0.000004 0.217959
-147.142487 360.801544 6.668265 0.670130
-147.142487 360.801544 6.025154 0.638544
-147.142487 360.801544 5.391072 0.673762
-147.142487 360.801544 4.764503 0.688487
-147.142487 360.801544 4.143987 0.700252
-147.142487 360.801544 3.528127 0.638300
-147.142487 360.801544 2.915565 0.673365
-147.142487 360.801544 2.304971 0.690547
-147.142487 360.801544 1.695030 0.651408
-147.142487 360.801544 1.084434 0.653925
-147.142487 360.801544 0.471872 0.666102
-146.812759 362.009094 0.000015 0.239956
-145.784866 365.773468 0.000010 0.216774
-145.128647 368.176697 0.000008 0.233158
-144.672562 369.847046 0.000006 0.244108
-144.336517 371.077667 0.000004 0.219431
-147.325928 360.629333 6.722096 0.653346
-147.325928 360.629333 6.071569 0.673716
-147.325928 360.629333 5.430177 0.623407
-147.325928 360.629364 4.796379 0.659724
-147.325928 360.629333 4.168709 0.682841
-147.325928 360.629364 3.545748 0.660822
-147.325928 360.629364 2.926123 0.636881
-147.325928 360.629333 2.308487 0.676402
-147.325928 360.629364 1.691513 0.705409
-147.325928 360.629364 1.073877 0.690013
-147.325928 360.629364 0.454252 0.685237
-146.929733 362.041443 0.000014 0.228275
-145.875580 365.798584 0.000010 0.199911
-145.202606 368.197174 0.000008 0.189918
-144.734863 369.864288 0.000006 0.227330
-144.390244 371.092529 0.000004 0.218689
-147.513672 360.453125 6.777417 0.657069
-147.513672 360.453125 6.119269 0.660853
-147.513657 360.453125 5.470362 0.623133
-147.513657 360.453125 4.829141 0.647059
-147.513657 360.453125 4.194117 0.679026
-147.513657 360.453125 3.563857 0.618448
-147.513657 360.453125 2.936973 0.627436
-147.513657 360.453125 2.312101 0.693370
-147.513657 360.453125 1.687899 0.665400
-147.513657 360.453125 1.063027 0.675746
-147.513672 360.453125 0.436143 0.677745
-147.046463 362.074646 0.000015 0.243989
-145.966125 365.824310 0.000011 0.213351
-145.276413 368.218140 0.000008 0.245209
-144.797043 369.881958 0.000006 0.262563
-144.443863 371.107788 0.000004 0.218210
-147.705856 360.272705 6.834288 0.636927
-147.705856 360.272705 6.168306 0.676692
-147.705856 360.272705 5.511673 0.676738
-147.705856 360.272705 4.862819 0.661524
-147.705856 360.272705 4.220236 0.689479
-147.705856 360.272705 3.582474 0.632197
-147.705856 360.272705 2.948126 0.680797
-147.705856 360.272705 2.315817 0.697887
-147.705856 360.272705 1.684183 0.646647
-147.705856 360.272705 1.051873 0.647532
-147.705856 360.272705 0.417526 0.677714
-147.162979 362.108673 0.000015 0.217552
-146.056488 365.850677 0.000010 0.262407
-145.350082 368.239655 0.000008 0.207056
-144.859100 369.900085 0.000005 0.250631
-144.497375 371.123413 0.000004 0.233457
-147.902695 360.087921 6.892772 0.680461
-147.902695 360.087921 6.218733 0.669001
-147.902695 360.087921 5.554158 0.658640
-147.902695 360.087921 4.897453 0.668986
-147.902695 360.087952 4.247095 0.628290
-147.902695 360.087921 3.601618 0.622812
-147.902695 360.087921 2.959596 0.657069
-147.902695 360.087921 2.319637 0.641489
-147.902695 360.087921 1.680363 0.667857
-147.902695 360.087921 1.040403 0.652659
-147.902695 360.087921 0.398381 0.651865
-147.279251 362.143494 0.000015 0.233637
-146.146652 365.877686 0.000011 0.251923
-145.423584 368.261658 0.000008 0.201108
-144.921036 369.918640 0.000006 0.240243
-144.550766 371.139404 0.000004 0.233062
-148.104370 359.898621 6.952932 0.648875
-148.104370 359.898621 6.270606 0.678431
-148.104370 359.898621 5.597858 0.665446
-148.104370 359.898621 4.933080 0.657893
-148.104370 359.898621 4.274726 0.626856
-148.104370 359.898621 3.621311 0.642161
-148.104370 359.898621 2.971395 0.660075
-148.104370 359.898621 2.323568 0.683223
-148.104370 359.898621 1.676433 0.665293
-148.104370 359.898621 1.028604 0.659693
-148.104370 359.898621 0.378689 0.680583
-147.395264 362.179138 0.000015 0.217947
-146.236633 365.905334 0.000011 0.243654
-145.496948 368.284210 0.000008 0.235528
-144.982834 369.937622 0.000006 0.221429
-144.604050 371.155762 0.000005 0.216798
-148.311066 359.704590 7.014838 0.660746
-148.311066 359.704590 6.323983 0.664073
-148.311066 359.704590 5.642828 0.647578
-148.311066 359.704590 4.969739 0.663493
-148.311066 359.704590 4.303156 0.646143
-148.311066 359.704590 3.641575 0.653239
-148.311066 359.704590 2.983537 0.678431
-148.311066 359.704590 2.327612 0.685725
-148.311066 359.704590 1.672388 0.686351
-148.311066 359.704590 1.016463 0.630060
-148.311066 359.704590 0.358424 0.665293
-147.511032 362.215576 0.000015 0.227389
-146.326416 365.933594 0.000011 0.242983
-145.570145 368.307251 0.000008 0.214991
-145.044495 369.957031 0.000006 0.260265
-144.657227 371.172516 0.000004 0.249614
nan nan nan 0.000000
nan nan nan 0.000000
nan nan nan 0.000000
nan nan nan 0.000000
nan nan nan 0.000000
nan nan nan 0.000000
nan nan nan 0.000000
nan nan nan 0.000000
nan nan nan 0.000000
-154.862518 340.078491 0.000041 0.229579
-149.800079 355.592133 0.000023 0.226803
-147.626541 362.252808 0.000016 0.212394
-146.416000 365.962463 0.000011 0.239477
-145.643173 368.330780 0.000008 0.212525
-145.106018 369.976868 0.000006 0.205392
-144.710266 371.189606 0.000005 0.216475
nan nan nan 0.000000
nan nan nan 0.000000
nan nan nan 0.000000
nan nan nan 0.000000
nan nan nan 0.000000
nan nan nan 0.000000
nan nan nan 0.000000
nan nan nan 0.000000
nan nan nan 0.000000
-155.132401 340.167603 0.000041 0.230968
-149.961777 355.645538 0.000023 0.233840
-147.741806 362.290863 0.000015 0.227748
-146.505386 365.992004 0.000011 0.235468
-145.716034 368.354858 0.000008 0.234558
-145.167404 369.997131 0.000006 0.234558
-144.763199 371.207092 0.000004 0.248237
nan nan nan 0.000000
nan nan nan 0.000000
