# This PCD file was generated using the MATLABÂ® pcwrite function
# from Computer Vision ToolboxÂ®.
# .PCD v.7 - Point Cloud Data file format
VERSION .7
FIELDS x y z intensity
SIZE 4 4 4 4
TYPE F F F F
COUNT 1 1 1 1
WIDTH 1288
HEIGHT 1
VIEWPOINT 0 0 0 1 0 0 0
POINTS 1288
DATA ascii
-80.371735 337.984253 5.758728 0.519448
-80.878487 337.808502 5.069022 0.540749
-80.397499 337.975311 4.577474 0.499947
-81.368309 337.638611 3.880729 0.510567
-80.607407 337.902527 3.406526 0.508232
-79.890953 338.151001 2.879963 0.505882
nan nan nan 0.000000
nan nan nan 0.000000
-58.350937 345.621429 0.000010 0.230381
-73.769173 340.274139 0.000006 0.222171
-80.388817 337.978333 0.000005 0.214213
-84.075607 336.699707 0.000003 0.223476
-86.429314 335.883392 0.000003 0.218725
-88.065231 335.316040 0.000003 0.241416
-89.270500 334.898010 0.000003 0.246598
-80.032013 337.971130 6.438701 0.505882
-80.611176 337.774780 5.695136 0.505882
-80.647873 337.762360 5.105992 0.522881
-81.467422 337.484497 4.403730 0.514702
-81.287773 337.545410 3.886015 0.515389
-80.659485 337.758423 3.398654 0.524941
-78.339317 338.544983 2.958347 0.524361
-78.110741 338.622467 2.323170 0.517647
nan nan nan 0.000000
-58.258736 345.352570 0.000010 0.229328
-73.713936 340.113037 0.000006 0.227940
-80.349449 337.863525 0.000005 0.230381
-84.045074 336.610657 0.000004 0.267685
-86.404419 335.810791 0.000003 0.258530
-88.044258 335.254883 0.000003 0.220544
-89.252419 334.845306 0.000003 0.245317
-80.925224 337.544952 6.192634 0.509712
-80.597679 337.653442 5.689569 0.501427
-80.541138 337.672180 5.119192 0.538521
-81.618271 337.315369 4.374541 0.507805
-82.186424 337.127167 3.772702 0.506127
-79.678406 337.957947 3.480128 0.505470
-79.805710 337.915771 2.880219 0.514885
-78.101646 338.480255 2.322572 0.529778
nan nan nan 0.000000
-58.168423 345.083099 0.000009 0.226611
-73.659828 339.951599 0.000006 0.236473
-80.310875 337.748444 0.000004 0.237801
-84.015167 336.521393 0.000004 0.255011
-86.380043 335.738037 0.000004 0.223667
-88.023720 335.193573 0.000003 0.217528
-89.234703 334.792450 0.000003 0.207798
-81.126312 337.357086 6.130123 0.496422
-81.190369 337.336334 5.546606 0.507744
-80.435013 337.580719 5.132366 0.504234
-80.596329 337.528534 4.528447 0.507607
-81.321404 337.293945 3.873246 0.514015
-80.958344 337.411407 3.366444 0.505882
-78.324280 338.263580 2.954701 0.505882
nan nan nan 0.000000
nan nan nan 0.000000
-58.079990 344.812988 0.000009 0.226085
-73.606850 339.789764 0.000006 0.222889
-80.273117 337.633087 0.000004 0.244312
-83.985886 336.431946 0.000004 0.214727
-86.356163 335.665100 0.000004 0.240949
-88.003601 335.132141 0.000003 0.219730
-89.217361 334.739471 0.000003 0.237921
-81.304878 337.179962 6.074009 0.503212
-80.742210 337.357666 5.640206 0.506020
-80.623550 337.395142 5.089408 0.518318
-80.185303 337.533539 4.586747 0.512551
-81.309677 337.178436 3.870485 0.507729
-82.062660 336.940643 3.268441 0.508019
-77.930519 338.245667 2.972859 0.505882
-78.138344 338.180023 2.320488 0.508186
nan nan nan 0.000000
-57.993465 344.542267 0.000010 0.228526
-73.555000 339.627563 0.000006 0.225678
-80.236160 337.517487 0.000005 0.218138
-83.957222 336.342285 0.000004 0.234642
-86.332802 335.592010 0.000004 0.246849
-87.983917 335.070557 0.000003 0.260349
-89.200386 334.686371 0.000003 0.222638
-81.283432 337.067749 6.070766 0.520729
-80.186302 337.405853 5.757922 0.507012
-80.219879 337.395508 5.159544 0.514534
-77.983826 338.084564 4.922832 0.506096
-81.540733 336.988464 3.838600 0.510552
-82.043472 336.833527 3.267328 0.512779
-78.351212 337.971344 2.949116 0.507195
-78.153198 338.032379 2.319537 0.506554
nan nan nan 0.000000
-57.908810 344.270935 0.000010 0.229747
-73.504272 339.464996 0.000006 0.241428
-80.200012 337.401611 0.000005 0.264609
-83.929184 336.252441 0.000004 0.205488
-86.309944 335.518768 0.000003 0.196141
-87.964661 335.008850 0.000003 0.201132
-89.183784 334.633148 0.000003 0.272281
-81.283310 336.949310 6.062157 0.523644
-80.926926 337.056427 5.582918 0.495659
-81.138535 336.992828 4.978297 0.516716
-81.368538 336.923706 4.392370 0.499931
-81.276726 336.951294 3.866411 0.511315
-82.121140 336.697540 3.257988 0.504799
-77.740753 338.013977 2.978417 0.505959
-78.196671 337.876953 2.318115 0.509590
nan nan nan 0.000000
-57.826065 343.999054 0.000010 0.230992
-73.454704 339.302094 0.000006 0.229903
-80.164673 337.285522 0.000005 0.238831
-83.901779 336.162384 0.000004 0.233792
-86.287605 335.445343 0.000004 0.201299
-87.945847 334.946991 0.000003 0.250978
-89.167557 334.579834 0.000003 0.268918
-80.442444 337.077667 6.273230 0.505882
-80.904594 336.942291 5.580530 0.512062
nan nan nan 0.000000
-82.202881 336.561981 4.258456 0.509667
-80.790970 336.975586 3.920780 0.511208
-78.567780 337.626831 3.558988 0.513207
-77.646561 337.896698 2.981213 0.496559
-78.206909 337.732544 2.317283 0.515068
nan nan nan 0.000000
-57.745224 343.726563 0.000010 0.231650
-73.406265 339.138855 0.000006 0.232619
-80.130150 337.169159 0.000005 0.223081
-83.875000 336.072144 0.000004 0.190157
-86.265778 335.371796 0.000004 0.219909
-87.927452 334.885010 0.000003 0.189942
-89.151703 334.526398 0.000003 0.228203
-80.257607 337.006561 6.312759 0.470985
-80.877281 336.829742 5.579444 0.510445
-78.951218 337.379364 5.380027 0.517555
-81.485115 336.656281 4.364622 0.503868
-80.468971 336.946259 3.955428 0.514702
-80.913101 336.819519 3.355861 0.521981
-78.829948 337.413971 2.918778 0.505882
nan nan nan 0.000000
nan nan nan 0.000000
-57.666275 343.453552 0.000010 0.227341
-73.358963 338.975250 0.000006 0.225738
-80.096436 337.052551 0.000005 0.221453
-83.848862 335.981720 0.000004 0.224361
-86.244461 335.298065 0.000004 0.197901
-87.909500 334.822906 0.000003 0.242074
-89.136215 334.472839 0.000003 0.199504
-79.667747 337.045715 6.457638 0.505531
-80.854355 336.716003 5.577553 0.506340
-80.176300 336.904419 5.142033 0.497108
-81.138214 336.637146 4.413385 0.498436
-79.675323 337.043610 4.046348 0.587350
-80.742706 336.747040 3.367699 0.515114
-79.363976 337.130096 2.889744 0.593790
-79.415901 337.115662 2.295488 0.618021
-79.487717 337.095734 1.705732 0.512184
-79.461502 337.102997 1.115228 0.575845
-79.507881 337.090118 0.527215 0.543877
-80.063545 336.935730 0.000005 0.252199
-83.823341 335.891113 0.000004 0.221681
-86.223663 335.224213 0.000003 0.219383
-87.891975 334.760681 0.000003 0.205572
-89.121109 334.419189 0.000003 0.221645
-79.752884 336.893982 6.427025 0.512657
-80.833412 336.601898 5.575399 0.505913
-81.335297 336.466217 4.917568 0.503059
-81.256287 336.487579 4.390628 0.509911
-81.454887 336.433868 3.830364 0.509957
-80.527771 336.684509 3.383340 0.515160
-79.412498 336.985992 2.885574 0.592996
-79.410393 336.986572 2.295016 0.581048
-79.442734 336.977844 1.705532 0.598154
-79.389732 336.992157 1.113267 0.562814
-79.432838 336.980499 0.523657 0.603601
-80.031456 336.818695 0.000005 0.226468
-83.798462 335.800323 0.000004 0.228514
-86.203377 335.150208 0.000004 0.244156
-87.874886 334.698334 0.000003 0.212465
-89.106369 334.365417 0.000003 0.218569
-80.000145 336.701416 6.354753 0.506111
-80.369019 336.604462 5.672459 0.504692
-81.434372 336.324432 4.893504 0.525856
-81.355392 336.345184 4.370982 0.506935
-81.300941 336.359497 3.845273 0.526711
-80.324631 336.616119 3.397990 0.509636
-78.183708 337.178864 2.946345 0.505882
-77.246971 337.425110 2.331072 0.516381
nan nan nan 0.000000
-57.440880 342.631256 0.000010 0.232428
-73.223923 338.482574 0.000006 0.224732
-80.000191 336.701416 0.000005 0.233421
-83.774216 335.709381 0.000004 0.236066
-86.183609 335.076050 0.000004 0.224661
-87.858231 334.635864 0.000004 0.216654
-89.092018 334.311584 0.000003 0.223548
-79.812485 336.624084 6.395400 0.508995
-81.629555 336.160004 5.384831 0.512474
-80.617973 336.418365 5.041593 0.502876
-77.612495 337.185974 4.939726 0.476020
-81.197914 336.270233 3.854170 0.505852
-80.770706 336.379333 3.357714 0.508049
-80.862373 336.355927 2.808816 0.505379
nan nan nan 0.000000
nan nan nan 0.000000
-57.369598 342.356110 0.000010 0.231865
-73.181213 338.317749 0.000006 0.220400
-79.969742 336.583923 0.000004 0.221968
-83.750603 335.618256 0.000004 0.218042
-86.164360 335.001770 0.000004 0.265519
-87.842010 334.573303 0.000003 0.232272
-89.078033 334.257599 0.000003 0.215421
-80.199905 336.401794 6.287700 0.504524
-81.206772 336.152100 5.472966 0.508782
-80.645943 336.291199 5.031008 0.505928
-78.355080 336.859283 4.821077 0.517647
-80.776123 336.258911 3.900908 0.524147
-81.006310 336.201813 3.335427 0.524193
-80.833832 336.244598 2.808841 0.506188
-76.975250 337.201447 2.334475 0.505882
nan nan nan 0.000000
-57.300224 342.080505 0.000010 0.227772
-73.139641 338.152618 0.000006 0.234714
-79.940125 336.466217 0.000005 0.216654
-83.727631 335.526978 0.000004 0.228239
-86.145630 334.927368 0.000004 0.251768
-87.826233 334.510590 0.000003 0.198846
-89.064430 334.203552 0.000003 0.222602
-80.841133 336.124603 6.115191 0.505974
-81.195381 336.039398 5.469579 0.506600
-80.777344 336.139954 5.001253 0.515724
-81.583008 335.946136 4.323790 0.508400
-80.696335 336.159454 3.907110 0.511406
-81.229927 336.031067 3.314292 0.514534
-77.244614 336.989868 2.988820 0.505882
-81.069458 336.069672 2.264996 0.502800
nan nan nan 0.000000
-57.232773 341.804413 0.000009 0.229472
-73.099243 337.987183 0.000006 0.218629
-79.911324 336.348328 0.000005 0.212477
-83.705292 335.435547 0.000004 0.253587
-86.127419 334.852814 0.000004 0.220699
-87.810898 334.447815 0.000004 0.255957
-89.051201 334.149414 0.000003 0.199624
-80.706055 336.038330 6.143133 0.534493
-81.334717 335.891724 5.432944 0.512139
-80.916039 335.989380 4.970379 0.509056
-78.191330 336.624817 4.836558 0.504005
-80.578781 336.068024 3.917845 0.602564
-79.162506 336.398315 3.486188 0.595071
-80.766556 336.024231 2.809521 0.509575
-81.049011 335.958374 2.264902 0.522454
nan nan nan 0.000000
-57.167259 341.527832 0.000009 0.228885
-73.059990 337.821503 0.000007 0.222937
-79.883347 336.230225 0.000005 0.227521
-83.683594 335.343964 0.000004 0.232823
-86.109734 334.778137 0.000004 0.206876
-87.795990 334.384888 0.000003 0.244300
-89.038353 334.095154 0.000004 0.281245
-80.614655 335.940613 6.159970 0.525490
-81.316429 335.782104 5.431497 0.503182
-80.819473 335.894348 4.983637 0.511772
-78.501831 336.417816 4.784798 0.595666
-79.993713 336.080841 3.983775 0.504570
-80.763359 335.907013 3.349240 0.531075
-80.754654 335.908997 2.808825 0.508186
-77.210472 336.709473 2.328874 0.506035
nan nan nan 0.000000
-57.103680 341.250824 0.000010 0.231087
-73.021889 337.655518 0.000006 0.225534
-79.856186 336.111908 0.000005 0.220628
-83.662537 335.252197 0.000004 0.215170
-86.092567 334.703369 0.000004 0.242553
-87.781532 334.321899 0.000004 0.223608
-89.025887 334.040833 0.000004 0.245281
-80.737038 335.795197 6.122145 0.496101
-81.295555 335.673126 5.430793 0.506523
-81.189880 335.696228 4.910024 0.524453
-80.621567 335.820435 4.458628 0.507347
-81.652740 335.595062 3.785340 0.525139
-80.823982 335.776184 3.342060 0.505882
-80.746002 335.793213 2.808006 0.512047
-81.347076 335.661865 2.259075 0.507515
nan nan nan 0.000000
-57.042030 340.973389 0.000010 0.229783
-72.984955 337.489288 0.000006 0.227820
-79.829865 335.993439 0.000005 0.219347
-83.642120 335.160309 0.000004 0.264478
-86.075920 334.628448 0.000004 0.237993
-87.767502 334.258789 0.000003 0.226157
-89.013786 333.986420 0.000003 0.236880
-80.310493 335.767853 6.225166 0.506188
-78.702003 336.107635 5.998163 0.529854
-81.163261 335.587738 4.910611 0.510063
-80.699272 335.685730 4.443161 0.511482
-80.434235 335.741730 3.925936 0.508553
-81.380119 335.541931 3.293441 0.512505
-80.741943 335.676727 2.806998 0.507897
nan nan nan 0.000000
nan nan nan 0.000000
-56.982319 340.695526 0.000010 0.230740
-72.949181 337.322815 0.000006 0.229292
-79.804367 335.874786 0.000005 0.239261
-83.622345 335.068298 0.000004 0.196428
-86.059799 334.553436 0.000004 0.223308
-87.753922 334.195587 0.000004 0.208648
-89.002083 333.931915 0.000004 0.215206
-80.644096 335.579651 6.133764 0.503212
-78.844017 335.946777 5.961070 0.517647
-80.859741 335.535675 4.962760 0.519173
-81.388901 335.427734 4.335219 0.515770
-80.503883 335.608246 3.914969 0.506279
-81.497406 335.405609 3.281754 0.507347
-80.922928 335.522766 2.796756 0.501472
nan nan nan 0.000000
nan nan nan 0.000000
-56.924564 340.417236 0.000010 0.231063
-72.914574 337.156067 0.000006 0.234977
-79.779701 335.755920 0.000005 0.231542
-83.603218 334.976135 0.000004 0.205979
-86.044205 334.478302 0.000004 0.242182
-87.740784 334.132263 0.000004 0.207499
-88.990753 333.877350 0.000003 0.272783
-79.080215 335.769806 6.527223 0.505882
-80.265671 335.536652 5.642603 0.510018
-80.865540 335.418671 4.957545 0.509010
-81.003815 335.391479 4.390173 0.516930
-80.992706 335.393646 3.854980 0.507759
-81.386078 335.316284 3.289266 0.505867
-80.290268 335.531830 2.827318 0.500374
nan nan nan 0.000000
nan nan nan 0.000000
-56.868736 340.138550 0.000010 0.232571
-72.881119 336.989105 0.000006 0.219323
-79.755859 335.636932 0.000005 0.247136
-83.584724 334.883850 0.000004 0.225175
-86.029129 334.403046 0.000004 0.241835
-87.728088 334.068878 0.000004 0.181229
-88.979797 333.822693 0.000003 0.258913
-79.256943 335.607910 6.476069 0.512551
-81.330055 335.215179 5.403723 0.513970
-79.647987 335.533844 5.179042 0.504936
-80.648468 335.344299 4.440602 0.527642
-81.032219 335.271606 3.847856 0.505653
-81.231178 335.233917 3.300456 0.509438
-81.026138 335.272736 2.789410 0.505882
-80.931091 335.290741 2.264531 0.512978
nan nan nan 0.000000
-56.814850 339.859497 0.000010 0.226851
-72.848846 336.821899 0.000007 0.230022
-79.732849 335.517761 0.000005 0.227246
-83.566887 334.791412 0.000004 0.220699
-86.014587 334.327698 0.000004 0.237490
-87.715836 334.005402 0.000004 0.232500
-88.969238 333.767944 0.000004 0.308232
-78.645866 335.592468 6.625854 0.505882
-78.686028 335.585144 5.979770 0.510887
-79.893837 335.365051 5.129451 0.501579
-80.738037 335.211212 4.423933 0.498192
-81.138870 335.138184 3.832989 0.507515
-81.081726 335.148590 3.311225 0.525811
-80.809608 335.198181 2.799199 0.516869
-80.927246 335.176758 2.264253 0.518380
nan nan nan 0.000000
-56.762943 339.580048 0.000010 0.228395
-72.817734 336.654480 0.000007 0.239716
-79.710678 335.398438 0.000005 0.263939
-83.549690 334.698883 0.000005 0.212394
-86.000565 334.252258 0.000004 0.204603
-87.704025 333.941864 0.000004 0.232081
-88.959053 333.713165 0.000004 0.190169
-78.632980 335.463837 6.623366 0.516854
-78.754807 335.442505 5.959729 0.521706
-79.909042 335.240509 5.122742 0.527291
-80.765320 335.090637 4.416804 0.502541
-81.137535 335.025482 3.830861 0.516381
-80.358765 335.161774 3.369772 0.509728
-80.675072 335.106415 2.804913 0.507027
-77.994156 335.575653 2.312650 0.506096
nan nan nan 0.000000
-56.712952 339.300293 0.000010 0.227186
-72.787796 336.486847 0.000006 0.226504
-79.689339 335.278961 0.000005 0.217959
-83.533134 334.606201 0.000004 0.262575
-85.987076 334.176727 0.000004 0.226719
-87.692657 333.878204 0.000004 0.222375
-88.949249 333.658295 0.000004 0.227545
-78.213470 335.403595 6.724389 0.510475
nan nan nan 0.000000
-79.471626 335.192413 5.199710 0.514672
-80.146599 335.079132 4.506975 0.525795
-79.980484 335.107025 3.963640 0.505760
-80.410606 335.034821 3.363824 0.505882
-81.175285 334.906494 2.779032 0.511833
nan nan nan 0.000000
nan nan nan 0.000000
-56.664928 339.020142 0.000009 0.226755
-72.759018 336.319031 0.000006 0.219874
-79.668823 335.159332 0.000005 0.243211
-83.517227 334.513428 0.000004 0.234654
-85.974106 334.101074 0.000004 0.284201
-87.681732 333.814484 0.000004 0.214141
-88.939835 333.603333 0.000004 0.209641
nan nan nan 0.000000
nan nan nan 0.000000
-78.474518 335.228271 5.379800 0.516426
-80.561020 334.893066 4.441839 0.509529
-79.790398 335.016876 3.983539 0.516350
-80.465492 334.908417 3.357703 0.533547
-80.844299 334.847534 2.794608 0.508293
-78.474007 335.228363 2.303965 0.513436
nan nan nan 0.000000
-56.618855 338.739685 0.000009 0.231566
-72.731415 336.151001 0.000006 0.243043
-79.649155 335.039551 0.000005 0.220376
-83.501976 334.420563 0.000005 0.201670
-85.961670 334.025360 0.000004 0.203944
-87.671249 333.750702 0.000004 0.214368
-88.930794 333.548340 0.000004 0.201228
nan nan nan 0.000000
nan nan nan 0.000000
-79.961670 334.868805 5.102330 0.514641
-79.786865 334.895630 4.555344 0.505882
-79.993027 334.863983 3.957780 0.504433
-80.521164 334.782898 3.351597 0.508293
-80.032654 334.857910 2.834079 0.527825
-78.049263 335.162354 2.310664 0.506050
nan nan nan 0.000000
-56.574749 338.458923 0.000009 0.226492
-72.705002 335.982758 0.000006 0.225247
-79.630325 334.919647 0.000005 0.253072
-83.487366 334.327576 0.000004 0.219814
-85.949768 333.949554 0.000004 0.206422
-87.661224 333.686829 0.000004 0.274016
-88.922150 333.493256 0.000004 0.216487
nan nan nan 0.000000
nan nan nan 0.000000
-78.342354 334.985504 5.396869 0.505211
-79.805428 334.771362 4.549887 0.505882
-79.937859 334.751984 3.962146 0.501442
-80.576492 334.658508 3.345597 0.500603
-78.717148 334.930664 2.898521 0.506203
-77.798141 335.065186 2.314492 0.505882
nan nan nan 0.000000
-56.532600 338.177856 0.000009 0.233254
-72.679733 335.814362 0.000006 0.212561
-79.612328 334.799622 0.000005 0.232440
-83.473412 334.234467 0.000005 0.224888
-85.938385 333.873688 0.000004 0.218665
-87.651634 333.622894 0.000004 0.213100
-88.913879 333.438141 0.000004 0.259894
nan nan nan 0.000000
nan nan nan 0.000000
-79.997124 334.623505 5.089481 0.505516
nan nan nan 0.000000
-79.254463 334.726929 4.039567 0.506905
-79.073448 334.752136 3.468688 0.505562
-78.203194 334.873322 2.923118 0.506050
-77.540680 334.965576 2.318432 0.501472
nan nan nan 0.000000
-56.492432 337.896484 0.000009 0.232332
-72.655678 335.645782 0.000006 0.241619
-79.595169 334.679474 0.000005 0.241775
-83.460106 334.141296 0.000005 0.244659
-85.927536 333.797699 0.000005 0.248644
-87.642494 333.558899 0.000004 0.209868
-88.905998 333.382965 0.000004 0.207954
nan nan nan 0.000000
nan nan nan 0.000000
-80.013565 334.501770 5.083540 0.505882
nan nan nan 0.000000
-79.449783 334.576263 4.014972 0.511055
-78.725365 334.671997 3.496087 0.516564
nan nan nan 0.000000
nan nan nan 0.000000
nan nan nan 0.000000
-56.454212 337.614868 0.000009 0.231877
-72.632782 335.477051 0.000007 0.222315
-79.578842 334.559204 0.000005 0.222614
-83.447449 334.048035 0.000005 0.208468
-85.917221 333.721680 0.000004 0.180044
-87.633804 333.494843 0.000004 0.201287
-88.898506 333.327728 0.000004 0.222112
nan nan nan 0.000000
nan nan nan 0.000000
nan nan nan 0.000000
nan nan nan 0.000000
-79.623825 334.431274 3.992986 0.508827
-78.756866 334.539673 3.492141 0.503014
nan nan nan 0.000000
nan nan nan 0.000000
nan nan nan 0.000000
-56.417973 337.332977 0.000009 0.225678
-72.611061 335.308167 0.000006 0.216666
-79.563370 334.438843 0.000005 0.261282
-83.435448 333.954651 0.000005 0.227449
-85.907433 333.645569 0.000004 0.239477
-87.625565 333.430725 0.000004 0.246741
-88.891396 333.272430 0.000004 0.193616
nan nan nan 0.000000
nan nan nan 0.000000
nan nan nan 0.000000
nan nan nan 0.000000
nan nan nan 0.000000
-79.043915 334.377899 3.467176 0.507820
nan nan nan 0.000000
nan nan nan 0.000000
nan nan nan 0.000000
-56.383690 337.050842 0.000009 0.223512
-72.590523 335.139130 0.000006 0.230142
-79.548737 334.318359 0.000005 0.213016
-83.424095 333.861206 0.000005 0.218342
-85.898178 333.569397 0.000004 0.191605
-87.617767 333.366547 0.000004 0.216570
-88.884674 333.217102 0.000004 0.206709
nan nan nan 0.000000
nan nan nan 0.000000
nan nan nan 0.000000
nan nan nan 0.000000
-78.900574 334.268097 4.073420 0.506554
nan nan nan 0.000000
nan nan nan 0.000000
nan nan nan 0.000000
nan nan nan 0.000000
-56.351379 336.768463 0.000009 0.227114
-72.571159 334.969940 0.000006 0.227760
-79.534935 334.197754 0.000005 0.222997
-83.413391 333.767700 0.000005 0.232655
-85.889458 333.493134 0.000005 0.215015
-87.610413 333.302307 0.000004 0.197362
-88.878342 333.161713 0.000004 0.228383
nan nan nan 0.000000
nan nan nan 0.000000
nan nan nan 0.000000
nan nan nan 0.000000
nan nan nan 0.000000
nan nan nan 0.000000
nan nan nan 0.000000
nan nan nan 0.000000
nan nan nan 0.000000
-56.321049 336.485870 0.000009 0.225810
-72.552979 334.800629 0.000006 0.229280
-79.521973 334.077087 0.000005 0.234989
-83.403343 333.674103 0.000005 0.206984
-85.881264 333.416840 0.000005 0.208696
-87.603516 333.238037 0.000004 0.215984
-88.872391 333.106293 0.000004 0.221657
nan nan nan 0.000000
nan nan nan 0.000000
nan nan nan 0.000000
nan nan nan 0.000000
nan nan nan 0.000000
nan nan nan 0.000000
nan nan nan 0.000000
nan nan nan 0.000000
nan nan nan 0.000000
-56.292667 336.203064 0.000009 0.229903
-72.535988 334.631195 0.000006 0.232380
-79.509865 333.956329 0.000005 0.221477
-83.393951 333.580444 0.000005 0.222363
-85.873604 333.340485 0.000004 0.199947
-87.597061 333.173706 0.000004 0.227449
-88.866829 333.050842 0.000004 0.213363
nan nan nan 0.000000
nan nan nan 0.000000
nan nan nan 0.000000
nan nan nan 0.000000
nan nan nan 0.000000
nan nan nan 0.000000
nan nan nan 0.000000
nan nan nan 0.000000
nan nan nan 0.000000
-56.266285 335.920074 0.000009 0.234618
-72.520187 334.461639 0.000006 0.228275
-79.498596 333.835480 0.000005 0.219562
-83.385216 333.486725 0.000005 0.206362
-85.866486 333.264099 0.000005 0.209533
-87.591064 333.109344 0.000004 0.252797
-88.861649 332.995331 0.000005 0.236102
nan nan nan 0.000000
nan nan nan 0.000000
nan nan nan 0.000000
nan nan nan 0.000000
nan nan nan 0.000000
nan nan nan 0.000000
nan nan nan 0.000000
nan nan nan 0.000000
nan nan nan 0.000000
-56.241867 335.636932 0.000009 0.232033
-72.505554 334.291992 0.000006 0.228670
-79.488174 333.714539 0.000005 0.214787
-83.377129 333.392944 0.000005 0.228885
-85.859894 333.187653 0.000004 0.235827
-87.585510 333.044922 0.000004 0.180475
-88.856865 332.939789 0.000004 0.193999
nan nan nan 0.000000
nan nan nan 0.000000
nan nan nan 0.000000
nan nan nan 0.000000
nan nan nan 0.000000
nan nan nan 0.000000
nan nan nan 0.000000
nan nan nan 0.000000
nan nan nan 0.000000
-56.219440 335.353607 0.000009 0.226157
-72.492119 334.122223 0.000007 0.243570
-79.478592 333.593567 0.000005 0.233313
-83.369698 333.299133 0.000005 0.251648
-85.853836 333.111145 0.000005 0.236497
-87.580406 332.980499 0.000005 0.210395
-88.852463 332.884247 0.000005 0.275536
nan nan nan 0.000000
nan nan nan 0.000000
nan nan nan 0.000000
nan nan nan 0.000000
nan nan nan 0.000000
nan nan nan 0.000000
nan nan nan 0.000000
nan nan nan 0.000000
nan nan nan 0.000000
-56.198990 335.070129 0.000010 0.228407
-72.479858 333.952393 0.000007 0.229699
-79.469864 333.472504 0.000006 0.225008
-83.362923 333.205231 0.000005 0.219826
-85.848312 333.034607 0.000005 0.206003
-87.575752 332.916016 0.000004 0.222291
-88.848450 332.828644 0.000004 0.219598
nan nan nan 0.000000
nan nan nan 0.000000
nan nan nan 0.000000
nan nan nan 0.000000
nan nan nan 0.000000
nan nan nan 0.000000
nan nan nan 0.000000
nan nan nan 0.000000
nan nan nan 0.000000
-56.180515 334.786499 0.000009 0.228048
-72.468788 333.782471 0.000006 0.235456
-79.461967 333.351379 0.000005 0.214632
-83.356796 333.111298 0.000005 0.212992
-85.843323 332.958038 0.000005 0.207690
-87.571548 332.851501 0.000004 0.206924
-88.844826 332.773010 0.000005 0.197266
nan nan nan 0.000000
nan nan nan 0.000000
nan nan nan 0.000000
nan nan nan 0.000000
nan nan nan 0.000000
nan nan nan 0.000000
nan nan nan 0.000000
nan nan nan 0.000000
nan nan nan 0.000000
-56.164005 334.502777 0.000009 0.225115
-72.458908 333.612457 0.000006 0.240722
-79.454926 333.230225 0.000005 0.220400
-83.351341 333.017334 0.000005 0.203968
-85.838875 332.881439 0.000005 0.223332
-87.567795 332.786957 0.000005 0.205763
-88.841591 332.717377 0.000004 0.231997
nan nan nan 0.000000
nan nan nan 0.000000
nan nan nan 0.000000
nan nan nan 0.000000
nan nan nan 0.000000
nan nan nan 0.000000
nan nan nan 0.000000
nan nan nan 0.000000
nan nan nan 0.000000
-56.149502 334.218933 0.000009 0.228778
-72.450218 333.442413 0.000007 0.232942
-79.448730 333.109009 0.000005 0.214871
-83.346535 332.923340 0.000005 0.248991
-85.834953 332.804779 0.000005 0.278193
-87.564499 332.722382 0.000005 0.237023
-88.838745 332.661682 0.000005 0.302512
nan nan nan 0.000000
nan nan nan 0.000000
nan nan nan 0.000000
nan nan nan 0.000000
nan nan nan 0.000000
nan nan nan 0.000000
nan nan nan 0.000000
nan nan nan 0.000000
nan nan nan 0.000000
-56.136974 333.934998 0.000009 0.231255
-72.442703 333.272278 0.000007 0.230477
-79.443375 332.987762 0.000006 0.227234
-83.342384 332.829285 0.000005 0.200533
-85.831566 332.728119 0.000005 0.204567
-87.561646 332.657806 0.000005 0.240710
-88.836288 332.606018 0.000005 0.222842
nan nan nan 0.000000
nan nan nan 0.000000
nan nan nan 0.000000
nan nan nan 0.000000
nan nan nan 0.000000
nan nan nan 0.000000
nan nan nan 0.000000
nan nan nan 0.000000
nan nan nan 0.000000
-56.126415 333.650970 0.000009 0.234714
-72.436386 333.102112 0.000007 0.223033
-79.438873 332.866486 0.000006 0.237754
-83.338890 332.735229 0.000005 0.225546
-85.828720 332.651428 0.000005 0.252438
-87.559250 332.593201 0.000005 0.296552
-88.834221 332.550293 0.000005 0.197314
nan nan nan 0.000000
nan nan nan 0.000000
nan nan nan 0.000000
nan nan nan 0.000000
nan nan nan 0.000000
nan nan nan 0.000000
nan nan nan 0.000000
nan nan nan 0.000000
nan nan nan 0.000000
-56.117851 333.366882 0.000009 0.228203
-72.431244 332.931915 0.000007 0.222710
-79.435204 332.745148 0.000005 0.213566
-83.336052 332.641144 0.000005 0.258506
-85.826408 332.574738 0.000005 0.223213
-87.557297 332.528595 0.000005 0.232763
-88.832542 332.494598 0.000005 0.234594
nan nan nan 0.000000
nan nan nan 0.000000
nan nan nan 0.000000
nan nan nan 0.000000
nan nan nan 0.000000
nan nan nan 0.000000
nan nan nan 0.000000
nan nan nan 0.000000
nan nan nan 0.000000
-56.111259 333.082733 0.000009 0.229077
-72.427299 332.761658 0.000006 0.225247
-79.432396 332.623810 0.000005 0.228610
-83.333870 332.547028 0.000005 0.222435
-85.824631 332.498016 0.000005 0.225427
-87.555801 332.463959 0.000005 0.263365
-88.831245 332.438873 0.000005 0.233637
nan nan nan 0.000000
nan nan nan 0.000000
nan nan nan 0.000000
nan nan nan 0.000000
nan nan nan 0.000000
nan nan nan 0.000000
nan nan nan 0.000000
nan nan nan 0.000000
nan nan nan 0.000000
-56.106659 332.798584 0.000009 0.227844
-72.424553 332.591400 0.000007 0.232033
-79.430435 332.502472 0.000006 0.222327
-83.332352 332.452942 0.000005 0.209019
-85.823387 332.421295 0.000005 0.228622
-87.554756 332.399323 0.000005 0.234785
-88.830345 332.383118 0.000005 0.227341
nan nan nan 0.000000
nan nan nan 0.000000
nan nan nan 0.000000
nan nan nan 0.000000
nan nan nan 0.000000
nan nan nan 0.000000
nan nan nan 0.000000
nan nan nan 0.000000
nan nan nan 0.000000
-56.104053 332.514374 0.000009 0.223536
-72.422981 332.421143 0.000006 0.225271
-79.429321 332.381104 0.000006 0.233708
-83.331482 332.358795 0.000005 0.237682
-85.822678 332.344574 0.000005 0.218964
-87.554161 332.334686 0.000005 0.204172
-88.829834 332.327393 0.000005 0.208468
nan nan nan 0.000000
nan nan nan 0.000000
nan nan nan 0.000000
nan nan nan 0.000000
nan nan nan 0.000000
nan nan nan 0.000000
nan nan nan 0.000000
nan nan nan 0.000000
nan nan nan 0.000000
-56.103405 332.230164 0.000009 0.228718
-72.422600 332.250854 0.000006 0.226252
-79.429047 332.259735 0.000005 0.247280
-83.331268 332.264679 0.000005 0.203071
-85.822510 332.267822 0.000005 0.193317
-87.554016 332.270020 0.000005 0.200677
-88.829712 332.271637 0.000005 0.189080
nan nan nan 0.000000
nan nan nan 0.000000
nan nan nan 0.000000
nan nan nan 0.000000
nan nan nan 0.000000
nan nan nan 0.000000
nan nan nan 0.000000
nan nan nan 0.000000
nan nan nan 0.000000
-56.104771 331.945953 0.000009 0.231961
-72.423416 332.080566 0.000007 0.227377
-79.429626 332.138367 0.000006 0.224182
-83.331726 332.170532 0.000005 0.283710
-85.822876 332.191101 0.000005 0.236293
-87.554321 332.205383 0.000005 0.201036
-88.829971 332.215912 0.000004 0.240518
-113.401291 332.534424 6.155349 0.896239
-113.401291 332.534424 5.582898 0.839216
-113.401291 332.534424 5.018486 0.769375
-113.401291 332.534424 4.460758 0.826719
-113.401291 332.534424 3.908420 0.824552
-113.401291 332.534424 3.360227 0.821012
-113.401291 332.534424 2.814969 0.839216
-113.401291 332.534424 2.271463 0.839216
-113.401291 332.534424 1.728538 0.739910
-113.401291 332.534424 1.185031 0.820371
-113.401291 332.534424 0.639773 0.823545
-113.401291 332.534424 0.091580 0.713848
-110.294594 332.487091 0.000131 0.217300
-107.803795 332.449158 0.000131 0.250296
-106.072594 332.422791 0.000131 0.216271
-104.797134 332.403351 0.000131 0.252151
-113.511047 332.652710 6.183391 0.839216
-113.511040 332.652710 5.607076 0.685054
-113.511047 332.652710 5.038856 0.839216
-113.511040 332.652710 4.477364 0.839216
-113.511047 332.652710 3.921299 0.839216
-113.511040 332.652710 3.369406 0.710811
-113.511040 332.652710 2.820469 0.839216
-113.511040 332.652710 2.273294 0.839216
-113.511040 332.652710 1.726706 0.645106
-113.511040 332.652710 1.179531 0.839216
-113.511040 332.652710 0.630593 0.839216
-113.511047 332.652710 0.078701 0.769451
-110.292831 332.581207 0.000131 0.217671
-107.802361 332.525879 0.000131 0.236078
-106.071388 332.487427 0.000131 0.228550
-104.796089 332.459076 0.000130 0.271575
-113.622292 332.772583 6.212019 0.767498
-113.622292 332.772583 5.631763 0.872862
-113.622292 332.772583 5.059652 0.839216
-113.622292 332.772583 4.494318 0.559960
-113.622292 332.772583 3.934448 0.839216
-113.622292 332.772583 3.378778 0.825986
-113.622292 332.772583 2.826084 0.745586
-113.622292 332.772583 2.275164 0.776471
-113.622292 332.772583 1.724835 0.591516
-113.622292 332.772583 1.173916 0.839216
-113.622292 332.772583 0.621222 0.779690
-113.622292 332.772583 0.065553 0.839216
-110.290413 332.675293 0.000130 0.261282
-107.800392 332.602570 0.000131 0.209701
-106.069733 332.552032 0.000131 0.212023
-104.794662 332.514801 0.000130 0.223153
-113.735077 332.894135 6.241251 0.839216
-113.735077 332.894135 5.656966 0.839216
-113.735077 332.894135 5.080885 0.839216
-113.735077 332.894135 4.511628 0.839216
-113.735077 332.894135 3.947873 0.839216
-113.735077 332.894135 3.388346 0.839216
-113.735077 332.894135 2.831817 0.776471
-113.735077 332.894135 2.277074 0.776471
-113.735077 332.894135 1.722926 0.625208
-113.735077 332.894135 1.168183 0.776471
-113.735077 332.894135 0.611653 0.666346
-113.735077 332.894135 0.052127 0.839216
-110.287338 332.769379 0.000130 0.206027
-107.797882 332.679260 0.000130 0.263915
-106.067619 332.616638 0.000130 0.278696
-104.792839 332.570526 0.000129 0.254509
-113.849449 333.017395 6.271101 0.928985
-113.849449 333.017395 5.682704 0.839216
-113.849442 333.017395 5.102569 0.577691
-113.849442 333.017395 4.529305 0.839216
-113.849449 333.017395 3.961581 0.780774
-113.849449 333.017395 3.398118 0.839216
-113.849442 333.017395 2.837671 0.839216
-113.849442 333.017395 2.279025 0.839216
-113.849442 333.017395 1.720976 0.669306
-113.849442 333.017395 1.162329 0.776471
-113.849449 333.017395 0.601882 0.746242
-113.849449 333.017395 0.038418 0.839216
-110.283615 332.863403 0.000129 0.242170
-107.794846 332.755951 0.000130 0.249518
-106.065056 332.681244 0.000129 0.244384
-104.790634 332.626221 0.000129 0.252642
-113.965439 333.142395 6.301584 0.810529
-113.965439 333.142395 5.708988 0.839216
-113.965439 333.142395 5.124712 0.712184
-113.965439 333.142395 4.547357 0.839216
-113.965439 333.142395 3.975581 0.625818
-113.965439 333.142395 3.408096 0.720577
-113.965439 333.142395 2.843649 0.656809
-113.965439 333.142395 2.281016 0.839216
-113.965439 333.142395 1.718984 0.653025
-113.965439 333.142395 1.156350 0.649500
-113.965439 333.142395 0.591903 0.839216
-113.965439 333.142395 0.024419 0.839216
-110.279228 332.957428 0.000129 0.236916
-107.791267 332.832581 0.000129 0.241667
-106.062050 332.745819 0.000129 0.228478
-104.788033 332.681885 0.000129 0.275799
-114.083115 333.269226 6.332720 0.905882
-114.083115 333.269226 5.735835 0.839216
-114.083115 333.269226 5.147330 0.912627
-114.083115 333.269226 4.565796 0.816434
-114.083115 333.269226 3.989881 0.835584
-114.083115 333.269226 3.418288 0.905882
-114.083115 333.269226 2.849756 0.724330
-114.083115 333.269226 2.283050 0.839216
-114.083115 333.269226 1.716950 0.645106
-114.083115 333.269226 1.150243 0.776471
-114.083115 333.269226 0.581711 0.839216
-114.083107 333.269226 0.010119 0.737728
-110.274185 333.051422 0.000128 0.231243
-107.787155 332.909210 0.000129 0.227509
-106.058586 332.810364 0.000128 0.257058
-104.785049 332.737549 0.000128 0.225008
-114.202499 333.397888 6.364523 0.905882
-114.202507 333.397888 5.763258 0.839216
-114.202507 333.397888 5.170433 0.887434
-114.202499 333.397888 4.584629 0.740383
-114.202507 333.397888 4.004488 0.839216
-114.202499 333.397888 3.428699 0.905882
-114.202499 333.397888 2.855994 0.671443
-114.202499 333.397888 2.285127 0.839216
-114.202499 333.397888 1.714873 0.723964
-114.202499 333.397888 1.144006 0.776471
-114.202499 333.397888 0.571301 0.839216
-114.162476 333.395325 0.000127 0.228203
-110.268494 333.145386 0.000128 0.261905
-107.782516 332.985809 0.000128 0.227330
-106.054672 332.874908 0.000128 0.252283
-104.781677 332.793182 0.000128 0.244755
-114.323669 333.528473 6.397013 0.671977
-114.323662 333.528473 5.791270 0.564920
-114.323669 333.528473 5.194034 0.755474
-114.323669 333.528473 4.603869 0.839216
-114.323669 333.528473 4.019409 0.839216
-114.323669 333.528473 3.439334 0.839216
-114.323669 333.528473 2.862366 0.632898
-114.323662 333.528473 2.287250 0.839216
-114.323662 333.528473 1.712750 0.800793
-114.323669 333.528473 1.137634 0.839216
-114.323669 333.528473 0.560665 0.839216
-114.154282 333.516418 0.000126 0.229304
-110.262138 333.239288 0.000127 0.249087
-107.777336 333.062347 0.000127 0.253132
-106.050308 332.939392 0.000127 0.277762
-104.777908 332.848785 0.000127 0.244456
-114.446655 333.661011 6.430208 0.839216
-114.446655 333.661011 5.819893 0.839216
-114.446655 333.661011 5.218146 0.839216
-114.446655 333.661011 4.623527 0.839216
-114.446655 333.661011 4.034655 0.839216
-114.446655 333.661011 3.450200 0.691600
-114.446655 333.661011 2.868876 0.839216
-114.446655 333.661011 2.289418 0.839216
-114.446655 333.661011 1.710581 0.839216
-114.446655 333.661011 1.131124 0.724727
-114.446648 333.661011 0.549800 0.839216
-114.145248 333.637421 0.000125 0.235910
-110.255127 333.333130 0.000126 0.200545
-107.771622 333.138885 0.000127 0.256005
-106.045494 333.003845 0.000127 0.233385
-104.773766 332.904388 0.000126 0.244563
-114.571518 333.795563 6.464127 0.839216
-114.571518 333.795563 5.849138 0.839216
-114.571518 333.795563 5.242785 0.839216
-114.571518 333.795563 4.643613 0.839216
-114.571518 333.795563 4.050232 0.812726
-114.571518 333.795563 3.461303 0.653132
-114.571510 333.795563 2.875528 0.839216
-114.571518 333.795563 2.291634 0.839216
-114.571518 333.795563 1.708366 0.839216
-114.571510 333.795563 1.124472 0.720195
-114.571518 333.795563 0.538696 0.839216
-114.135368 333.758392 0.000125 0.223033
-110.247467 333.426941 0.000126 0.266417
-107.765373 333.215363 0.000126 0.255203
-106.040230 333.068298 0.000126 0.283100
-104.769226 332.959930 0.000126 0.272736
-114.698311 333.932220 6.498790 0.839216
-114.698311 333.932220 5.879027 0.640223
-114.698311 333.932220 5.267963 0.722210
-114.698311 333.932220 4.664140 0.614771
-114.698318 333.932220 4.066152 0.594430
-114.698311 333.932220 3.472650 0.749523
-114.698311 333.932220 2.882326 0.839216
-114.698311 333.932220 2.293899 0.839216
-114.698311 333.932220 1.706101 0.839216
-114.698311 333.932220 1.117673 0.591134
-114.698311 333.932220 0.527349 0.839216
-114.124641 333.879272 0.000124 0.218270
-110.239143 333.520691 0.000125 0.218509
-107.758591 333.291779 0.000126 0.216116
-106.034515 333.132690 0.000126 0.252677
-104.764297 333.015442 0.000125 0.203609
-114.827103 334.071014 6.534219 0.937255
-114.827103 334.071014 5.909574 0.839216
-114.827103 334.071014 5.293701 0.836164
-114.827103 334.071014 4.685121 0.835874
-114.827103 334.071014 4.082422 0.839216
-114.827103 334.071014 3.484247 0.844862
-114.827095 334.071014 2.889275 0.839216
-114.827103 334.071014 2.296213 0.839216
-114.827103 334.071014 1.703787 0.839216
-114.827095 334.071014 1.110725 0.839216
-114.827095 334.071014 0.515752 0.684581
-114.113075 334.000092 0.000124 0.233409
-110.230171 333.614410 0.000125 0.229879
-107.751282 333.368164 0.000125 0.213854
-106.028358 333.197021 0.000125 0.197326
-104.758987 333.070953 0.000124 0.274076
-114.957939 334.212006 6.570434 0.615961
-114.957939 334.212006 5.940801 0.695399
-114.957939 334.212006 5.320007 0.839216
-114.957939 334.212006 4.706566 0.737865
-114.957939 334.212006 4.099055 0.839216
-114.957932 334.212006 3.496102 0.831098
-114.957939 334.212006 2.896378 0.839216
-114.957932 334.212006 2.298579 0.787106
-114.957932 334.212006 1.701421 0.839216
-114.957939 334.212006 1.103622 0.722423
-114.957932 334.212006 0.503897 0.776471
-114.100662 334.120819 0.000123 0.240027
-110.220551 333.708038 0.000124 0.221477
-107.743431 333.444489 0.000124 0.230274
-106.021744 333.261322 0.000124 0.226336
-104.753281 333.126373 0.000124 0.207595
-115.090889 334.355286 6.607458 0.839216
-115.090889 334.355286 5.972725 0.742031
-115.090889 334.355286 5.346902 0.677134
-115.090889 334.355286 4.728493 0.827451
-115.090889 334.355286 4.116059 0.772122
-115.090889 334.355286 3.508222 0.913725
-115.090881 334.355286 2.903639 0.771115
-115.090889 334.355286 2.300998 0.839216
-115.090889 334.355286 1.699002 0.695949
-115.090881 334.355286 1.096361 0.776471
-115.090889 334.355286 0.491778 0.747646
-114.087410 334.241455 0.000122 0.227054
-110.210266 333.801575 0.000124 0.200486
-107.735054 333.520752 0.000124 0.218366
-106.014687 333.325592 0.000124 0.193341
-104.747192 333.181793 0.000124 0.176370
-115.226021 334.500946 6.645316 0.480247
-115.226021 334.500916 6.005367 0.839216
-115.226021 334.500916 5.374403 0.661448
-115.226021 334.500916 4.750913 0.505821
-115.226021 334.500916 4.133447 0.839216
-115.226021 334.500916 3.520615 0.631418
-115.226013 334.500916 2.911064 0.839216
-115.226013 334.500916 2.303471 0.712566
-115.226013 334.500916 1.696529 0.763378
-115.226013 334.500916 1.088936 0.662593
-115.226013 334.500916 0.479385 0.839216
-114.073311 334.362000 0.000122 0.232404
-110.199341 333.895081 0.000123 0.253623
-107.726143 333.596985 0.000123 0.230130
-106.007179 333.389801 0.000123 0.295175
-104.740723 333.237152 0.000122 0.239321
-115.363403 334.648987 6.684032 0.713344
-115.363396 334.648987 6.038749 0.619821
-115.363396 334.648987 5.402526 0.839216
-115.363396 334.648987 4.773838 0.707897
-115.363396 334.648987 4.151228 0.496574
-115.363403 334.648987 3.533288 0.807660
-115.363388 334.648987 2.918657 0.677043
-115.363388 334.648987 2.306000 0.917891
-115.363388 334.648987 1.694000 0.682261
-115.363388 334.648987 1.081343 0.839216
-115.363388 334.648987 0.466712 0.716518
-114.058372 334.482422 0.000121 0.221848
-110.187752 333.988464 0.000122 0.206565
-107.716698 333.673126 0.000122 0.225630
-105.999222 333.453949 0.000122 0.236102
-104.733864 333.292480 0.000122 0.197805
-115.503090 334.799530 6.723631 0.839216
-115.503082 334.799530 6.072891 0.720562
-115.503090 334.799530 5.431291 0.629419
-115.503090 334.799530 4.797289 0.905882
-115.503082 334.799530 4.169413 0.682933
-115.503082 334.799530 3.546250 0.549020
-115.503082 334.799530 2.926424 0.891554
-115.503082 334.799530 2.308587 0.775006
-115.503082 334.799530 1.691413 0.839216
-115.503082 334.799530 1.073576 0.679728
-115.503082 334.799530 0.453749 0.839216
-114.042603 334.602783 0.000120 0.262958
-110.175514 334.081787 0.000121 0.248189
-107.706718 333.749207 0.000121 0.221633
-105.990814 333.518036 0.000121 0.237287
-104.726616 333.347717 0.000121 0.240111
-115.645172 334.952637 6.764138 0.845197
-115.645172 334.952637 6.107819 0.821607
-115.645172 334.952637 5.460716 0.636881
-115.645164 334.952637 4.821277 0.643854
-115.645172 334.952637 4.188018 0.839216
-115.645172 334.952637 3.559510 0.694682
-115.645172 334.952637 2.934368 0.580911
-115.645164 334.952637 2.311234 0.814267
-115.645164 334.952637 1.688766 0.693217
-115.645164 334.952637 1.065632 0.839216
-115.645164 334.952637 0.440490 0.632410
-114.025978 334.722992 0.000119 0.227377
-110.162628 334.175049 0.000121 0.254604
-107.696213 333.825226 0.000121 0.211999
-105.981964 333.582092 0.000121 0.273035
-104.718987 333.402954 0.000120 0.266907
-115.789719 335.108429 6.805583 0.718669
-115.789719 335.108429 6.143554 0.775097
-115.789719 335.108429 5.490822 0.776471
-115.789711 335.108429 4.845820 0.797711
-115.789711 335.108429 4.207051 0.871870
-115.789719 335.108429 3.573077 0.839216
-115.789711 335.108429 2.942496 0.710201
-115.789711 335.108429 2.313941 0.661524
-115.789711 335.108429 1.686059 0.776471
-115.789711 335.108429 1.057503 0.750500
-115.789711 335.108429 0.426923 0.604700
-114.008522 334.843079 0.000119 0.222794
-110.149094 334.268188 0.000120 0.222195
-107.685181 333.901154 0.000120 0.269791
-105.972672 333.646057 0.000120 0.230788
-104.710968 333.458099 0.000119 0.240734
-115.936806 335.266937 6.847993 0.813291
-115.936806 335.266937 6.180123 0.746868
-115.936806 335.266937 5.521629 0.624826
-115.936806 335.266937 4.870935 0.839216
-115.936806 335.266937 4.226529 0.694545
-115.936798 335.266937 3.586959 0.818814
-115.936806 335.266937 2.950814 0.692088
-115.936798 335.266937 2.316711 0.751522
-115.936798 335.266937 1.683288 0.776455
-115.936798 335.266937 1.049186 0.743877
-115.936798 335.266937 0.413041 0.788205
-113.990234 334.963074 0.000118 0.232200
-110.134903 334.361237 0.000119 0.229675
-107.673615 333.977020 0.000119 0.206206
-105.962921 333.709961 0.000119 0.211029
-104.702568 333.513214 0.000118 0.251038
-116.086525 335.428284 6.891399 0.810895
-116.086533 335.428284 6.217551 0.678431
-116.086525 335.428284 5.553160 0.839216
-116.086517 335.428284 4.896640 0.839216
-116.086517 335.428284 4.246465 0.716014
-116.086525 335.428284 3.601169 0.839216
-116.086525 335.428284 2.959327 0.933516
-116.086517 335.428284 2.319548 0.831312
-116.086517 335.428284 1.680452 0.776471
-116.086517 335.428284 1.040673 0.684871
-116.086517 335.428284 0.398831 0.839216
-113.971100 335.082916 0.000117 0.230202
-110.120064 334.454163 0.000118 0.204591
-107.661514 334.052765 0.000118 0.211951
-105.952736 333.773804 0.000118 0.252247
-104.693779 333.568237 0.000118 0.208588
-116.238953 335.592560 6.935832 0.839216
-116.238953 335.592560 6.255861 0.905882
-116.238953 335.592560 5.585436 0.839216
-116.238953 335.592560 4.922953 0.709987
-116.238945 335.592560 4.266871 0.839216
-116.238945 335.592560 3.615713 0.806683
-116.238945 335.592560 2.968041 0.905882
-116.238945 335.592560 2.322450 0.791913
-116.238945 335.592560 1.677550 0.839216
-116.238945 335.592560 1.031958 0.695232
-116.238945 335.592560 0.384287 0.839216
-113.951134 335.202637 0.000116 0.224756
-110.104584 334.547028 0.000117 0.236329
-107.648895 334.128448 0.000118 0.221729
-105.942101 333.837555 0.000118 0.192886
-104.684608 333.623230 0.000117 0.217181
-116.394188 335.759857 6.981327 0.926345
-116.394180 335.759857 6.295087 0.650828
-116.394180 335.759857 5.618484 0.760021
-116.394180 335.759857 4.949893 0.839216
-116.394180 335.759857 4.287765 0.839216
-116.394180 335.759857 3.630605 0.768353
-116.394180 335.759857 2.976964 0.905882
-116.394180 335.759857 2.325422 0.740642
-116.394180 335.759857 1.674578 0.839216
-116.394180 335.759857 1.023036 0.686549
-116.394173 335.759857 0.369395 0.893187
-113.930328 335.322205 0.000116 0.236246
-110.088448 334.639740 0.000116 0.231171
-107.635742 334.204071 0.000117 0.258961
-105.931023 333.901245 0.000116 0.206458
-104.675056 333.678131 0.000116 0.255885
-116.552307 335.930267 7.027912 0.831830
-116.552307 335.930267 6.335256 0.837842
-116.552307 335.930267 5.652324 0.905882
-116.552307 335.930267 4.977481 0.839216
-116.552307 335.930267 4.309161 0.826078
-116.552307 335.930267 3.645854 0.874540
-116.552307 335.930267 2.986101 0.926833
-116.552307 335.930267 2.328465 0.677409
-116.552307 335.930267 1.671535 0.839216
-116.552307 335.930267 1.013899 0.839216
-116.552299 335.930267 0.354145 0.808057
-113.908691 335.441620 0.000114 0.234355
-110.071671 334.732361 0.000116 0.229424
-107.622063 334.279572 0.000116 0.259463
-105.919495 333.964844 0.000116 0.210132
-104.665123 333.732971 0.000115 0.214021
-116.713432 336.103912 7.075627 0.717494
-116.713432 336.103912 6.376397 0.782605
-116.713425 336.103912 5.686985 0.905882
-116.713425 336.103912 5.005737 0.654200
-116.713425 336.103912 4.331075 0.776471
-116.713425 336.103912 3.661474 0.839216
-116.713425 336.103912 2.995459 0.839216
-116.713425 336.103912 2.331582 0.752361
-116.713425 336.103912 1.668417 0.839216
-116.713425 336.103912 1.004541 0.839216
-116.713425 336.103912 0.338526 0.729854
-113.886230 335.560883 0.000113 0.230669
-110.054253 334.824860 0.000114 0.197410
-107.607857 334.354980 0.000115 0.214548
-105.907524 334.028381 0.000115 0.194394
-104.654800 333.787750 0.000114 0.262180
-116.877640 336.280884 7.124508 0.839216
-116.877640 336.280884 6.418545 0.839216
-116.877647 336.280884 5.722494 0.839216
-116.877647 336.280884 5.034686 0.778302
-116.877647 336.280884 4.353525 0.801587
-116.877647 336.280884 3.677475 0.839216
-116.877640 336.280884 3.005046 0.839216
-116.877640 336.280884 2.334776 0.713069
-116.877640 336.280884 1.665224 0.839216
-116.877640 336.280884 0.994954 0.839216
-116.877640 336.280884 0.322524 0.839216
-113.862930 335.679993 0.000113 0.238950
-110.036179 334.917236 0.000114 0.229795
-107.593124 334.430267 0.000114 0.239932
-105.895119 334.091827 0.000114 0.215972
-104.644104 333.842468 0.000113 0.237897
-117.045074 336.461334 7.174600 0.624704
-117.045067 336.461304 6.461733 0.744564
-117.045067 336.461334 5.758879 0.776471
-117.045059 336.461304 5.064347 0.839216
-117.045059 336.461304 4.376529 0.839216
-117.045059 336.461304 3.693871 0.839216
-117.045059 336.461304 3.014869 0.652171
-117.045059 336.461304 2.338048 0.641306
-117.045059 336.461304 1.661952 0.783475
-117.045059 336.461304 0.985130 0.824811
-117.045059 336.461304 0.306128 0.920821
-113.838799 335.798920 0.000112 0.258733
-110.017456 335.009460 0.000113 0.233732
-107.577873 334.505463 0.000113 0.219371
-105.882263 334.155182 0.000113 0.204423
-104.633018 333.897095 0.000113 0.270390
-117.215805 336.645325 7.225933 0.839216
-117.215805 336.645325 6.505997 0.905882
-117.215797 336.645325 5.796168 0.618524
-117.215797 336.645325 5.094748 0.631937
-117.215797 336.645325 4.400105 0.732555
-117.215790 336.645325 3.710675 0.569207
-117.215790 336.645325 3.024938 0.781918
-117.215797 336.645325 2.341402 0.743038
-117.215797 336.645325 1.658598 0.747219
-117.215790 336.645325 0.975062 0.839216
-117.215790 336.645325 0.289325 0.905882
-113.813835 335.917694 0.000111 0.224361
-109.998100 335.101593 0.000112 0.259655
-107.562088 334.580566 0.000112 0.224469
-105.868965 334.218445 0.000112 0.213842
-104.621552 333.951630 0.000112 0.222830
-117.389969 336.833008 7.278555 0.824796
-117.389961 336.833008 6.551368 0.756313
-117.389961 336.833008 5.834393 0.839216
-117.389954 336.833008 5.125908 0.838499
-117.389954 336.833008 4.424273 0.905882
-117.389954 336.833008 3.727901 0.814954
-117.389954 336.833008 3.035258 0.794003
-117.389954 336.833008 2.344840 0.770047
-117.389954 336.833008 1.655160 0.776257
-117.389954 336.833008 0.964742 0.905882
-117.389954 336.833008 0.272099 0.839216
-113.788048 336.036285 0.000110 0.222267
-109.978104 335.193542 0.000111 0.247974
-107.545784 334.655548 0.000111 0.242325
-105.855232 334.281616 0.000111 0.211209
-104.609711 334.006104 0.000110 0.227389
-117.567680 337.024536 7.332511 0.639719
-117.567673 337.024536 6.597890 0.839216
-117.567673 337.024536 5.873587 0.713649
-117.567673 337.024536 5.157861 0.838621
-117.567665 337.024536 4.449052 0.905882
-117.567673 337.024536 3.745563 0.839216
-117.567665 337.024536 3.045840 0.839216
-117.567665 337.024536 2.348365 0.712612
-117.567665 337.024536 1.651636 0.741100
