# This PCD file was generated using the MATLABÂ® pcwrite function
# from Computer Vision ToolboxÂ®.
# .PCD v.7 - Point Cloud Data file format
VERSION .7
FIELDS x y z intensity
SIZE 4 4 4 4
TYPE F F F F
COUNT 1 1 1 1
WIDTH 1263
HEIGHT 1
VIEWPOINT 0 0 0 1 0 0 0
POINTS 1263
DATA ascii
-86.601921 -94.048492 7.525379 0.401877
-86.826096 -93.450287 6.902163 0.398459
nan nan nan 0.000000
nan nan nan 0.000000
-105.244934 -44.300262 10.649368 1.000000
-87.889793 -90.611847 4.109623 0.398199
-105.244926 -44.300278 5.693614 1.000000
-87.298149 -92.190628 2.393430 0.368353
-87.307381 -92.166000 1.606139 0.382483
-87.269104 -92.268135 0.822930 0.377707
-87.257820 -92.298233 0.038043 0.380285
-84.961792 -98.425117 0.000051 0.242313
-83.592484 -102.079071 0.000046 0.235240
-82.718292 -104.411819 0.000042 0.261450
-82.110687 -106.033173 0.000039 0.215649
-81.663040 -107.227715 0.000037 0.211041
-86.667671 -93.422058 7.678232 0.409171
-87.527740 -91.077301 7.435398 0.409415
-87.153946 -92.096359 6.381657 0.369894
nan nan nan 0.000000
-87.164162 -92.068504 4.773691 0.375387
-87.146042 -92.117897 3.972635 0.371054
-87.118217 -92.193741 3.177919 0.377111
-87.139450 -92.135872 2.393369 0.354971
-87.143761 -92.124115 1.606427 0.376974
-87.099121 -92.245819 0.824805 0.379889
-87.112442 -92.209496 0.035364 0.364981
-84.848000 -98.382912 0.000050 0.226683
-83.504227 -102.046341 0.000044 0.231973
-82.646339 -104.385139 0.000041 0.246993
-82.050079 -106.010696 0.000038 0.192922
-81.610779 -107.208328 0.000036 0.192431
-86.506439 -93.402802 7.668991 0.400305
-86.646614 -93.012245 6.977639 0.399527
nan nan nan 0.000000
nan nan nan 0.000000
-104.060867 -44.491821 10.581767 1.000000
-104.060860 -44.491829 8.116655 1.000000
-104.060860 -44.491829 5.664747 1.000000
-104.060867 -44.491814 3.220709 1.000000
-104.060860 -44.491844 0.779290 1.000000
-92.613419 -76.387245 0.000038 0.227964
-87.100662 -91.747162 0.000058 0.217157
-84.733910 -98.341499 0.000049 0.231770
-83.415749 -102.014221 0.000043 0.230369
-82.574211 -104.358955 0.000039 0.216032
-81.989311 -105.988632 0.000036 0.211245
-81.558380 -107.189316 0.000034 0.246023
-86.404770 -93.215416 7.704705 0.430808
-86.896393 -91.814957 7.239378 0.414343
nan nan nan 0.000000
-87.243164 -90.827133 5.753735 0.400214
-86.352913 -93.363129 4.601980 0.408957
-87.283463 -90.712318 4.084920 0.412039
-103.475700 -44.586472 5.650747 1.000000
-103.475693 -44.586472 3.216045 1.000000
-103.475685 -44.586502 0.783953 1.000000
-92.345573 -76.292191 0.000038 0.232787
-86.940193 -91.690186 0.000057 0.227629
-84.619537 -98.300888 0.000047 0.229735
-83.327049 -101.982727 0.000041 0.230477
-82.501900 -104.333282 0.000038 0.224852
-81.928391 -105.967003 0.000035 0.222854
-81.505852 -107.170662 0.000033 0.263197
-86.413147 -92.701233 7.827068 0.402258
-86.383301 -92.788193 7.004459 0.384009
nan nan nan 0.000000
nan nan nan 0.000000
-86.212761 -93.285065 4.605177 0.402609
-87.011398 -90.958191 4.058558 0.400931
-102.894943 -44.680428 5.637031 1.000000
-102.894943 -44.680435 3.211478 1.000000
-102.894928 -44.680466 0.788522 1.000000
-92.077080 -76.198990 0.000039 0.227018
-86.779335 -91.634323 0.000055 0.219694
-84.504883 -98.261078 0.000046 0.235073
-83.238129 -101.951851 0.000040 0.240398
-82.429413 -104.308105 0.000036 0.267901
-81.867325 -105.945801 0.000034 0.234319
-81.453194 -107.152374 0.000031 0.259080
-86.571335 -91.718987 8.072792 0.374899
-86.511726 -91.896690 7.195708 0.396521
nan nan nan 0.000000
-86.642792 -91.505951 5.629581 0.407065
-86.492249 -91.954742 4.760435 0.389258
-86.798958 -91.040390 4.046578 0.403754
-102.318527 -44.773666 5.623593 1.000000
-102.318520 -44.773682 3.207000 1.000000
-102.318512 -44.773712 0.792999 1.000000
-91.807938 -76.107689 0.000040 0.230764
-86.618095 -91.579590 0.000053 0.219682
-84.389961 -98.222061 0.000044 0.209665
-83.149002 -101.921600 0.000039 0.251540
-82.356750 -104.283447 0.000035 0.204076
-81.806107 -105.925018 0.000032 0.225139
-81.400414 -107.134460 0.000030 0.265531
-86.563667 -91.198853 8.195856 0.388235
-86.092308 -92.637283 7.015374 0.407675
-85.931763 -93.127213 6.131495 0.396826
-86.997391 -89.875267 5.875734 0.406409
-86.826065 -90.398102 4.942499 0.391699
-85.810547 -93.497131 3.829866 0.409888
-101.746307 -44.866249 5.610429 1.000000
-101.746307 -44.866241 3.202616 1.000000
-101.746300 -44.866272 0.797382 1.000000
-91.538162 -76.018250 0.000041 0.228299
-86.456467 -91.525986 0.000052 0.229651
-84.274757 -98.183861 0.000043 0.199217
-83.059662 -101.891968 0.000037 0.223691
-82.283920 -104.259285 0.000034 0.224828
-81.744743 -105.904671 0.000031 0.238460
-81.347504 -107.116913 0.000029 0.256531
-86.353241 -91.289833 8.157935 0.400305
-85.817444 -92.964340 6.929884 0.405722
-85.807343 -92.995918 6.147248 0.399802
-85.849571 -92.863937 5.401513 0.398810
-85.570854 -93.735001 4.532803 0.395209
-85.805229 -93.002510 3.868316 0.406592
-101.178207 -44.958145 5.597536 1.000000
-101.178207 -44.958153 3.198322 1.000000
-101.178192 -44.958183 0.801679 1.000000
-91.267769 -75.930725 0.000042 0.230154
-86.294472 -91.473511 0.000051 0.231135
-84.159302 -98.146454 0.000041 0.231530
-82.970116 -101.862961 0.000036 0.244803
-82.210915 -104.235641 0.000032 0.222877
-81.683243 -105.884750 0.000029 0.206087
-81.294479 -107.099739 0.000028 0.225103
-86.217590 -91.148483 8.181454 0.400397
-85.686127 -92.850273 6.944825 0.403494
-85.441208 -93.634537 6.016370 0.395850
-85.658035 -92.940224 5.382159 0.400977
-86.395439 -90.578979 4.907584 0.397528
-85.511894 -93.408173 3.829351 0.400961
-85.657463 -92.942055 3.120031 0.396078
-100.614120 -45.049393 3.194116 1.000000
-100.614120 -45.049416 0.805884 1.000000
-90.996773 -75.845062 0.000042 0.229520
-86.132118 -91.422173 0.000049 0.231626
-84.043579 -98.109856 0.000039 0.219000
-82.880371 -101.834579 0.000034 0.217767
-82.137756 -104.212502 0.000031 0.224146
-81.621605 -105.865257 0.000028 0.236461
-81.241333 -107.082932 0.000026 0.210371
-86.081032 -91.005554 8.205582 0.398398
-85.773605 -92.014679 7.122848 0.397269
-85.293495 -93.590607 6.016085 0.403800
-86.228172 -90.522583 5.749780 0.391135
-85.293007 -93.592201 4.538955 0.392096
-85.211601 -93.859428 3.786735 0.397116
-85.501228 -92.908737 3.119332 0.398199
-100.053963 -45.140015 3.189998 1.000000
-100.053955 -45.140038 0.810003 1.000000
-90.725189 -75.761322 0.000044 0.230178
-85.969406 -91.371956 0.000048 0.237562
-83.927612 -98.074066 0.000038 0.236880
-82.790428 -101.806824 0.000033 0.220807
-82.064430 -104.189880 0.000029 0.222842
-81.559830 -105.846191 0.000027 0.235875
-81.188072 -107.066498 0.000025 0.239154
-85.969749 -90.772781 8.253387 0.392767
-85.223480 -93.285172 6.825849 0.396902
-85.097855 -93.708099 5.985358 0.396078
-85.640366 -91.881691 5.531602 0.393393
-86.085648 -90.382599 4.918808 0.388418
-85.507614 -92.328598 3.913928 0.398215
-99.497627 -45.230003 5.560438 1.000000
-99.497627 -45.230003 3.185966 1.000000
-99.497620 -45.230026 0.814036 1.000000
-90.453018 -75.679466 0.000045 0.227940
-85.806351 -91.322884 0.000047 0.237119
-83.811386 -98.039093 0.000037 0.232129
-82.700294 -101.779694 0.000031 0.223524
-81.990952 -104.167763 0.000028 0.247986
-81.497925 -105.827560 0.000025 0.226671
-81.134689 -107.050430 0.000023 0.209162
nan nan nan 0.000000
-85.216560 -92.748047 6.936750 0.396948
nan nan nan 0.000000
-85.321335 -92.386078 5.446489 0.404501
-85.389694 -92.149895 4.701182 0.408865
-85.668587 -91.186394 4.007513 0.399069
-98.945015 -45.319397 5.548582 1.000000
-98.945015 -45.319405 3.182015 1.000000
-98.945007 -45.319420 0.817984 1.000000
-90.180290 -75.599503 0.000046 0.232212
-85.642952 -91.274948 0.000045 0.243486
-83.694931 -98.004929 0.000035 0.263820
-82.609970 -101.753204 0.000030 0.227916
-81.917320 -104.146164 0.000026 0.224314
-81.435898 -105.809364 0.000024 0.258649
-81.081207 -107.034737 0.000022 0.207954
-85.250137 -92.040825 7.898155 0.398657
-85.007813 -92.900421 6.892723 0.390951
-85.015785 -92.872139 6.127320 0.373800
-85.192268 -92.246086 5.461198 0.403357
-90.534676 -73.294922 6.949432 0.405722
-85.436966 -91.378067 3.987185 0.403326
-85.498932 -91.158264 3.201824 0.396719
-98.396057 -45.408188 3.178152 1.000000
-98.396049 -45.408218 0.821848 1.000000
-89.907013 -75.521454 0.000047 0.226695
-85.479233 -91.228157 0.000043 0.233278
-83.578232 -97.971581 0.000034 0.220424
-82.519470 -101.727341 0.000029 0.234618
-81.843536 -104.125076 0.000025 0.252139
-81.373741 -105.791603 0.000022 0.250715
-81.027611 -107.019424 0.000021 0.201958
nan nan nan 0.000000
-84.834763 -92.933403 6.875844 0.406821
-85.454147 -90.676033 6.533676 0.398535
-84.984756 -92.386765 5.432844 0.410620
-90.101677 -73.737877 6.886987 0.414527
-85.346313 -91.069031 4.009606 0.366873
-97.850632 -45.496429 5.525624 1.000000
-97.850639 -45.496422 3.174368 1.000000
-97.850632 -45.496452 0.825632 1.000000
-89.633194 -75.445305 0.000047 0.231147
-85.315178 -91.182510 0.000042 0.244108
-83.461304 -97.939041 0.000032 0.247148
-82.428787 -101.702110 0.000027 0.244444
-81.769608 -104.104507 0.000023 0.231159
-81.311455 -105.774269 0.000021 0.261522
-80.973907 -107.004486 0.000019 0.224972
nan nan nan 0.000000
-84.668434 -92.945435 6.863950 0.413565
-85.195541 -90.970421 6.469678 0.426825
-84.780357 -92.526047 5.404979 0.404517
-85.625626 -89.358955 5.017801 0.405310
-89.958862 -73.122894 5.528818 0.403708
-85.138245 -91.185097 3.195865 0.404242
-97.308685 -45.584106 3.170666 1.000000
-97.308678 -45.584122 0.829334 1.000000
-89.358849 -75.371063 0.000048 0.228335
-85.150818 -91.138008 0.000040 0.230298
-83.344154 -97.907318 0.000031 0.222159
-82.337929 -101.677505 0.000026 0.249422
-81.695541 -104.084450 0.000022 0.214404
-81.249054 -105.757378 0.000020 0.198319
-80.920105 -106.989914 0.000018 0.269504
nan nan nan 0.000000
-84.725868 -92.097939 7.044123 0.397696
-85.034241 -90.909264 6.472971 0.407645
-85.106125 -90.632172 5.688959 0.408286
-89.522835 -73.607162 6.884346 0.414237
-89.638878 -73.159836 5.519211 0.393301
-96.770111 -45.671211 5.503639 1.000000
-96.770111 -45.671234 3.167046 1.000000
-96.770103 -45.671249 0.832955 1.000000
-89.083992 -75.298752 0.000049 0.229520
-84.986145 -91.094658 0.000039 0.225941
-83.226784 -97.876427 0.000029 0.248465
-82.246902 -101.653542 0.000025 0.226468
-81.621338 -104.064919 0.000021 0.251277
-81.186539 -105.740921 0.000018 0.214153
-80.866196 -106.975723 0.000016 0.260169
nan nan nan 0.000000
-84.724609 -91.435669 7.182635 0.408148
nan nan nan 0.000000
-84.876648 -90.832314 5.651764 0.407172
-85.240807 -89.387161 5.003544 0.413672
-84.802765 -91.125519 3.993784 0.406348
-89.374588 -72.982407 4.113735 0.402487
-96.234840 -45.757820 3.163502 1.000000
-96.234833 -45.757835 0.836497 1.000000
-88.808640 -75.228371 0.000050 0.230980
-84.821175 -91.052444 0.000037 0.233254
-83.109200 -97.846344 0.000028 0.231159
-82.155716 -101.630219 0.000023 0.227988
-81.546997 -104.045898 0.000019 0.213806
-81.123909 -105.724899 0.000017 0.246119
-80.812195 -106.961906 0.000015 0.197613
nan nan nan 0.000000
nan nan nan 0.000000
nan nan nan 0.000000
-89.028381 -73.133614 8.348175 0.389532
-85.005089 -89.583733 4.975061 0.393744
-89.000885 -73.246033 5.499575 0.408560
-89.091743 -72.874542 4.115531 0.409934
-95.702774 -45.843880 3.160039 1.000000
-95.702774 -45.843903 0.839963 1.000000
-88.532799 -75.159897 0.000051 0.228263
-84.655914 -91.011406 0.000036 0.228861
-82.991409 -97.817085 0.000026 0.231375
-82.064362 -101.607529 0.000021 0.228095
-81.472519 -104.027405 0.000018 0.211388
-81.061165 -105.709312 0.000015 0.218078
-80.758095 -106.948471 0.000014 0.246287
nan nan nan 0.000000
-84.271545 -91.894104 7.063208 0.397818
nan nan nan 0.000000
-88.813255 -72.746025 8.396597 0.391531
-88.468864 -74.197983 6.789160 0.405142
-84.498283 -90.938141 4.002777 0.401846
-88.868141 -72.514610 4.130148 0.413352
-95.173843 -45.929459 3.156648 1.000000
-95.173843 -45.929474 0.843350 1.000000
-88.256493 -75.093361 0.000051 0.229950
-84.490372 -90.971504 0.000034 0.235743
-82.873421 -97.788658 0.000025 0.216714
-81.972855 -101.585472 0.000020 0.239381
-81.397919 -104.009422 0.000016 0.239441
-80.998322 -105.694168 0.000014 0.194119
-80.703911 -106.935410 0.000012 0.272748
nan nan nan 0.000000
nan nan nan 0.000000
-88.815521 -71.392136 10.086369 0.405692
-88.425797 -73.087860 8.334150 0.407660
-88.167732 -74.210701 6.779855 0.407645
-88.249237 -73.856094 5.436679 0.408377
-88.680031 -71.981644 4.153543 0.374685
-94.647980 -46.014519 3.153337 1.000000
-94.647972 -46.014534 0.846663 1.000000
-87.979721 -75.028755 0.000052 0.226025
-84.324554 -90.932770 0.000033 0.229615
-82.755234 -97.761040 0.000023 0.213638
-81.881195 -101.564056 0.000018 0.209438
-81.323196 -103.991966 0.000015 0.233026
-80.935364 -105.679459 0.000013 0.242086
-80.649628 -106.922729 0.000011 0.231566
nan nan nan 0.000000
nan nan nan 0.000000
-88.175697 -72.839325 9.803846 0.397574
-88.389099 -71.880165 8.507681 0.413886
-88.539474 -71.204269 7.126634 0.418128
-94.125092 -46.099106 7.762850 1.000000
-94.125092 -46.099106 5.452765 1.000000
-94.125084 -46.099113 3.150099 1.000000
-94.125084 -46.099136 0.849901 1.000000
-87.702515 -74.966087 0.000053 0.231913
-84.158470 -90.895187 0.000031 0.237406
-82.636856 -97.734253 0.000022 0.250260
-81.789391 -101.543289 0.000017 0.210862
-81.248352 -103.975029 0.000013 0.197745
-80.872314 -105.665192 0.000011 0.240769
-80.595261 -106.910431 0.000010 0.243977
nan nan nan 0.000000
nan nan nan 0.000000
-87.843544 -72.959602 9.769548 0.402213
nan nan nan 0.000000
-88.066391 -71.923920 7.034124 0.375021
-88.042465 -72.035110 5.578748 0.377981
-88.133347 -71.612762 4.165401 0.375158
-88.077347 -71.873024 2.716929 0.373144
-88.058357 -71.961273 1.284549 0.374289
-87.424873 -74.905342 0.000054 0.228574
-83.992126 -90.858772 0.000030 0.238962
-82.518295 -97.708298 0.000020 0.236449
-81.697441 -101.523155 0.000015 0.242301
-81.173393 -103.958618 0.000012 0.209102
-80.809158 -105.651367 0.000010 0.241966
-80.540810 -106.898506 0.000008 0.198499
nan nan nan 0.000000
nan nan nan 0.000000
-87.642929 -72.459984 9.850934 0.407675
-87.422470 -73.520493 8.239637 0.394903
-87.754356 -71.923950 7.026693 0.406470
-88.035248 -70.572739 5.695938 0.401617
-93.087929 -46.266891 5.433988 1.000000
-93.087929 -46.266891 3.143844 1.000000
-93.087929 -46.266899 0.856155 1.000000
-87.146812 -74.846542 0.000055 0.230728
-83.825531 -90.823509 0.000028 0.238867
-82.399551 -97.683174 0.000019 0.236736
-81.605354 -101.503662 0.000014 0.211604
-81.098320 -103.942734 0.000010 0.204710
-80.745911 -105.637985 0.000008 0.193700
-80.486275 -106.886971 0.000007 0.257788
nan nan nan 0.000000
nan nan nan 0.000000
-87.335526 -72.460861 9.839586 0.389975
-87.192673 -73.172981 8.283322 0.405631
-87.346298 -72.407166 6.962833 0.419776
-87.299889 -72.638527 5.517912 0.404517
-87.731834 -70.485321 4.215617 0.394385
-92.573517 -46.350090 3.140828 1.000000
-92.573517 -46.350113 0.859174 1.000000
-86.868347 -74.789688 0.000056 0.230692
-83.658699 -90.789421 0.000027 0.243642
-82.280640 -97.658867 0.000017 0.223715
-81.513130 -101.484818 0.000013 0.241811
-81.023140 -103.927368 0.000009 0.234032
-80.682571 -105.625038 0.000007 0.238723
-80.431664 -106.875809 0.000005 0.220795
nan nan nan 0.000000
nan nan nan 0.000000
nan nan nan 0.000000
-87.034645 -72.432571 8.386551 0.400809
-92.061798 -46.432877 9.999459 1.000000
-87.178406 -71.689026 5.592374 0.408240
-92.061798 -46.432869 5.416077 1.000000
-92.061798 -46.432877 3.137878 1.000000
-92.061798 -46.432899 0.862121 1.000000
-86.589500 -74.734772 0.000056 0.228431
-83.491631 -90.756485 0.000025 0.236377
-82.161560 -97.635406 0.000016 0.215733
-81.420776 -101.466621 0.000011 0.231423
-80.947853 -103.912529 0.000008 0.229615
-80.619148 -105.612541 0.000005 0.198990
-80.376976 -106.865028 0.000004 0.225223
nan nan nan 0.000000
nan nan nan 0.000000
nan nan nan 0.000000
-86.648300 -72.865623 8.312756 0.392874
-91.552689 -46.515221 9.979233 1.000000
-87.210571 -69.844635 5.741447 0.398947
-86.809937 -71.997177 4.134095 0.396109
-91.552681 -46.515236 3.135002 1.000000
-91.552681 -46.515259 0.864998 1.000000
-86.310272 -74.681793 0.000057 0.229711
-83.324333 -90.724739 0.000024 0.240111
-82.042320 -97.612762 0.000014 0.231363
-81.328300 -101.449066 0.000010 0.215912
-80.872459 -103.898224 0.000006 0.242385
-80.555634 -105.600487 0.000004 0.243402
-80.322212 -106.854630 0.000002 0.277152
nan nan nan 0.000000
nan nan nan 0.000000
nan nan nan 0.000000
-86.664177 -71.089890 8.572304 0.403784
-91.046112 -46.597176 9.959494 1.000000
-86.340096 -72.901337 5.482069 0.394736
-91.046120 -46.597168 5.399013 1.000000
-91.046112 -46.597183 3.132194 1.000000
-91.046112 -46.597206 0.867806 1.000000
-86.030685 -74.630783 0.000058 0.226516
-83.156822 -90.694145 0.000022 0.236102
-81.922928 -97.590958 0.000013 0.222818
-81.235710 -101.432152 0.000008 0.261833
-80.796974 -103.884430 0.000005 0.250224
-80.492035 -105.588867 0.000003 0.245952
-80.267372 -106.844620 0.000001 0.224673
nan nan nan 0.000000
nan nan nan 0.000000
nan nan nan 0.000000
nan nan nan 0.000000
-86.032440 -72.941200 6.874768 0.400656
-86.122231 -72.418259 5.517999 0.399832
-85.960724 -73.358856 4.060897 0.413352
-90.542015 -46.678726 3.129456 1.000000
-90.542015 -46.678741 0.870545 1.000000
-85.750732 -74.581741 0.000059 0.232368
-82.989098 -90.664726 0.000021 0.228969
-81.803383 -97.569992 0.000012 0.223045
-81.142990 -101.415894 0.000007 0.235444
-80.721390 -103.871178 0.000003 0.224146
-80.428360 -105.577698 0.000001 0.210754
-80.212471 -106.834991 -0.000000 0.184891
nan nan nan 0.000000
nan nan nan 0.000000
nan nan nan 0.000000
nan nan nan 0.000000
-86.032715 -71.117401 7.081684 0.401572
-86.045715 -71.038391 5.628536 0.402060
-90.040337 -46.759880 5.382770 1.000000
-90.040337 -46.759880 3.126786 1.000000
-90.040337 -46.759895 0.873215 1.000000
-85.470459 -74.534653 0.000060 0.226073
-82.821175 -90.636475 0.000019 0.234127
-81.683693 -97.549850 0.000010 0.234905
-81.050171 -101.400276 0.000005 0.212250
-80.645721 -103.858452 0.000002 0.235707
-80.364609 -105.566971 -0.000000 0.230022
-80.157501 -106.825745 -0.000002 0.227952
nan nan nan 0.000000
nan nan nan 0.000000
nan nan nan 0.000000
nan nan nan 0.000000
-85.577538 -72.026062 6.970158 0.404074
-89.540985 -46.840660 7.632978 1.000000
-89.540985 -46.840660 5.374954 1.000000
-89.540985 -46.840660 3.124181 1.000000
-89.540985 -46.840668 0.875818 1.000000
-85.189865 -74.489487 0.000060 0.232655
-82.653061 -90.609390 0.000018 0.222291
-81.563866 -97.530556 0.000008 0.202353
-80.957237 -101.385307 0.000004 0.226324
-80.569962 -103.846245 0.000000 0.227090
-80.300781 -105.556694 -0.000002 0.229304
-80.102470 -106.816879 -0.000003 0.204028
nan nan nan 0.000000
nan nan nan 0.000000
nan nan nan 0.000000
nan nan nan 0.000000
-85.372086 -71.363373 7.041914 0.415915
-89.043922 -46.921074 7.620267 1.000000
-85.487190 -70.597191 4.191155 0.411872
-89.043922 -46.921066 3.121645 1.000000
-89.043922 -46.921074 0.878356 1.000000
-84.908958 -74.446320 0.000062 0.229879
-82.484756 -90.583496 0.000017 0.234881
-81.443909 -97.512093 0.000007 0.213100
-80.864204 -101.370987 0.000002 0.229544
-80.494118 -103.834572 -0.000001 0.236042
-80.236893 -105.546860 -0.000003 0.202843
-80.047379 -106.808403 -0.000005 0.219036
nan nan nan 0.000000
nan nan nan 0.000000
nan nan nan 0.000000
nan nan nan 0.000000
-85.013687 -71.708023 6.996702 0.399481
-88.549072 -47.001122 7.607885 1.000000
-88.549065 -47.001129 5.359921 1.000000
-88.549065 -47.001137 3.119174 1.000000
-88.549065 -47.001137 0.880827 1.000000
-84.627754 -74.405075 0.000062 0.231973
-82.316277 -90.558769 0.000015 0.229149
-81.323822 -97.494469 0.000006 0.227892
-80.771080 -101.357323 0.000001 0.228622
-80.418190 -103.823433 -0.000002 0.230094
-80.172928 -105.537476 -0.000004 0.256950
-79.992226 -106.800308 -0.000006 0.206122
nan nan nan 0.000000
nan nan nan 0.000000
nan nan nan 0.000000
nan nan nan 0.000000
-88.056366 -47.080826 9.851042 1.000000
-88.056366 -47.080826 7.595831 1.000000
-88.056366 -47.080833 5.352698 1.000000
-88.056374 -47.080826 3.116767 1.000000
-88.056366 -47.080841 0.883233 1.000000
-84.346275 -74.365799 0.000062 0.231195
-82.147629 -90.535225 0.000014 0.232763
-81.203621 -97.477684 0.000004 0.249279
-80.677856 -101.344299 -0.000001 0.225834
-80.342194 -103.812820 -0.000004 0.210096
-80.108902 -105.528534 -0.000006 0.244300
-79.937019 -106.792603 -0.000007 0.241380
nan nan nan 0.000000
nan nan nan 0.000000
nan nan nan 0.000000
nan nan nan 0.000000
-87.565758 -47.160187 9.834579 1.000000
-87.565758 -47.160194 7.584098 1.000000
-87.565758 -47.160187 5.345667 1.000000
-87.565758 -47.160210 3.114425 1.000000
-87.565758 -47.160202 0.885575 1.000000
-84.064522 -74.328522 0.000063 0.225463
-81.978821 -90.512848 0.000012 0.231423
-81.083298 -97.461739 0.000003 0.207176
-80.584541 -101.331940 -0.000002 0.211197
-80.266121 -103.802734 -0.000005 0.198056
-80.044807 -105.520042 -0.000007 0.205548
-79.881760 -106.785278 -0.000008 0.203525
nan nan nan 0.000000
nan nan nan 0.000000
nan nan nan 0.000000
nan nan nan 0.000000
-87.077179 -47.239243 9.818567 1.000000
-87.077179 -47.239227 7.572686 1.000000
-87.077179 -47.239235 5.338829 1.000000
-87.077179 -47.239243 3.112148 1.000000
-87.077179 -47.239243 0.887851 1.000000
-83.782524 -74.293182 0.000063 0.230465
-81.809860 -90.491653 0.000010 0.237406
-80.962875 -97.446640 0.000002 0.237502
-80.491142 -101.320221 -0.000004 0.233672
-80.189987 -103.793190 -0.000006 0.194382
-79.980667 -105.511993 -0.000008 0.225953
-79.826447 -106.778343 -0.000010 0.261486
nan nan nan 0.000000
nan nan nan 0.000000
nan nan nan 0.000000
nan nan nan 0.000000
-86.590569 -47.317955 9.802999 1.000000
-86.590569 -47.317940 7.561591 1.000000
-86.590569 -47.317947 5.332181 1.000000
-86.590569 -47.317955 3.109933 1.000000
-86.590569 -47.317955 0.890066 1.000000
-83.500282 -74.259827 0.000064 0.230501
-81.640755 -90.471634 0.000009 0.222135
-80.842346 -97.432373 0.000000 0.220735
-80.397667 -101.309158 -0.000005 0.225522
-80.113777 -103.784172 -0.000008 0.245916
-79.916466 -105.504402 -0.000010 0.224302
-79.771095 -106.771790 -0.000011 0.204555
nan nan nan 0.000000
nan nan nan 0.000000
nan nan nan 0.000000
nan nan nan 0.000000
-86.105873 -47.396347 9.787876 1.000000
-86.105865 -47.396355 7.550811 1.000000
-86.105873 -47.396347 5.325724 1.000000
-86.105865 -47.396370 3.107783 1.000000
-86.105865 -47.396362 0.892217 1.000000
-83.217812 -74.228439 0.000065 0.233313
-81.471512 -90.452805 0.000007 0.234032
-80.721718 -97.418945 -0.000001 0.262994
-80.304115 -101.298752 -0.000006 0.222650
-80.037514 -103.775681 -0.000009 0.198068
-79.852211 -105.497246 -0.000011 0.212238
-79.715691 -106.765625 -0.000013 0.227306
nan nan nan 0.000000
nan nan nan 0.000000
nan nan nan 0.000000
nan nan nan 0.000000
-85.623032 -47.474449 9.773188 1.000000
-85.623024 -47.474464 7.540341 1.000000
-85.623024 -47.474464 5.319450 1.000000
-85.623024 -47.474480 3.105692 1.000000
-85.623024 -47.474480 0.894307 1.000000
-82.935135 -74.199028 0.000065 0.230657
-81.302147 -90.435158 0.000006 0.227066
-80.600998 -97.406372 -0.000003 0.220951
-80.210495 -101.288994 -0.000007 0.234833
-79.961189 -103.767731 -0.000010 0.254903
-79.787910 -105.490547 -0.000013 0.224996
-79.660248 -106.759850 -0.000014 0.240614
nan nan nan 0.000000
nan nan nan 0.000000
nan nan nan 0.000000
-85.141968 -47.552284 12.004527 1.000000
-85.141968 -47.552284 9.758928 1.000000
-85.141968 -47.552284 7.530177 1.000000
-85.141968 -47.552284 5.313363 1.000000
-85.141968 -47.552284 3.103665 1.000000
-85.141968 -47.552284 0.896334 1.000000
-82.652260 -74.171600 0.000067 0.230872
-81.132660 -90.418686 0.000005 0.237670
-80.480194 -97.394630 -0.000004 0.242409
-80.116806 -101.279892 -0.000009 0.239513
-79.884811 -103.760307 -0.000012 0.194155
-79.723572 -105.484299 -0.000014 0.204232
-79.604767 -106.754456 -0.000015 0.188602
nan nan nan 0.000000
nan nan nan 0.000000
nan nan nan 0.000000
nan nan nan 0.000000
-84.662651 -47.629814 9.745103 1.000000
-84.662651 -47.629829 7.520323 1.000000
-84.662651 -47.629829 5.307457 1.000000
-84.662651 -47.629837 3.101700 1.000000
-84.662651 -47.629837 0.898302 1.000000
-82.369194 -74.146133 0.000067 0.229807
-80.963058 -90.403412 0.000003 0.235180
-80.359314 -97.383743 -0.000005 0.216810
-80.023056 -101.271446 -0.000010 0.207642
-79.808388 -103.753426 -0.000013 0.244827
-79.659180 -105.478500 -0.000015 0.205668
-79.549255 -106.749458 -0.000016 0.242816
nan nan nan 0.000000
nan nan nan 0.000000
nan nan nan 0.000000
-84.185028 -47.707085 11.969420 1.000000
-84.185020 -47.707092 9.731700 1.000000
-84.185020 -47.707092 7.510771 1.000000
-84.185028 -47.707077 5.301736 1.000000
-84.185020 -47.707100 3.099791 1.000000
-84.185020 -47.707100 0.900209 1.000000
-82.085960 -74.122650 0.000068 0.221382
-80.793365 -90.389305 0.000001 0.228849
-80.238365 -97.373688 -0.000007 0.237000
-79.929253 -101.263649 -0.000012 0.221812
-79.731911 -103.747070 -0.000015 0.234678
-79.594757 -105.473145 -0.000017 0.198080
-79.493698 -106.744843 -0.000017 0.268906
nan nan nan 0.000000
nan nan nan 0.000000
nan nan nan 0.000000
-83.709015 -47.784088 11.952682 1.000000
-83.709015 -47.784096 9.718718 1.000000
-83.709015 -47.784081 7.501519 1.000000
-83.709015 -47.784088 5.296191 1.000000
-83.709015 -47.784111 3.097944 1.000000
-83.709015 -47.784111 0.902054 1.000000
-81.802574 -74.101135 0.000069 0.230178
-80.623566 -90.376389 0.000000 0.231267
-80.117340 -97.364487 -0.000008 0.234570
-79.835396 -101.256516 -0.000013 0.222842
-79.655396 -103.741249 -0.000016 0.230453
-79.530296 -105.468239 -0.000018 0.218641
-79.438118 -106.740616 -0.000019 0.199935
nan nan nan 0.000000
nan nan nan 0.000000
nan nan nan 0.000000
-83.234573 -47.860840 11.936484 1.000000
-83.234573 -47.860832 9.706158 1.000000
-83.234573 -47.860855 7.492563 1.000000
-83.234573 -47.860847 5.290825 1.000000
-83.234573 -47.860847 3.096158 1.000000
-83.234573 -47.860847 0.903842 1.000000
-81.519035 -74.081612 0.000070 0.226384
-80.453682 -90.364662 -0.000001 0.234821
-79.996254 -97.356125 -0.000010 0.232428
-79.741493 -101.250031 -0.000015 0.207307
-79.578842 -103.735970 -0.000017 0.258841
-79.465797 -105.463791 -0.000019 0.256280
-79.382507 -106.736778 -0.000020 0.181900
nan nan nan 0.000000
nan nan nan 0.000000
nan nan nan 0.000000
-82.761665 -47.937340 11.920822 1.000000
-82.761665 -47.937332 9.694013 1.000000
-82.761665 -47.937332 7.483911 1.000000
-82.761665 -47.937347 5.285640 1.000000
-82.761665 -47.937355 3.094432 1.000000
-82.761665 -47.937355 0.905568 1.000000
-81.235374 -74.064064 0.000071 0.230070
-80.283730 -90.354118 -0.000003 0.223248
-79.875114 -97.348618 -0.000011 0.230345
-79.647545 -101.244209 -0.000015 0.228095
-79.502251 -103.731216 -0.000019 0.200055
-79.401276 -105.459793 -0.000020 0.216786
-79.326874 -106.733322 -0.000021 0.209773
nan nan nan 0.000000
nan nan nan 0.000000
nan nan nan 0.000000
-82.290207 -48.013611 11.905691 1.000000
-82.290207 -48.013603 9.682280 1.000000
-82.290207 -48.013603 7.475545 1.000000
-82.290207 -48.013603 5.280629 1.000000
-82.290207 -48.013618 3.092762 1.000000
-82.290207 -48.013618 0.907238 1.000000
-80.951591 -74.048492 0.000071 0.231674
-80.113693 -90.344765 -0.000004 0.227593
-79.753929 -97.341949 -0.000012 0.235898
-79.553551 -101.239037 -0.000017 0.222782
-79.425629 -103.727005 -0.000020 0.208337
-79.336723 -105.456238 -0.000022 0.209450
-79.271217 -106.730263 -0.000023 0.186615
nan nan nan 0.000000
nan nan nan 0.000000
nan nan nan 0.000000
-81.820168 -48.089638 11.891091 1.000000
-81.820175 -48.089638 9.670952 1.000000
-81.820175 -48.089638 7.467472 1.000000
-81.820175 -48.089653 5.275792 1.000000
-81.820168 -48.089645 3.091150 1.000000
-81.820168 -48.089653 0.908849 1.000000
-80.667709 -74.034912 0.000072 0.232595
-79.943604 -90.336601 -0.000005 0.235420
-79.632698 -97.336128 -0.000014 0.244803
-79.459534 -101.234520 -0.000019 0.239154
-79.348984 -103.723320 -0.000021 0.196608
-79.272148 -105.453140 -0.000023 0.220257
-79.215538 -106.727592 -0.000024 0.215733
nan nan nan 0.000000
nan nan nan 0.000000
nan nan nan 0.000000
-81.351501 -48.165443 11.877012 1.000000
-81.351501 -48.165443 9.660036 1.000000
-81.351501 -48.165451 7.459691 1.000000
-81.351501 -48.165466 5.271130 1.000000
-81.351501 -48.165466 3.089598 1.000000
-81.351501 -48.165466 0.910402 1.000000
-80.383743 -74.023300 0.000073 0.228802
-79.773468 -90.329613 -0.000007 0.229950
-79.511429 -97.331154 -0.000015 0.222698
-79.365486 -101.230659 -0.000020 0.231686
-79.272308 -103.720177 -0.000022 0.203525
-79.207550 -105.450485 -0.000025 0.295642
-79.159843 -106.725304 -0.000026 0.212717
nan nan nan 0.000000
nan nan nan 0.000000
nan nan nan 0.000000
-80.884132 -48.241058 11.863448 1.000000
-80.884132 -48.241043 9.649517 1.000000
-80.884132 -48.241051 7.452197 1.000000
-80.884132 -48.241051 5.266641 1.000000
-80.884132 -48.241058 3.088101 1.000000
-80.884132 -48.241058 0.911897 1.000000
-80.099701 -74.013687 0.000074 0.226647
-79.603279 -90.323822 -0.000009 0.219682
-79.390129 -97.327026 -0.000017 0.215984
-79.271408 -101.227463 -0.000021 0.203083
-79.195618 -103.717567 -0.000024 0.247148
-79.142944 -105.448296 -0.000026 0.282645
-79.104134 -106.723412 -0.000026 0.193042
nan nan nan 0.000000
nan nan nan 0.000000
nan nan nan 0.000000
-80.418022 -48.316460 11.850407 1.000000
-80.418022 -48.316452 9.639402 1.000000
-80.418022 -48.316467 7.444984 1.000000
-80.418022 -48.316460 5.262320 1.000000
-80.418022 -48.316467 3.086663 1.000000
-80.418022 -48.316467 0.913337 1.000000
-79.815598 -74.006042 0.000075 0.233050
-79.433052 -90.319221 -0.000010 0.232500
-79.268799 -97.323746 -0.000018 0.210754
-79.177315 -101.224915 -0.000022 0.255622
-79.118912 -103.715492 -0.000025 0.224864
-79.078316 -105.446541 -0.000027 0.190612
-79.048409 -106.721909 -0.000028 0.214584
nan nan nan 0.000000
nan nan nan 0.000000
nan nan nan 0.000000
-79.953133 -48.391663 11.837881 1.000000
-79.953133 -48.391663 9.629684 1.000000
-79.953133 -48.391670 7.438061 1.000000
-79.953133 -48.391663 5.258171 1.000000
-79.953133 -48.391663 3.085280 1.000000
-79.953133 -48.391663 0.914718 1.000000
-79.531456 -74.000381 0.000075 0.225271
-79.262802 -90.315804 -0.000011 0.222112
-79.147453 -97.321312 -0.000020 0.229663
-79.083206 -101.223030 -0.000024 0.242589
-79.042191 -103.713959 -0.000026 0.222243
-79.013680 -105.445251 -0.000028 0.257860
-78.992676 -106.720787 -0.000029 0.207630
nan nan nan 0.000000
nan nan nan 0.000000
nan nan nan 0.000000
-79.489388 -48.466682 11.825858 1.000000
-79.489388 -48.466690 9.620363 1.000000
-79.489388 -48.466690 7.431415 1.000000
-79.489388 -48.466682 5.254189 1.000000
-79.489388 -48.466698 3.083955 1.000000
-79.489388 -48.466698 0.916045 1.000000
-79.247269 -73.996719 0.000076 0.231590
-79.092529 -90.313583 -0.000013 0.218892
-79.026085 -97.319725 -0.000021 0.216391
-78.989082 -101.221802 -0.000025 0.232476
-78.965454 -103.712952 -0.000028 0.251014
-78.949036 -105.444405 -0.000029 0.236772
-78.936943 -106.720062 -0.000030 0.202460
nan nan nan 0.000000
nan nan nan 0.000000
nan nan nan 0.000000
-79.026749 -48.541512 11.814349 1.000000
-79.026749 -48.541519 9.611435 1.000000
-79.026749 -48.541512 7.425052 1.000000
-79.026749 -48.541519 5.250378 1.000000
-79.026749 -48.541534 3.082684 1.000000
-79.026749 -48.541534 0.917315 1.000000
-78.963074 -73.995018 0.000077 0.229950
-78.922249 -90.312546 -0.000014 0.230441
-78.904716 -97.318985 -0.000022 0.219718
-78.894951 -101.221230 -0.000026 0.216906
-78.888718 -103.712486 -0.000029 0.203430
-78.884392 -105.444008 -0.000031 0.219574
-78.881195 -106.719719 -0.000031 0.251660
nan nan nan 0.000000
nan nan nan 0.000000
nan nan nan 0.000000
-78.565178 -48.616188 11.803338 1.000000
-78.565178 -48.616180 9.602899 1.000000
-78.565178 -48.616188 7.418968 1.000000
-78.565178 -48.616188 5.246732 1.000000
-78.565178 -48.616211 3.081471 1.000000
-78.565178 -48.616211 0.918529 1.000000
-78.678864 -73.995316 0.000077 0.234558
-78.751961 -90.312698 -0.000015 0.224122
-78.783348 -97.319092 -0.000023 0.217037
-78.800827 -101.221313 -0.000028 0.207966
-78.811981 -103.712555 -0.000030 0.235432
-78.819740 -105.444069 -0.000032 0.200797
-78.825455 -106.719772 -0.000032 0.229915
nan nan nan 0.000000
nan nan nan 0.000000
nan nan nan 0.000000
-78.104622 -48.690697 11.792831 1.000000
-78.104622 -48.690689 9.594748 1.000000
-78.104622 -48.690697 7.413158 1.000000
-78.104622 -48.690704 5.243252 1.000000
-78.104622 -48.690697 3.080312 1.000000
-78.104622 -48.690697 0.919688 1.000000
-78.394669 -73.997604 0.000078 0.229795
-78.581680 -90.314041 -0.000016 0.214907
-78.661980 -97.320053 -0.000025 0.221513
-78.706696 -101.222054 -0.000029 0.228993
-78.735252 -103.713165 -0.000031 0.230262
-78.755096 -105.444580 -0.000033 0.246993
-78.769714 -106.720207 -0.000034 0.190241
nan nan nan 0.000000
nan nan nan 0.000000
nan nan nan 0.000000
-77.645035 -48.765053 11.782824 1.000000
-77.645035 -48.765038 9.586988 1.000000
-77.645035 -48.765053 7.407628 1.000000
-77.645035 -48.765038 5.239937 1.000000
-77.645035 -48.765053 3.079206 1.000000
-77.645035 -48.765053 0.920792 1.000000
-78.110504 -74.001862 0.000079 0.225594
-78.411415 -90.316574 -0.000018 0.228706
-78.540619 -97.321854 -0.000026 0.209809
-78.612579 -101.223450 -0.000031 0.200318
-78.658524 -103.714302 -0.000033 0.223296
-78.690453 -105.445541 -0.000034 0.215876
-78.713982 -106.721039 -0.000035 0.209306
nan nan nan 0.000000
nan nan nan 0.000000
nan nan nan 0.000000
-77.186348 -48.839249 11.773312 1.000000
-77.186348 -48.839241 9.579611 1.000000
-77.892365 -76.603729 5.125076 0.388800
-77.186348 -48.839241 5.236786 1.000000
-77.186348 -48.839241 3.078158 1.000000
-77.186348 -48.839241 0.921842 1.000000
-77.826363 -74.008102 0.000079 0.233098
-78.241165 -90.320297 -0.000019 0.229663
-78.419273 -97.324509 -0.000027 0.227593
-78.518471 -101.225510 -0.000032 0.240757
-78.581802 -103.715973 -0.000034 0.226228
-78.625816 -105.446953 -0.000036 0.260397
-78.658249 -106.722260 -0.000036 0.213387
nan nan nan 0.000000
nan nan nan 0.000000
nan nan nan 0.000000
-76.728539 -48.913300 11.764294 1.000000
-77.660141 -77.652191 6.264736 0.403021
-76.728539 -48.913292 7.397386 1.000000
-76.728539 -48.913307 5.233799 1.000000
-76.728539 -48.913300 3.077163 1.000000
-76.728539 -48.913300 0.922837 1.000000
-77.542282 -74.016350 0.000080 0.224254
-78.070946 -90.325195 -0.000020 0.222806
-78.297951 -97.328003 -0.000028 0.229232
-78.424385 -101.228218 -0.000033 0.206529
-78.505096 -103.718193 -0.000035 0.192850
-78.561195 -105.448814 -0.000037 0.208396
-78.602531 -106.723862 -0.000037 0.183228
nan nan nan 0.000000
nan nan nan 0.000000
nan nan nan 0.000000
-76.271545 -48.987221 11.755771 1.000000
-77.389122 -77.347511 6.300884 0.402029
-77.357796 -76.552505 5.130694 0.421744
-76.271545 -48.987228 5.230976 1.000000
-76.271545 -48.987236 3.076223 1.000000
-76.271545 -48.987236 0.923777 1.000000
-77.258255 -74.026550 0.000081 0.229208
-77.900772 -90.331291 -0.000022 0.226312
-78.176659 -97.332352 -0.000029 0.202580
-78.330315 -101.231590 -0.000034 0.223500
-78.428406 -103.720940 -0.000036 0.203837
-78.496590 -105.451126 -0.000038 0.240255
-78.546822 -106.725861 -0.000038 0.208289
nan nan nan 0.000000
nan nan nan 0.000000
nan nan nan 0.000000
-75.815338 -49.061012 11.747733 1.000000
-77.145676 -77.731705 6.257927 0.367300
-77.140251 -77.614922 5.044425 0.397528
-75.815338 -49.061012 5.228315 1.000000
-75.815338 -49.061028 3.075335 1.000000
-75.815338 -49.061028 0.924664 1.000000
-76.974319 -74.038742 0.000082 0.230561
-77.730637 -90.338577 -0.000022 0.230836
-78.055397 -97.337540 -0.000031 0.218844
-78.236267 -101.235619 -0.000035 0.230058
-78.351738 -103.724220 -0.000038 0.228203
-78.431999 -105.453896 -0.000039 0.231470
-78.491127 -106.728249 -0.000039 0.254975
nan nan nan 0.000000
nan nan nan 0.000000
nan nan nan 0.000000
-75.359856 -49.134712 11.740182 1.000000
-75.359856 -49.134712 9.553918 1.000000
-76.811729 -76.323761 5.151505 0.395285
-75.359856 -49.134712 5.225814 1.000000
-75.359856 -49.134712 3.074504 1.000000
-75.359856 -49.134712 0.925496 1.000000
-76.690468 -74.052933 0.000082 0.234750
-77.560562 -90.347046 -0.000024 0.212370
-77.934174 -97.343575 -0.000032 0.243977
-78.142258 -101.240303 -0.000036 0.253120
-78.275101 -103.728035 -0.000039 0.198487
-78.367432 -105.457115 -0.000040 0.258254
-78.435455 -106.731018 -0.000041 0.206158
nan nan nan 0.000000
nan nan nan 0.000000
-76.537117 -76.227745 9.013802 0.399878
-76.545799 -76.371536 7.696486 0.384894
-74.905052 -49.208275 9.548439 1.000000
-76.605537 -77.360474 5.067596 0.406195
-74.905052 -49.208275 5.223475 1.000000
-74.905052 -49.208282 3.073725 1.000000
-74.905052 -49.208282 0.926276 1.000000
-76.406723 -74.069061 0.000082 0.230082
-77.390549 -90.356712 -0.000026 0.228742
-77.812996 -97.350464 -0.000034 0.247974
-78.048279 -101.245644 -0.000037 0.228909
-78.198486 -103.732391 -0.000040 0.208049
-78.302887 -105.460777 -0.000041 0.250894
-78.379799 -106.734177 -0.000042 0.185310
nan nan nan 0.000000
nan nan nan 0.000000
-76.258171 -76.090889 9.041889 0.371420
-74.450890 -49.281738 11.726541 1.000000
-76.189972 -75.079208 6.568842 0.426276
-76.304230 -76.774147 5.117151 0.434562
-76.321953 -77.036987 3.854674 0.407446
-74.450890 -49.281754 3.072999 1.000000
-74.450890 -49.281754 0.927001 1.000000
-76.123100 -74.087219 0.000083 0.228861
-77.220604 -90.367554 -0.000027 0.235420
-77.691872 -97.358192 -0.000035 0.226839
-77.954338 -101.251633 -0.000039 0.219024
-78.121902 -103.737274 -0.000041 0.196177
-78.238365 -105.464897 -0.000042 0.243187
-78.324173 -106.737732 -0.000043 0.263831
nan nan nan 0.000000
nan nan nan 0.000000
-76.106361 -77.691254 8.753376 0.403769
-76.078148 -77.312164 7.561938 0.423529
-73.997322 -49.355125 9.538609 1.000000
-76.006653 -76.351578 5.153439 0.374670
-76.053192 -76.976852 3.858555 0.395911
-73.997322 -49.355125 3.072327 1.000000
-73.997322 -49.355125 0.927674 1.000000
-75.839615 -74.107330 0.000084 0.230872
-77.050751 -90.379585 -0.000028 0.217085
-77.570801 -97.366768 -0.000036 0.213566
-77.860443 -101.258286 -0.000041 0.225355
-78.045357 -103.742699 -0.000042 0.244527
-78.173882 -105.469467 -0.000043 0.208708
-78.268570 -106.741669 -0.000044 0.207235
nan nan nan 0.000000
-75.638412 -75.137970 10.573803 0.392889
-75.838600 -77.595703 8.774494 0.405295
-75.904259 -78.401764 7.402801 0.430488
-73.544281 -49.428413 9.534252 1.000000
-75.842781 -77.647034 5.048582 0.408072
-73.544281 -49.428406 5.217417 1.000000
-73.544281 -49.428413 3.071706 1.000000
-73.544281 -49.428413 0.928294 1.000000
-75.556267 -74.129433 0.000085 0.221429
-76.880974 -90.392807 -0.000029 0.226719
-77.449791 -97.376190 -0.000037 0.241033
-77.766594 -101.265594 -0.000041 0.203873
-77.968849 -103.748657 -0.000043 0.269289
-78.109421 -105.474487 -0.000045 0.208731
-78.212990 -106.745995 -0.000045 0.246490
nan nan nan 0.000000
-75.396294 -75.545929 10.490436 0.402090
-75.568710 -77.494446 8.797010 0.404501
-75.639297 -78.292206 7.422323 0.397665
-75.480598 -76.498680 6.412372 0.403601
-75.591553 -77.752602 5.041702 0.414969
-75.511070 -76.842987 3.867273 0.415930
-73.091766 -49.501602 3.071141 1.000000
-73.091766 -49.501602 0.928860 1.000000
-75.273087 -74.153519 0.000085 0.228610
-76.711296 -90.407204 -0.000031 0.235695
-77.328857 -97.386452 -0.000038 0.249638
-77.672806 -101.273560 -0.000042 0.213902
-77.892387 -103.755142 -0.000045 0.195962
-78.045006 -105.479950 -0.000046 0.190002
-78.157448 -106.750710 -0.000046 0.221477
nan nan nan 0.000000
-75.156113 -75.917648 10.415243 0.395163
-75.320282 -77.636246 8.775459 0.373754
-75.302200 -77.447006 7.551750 0.388495
-75.275352 -77.165878 6.338102 0.424063
-75.279243 -77.206650 5.088625 0.396811
-75.130379 -75.648277 3.927432 0.381430
-72.639694 -49.574745 3.070625 1.000000
-72.639694 -49.574738 0.929374 1.000000
-74.990082 -74.179565 0.000086 0.230262
-76.541725 -90.422791 -0.000032 0.215374
-77.207993 -97.397560 -0.000039 0.254054
-77.579071 -101.282166 -0.000043 0.207104
-77.815971 -103.762169 -0.000046 0.221549
-77.980629 -105.485870 -0.000047 0.222243
-78.101944 -106.755814 -0.000047 0.201156
-75.056274 -77.610130 11.340353 0.427375
nan nan nan 0.000000
-75.033211 -77.385300 8.826045 0.415732
-75.043007 -77.480835 7.550548 0.393744
-75.160706 -78.628235 6.171990 0.414588
-74.833755 -75.440834 5.236310 0.425696
-74.880447 -75.896027 3.916531 0.426627
-72.188026 -49.647812 3.070165 1.000000
-72.188026 -49.647812 0.929836 1.000000
-74.707260 -74.207596 0.000087 0.233170
-76.372261 -90.439560 -0.000033 0.225020
-77.087204 -97.409515 -0.000041 0.213830
-77.485397 -101.291443 -0.000045 0.231075
-77.739609 -103.769730 -0.000047 0.198726
-77.916290 -105.492233 -0.000048 0.246813
-78.046471 -106.761307 -0.000048 0.212513
-74.756912 -77.268242 11.433426 0.396323
-74.741470 -77.127411 10.164454 0.421149
-74.804115 -77.698837 8.773712 0.369635
-74.783485 -77.510666 7.550208 0.404547
-74.885414 -78.440353 6.196825 0.396323
-74.852814 -78.142998 5.015817 0.410727
-71.736740 -49.720810 5.211559 1.000000
-71.736740 -49.720818 3.069757 1.000000
-71.736740 -49.720818 0.930245 1.000000
-74.424644 -74.237572 0.000086 0.230788
-76.202919 -90.457512 -0.000034 0.230836
-76.966507 -97.422318 -0.000042 0.241284
-77.391792 -101.301361 -0.000046 0.232476
-77.663300 -103.777817 -0.000048 0.251768
-77.852005 -105.499054 -0.000049 0.211245
-77.991035 -106.767181 -0.000050 0.247771
nan nan nan 0.000000
-74.456398 -76.961403 10.207004 0.411093
nan nan nan 0.000000
-74.499756 -77.332947 7.581137 0.363027
-74.659225 -78.699356 6.170144 0.391196
-74.611305 -78.288757 5.006167 0.414145
-74.267097 -75.339371 3.946997 0.418173
-74.419228 -76.642929 2.627060 0.438926
-74.413635 -76.595016 1.372151 0.443183
-74.424797 -76.690666 0.119836 0.437217
-76.033707 -90.476646 -0.000035 0.225115
-76.845901 -97.435951 -0.000043 0.215721
-77.298256 -101.311943 -0.000047 0.215757
-77.587044 -103.786446 -0.000049 0.208995
-77.787766 -105.506317 -0.000050 0.188195
-77.935646 -106.773445 -0.000051 0.226564
nan nan nan 0.000000
-74.246239 -77.423073 10.113425 0.414420
nan nan nan 0.000000
-74.238785 -77.362801 7.581361 0.400412
-74.381859 -78.518623 6.194597 0.377127
-74.365990 -78.390404 5.000294 0.405142
-70.835075 -49.866669 5.209578 1.000000
-70.835075 -49.866669 3.069096 1.000000
-74.163872 -76.757660 1.374305 0.472450
-74.168655 -76.796295 0.123486 0.473945
-75.864639 -90.496964 -0.000036 0.234642
-76.725395 -97.450432 -0.000044 0.254078
-77.204796 -101.323174 -0.000048 0.213902
-77.510857 -103.795593 -0.000050 0.228311
-77.723579 -105.514030 -0.000051 0.197649
-77.880302 -106.780098 -0.000052 0.240075
nan nan nan 0.000000
-73.753998 -75.682938 10.499679 0.408652
-74.059967 -78.020668 8.731735 0.395056
-74.331528 -80.095520 7.177507 0.415000
-74.071632 -78.109810 6.245759 0.383200
-74.065140 -78.060242 5.030264 0.409796
-73.962982 -77.279709 3.854230 0.426246
-73.851257 -76.426102 2.631724 0.446479
-70.384621 -49.939529 0.931157 1.000000
-73.578148 -74.339401 0.000088 0.223272
-75.695709 -90.518456 -0.000037 0.232117
-76.604996 -97.465759 -0.000045 0.219562
-77.111420 -101.335052 -0.000049 0.216187
-77.434731 -103.805283 -0.000051 0.248932
-77.659447 -105.522194 -0.000052 0.219993
-77.825005 -106.787132 -0.000053 0.249817
nan nan nan 0.000000
-73.740150 -77.592468 10.091333 0.378592
-73.888779 -78.669601 8.618859 0.415518
-74.083038 -80.077377 7.185085 0.399786
-74.090546 -80.131760 6.014935 0.403464
-73.688454 -77.217827 5.102839 0.407614
-73.708885 -77.365906 3.851697 0.430274
-69.934364 -50.012375 3.068644 1.000000
-69.934357 -50.012367 0.931356 1.000000
-73.296486 -74.377289 0.000089 0.231470
-75.526939 -90.541138 -0.000038 0.236353
-76.484703 -97.481911 -0.000046 0.220424
-77.018127 -101.347588 -0.000050 0.209701
-77.358673 -103.815506 -0.000052 0.185406
-77.595367 -105.530800 -0.000053 0.210024
-77.769760 -106.794556 -0.000053 0.200713
nan nan nan 0.000000
-73.482971 -77.641449 10.088644 0.393545
-73.626846 -78.632919 8.632149 0.393149
-73.827232 -80.013832 7.199736 0.434913
-73.572678 -78.259598 6.236534 0.391669
-73.470169 -77.553192 5.078118 0.416114
-73.492607 -77.707840 3.836554 0.408118
-69.484238 -50.085190 3.068498 1.000000
-69.484238 -50.085190 0.931504 1.000000
-73.015091 -74.417122 0.000090 0.228155
-75.358330 -90.564987 -0.000040 0.232811
-76.364525 -97.498917 -0.000048 0.230417
-76.924927 -101.360779 -0.000051 0.223284
-77.282692 -103.826256 -0.000053 0.223296
-77.531357 -105.539856 -0.000054 0.240650
-77.714561 -106.802368 -0.000054 0.226528
nan nan nan 0.000000
-73.232513 -77.733437 10.076947 0.374365
-73.390129 -78.768723 8.614040 0.407782
-73.216156 -77.625999 7.563418 0.470405
-73.494484 -79.454132 6.101930 0.369482
-69.034225 -50.157990 7.353479 1.000000
-73.260399 -77.916611 3.828086 0.386160
-69.034225 -50.157982 3.068400 1.000000
-69.034225 -50.157982 0.931599 1.000000
-72.733978 -74.458939 0.000090 0.233409
-75.189888 -90.590012 -0.000041 0.237394
-76.244469 -97.516754 -0.000049 0.233972
-76.831818 -101.374619 -0.000051 0.261582
-77.206787 -103.837532 -0.000054 0.199492
-77.467415 -105.549362 -0.000055 0.221106
-77.659424 -106.810562 -0.000056 0.213219
nan nan nan 0.000000
-72.988693 -77.862381 10.057538 0.382849
-73.148056 -78.862183 8.604019 0.403922
-72.683090 -75.945160 7.821951 0.374731
-73.234116 -79.402069 6.112459 0.413916
-73.088348 -78.487610 5.007085 0.396307
-73.028084 -78.109528 3.820479 0.387839
-68.584259 -50.230774 3.068358 1.000000
-68.584259 -50.230774 0.931642 1.000000
-72.453163 -74.502716 0.000091 0.226935
-75.021629 -90.616226 -0.000042 0.226647
-76.124542 -97.535439 -0.000049 0.215781
-76.738808 -101.389099 -0.000053 0.238938
-77.130966 -103.849342 -0.000055 0.227150
-77.403534 -105.559311 -0.000057 0.235336
-77.604347 -106.819145 -0.000056 0.197889
nan nan nan 0.000000
nan nan nan 0.000000
nan nan nan 0.000000
-72.614784 -77.202751 7.639464 0.404578
-72.309784 -75.371658 6.587192 0.424704
-72.850868 -78.620132 4.999493 0.410498
-72.792358 -78.268875 3.814616 0.372030
-68.134323 -50.303558 3.068366 1.000000
-68.134323 -50.303558 0.931633 1.000000
-72.172668 -74.548424 0.000092 0.233589
-74.853561 -90.643600 -0.000043 0.237742
-76.004745 -97.554947 -0.000051 0.213423
-76.645905 -101.404236 -0.000054 0.251660
-77.055229 -103.861679 -0.000056 0.192695
-77.339722 -105.569702 -0.000057 0.240135
-77.549332 -106.828102 -0.000057 0.218665
nan nan nan 0.000000
nan nan nan 0.000000
nan nan nan 0.000000
-72.179390 -76.247353 7.790010 0.430808
-72.015320 -75.303040 6.600657 0.399191
-72.711197 -79.308151 4.945798 0.413230
-72.122581 -75.920380 3.933876 0.402609
-67.684341 -50.376350 3.068427 1.000000
-67.684341 -50.376350 0.931573 1.000000
-71.892494 -74.596115 0.000092 0.229927
-74.685677 -90.672150 -0.000044 0.235898
-75.885086 -97.575302 -0.000051 0.232129
-76.553101 -101.420013 -0.000055 0.214344
-76.979576 -103.874550 -0.000057 0.273454
-77.275986 -105.580544 -0.000058 0.191115
-77.494377 -106.837448 -0.000058 0.206589
nan nan nan 0.000000
nan nan nan 0.000000
nan nan nan 0.000000
-72.063171 -77.135468 7.663304 0.412787
-71.701538 -75.136932 6.625774 0.420401
-72.498062 -79.538857 4.930224 0.388235
-71.784073 -75.593040 3.952614 0.406027
-67.234306 -50.449142 3.068540 1.000000
-67.234306 -50.449142 0.931459 1.000000
-71.612663 -74.645752 0.000093 0.225798
-74.518005 -90.701874 -0.000045 0.226743
-75.765579 -97.596489 -0.000052 0.235073
-76.460419 -101.436447 -0.000057 0.229400
-76.904015 -103.887947 -0.000058 0.195088
-77.212334 -105.591835 -0.000059 0.277032
-77.439484 -106.847183 -0.000059 0.238687
nan nan nan 0.000000
nan nan nan 0.000000
nan nan nan 0.000000
-71.656769 -76.417023 7.779047 0.367681
-66.784134 -50.521980 9.513157 1.000000
-71.602745 -76.129929 5.218422 0.385519
-66.784134 -50.521980 5.208408 1.000000
-66.784134 -50.521980 3.068707 1.000000
-66.784134 -50.521980 0.931295 1.000000
-71.333176 -74.697342 0.000094 0.229376
-74.350540 -90.732773 -0.000046 0.240853
-75.646217 -97.618507 -0.000053 0.223464
-76.367851 -101.453522 -0.000057 0.250595
-76.828552 -103.901863 -0.000059 0.224338
-77.148758 -105.603561 -0.000060 0.235683
