# This PCD file was generated using the MATLABÂ® pcwrite function
# from Computer Vision ToolboxÂ®.
# .PCD v.7 - Point Cloud Data file format
VERSION .7
FIELDS x y z intensity
SIZE 4 4 4 4
TYPE F F F F
COUNT 1 1 1 1
WIDTH 1163
HEIGHT 1
VIEWPOINT 0 0 0 1 0 0 0
POINTS 1163
DATA ascii
241.191849 -504.233734 1.115723 1.000000
241.191849 -504.233734 0.859794 1.000000
241.191849 -504.233734 0.601368 1.000000
241.191849 -504.233734 0.339845 1.000000
241.076660 -504.508362 -0.000001 0.230585
241.157471 -504.177643 3.915819 1.000000
241.157471 -504.177643 3.651892 1.000000
241.157471 -504.177643 3.391670 1.000000
241.157471 -504.177643 3.134530 1.000000
241.157471 -504.177643 2.879875 1.000000
241.157471 -504.177643 2.627131 1.000000
241.157471 -504.177643 2.375741 1.000000
241.157471 -504.177643 2.125158 1.000000
241.157471 -504.177643 1.874843 1.000000
241.157471 -504.177643 1.624259 1.000000
241.157471 -504.177643 1.372869 1.000000
241.157471 -504.177643 1.120124 1.000000
241.157471 -504.177643 0.865470 1.000000
241.157471 -504.177643 0.608329 1.000000
241.157471 -504.177643 0.348107 1.000000
241.025330 -504.486633 -0.000001 0.212884
241.123444 -504.122070 3.906424 1.000000
241.123444 -504.122070 3.643790 1.000000
241.123444 -504.122070 3.384845 1.000000
241.123444 -504.122070 3.128966 1.000000
241.123444 -504.122070 2.875560 1.000000
241.123444 -504.122070 2.624056 1.000000
241.123444 -504.122070 2.373898 1.000000
241.123444 -504.122070 2.124544 1.000000
241.123444 -504.122070 1.875456 1.000000
241.123444 -504.122070 1.626102 1.000000
241.123444 -504.122070 1.375944 1.000000
241.123444 -504.122070 1.124440 1.000000
241.123444 -504.122070 0.871034 1.000000
241.123444 -504.122070 0.615155 1.000000
241.123444 -504.122070 0.356209 1.000000
240.974152 -504.464539 -0.000001 0.209114
241.089737 -504.067078 3.897211 1.000000
241.089737 -504.067078 3.635847 1.000000
241.089737 -504.067078 3.378153 1.000000
241.089737 -504.067078 3.123511 1.000000
241.089737 -504.067078 2.871329 1.000000
241.089737 -504.067078 2.621040 1.000000
241.089737 -504.067078 2.372091 1.000000
241.089737 -504.067078 2.123942 1.000000
241.089737 -504.067078 1.876058 1.000000
241.089737 -504.067078 1.627909 1.000000
241.089737 -504.067078 1.378960 1.000000
241.089737 -504.067078 1.128671 1.000000
241.089737 -504.067078 0.876489 1.000000
241.089737 -504.067078 0.621847 1.000000
241.089737 -504.067078 0.364152 1.000000
240.923141 -504.442078 -0.000001 0.179985
241.056366 -504.012573 3.888179 1.000000
241.056366 -504.012573 3.628059 1.000000
241.056366 -504.012573 3.371592 1.000000
241.056366 -504.012573 3.118162 1.000000
241.056366 -504.012573 2.867181 1.000000
241.056366 -504.012573 2.618084 1.000000
241.056366 -504.012573 2.370320 1.000000
241.056366 -504.012573 2.123352 1.000000
241.056366 -504.012573 1.876648 1.000000
241.056366 -504.012573 1.629680 1.000000
241.056366 -504.012573 1.381916 1.000000
241.056366 -504.012573 1.132819 1.000000
241.056366 -504.012573 0.881838 1.000000
241.056366 -504.012573 0.628408 1.000000
241.056366 -504.012573 0.371940 1.000000
240.872269 -504.419281 -0.000001 0.214356
241.023300 -503.958618 3.879324 1.000000
241.023300 -503.958618 3.620424 1.000000
241.023300 -503.958618 3.365159 1.000000
241.023300 -503.958618 3.112918 1.000000
241.023300 -503.958618 2.863114 1.000000
241.023300 -503.958618 2.615185 1.000000
241.023300 -503.958618 2.368583 1.000000
241.023300 -503.958618 2.122773 1.000000
241.023300 -503.958618 1.877227 1.000000
241.023300 -503.958618 1.631417 1.000000
241.023300 -503.958618 1.384815 1.000000
241.023300 -503.958618 1.136886 1.000000
241.023300 -503.958618 0.887082 1.000000
241.023300 -503.958618 0.634840 1.000000
241.023300 -503.958618 0.379575 1.000000
240.821579 -504.396118 -0.000001 0.189200
240.990540 -503.905151 3.870642 1.000000
240.990540 -503.905151 3.612938 1.000000
240.990540 -503.905151 3.358853 1.000000
240.990540 -503.905151 3.107776 1.000000
240.990540 -503.905151 2.859127 1.000000
240.990540 -503.905151 2.612343 1.000000
240.990540 -503.905151 2.366880 1.000000
240.990540 -503.905151 2.122206 1.000000
240.990540 -503.905151 1.877794 1.000000
240.990540 -503.905151 1.633120 1.000000
240.990540 -503.905151 1.387657 1.000000
240.990540 -503.905151 1.140873 1.000000
240.990540 -503.905151 0.892223 1.000000
240.990540 -503.905151 0.641147 1.000000
240.990540 -503.905151 0.387062 1.000000
240.771027 -504.372589 -0.000001 0.261139
240.958084 -503.852142 3.862130 1.000000
240.958084 -503.852142 3.605599 1.000000
240.958084 -503.852142 3.352670 1.000000
240.958084 -503.852142 3.102736 1.000000
240.958084 -503.852142 2.855217 1.000000
240.958084 -503.852142 2.609556 1.000000
240.958084 -503.852142 2.365211 1.000000
240.958084 -503.852142 2.121650 1.000000
240.958084 -503.852142 1.878350 1.000000
240.958084 -503.852142 1.634789 1.000000
240.958084 -503.852142 1.390443 1.000000
240.958084 -503.852142 1.144782 1.000000
240.958084 -503.852142 0.897264 1.000000
240.958084 -503.852142 0.647330 1.000000
240.958084 -503.852142 0.394400 1.000000
240.720657 -504.348724 -0.000002 0.233337
240.925919 -503.799652 3.853786 1.000000
240.925919 -503.799652 3.598404 1.000000
240.925919 -503.799652 3.346608 1.000000
240.925919 -503.799652 3.097795 1.000000
240.925919 -503.799652 2.851385 1.000000
240.925919 -503.799652 2.606825 1.000000
240.925919 -503.799652 2.363575 1.000000
240.925919 -503.799652 2.121105 1.000000
240.925919 -503.799652 1.878895 1.000000
240.925919 -503.799652 1.636425 1.000000
240.925919 -503.799652 1.393175 1.000000
240.925919 -503.799652 1.148615 1.000000
240.925919 -503.799652 0.902205 1.000000
240.925919 -503.799652 0.653391 1.000000
240.925919 -503.799652 0.401595 1.000000
240.670456 -504.324493 -0.000001 0.257237
240.894043 -503.747620 3.845605 1.000000
240.894043 -503.747620 3.591351 1.000000
240.894043 -503.747620 3.340666 1.000000
240.894043 -503.747620 3.092950 1.000000
240.894043 -503.747620 2.847628 1.000000
240.894043 -503.747620 2.604147 1.000000
240.894043 -503.747620 2.361970 1.000000
240.894043 -503.747620 2.120570 1.000000
240.894043 -503.747620 1.879430 1.000000
240.894043 -503.747620 1.638030 1.000000
240.894043 -503.747620 1.395853 1.000000
240.894043 -503.747620 1.152372 1.000000
240.894043 -503.747620 0.907050 1.000000
240.894043 -503.747620 0.659334 1.000000
240.894043 -503.747620 0.408649 1.000000
240.620422 -504.299927 -0.000001 0.289311
240.862442 -503.696014 3.837585 1.000000
240.862442 -503.696014 3.584436 1.000000
240.862442 -503.696014 3.334840 1.000000
240.862442 -503.696045 3.088201 1.000000
240.862442 -503.696014 2.843945 1.000000
240.862442 -503.696045 2.601522 1.000000
240.862442 -503.696045 2.360397 1.000000
240.862442 -503.696045 2.120047 1.000000
240.862442 -503.696045 1.879953 1.000000
240.862442 -503.696045 1.639603 1.000000
240.862442 -503.696045 1.398478 1.000000
240.862442 -503.696045 1.156055 1.000000
240.862442 -503.696045 0.911799 1.000000
240.862442 -503.696045 0.665159 1.000000
240.862442 -503.696045 0.415564 1.000000
240.570557 -504.275024 -0.000001 0.228514
240.831116 -503.644897 3.829724 1.000000
240.831116 -503.644897 3.577657 1.000000
240.831116 -503.644897 3.329129 1.000000
240.831116 -503.644897 3.083545 1.000000
240.831116 -503.644897 2.840335 1.000000
240.831116 -503.644897 2.598948 1.000000
240.831116 -503.644897 2.358855 1.000000
240.831116 -503.644897 2.119533 1.000000
240.831116 -503.644897 1.880467 1.000000
240.831116 -503.644897 1.641145 1.000000
240.831116 -503.644897 1.401051 1.000000
240.831116 -503.644897 1.159665 1.000000
240.831116 -503.644897 0.916455 1.000000
240.831116 -503.644897 0.670870 1.000000
240.831116 -503.644897 0.422342 1.000000
240.520874 -504.249756 -0.000001 0.256040
240.800049 -503.594177 3.822018 1.000000
240.800049 -503.594177 3.571013 1.000000
240.800049 -503.594177 3.323532 1.000000
240.800049 -503.594177 3.078982 1.000000
240.800049 -503.594177 2.836795 1.000000
240.800049 -503.594177 2.596426 1.000000
240.800049 -503.594177 2.357344 1.000000
240.800049 -503.594177 2.119030 1.000000
240.800049 -503.594177 1.880970 1.000000
240.800049 -503.594177 1.642656 1.000000
240.800049 -503.594177 1.403574 1.000000
240.800049 -503.594177 1.163204 1.000000
240.800049 -503.594177 0.921018 1.000000
240.800049 -503.594177 0.676468 1.000000
240.800049 -503.594177 0.428987 1.000000
240.471359 -504.224152 -0.000002 0.184760
240.769241 -503.543915 3.814465 1.000000
240.769241 -503.543884 3.564500 1.000000
240.769241 -503.543915 3.318045 1.000000
240.769241 -503.543884 3.074509 1.000000
240.769241 -503.543884 2.833326 1.000000
240.769241 -503.543915 2.593954 1.000000
240.769241 -503.543915 2.355863 1.000000
240.769241 -503.543915 2.118536 1.000000
240.769241 -503.543915 1.881464 1.000000
240.769241 -503.543915 1.644137 1.000000
240.769241 -503.543915 1.406046 1.000000
240.769241 -503.543915 1.166673 1.000000
240.769241 -503.543915 0.925491 1.000000
240.769241 -503.543915 0.681955 1.000000
240.769241 -503.543915 0.435499 1.000000
240.422028 -504.198181 -0.000002 0.205955
240.738693 -503.494019 3.807062 1.000000
240.738693 -503.494019 3.558117 1.000000
240.738693 -503.494019 3.312667 1.000000
240.738693 -503.494019 3.070125 1.000000
240.738693 -503.494019 2.829926 1.000000
240.738693 -503.494019 2.591530 1.000000
240.738693 -503.494019 2.354411 1.000000
240.738693 -503.494019 2.118052 1.000000
240.738693 -503.494019 1.881947 1.000000
240.738693 -503.494019 1.645589 1.000000
240.738693 -503.494019 1.408469 1.000000
240.738693 -503.494019 1.170074 1.000000
240.738693 -503.494019 0.929875 1.000000
240.738693 -503.494019 0.687333 1.000000
240.738693 -503.494019 0.441883 1.000000
240.372894 -504.171875 -0.000002 0.239249
240.708389 -503.444550 3.799806 1.000000
240.708389 -503.444550 3.551861 1.000000
240.708389 -503.444550 3.307397 1.000000
240.708389 -503.444550 3.065828 1.000000
240.708389 -503.444550 2.826594 1.000000
240.708389 -503.444550 2.589155 1.000000
240.708389 -503.444550 2.352988 1.000000
240.708389 -503.444550 2.117579 1.000000
240.708389 -503.444550 1.882421 1.000000
240.708389 -503.444550 1.647012 1.000000
240.708389 -503.444550 1.410845 1.000000
240.708389 -503.444550 1.173406 1.000000
240.708389 -503.444550 0.934172 1.000000
240.708389 -503.444550 0.692603 1.000000
240.708389 -503.444550 0.448139 1.000000
240.708389 -503.444550 0.200193 1.000000
240.678329 -503.395477 3.792695 1.000000
240.678329 -503.395477 3.545730 1.000000
240.678329 -503.395477 3.302231 1.000000
240.678329 -503.395477 3.061617 1.000000
240.678314 -503.395477 2.823328 1.000000
240.678329 -503.395477 2.586828 1.000000
240.678329 -503.395477 2.351593 1.000000
240.678314 -503.395477 2.117114 1.000000
240.678314 -503.395477 1.882886 1.000000
240.678329 -503.395477 1.648407 1.000000
240.678329 -503.395477 1.413172 1.000000
240.678314 -503.395477 1.176671 1.000000
240.678314 -503.395477 0.938383 1.000000
240.678314 -503.395477 0.697768 1.000000
240.678314 -503.395477 0.454270 1.000000
240.678314 -503.395477 0.207304 1.000000
240.648499 -503.346802 3.785728 1.000000
240.648499 -503.346802 3.539721 1.000000
240.648499 -503.346802 3.297170 1.000000
240.648499 -503.346802 3.057491 1.000000
240.648499 -503.346802 2.820128 1.000000
240.648499 -503.346802 2.584547 1.000000
240.648499 -503.346802 2.350226 1.000000
240.648499 -503.346802 2.116659 1.000000
240.648499 -503.346802 1.883341 1.000000
240.648499 -503.346802 1.649774 1.000000
240.648499 -503.346802 1.415453 1.000000
240.648499 -503.346802 1.179872 1.000000
240.648499 -503.346802 0.942509 1.000000
240.648499 -503.346802 0.702830 1.000000
240.648499 -503.346802 0.460278 1.000000
240.648499 -503.346802 0.214272 1.000000
240.618896 -503.298492 3.778900 1.000000
240.618896 -503.298492 3.533834 1.000000
240.618896 -503.298492 3.292210 1.000000
240.618896 -503.298492 3.053447 1.000000
240.618896 -503.298492 2.816992 1.000000
240.618896 -503.298492 2.582312 1.000000
240.618896 -503.298492 2.348887 1.000000
240.618896 -503.298492 2.116213 1.000000
240.618896 -503.298492 1.883787 1.000000
240.618896 -503.298492 1.651113 1.000000
240.618896 -503.298492 1.417688 1.000000
240.618896 -503.298492 1.183007 1.000000
240.618896 -503.298492 0.946552 1.000000
240.618896 -503.298492 0.707789 1.000000
240.618896 -503.298492 0.466165 1.000000
240.618896 -503.298492 0.221100 1.000000
240.589523 -503.250519 3.772210 1.000000
240.589523 -503.250519 3.528067 1.000000
240.589523 -503.250519 3.287351 1.000000
240.589523 -503.250519 3.049486 1.000000
240.589523 -503.250519 2.813920 1.000000
240.589523 -503.250519 2.580122 1.000000
240.589523 -503.250519 2.347575 1.000000
240.589523 -503.250519 2.115776 1.000000
240.589523 -503.250519 1.884224 1.000000
240.589523 -503.250519 1.652425 1.000000
240.589523 -503.250519 1.419878 1.000000
240.589523 -503.250519 1.186080 1.000000
240.589523 -503.250519 0.950514 1.000000
240.589523 -503.250519 0.712649 1.000000
240.589523 -503.250519 0.471933 1.000000
240.589523 -503.250519 0.227790 1.000000
240.560364 -503.202942 3.765656 1.000000
240.560364 -503.202942 3.522416 1.000000
240.560364 -503.202942 3.282590 1.000000
240.560364 -503.202942 3.045605 1.000000
240.560364 -503.202942 2.810910 1.000000
240.560364 -503.202942 2.577976 1.000000
240.560364 -503.202942 2.346290 1.000000
240.560364 -503.202942 2.115348 1.000000
240.560364 -503.202942 1.884652 1.000000
240.560364 -503.202942 1.653710 1.000000
240.560364 -503.202942 1.422023 1.000000
240.560364 -503.202942 1.189090 1.000000
240.560364 -503.202942 0.954395 1.000000
240.560364 -503.202942 0.717409 1.000000
240.560364 -503.202942 0.477584 1.000000
240.560364 -503.202942 0.234343 1.000000
240.531418 -503.155701 3.759237 1.000000
240.531418 -503.155701 3.516880 1.000000
240.531418 -503.155701 3.277927 1.000000
240.531418 -503.155701 3.041803 1.000000
240.531418 -503.155701 2.807962 1.000000
240.531418 -503.155701 2.575875 1.000000
240.531418 -503.155701 2.345031 1.000000
240.531418 -503.155701 2.114928 1.000000
240.531418 -503.155701 1.885072 1.000000
240.531418 -503.155701 1.654969 1.000000
240.531418 -503.155701 1.424125 1.000000
240.531418 -503.155701 1.192038 1.000000
240.531418 -503.155701 0.958197 1.000000
240.531418 -503.155701 0.722073 1.000000
240.531418 -503.155701 0.483119 1.000000
240.531418 -503.155701 0.240763 1.000000
240.502686 -503.108795 3.752948 1.000000
240.502686 -503.108795 3.511458 1.000000
240.502686 -503.108795 3.273359 1.000000
240.502686 -503.108795 3.038079 1.000000
240.502686 -503.108795 2.805074 1.000000
240.502686 -503.108795 2.573817 1.000000
240.502686 -503.108795 2.343797 1.000000
240.502686 -503.108795 2.114517 1.000000
240.502686 -503.108795 1.885483 1.000000
240.502686 -503.108795 1.656202 1.000000
240.502686 -503.108795 1.426183 1.000000
240.502686 -503.108795 1.194926 1.000000
240.502686 -503.108795 0.961921 1.000000
240.502686 -503.108795 0.726641 1.000000
240.502686 -503.108795 0.488541 1.000000
240.502686 -503.108795 0.247052 1.000000
240.474152 -503.062225 3.746790 1.000000
240.474152 -503.062225 3.506148 1.000000
240.474152 -503.062225 3.268885 1.000000
240.474152 -503.062225 3.034432 1.000000
240.474152 -503.062225 2.802245 1.000000
240.474152 -503.062225 2.571800 1.000000
240.474152 -503.062225 2.342590 1.000000
240.474152 -503.062225 2.114115 1.000000
240.474152 -503.062225 1.885885 1.000000
240.474152 -503.062225 1.657410 1.000000
240.474152 -503.062225 1.428199 1.000000
240.474152 -503.062225 1.197755 1.000000
240.474152 -503.062225 0.965568 1.000000
240.474152 -503.062225 0.731115 1.000000
240.474152 -503.062225 0.493852 1.000000
240.474152 -503.062225 0.253210 1.000000
240.445816 -503.015961 3.740758 1.000000
240.445816 -503.015961 3.500948 1.000000
240.445816 -503.015961 3.264504 1.000000
240.445816 -503.015961 3.030861 1.000000
240.445816 -503.015961 2.799475 1.000000
240.445816 -503.015961 2.569826 1.000000
240.445816 -503.015961 2.341407 1.000000
240.445816 -503.015961 2.113721 1.000000
240.445816 -503.015961 1.886279 1.000000
240.445816 -503.015961 1.658593 1.000000
240.445816 -503.015961 1.430173 1.000000
240.445816 -503.015961 1.200525 1.000000
240.445816 -503.015961 0.969139 1.000000
240.445816 -503.015961 0.735496 1.000000
240.445816 -503.015961 0.499052 1.000000
240.445816 -503.015961 0.259241 1.000000
240.417679 -502.970032 3.734853 1.000000
240.417679 -502.970032 3.495856 1.000000
240.417679 -502.970032 3.260214 1.000000
240.417679 -502.970032 3.027363 1.000000
240.417679 -502.970032 2.796763 1.000000
240.417679 -502.970032 2.567893 1.000000
240.417679 -502.970032 2.340249 1.000000
240.417679 -502.970032 2.113335 1.000000
240.417679 -502.970032 1.886665 1.000000
240.417679 -502.970032 1.659751 1.000000
240.417679 -502.970032 1.432106 1.000000
240.417679 -502.970032 1.203237 1.000000
240.417679 -502.970032 0.972636 1.000000
240.417679 -502.970032 0.739786 1.000000
240.417679 -502.970032 0.504144 1.000000
240.417679 -502.970032 0.265147 1.000000
240.389740 -502.924408 3.729072 1.000000
240.389740 -502.924408 3.490871 1.000000
240.389740 -502.924408 3.256014 1.000000
240.389740 -502.924408 3.023940 1.000000
240.389740 -502.924408 2.794108 1.000000
240.389740 -502.924408 2.566001 1.000000
240.389740 -502.924408 2.339115 1.000000
240.389740 -502.924408 2.112957 1.000000
240.389740 -502.924408 1.887042 1.000000
240.389740 -502.924408 1.660885 1.000000
240.389740 -502.924408 1.433999 1.000000
240.389725 -502.924408 1.205892 1.000000
240.389725 -502.924408 0.976060 1.000000
240.389740 -502.924408 0.743985 1.000000
240.389740 -502.924408 0.509129 1.000000
240.389725 -502.924408 0.270928 1.000000
240.361969 -502.879089 3.723412 1.000000
240.361969 -502.879089 3.485991 1.000000
240.361969 -502.879089 3.251904 1.000000
240.361969 -502.879089 3.020588 1.000000
240.361969 -502.879089 2.791509 1.000000
240.361969 -502.879089 2.564148 1.000000
240.361969 -502.879089 2.338005 1.000000
240.361969 -502.879089 2.112588 1.000000
240.361969 -502.879089 1.887412 1.000000
240.361969 -502.879089 1.661995 1.000000
240.361969 -502.879089 1.435852 1.000000
240.361969 -502.879089 1.208491 1.000000
240.361969 -502.879089 0.979411 1.000000
240.361969 -502.879089 0.748096 1.000000
240.361969 -502.879089 0.514008 1.000000
240.361969 -502.879089 0.276587 1.000000
240.334381 -502.834045 3.717874 1.000000
240.334381 -502.834045 3.481215 1.000000
240.334381 -502.834045 3.247880 1.000000
240.334381 -502.834045 3.017308 1.000000
240.334381 -502.834045 2.788965 1.000000
240.334381 -502.834045 2.562335 1.000000
240.334381 -502.834045 2.336919 1.000000
240.334381 -502.834045 2.112226 1.000000
240.334381 -502.834045 1.887774 1.000000
240.334381 -502.834045 1.663081 1.000000
240.334381 -502.834045 1.437665 1.000000
240.334381 -502.834045 1.211035 1.000000
240.334381 -502.834045 0.982691 1.000000
240.334381 -502.834045 0.752120 1.000000
240.334381 -502.834045 0.518784 1.000000
240.334381 -502.834045 0.282126 1.000000
240.306976 -502.789307 3.712453 1.000000
240.306976 -502.789307 3.476542 1.000000
240.306976 -502.789307 3.243943 1.000000
240.306976 -502.789307 3.014098 1.000000
240.306976 -502.789307 2.786476 1.000000
240.306976 -502.789307 2.560561 1.000000
240.306976 -502.789307 2.335855 1.000000
240.306976 -502.789307 2.111872 1.000000
240.306976 -502.789307 1.888128 1.000000
240.306976 -502.789307 1.664145 1.000000
240.306976 -502.789307 1.439439 1.000000
240.306976 -502.789307 1.213524 1.000000
240.306976 -502.789307 0.985901 1.000000
240.306976 -502.789307 0.756057 1.000000
240.306976 -502.789307 0.523458 1.000000
240.306976 -502.789307 0.287546 1.000000
240.279724 -502.744843 3.707150 1.000000
240.279724 -502.744843 3.471969 1.000000
240.279724 -502.744843 3.240091 1.000000
240.279724 -502.744843 3.010958 1.000000
240.279724 -502.744843 2.784040 1.000000
240.279724 -502.744843 2.558825 1.000000
240.279724 -502.744843 2.334816 1.000000
240.279724 -502.744843 2.111525 1.000000
240.279724 -502.744843 1.888475 1.000000
240.279724 -502.744843 1.665184 1.000000
240.279724 -502.744843 1.441175 1.000000
240.279724 -502.744843 1.215960 1.000000
240.279724 -502.744843 0.989042 1.000000
240.279724 -502.744843 0.759909 1.000000
240.279724 -502.744843 0.528030 1.000000
240.279724 -502.744843 0.292849 1.000000
240.252655 -502.700653 3.701962 1.000000
240.252655 -502.700653 3.467496 1.000000
240.252655 -502.700653 3.236322 1.000000
240.252655 -502.700653 3.007886 1.000000
240.252655 -502.700653 2.781657 1.000000
240.252655 -502.700653 2.557127 1.000000
240.252655 -502.700653 2.333798 1.000000
240.252655 -502.700653 2.111187 1.000000
240.252655 -502.700653 1.888813 1.000000
240.252655 -502.700653 1.666202 1.000000
240.252655 -502.700653 1.442873 1.000000
240.252655 -502.700653 1.218342 1.000000
240.252655 -502.700653 0.992114 1.000000
240.252655 -502.700653 0.763678 1.000000
240.252655 -502.700653 0.532503 1.000000
240.252655 -502.700653 0.298037 1.000000
240.225754 -502.656738 3.696888 1.000000
240.225754 -502.656738 3.463121 1.000000
240.225754 -502.656738 3.232636 1.000000
240.225754 -502.656708 3.004881 1.000000
240.225754 -502.656738 2.779327 1.000000
240.225754 -502.656738 2.555466 1.000000
240.225754 -502.656738 2.332803 1.000000
240.225754 -502.656738 2.110855 1.000000
240.225754 -502.656738 1.889145 1.000000
240.225754 -502.656738 1.667197 1.000000
240.225754 -502.656738 1.444534 1.000000
240.225754 -502.656738 1.220673 1.000000
240.225754 -502.656738 0.995119 1.000000
240.225754 -502.656738 0.767363 1.000000
240.225754 -502.656738 0.536878 1.000000
240.225754 -502.656738 0.303111 1.000000
240.198990 -502.613068 3.691927 1.000000
240.199005 -502.613068 3.458843 1.000000
240.199005 -502.613068 3.229032 1.000000
240.198990 -502.613068 3.001943 1.000000
240.198990 -502.613068 2.777049 1.000000
240.198990 -502.613068 2.553842 1.000000
240.198990 -502.613068 2.331830 1.000000
240.198990 -502.613068 2.110531 1.000000
240.198990 -502.613068 1.889469 1.000000
240.198990 -502.613068 1.668170 1.000000
240.198990 -502.613068 1.446158 1.000000
240.198990 -502.613068 1.222951 1.000000
240.198990 -502.613068 0.998057 1.000000
240.198990 -502.613068 0.770967 1.000000
240.198990 -502.613068 0.541156 1.000000
240.198990 -502.613068 0.308072 1.000000
240.172394 -502.569641 3.687076 1.000000
240.172394 -502.569641 3.454661 1.000000
240.172394 -502.569641 3.225509 1.000000
240.172394 -502.569641 2.999071 1.000000
240.172394 -502.569641 2.774821 1.000000
240.172394 -502.569641 2.552254 1.000000
240.172394 -502.569641 2.330878 1.000000
240.172394 -502.569641 2.110214 1.000000
240.172394 -502.569641 1.889786 1.000000
240.172394 -502.569641 1.669121 1.000000
240.172394 -502.569641 1.447746 1.000000
240.172394 -502.569641 1.225179 1.000000
240.172394 -502.569641 1.000929 1.000000
240.172394 -502.569641 0.774491 1.000000
240.172394 -502.569641 0.545339 1.000000
240.172394 -502.569641 0.312923 1.000000
240.145950 -502.526459 3.682336 1.000000
240.145950 -502.526459 3.450573 1.000000
240.145950 -502.526459 3.222064 1.000000
240.145950 -502.526459 2.996263 1.000000
240.145950 -502.526459 2.772644 1.000000
240.145950 -502.526459 2.550702 1.000000
240.145950 -502.526459 2.329949 1.000000
240.145950 -502.526459 2.109905 1.000000
240.145950 -502.526459 1.890096 1.000000
240.145950 -502.526459 1.670051 1.000000
240.145950 -502.526459 1.449298 1.000000
240.145950 -502.526459 1.227356 1.000000
240.145950 -502.526459 1.003737 1.000000
240.145950 -502.526459 0.777935 1.000000
240.145950 -502.526459 0.549426 1.000000
240.145950 -502.526459 0.317664 1.000000
240.119659 -502.483551 3.677702 1.000000
240.119659 -502.483551 3.446579 1.000000
240.119659 -502.483551 3.218700 1.000000
240.119659 -502.483551 2.993520 1.000000
240.119659 -502.483551 2.770516 1.000000
240.119659 -502.483551 2.549185 1.000000
240.119659 -502.483551 2.329040 1.000000
240.119659 -502.483551 2.109602 1.000000
240.119659 -502.483551 1.890398 1.000000
240.119659 -502.483551 1.670960 1.000000
240.119659 -502.483551 1.450814 1.000000
240.119659 -502.483551 1.229484 1.000000
240.119659 -502.483551 1.006480 1.000000
240.119659 -502.483551 0.781300 1.000000
240.119659 -502.483551 0.553421 1.000000
240.119659 -502.483551 0.322297 1.000000
240.093506 -502.440857 3.673177 1.000000
240.093506 -502.440857 3.442676 1.000000
240.093506 -502.440857 3.215412 1.000000
240.093506 -502.440857 2.990839 1.000000
240.093506 -502.440857 2.768437 1.000000
240.093506 -502.440857 2.547704 1.000000
240.093506 -502.440857 2.328152 1.000000
240.093506 -502.440857 2.109306 1.000000
240.093506 -502.440857 1.890694 1.000000
240.093506 -502.440857 1.671848 1.000000
240.093506 -502.440857 1.452296 1.000000
240.093506 -502.440857 1.231563 1.000000
240.093506 -502.440857 1.009161 1.000000
240.093506 -502.440857 0.784588 1.000000
240.093506 -502.440857 0.557324 1.000000
240.093506 -502.440857 0.326823 1.000000
240.067490 -502.398376 3.668756 1.000000
240.067490 -502.398376 3.438864 1.000000
240.067490 -502.398376 3.212200 1.000000
240.067490 -502.398376 2.988221 1.000000
240.067490 -502.398376 2.766407 1.000000
240.067490 -502.398376 2.546257 1.000000
240.067490 -502.398376 2.327285 1.000000
240.067490 -502.398376 2.109017 1.000000
240.067490 -502.398376 1.890983 1.000000
240.067490 -502.398376 1.672715 1.000000
240.067490 -502.398376 1.453743 1.000000
240.067490 -502.398376 1.233593 1.000000
240.067474 -502.398376 1.011778 1.000000
240.067474 -502.398376 0.787799 1.000000
240.067490 -502.398376 0.561135 1.000000
240.067490 -502.398376 0.331244 1.000000
240.041611 -502.356140 3.664439 1.000000
240.041611 -502.356140 3.435142 1.000000
240.041611 -502.356140 3.209064 1.000000
240.041611 -502.356140 2.985665 1.000000
240.041595 -502.356140 2.764424 1.000000
240.041611 -502.356140 2.544844 1.000000
240.041595 -502.356140 2.326439 1.000000
240.041611 -502.356140 2.108735 1.000000
240.041595 -502.356140 1.891265 1.000000
240.041595 -502.356140 1.673561 1.000000
240.041595 -502.356140 1.455156 1.000000
240.041595 -502.356140 1.235576 1.000000
240.041595 -502.356140 1.014335 1.000000
240.041595 -502.356140 0.790935 1.000000
240.041595 -502.356140 0.564857 1.000000
240.041595 -502.356140 0.335560 1.000000
240.015854 -502.314117 3.660226 1.000000
240.015854 -502.314117 3.431509 1.000000
240.015854 -502.314117 3.206004 1.000000
240.015854 -502.314117 2.983170 1.000000
240.015854 -502.314117 2.762489 1.000000
240.015854 -502.314117 2.543464 1.000000
240.015854 -502.314117 2.325612 1.000000
240.015854 -502.314117 2.108460 1.000000
240.015854 -502.314117 1.891540 1.000000
240.015854 -502.314117 1.674387 1.000000
240.015854 -502.314117 1.456535 1.000000
240.015854 -502.314117 1.237511 1.000000
240.015854 -502.314117 1.016830 1.000000
240.015854 -502.314117 0.793995 1.000000
240.015854 -502.314117 0.568490 1.000000
240.015854 -502.314117 0.339774 1.000000
239.990234 -502.272278 3.656114 1.000000
239.990234 -502.272278 3.427964 1.000000
239.990234 -502.272278 3.203017 1.000000
239.990234 -502.272278 2.980735 1.000000
239.990234 -502.272278 2.760601 1.000000
239.990234 -502.272278 2.542118 1.000000
239.990234 -502.272278 2.324806 1.000000
239.990234 -502.272278 2.108191 1.000000
239.990234 -502.272278 1.891809 1.000000
239.990234 -502.272278 1.675194 1.000000
239.990234 -502.272278 1.457881 1.000000
239.990234 -502.272278 1.239399 1.000000
239.990234 -502.272278 1.019265 1.000000
239.990234 -502.272278 0.796982 1.000000
239.990234 -502.272278 0.572036 1.000000
239.990234 -502.272278 0.343885 1.000000
239.964737 -502.230682 3.652103 1.000000
239.964737 -502.230682 3.424505 1.000000
239.964737 -502.230682 3.200104 1.000000
239.964737 -502.230682 2.978359 1.000000
239.964737 -502.230682 2.758759 1.000000
239.964737 -502.230682 2.540805 1.000000
239.964737 -502.230682 2.324019 1.000000
239.964737 -502.230682 2.107929 1.000000
239.964737 -502.230682 1.892071 1.000000
239.964737 -502.230682 1.675981 1.000000
239.964737 -502.230682 1.459194 1.000000
239.964737 -502.230682 1.241241 1.000000
239.964737 -502.230682 1.021640 1.000000
239.964737 -502.230682 0.799896 1.000000
239.964737 -502.230682 0.575494 1.000000
239.964737 -502.230682 0.347897 1.000000
239.939377 -502.189240 3.648191 1.000000
239.939377 -502.189240 3.421133 1.000000
239.939377 -502.189240 3.197262 1.000000
239.939377 -502.189240 2.976043 1.000000
239.939377 -502.189240 2.756962 1.000000
239.939377 -502.189240 2.539525 1.000000
239.939362 -502.189240 2.323252 1.000000
239.939377 -502.189240 2.107674 1.000000
239.939377 -502.189240 1.892326 1.000000
239.939362 -502.189240 1.676748 1.000000
239.939362 -502.189240 1.460475 1.000000
239.939362 -502.189240 1.243038 1.000000
239.939362 -502.189240 1.023957 1.000000
239.939362 -502.189240 0.802737 1.000000
239.939362 -502.189240 0.578867 1.000000
239.939362 -502.189240 0.351809 1.000000
239.914124 -502.148041 3.644378 1.000000
239.914124 -502.148041 3.417845 1.000000
239.914124 -502.148041 3.194492 1.000000
239.914124 -502.148041 2.973785 1.000000
239.914124 -502.148041 2.755211 1.000000
239.914124 -502.148041 2.538277 1.000000
239.914124 -502.148041 2.322504 1.000000
239.914108 -502.148041 2.107425 1.000000
239.914108 -502.148041 1.892575 1.000000
239.914108 -502.148041 1.677496 1.000000
239.914108 -502.148041 1.461723 1.000000
239.914108 -502.148041 1.244789 1.000000
239.914108 -502.148041 1.026215 1.000000
239.914108 -502.148041 0.805507 1.000000
239.914108 -502.148041 0.582155 1.000000
239.914108 -502.148041 0.355621 1.000000
239.888977 -502.106995 3.640662 1.000000
239.888977 -502.106995 3.414641 1.000000
239.888977 -502.106995 3.191793 1.000000
239.888977 -502.106995 2.971585 1.000000
239.888977 -502.106995 2.753505 1.000000
239.888977 -502.106995 2.537060 1.000000
239.888977 -502.106995 2.321775 1.000000
239.888977 -502.106995 2.107182 1.000000
239.888977 -502.106995 1.892818 1.000000
239.888977 -502.106995 1.678224 1.000000
239.888977 -502.106995 1.462939 1.000000
239.888977 -502.106995 1.246495 1.000000
239.888977 -502.106995 1.028415 1.000000
239.888977 -502.106995 0.808206 1.000000
239.888977 -502.106995 0.585359 1.000000
239.888977 -502.106995 0.359337 1.000000
239.863953 -502.066132 3.637043 1.000000
239.863953 -502.066132 3.411520 1.000000
239.863953 -502.066132 3.189164 1.000000
239.863953 -502.066132 2.969441 1.000000
239.863953 -502.066132 2.751842 1.000000
239.863953 -502.066132 2.535876 1.000000
239.863953 -502.066132 2.321066 1.000000
239.863953 -502.066132 2.106946 1.000000
239.863953 -502.066132 1.893054 1.000000
239.863953 -502.066132 1.678934 1.000000
239.863953 -502.066132 1.464124 1.000000
239.863953 -502.066132 1.248158 1.000000
239.863953 -502.066132 1.030558 1.000000
239.863953 -502.066132 0.810836 1.000000
239.863953 -502.066132 0.588479 1.000000
239.863953 -502.066132 0.362956 1.000000
239.839035 -502.025482 3.633519 1.000000
239.839035 -502.025482 3.408482 1.000000
239.839035 -502.025482 3.186604 1.000000
239.839035 -502.025482 2.967354 1.000000
239.839035 -502.025482 2.750224 1.000000
239.839035 -502.025482 2.534722 1.000000
239.839035 -502.025482 2.320374 1.000000
239.839035 -502.025482 2.106715 1.000000
239.839035 -502.025482 1.893285 1.000000
239.839035 -502.025482 1.679626 1.000000
239.839035 -502.025482 1.465277 1.000000
239.839035 -502.025482 1.249776 1.000000
239.839035 -502.025482 1.032645 1.000000
239.839035 -502.025482 0.813396 1.000000
239.839035 -502.025482 0.591518 1.000000
239.839035 -502.025482 0.366480 1.000000
239.814224 -501.984985 3.630089 1.000000
239.814224 -501.984955 3.405524 1.000000
239.814224 -501.984985 3.184113 1.000000
239.814224 -501.984985 2.965323 1.000000
239.814224 -501.984985 2.748649 1.000000
239.814224 -501.984985 2.533599 1.000000
239.814224 -501.984985 2.319702 1.000000
239.814224 -501.984985 2.106491 1.000000
239.814224 -501.984985 1.893509 1.000000
239.814224 -501.984985 1.680298 1.000000
239.814224 -501.984985 1.466400 1.000000
239.814224 -501.984985 1.251351 1.000000
239.814224 -501.984985 1.034676 1.000000
239.814224 -501.984985 0.815887 1.000000
239.814224 -501.984985 0.594475 1.000000
239.814224 -501.984985 0.369910 1.000000
239.789520 -501.944641 3.626754 1.000000
239.789520 -501.944641 3.402648 1.000000
239.789520 -501.944641 3.181690 1.000000
239.789520 -501.944641 2.963348 1.000000
239.789520 -501.944641 2.747117 1.000000
239.789520 -501.944641 2.532507 1.000000
239.789520 -501.944641 2.319048 1.000000
239.789520 -501.944641 2.106273 1.000000
239.789520 -501.944641 1.893727 1.000000
239.789520 -501.944641 1.680952 1.000000
239.789520 -501.944641 1.467492 1.000000
239.789520 -501.944641 1.252883 1.000000
239.789520 -501.944641 1.036652 1.000000
239.789520 -501.944641 0.818310 1.000000
239.789520 -501.944641 0.597351 1.000000
239.789520 -501.944641 0.373246 1.000000
239.764908 -501.904480 3.623510 1.000000
239.764908 -501.904480 3.399851 1.000000
239.764908 -501.904480 3.179333 1.000000
239.764908 -501.904480 2.961427 1.000000
239.764908 -501.904480 2.745627 1.000000
239.764908 -501.904480 2.531446 1.000000
239.764908 -501.904480 2.318411 1.000000
239.764908 -501.904480 2.106061 1.000000
239.764908 -501.904480 1.893939 1.000000
239.764908 -501.904480 1.681589 1.000000
239.764908 -501.904480 1.468554 1.000000
239.764908 -501.904480 1.254373 1.000000
239.764908 -501.904480 1.038573 1.000000
239.764908 -501.904480 0.820666 1.000000
239.764908 -501.904480 0.600148 1.000000
239.764908 -501.904480 0.376490 1.000000
239.740402 -501.864441 3.620358 1.000000
239.740402 -501.864441 3.397134 1.000000
239.740402 -501.864441 3.177043 1.000000
239.740402 -501.864441 2.959561 1.000000
239.740402 -501.864441 2.744179 1.000000
239.740402 -501.864441 2.530414 1.000000
239.740402 -501.864441 2.317793 1.000000
239.740402 -501.864471 2.105855 1.000000
239.740402 -501.864471 1.894145 1.000000
239.740402 -501.864441 1.682207 1.000000
239.740402 -501.864471 1.469586 1.000000
239.740387 -501.864471 1.255821 1.000000
239.740387 -501.864471 1.040439 1.000000
239.740387 -501.864471 0.822956 1.000000
239.740387 -501.864471 0.602865 1.000000
239.740387 -501.864471 0.379641 1.000000
239.715973 -501.824585 3.617297 1.000000
239.715973 -501.824585 3.394495 1.000000
239.715973 -501.824585 3.174820 1.000000
239.715973 -501.824585 2.957748 1.000000
239.715973 -501.824585 2.742774 1.000000
239.715973 -501.824585 2.529412 1.000000
239.715973 -501.824585 2.317193 1.000000
239.715973 -501.824585 2.105655 1.000000
239.715973 -501.824585 1.894345 1.000000
239.715973 -501.824585 1.682807 1.000000
239.715973 -501.824585 1.470588 1.000000
239.715973 -501.824585 1.257226 1.000000
239.715973 -501.824585 1.042252 1.000000
239.715973 -501.824585 0.825179 1.000000
239.715973 -501.824585 0.605505 1.000000
239.715973 -501.824585 0.382702 1.000000
239.691650 -501.784882 3.614326 1.000000
239.691650 -501.784882 3.391933 1.000000
239.691650 -501.784882 3.172662 1.000000
239.691650 -501.784882 2.955988 1.000000
239.691650 -501.784882 2.741409 1.000000
239.691650 -501.784882 2.528440 1.000000
239.691650 -501.784882 2.316610 1.000000
239.691650 -501.784882 2.105461 1.000000
239.691650 -501.784882 1.894539 1.000000
239.691650 -501.784882 1.683390 1.000000
239.691650 -501.784882 1.471560 1.000000
239.691650 -501.784882 1.258591 1.000000
239.691650 -501.784882 1.044011 1.000000
239.691650 -501.784882 0.827337 1.000000
239.691650 -501.784882 0.608066 1.000000
239.691650 -501.784882 0.385673 1.000000
239.667404 -501.745331 3.611445 1.000000
239.667419 -501.745331 3.389448 1.000000
239.667404 -501.745331 3.170569 1.000000
239.667404 -501.745331 2.954282 1.000000
239.667404 -501.745331 2.740086 1.000000
239.667404 -501.745331 2.527496 1.000000
239.667404 -501.745331 2.316045 1.000000
239.667404 -501.745331 2.105273 1.000000
239.667404 -501.745331 1.894727 1.000000
239.667404 -501.745331 1.683955 1.000000
239.667404 -501.745331 1.472503 1.000000
239.667404 -501.745331 1.259914 1.000000
239.667404 -501.745331 1.045717 1.000000
239.667404 -501.745331 0.829430 1.000000
239.667404 -501.745331 0.610551 1.000000
239.667404 -501.745331 0.388554 1.000000
239.643265 -501.705902 3.608652 1.000000
239.643265 -501.705902 3.387040 1.000000
239.643265 -501.705902 3.168540 1.000000
239.643265 -501.705902 2.952628 1.000000
239.643265 -501.705902 2.738803 1.000000
239.643265 -501.705902 2.526582 1.000000
239.643250 -501.705902 2.315497 1.000000
239.643250 -501.705902 2.105091 1.000000
239.643250 -501.705902 1.894909 1.000000
239.643250 -501.705902 1.684502 1.000000
239.643265 -501.705902 1.473418 1.000000
239.643250 -501.705902 1.261197 1.000000
239.643250 -501.705902 1.047372 1.000000
239.643250 -501.705902 0.831459 1.000000
239.643250 -501.705902 0.612960 1.000000
239.643250 -501.705902 0.391348 1.000000
239.619186 -501.666595 3.605947 1.000000
239.619186 -501.666595 3.384707 1.000000
239.619186 -501.666595 3.166575 1.000000
239.619186 -501.666595 2.951026 1.000000
239.619186 -501.666595 2.737561 1.000000
239.619186 -501.666595 2.525696 1.000000
239.619186 -501.666595 2.314967 1.000000
239.619186 -501.666595 2.104914 1.000000
239.619186 -501.666595 1.895086 1.000000
239.619186 -501.666595 1.685033 1.000000
239.619186 -501.666595 1.474303 1.000000
239.619186 -501.666595 1.262439 1.000000
239.619186 -501.666595 1.048974 1.000000
239.619186 -501.666595 0.833425 1.000000
239.619186 -501.666595 0.615292 1.000000
239.619186 -501.666595 0.394053 1.000000
239.595200 -501.627441 3.603328 1.000000
239.595200 -501.627441 3.382451 1.000000
239.595200 -501.627441 3.164673 1.000000
239.595200 -501.627441 2.949476 1.000000
239.595200 -501.627441 2.736358 1.000000
239.595200 -501.627441 2.524839 1.000000
239.595200 -501.627441 2.314453 1.000000
239.595200 -501.627441 2.104743 1.000000
239.595200 -501.627441 1.895257 1.000000
239.595200 -501.627441 1.685547 1.000000
239.595200 -501.627441 1.475160 1.000000
239.595200 -501.627441 1.263642 1.000000
239.595200 -501.627441 1.050524 1.000000
239.595200 -501.627441 0.835326 1.000000
239.595184 -501.627441 0.617549 1.000000
239.595200 -501.627441 0.396671 1.000000
239.571274 -501.588409 3.600796 1.000000
239.571274 -501.588409 3.380267 1.000000
239.571274 -501.588409 3.162834 1.000000
239.571274 -501.588409 2.947977 1.000000
239.571274 -501.588409 2.735195 1.000000
239.571274 -501.588409 2.524010 1.000000
239.571274 -501.588409 2.313957 1.000000
239.571274 -501.588409 2.104578 1.000000
239.571274 -501.588409 1.895422 1.000000
239.571274 -501.588409 1.686043 1.000000
239.571274 -501.588409 1.475989 1.000000
239.571274 -501.588409 1.264805 1.000000
239.571274 -501.588409 1.052023 1.000000
239.571274 -501.588409 0.837165 1.000000
239.571274 -501.588409 0.619732 1.000000
239.571274 -501.588409 0.399203 1.000000
239.547440 -501.549469 3.598351 1.000000
239.547440 -501.549469 3.378159 1.000000
239.547440 -501.549469 3.161058 1.000000
239.547440 -501.549469 2.946528 1.000000
239.547440 -501.549469 2.734072 1.000000
239.547440 -501.549469 2.523210 1.000000
239.547440 -501.549469 2.313477 1.000000
239.547440 -501.549469 2.104418 1.000000
239.547440 -501.549469 1.895582 1.000000
239.547440 -501.549469 1.686523 1.000000
239.547440 -501.549469 1.476790 1.000000
239.547440 -501.549469 1.265928 1.000000
239.547440 -501.549469 1.053472 1.000000
239.547440 -501.549469 0.838942 1.000000
239.547440 -501.549469 0.621841 1.000000
239.547440 -501.549469 0.401649 1.000000
239.523666 -501.510681 3.595990 1.000000
239.523666 -501.510681 3.376123 1.000000
239.523666 -501.510681 3.159343 1.000000
239.523666 -501.510681 2.945130 1.000000
239.523666 -501.510681 2.732988 1.000000
239.523666 -501.510681 2.522437 1.000000
239.523666 -501.510681 2.313014 1.000000
239.523666 -501.510681 2.104263 1.000000
239.523666 -501.510681 1.895736 1.000000
239.523666 -501.510681 1.686986 1.000000
239.523666 -501.510681 1.477563 1.000000
239.523666 -501.510681 1.267012 1.000000
239.523666 -501.510681 1.054870 1.000000
239.523666 -501.510681 0.840657 1.000000
239.523666 -501.510681 0.623877 1.000000
239.523666 -501.510681 0.404010 1.000000
239.499969 -501.471985 3.593714 1.000000
239.499969 -501.471985 3.374160 1.000000
239.499969 -501.471985 3.157689 1.000000
239.499969 -501.471985 2.943782 1.000000
239.499969 -501.471985 2.731943 1.000000
239.499969 -501.471985 2.521692 1.000000
239.499969 -501.471985 2.312568 1.000000
239.499969 -501.471985 2.104115 1.000000
239.499969 -501.471985 1.895885 1.000000
239.499969 -501.471985 1.687432 1.000000
239.499969 -501.471985 1.478308 1.000000
239.499969 -501.471985 1.268057 1.000000
239.499969 -501.471985 1.056218 1.000000
239.499969 -501.471985 0.842310 1.000000
239.499969 -501.471985 0.625840 1.000000
239.499969 -501.471985 0.406285 1.000000
239.476334 -501.433411 3.591521 1.000000
239.476334 -501.433411 3.372270 1.000000
239.476334 -501.433411 3.156096 1.000000
239.476334 -501.433411 2.942484 1.000000
239.476334 -501.433411 2.730936 1.000000
239.476334 -501.433411 2.520974 1.000000
239.476334 -501.433411 2.312138 1.000000
239.476334 -501.433411 2.103971 1.000000
239.476334 -501.433411 1.896028 1.000000
239.476334 -501.433411 1.687862 1.000000
239.476334 -501.433411 1.479025 1.000000
239.476334 -501.433411 1.269064 1.000000
239.476334 -501.433411 1.057516 1.000000
239.476334 -501.433411 0.843903 1.000000
239.476334 -501.433411 0.627729 1.000000
239.476334 -501.433411 0.408478 1.000000
239.452759 -501.394928 3.589412 1.000000
239.452759 -501.394928 3.370451 1.000000
239.452759 -501.394928 3.154565 1.000000
239.452759 -501.394928 2.941235 1.000000
239.452759 -501.394928 2.729967 1.000000
239.452759 -501.394928 2.520284 1.000000
239.452759 -501.394928 2.311724 1.000000
239.452759 -501.394928 2.103834 1.000000
239.452759 -501.394928 1.896166 1.000000
239.452759 -501.394928 1.688276 1.000000
239.452759 -501.394928 1.479716 1.000000
239.452759 -501.394928 1.270033 1.000000
239.452759 -501.394928 1.058765 1.000000
239.452759 -501.394928 0.845435 1.000000
239.452759 -501.394928 0.629548 1.000000
239.452759 -501.394928 0.410587 1.000000
239.429260 -501.356567 3.587387 1.000000
239.429260 -501.356567 3.368704 1.000000
239.429260 -501.356567 3.153093 1.000000
239.429260 -501.356567 2.940035 1.000000
239.429260 -501.356567 2.729036 1.000000
239.429260 -501.356567 2.519621 1.000000
239.429260 -501.356567 2.311327 1.000000
239.429260 -501.356567 2.103702 1.000000
239.429260 -501.356567 1.896298 1.000000
239.429260 -501.356567 1.688673 1.000000
239.429260 -501.356567 1.480379 1.000000
239.429260 -501.356567 1.270964 1.000000
239.429260 -501.356567 1.059965 1.000000
239.429260 -501.356567 0.846907 1.000000
239.429260 -501.356567 0.631295 1.000000
239.429260 -501.356567 0.412613 1.000000
239.405807 -501.318298 3.585442 1.000000
239.405807 -501.318298 3.367029 1.000000
239.405807 -501.318298 3.151681 1.000000
239.405807 -501.318298 2.938884 1.000000
239.405807 -501.318298 2.728144 1.000000
239.405807 -501.318298 2.518984 1.000000
239.405807 -501.318298 2.310945 1.000000
239.405807 -501.318298 2.103574 1.000000
239.405807 -501.318298 1.896426 1.000000
239.405807 -501.318298 1.689054 1.000000
239.405807 -501.318298 1.481015 1.000000
239.405807 -501.318298 1.271856 1.000000
239.405807 -501.318298 1.061116 1.000000
239.405807 -501.318298 0.848319 1.000000
239.405807 -501.318298 0.632971 1.000000
239.405807 -501.318298 0.414557 1.000000
239.382416 -501.280090 3.583580 1.000000
239.382416 -501.280090 3.365423 1.000000
239.382416 -501.280090 3.150328 1.000000
239.382416 -501.280090 2.937781 1.000000
239.382416 -501.280090 2.727288 1.000000
239.382416 -501.280090 2.518375 1.000000
239.382416 -501.280090 2.310580 1.000000
239.382416 -501.280090 2.103453 1.000000
239.382416 -501.280090 1.896547 1.000000
239.382416 -501.280090 1.689420 1.000000
239.382416 -501.280090 1.481625 1.000000
239.382416 -501.280090 1.272711 1.000000
239.382416 -501.280090 1.062218 1.000000
239.382416 -501.280090 0.849671 1.000000
239.382416 -501.280090 0.634577 1.000000
239.382416 -501.280090 0.416419 1.000000
239.359070 -501.242004 3.581800 1.000000
239.359070 -501.242004 3.363888 1.000000
239.359070 -501.242004 3.149035 1.000000
239.359070 -501.242004 2.936727 1.000000
239.359070 -501.242004 2.726471 1.000000
239.359070 -501.242004 2.517792 1.000000
239.359070 -501.242004 2.310231 1.000000
239.359070 -501.242004 2.103336 1.000000
239.359070 -501.242004 1.896664 1.000000
239.359070 -501.242004 1.689769 1.000000
239.359070 -501.242004 1.482208 1.000000
239.359070 -501.242004 1.273529 1.000000
239.359070 -501.242004 1.063273 1.000000
239.359070 -501.242004 0.850965 1.000000
239.359070 -501.242004 0.636112 1.000000
239.359070 -501.242004 0.418200 1.000000
239.335785 -501.203979 3.580100 1.000000
239.335785 -501.203979 3.362422 1.000000
239.335785 -501.203979 3.147800 1.000000
239.335785 -501.203979 2.935720 1.000000
239.335785 -501.203979 2.725690 1.000000
239.335785 -501.203979 2.517236 1.000000
239.335785 -501.203979 2.309898 1.000000
239.335785 -501.203979 2.103226 1.000000
239.335785 -501.203979 1.896775 1.000000
239.335785 -501.203979 1.690102 1.000000
239.335785 -501.203979 1.482764 1.000000
239.335785 -501.203979 1.274310 1.000000
239.335785 -501.203979 1.064280 1.000000
239.335785 -501.203979 0.852199 1.000000
239.335785 -501.203979 0.637578 1.000000
239.335785 -501.203979 0.419899 1.000000
239.312546 -501.166046 3.578481 1.000000
239.312546 -501.166046 3.361026 1.000000
239.312546 -501.166046 3.146624 1.000000
239.312546 -501.166046 2.934762 1.000000
239.312546 -501.166046 2.724946 1.000000
239.312546 -501.166046 2.516706 1.000000
239.312546 -501.166046 2.309580 1.000000
239.312546 -501.166046 2.103120 1.000000
239.312546 -501.166046 1.896880 1.000000
239.312546 -501.166046 1.690420 1.000000
239.312546 -501.166046 1.483294 1.000000
239.312546 -501.166046 1.275054 1.000000
239.312546 -501.166046 1.065238 1.000000
239.312546 -501.166046 0.853376 1.000000
239.312546 -501.166046 0.638973 1.000000
239.312546 -501.166046 0.421518 1.000000
239.289352 -501.128174 3.576942 1.000000
239.289352 -501.128204 3.359699 1.000000
239.289352 -501.128204 3.145506 1.000000
239.289352 -501.128204 2.933850 1.000000
239.289352 -501.128204 2.724240 1.000000
239.289352 -501.128204 2.516202 1.000000
239.289352 -501.128204 2.309278 1.000000
239.289352 -501.128204 2.103019 1.000000
239.289352 -501.128204 1.896981 1.000000
239.289352 -501.128204 1.690722 1.000000
239.289352 -501.128204 1.483798 1.000000
239.289352 -501.128204 1.275760 1.000000
239.289352 -501.128204 1.066149 1.000000
239.289352 -501.128204 0.854493 1.000000
239.289352 -501.128204 0.640300 1.000000
239.289352 -501.128204 0.423057 1.000000
239.266205 -501.090393 3.575483 1.000000
239.266205 -501.090393 3.358441 1.000000
239.266205 -501.090393 3.144446 1.000000
239.266205 -501.090393 2.932986 1.000000
239.266205 -501.090393 2.723569 1.000000
239.266205 -501.090393 2.515724 1.000000
239.266205 -501.090393 2.308992 1.000000
239.266205 -501.090393 2.102924 1.000000
239.266205 -501.090393 1.897076 1.000000
239.266205 -501.090393 1.691008 1.000000
239.266205 -501.090393 1.484275 1.000000
239.266205 -501.090393 1.276430 1.000000
239.266205 -501.090393 1.067014 1.000000
239.266205 -501.090393 0.855554 1.000000
239.266205 -501.090393 0.641559 1.000000
239.266205 -501.090393 0.424516 1.000000
239.243088 -501.052673 3.574103 1.000000
239.243088 -501.052673 3.357251 1.000000
239.243088 -501.052673 3.143444 1.000000
239.243088 -501.052673 2.932169 1.000000
239.243088 -501.052673 2.722936 1.000000
239.243088 -501.052673 2.515273 1.000000
239.243088 -501.052673 2.308721 1.000000
239.243088 -501.052673 2.102834 1.000000
239.243088 -501.052673 1.897166 1.000000
239.243088 -501.052673 1.691278 1.000000
239.243088 -501.052673 1.484727 1.000000
239.243088 -501.052673 1.277064 1.000000
239.243088 -501.052673 1.067831 1.000000
239.243088 -501.052673 0.856556 1.000000
239.243088 -501.052673 0.642749 1.000000
239.243088 -501.052673 0.425896 1.000000
239.220032 -501.015015 3.572802 1.000000
239.220032 -501.015015 3.356129 1.000000
239.220032 -501.015015 3.142499 1.000000
239.220032 -501.015015 2.931398 1.000000
239.220032 -501.015015 2.722338 1.000000
239.220032 -501.015015 2.514847 1.000000
