# This PCD file was generated using the MATLAB® pcwrite function
# from Computer Vision Toolbox®.
# .PCD v.7 - Point Cloud Data file format
VERSION .7
FIELDS x y z intensity
SIZE 4 4 4 4
TYPE F F F F
COUNT 1 1 1 1
WIDTH 1243
HEIGHT 1
VIEWPOINT 0 0 0 1 0 0 0
POINTS 1243
DATA ascii
86.773369 -234.509705 3.749876 0.602701
86.772133 -234.510117 3.247117 0.634760
86.770889 -234.510544 2.747136 0.710887
86.769653 -234.510956 2.248846 0.754543
86.768425 -234.511368 1.751175 0.721813
86.767197 -234.511780 1.253055 0.640665
86.766006 -234.512177 0.753412 0.722545
86.764778 -234.512604 0.251168 1.000000
85.135918 -235.061279 -0.000023 0.217384
82.774979 -235.856552 -0.000022 0.206829
81.134041 -236.409302 -0.000022 0.248908
79.925072 -236.816544 -0.000021 0.248166
80.191864 -236.787430 4.065730 0.395163
81.452843 -236.372452 4.067864 0.400610
86.838425 -234.600082 4.773756 0.713558
82.538155 -236.015274 3.589707 0.420890
86.835938 -234.600906 3.753389 0.625208
86.834709 -234.601318 3.249623 0.740322
86.833458 -234.601730 2.748636 0.684123
86.832214 -234.602127 2.249346 0.769467
86.830971 -234.602539 1.750675 0.729656
86.829742 -234.602951 1.251555 0.790722
86.828537 -234.603348 0.750909 0.722591
86.827293 -234.603745 0.247657 1.000000
85.165657 -235.150589 -0.000023 0.264980
82.799225 -235.929367 -0.000023 0.251469
81.154465 -236.470642 -0.000022 0.218605
79.942688 -236.869431 -0.000021 0.217253
80.208946 -236.842407 4.065539 0.388067
81.873352 -236.307510 4.158572 0.401999
81.479858 -236.433975 3.743327 0.388235
82.526489 -236.097610 3.584285 0.396078
86.898758 -234.692490 3.757004 0.659236
86.897522 -234.692886 3.252199 0.711299
86.896278 -234.693283 2.750180 0.698772
86.895027 -234.693680 2.249860 0.666209
86.893776 -234.694077 1.750161 0.680827
86.892532 -234.694489 1.250012 0.732403
86.891319 -234.694870 0.748335 0.622873
86.890076 -234.695267 0.244045 1.000000
85.194771 -235.240097 -0.000024 0.195806
82.822960 -236.002335 -0.000023 0.212884
81.174461 -236.532120 -0.000022 0.209749
79.959923 -236.922440 -0.000021 0.237981
81.083618 -236.628372 4.290586 0.397940
81.538025 -236.485825 4.077888 0.408164
86.964363 -234.783646 4.785354 0.728695
83.841812 -235.763153 3.785261 0.398444
86.961838 -234.784439 3.760720 0.669398
86.960587 -234.784836 3.254846 0.699062
86.959358 -234.785217 2.751767 0.811994
86.958099 -234.785614 2.250388 0.705592
86.956841 -234.786011 1.749633 0.715770
86.955597 -234.786407 1.248426 0.727535
86.954369 -234.786789 0.745689 0.649943
86.953110 -234.787186 0.240333 1.000000
85.223259 -235.329819 -0.000024 0.230716
82.846184 -236.075470 -0.000023 0.206900
81.194031 -236.593735 -0.000022 0.215481
79.976791 -236.975571 -0.000021 0.223260
81.185211 -236.664047 4.312249 0.396078
81.537888 -236.556107 4.073367 0.403113
82.234261 -236.343002 3.879261 0.388235
83.865730 -235.843704 3.785113 0.402152
83.847580 -235.849258 3.382246 0.388434
87.023941 -234.877182 3.257566 0.615274
87.022690 -234.877563 2.753397 0.755016
87.021446 -234.877945 2.250932 0.754162
87.020180 -234.878326 1.749090 0.708980
87.018921 -234.878708 1.246797 0.776715
87.017685 -234.879089 0.742970 0.751186
87.016418 -234.879486 0.236519 1.000000
85.251122 -235.419724 -0.000025 0.218689
82.868896 -236.148773 -0.000023 0.242804
81.213165 -236.655487 -0.000023 0.223476
79.993294 -237.028809 -0.000022 0.225845
81.115906 -236.751968 4.289260 0.395758
81.624886 -236.600082 4.088605 0.396078
82.130188 -236.449295 3.855538 0.406806
84.126450 -235.853577 3.821709 0.393866
87.088821 -234.969543 3.768456 0.763210
87.087570 -234.969925 3.260361 0.607034
87.086311 -234.970306 2.755071 0.731670
87.085060 -234.970673 2.251489 0.739040
87.083794 -234.971054 1.748533 0.842237
87.082520 -234.971436 1.245124 0.684245
87.081276 -234.971802 0.740178 0.757824
87.080002 -234.972183 0.232602 1.000000
85.278351 -235.509827 -0.000025 0.201216
82.891098 -236.222229 -0.000023 0.195842
81.231865 -236.717377 -0.000023 0.194657
80.009422 -237.082169 -0.000022 0.227353
81.383202 -236.740692 4.354283 0.397131
81.025520 -236.844711 3.949500 0.393240
81.792503 -236.621643 3.787735 0.400717
83.579620 -236.101898 3.733491 0.400351
87.152733 -235.062729 3.772480 0.659297
87.151466 -235.063095 3.263227 0.758007
87.150215 -235.063461 2.756788 0.759793
87.148956 -235.063828 2.252061 0.703639
87.147697 -235.064194 1.747960 0.724086
87.146416 -235.064575 1.243406 0.744976
87.145157 -235.064941 0.737311 0.744839
87.143875 -235.065308 0.228582 1.000000
85.304962 -235.600128 -0.000025 0.248178
82.912788 -236.295837 -0.000024 0.204698
81.250137 -236.779388 -0.000023 0.207630
80.025177 -237.135635 -0.000022 0.247328
81.465614 -236.785538 4.371027 0.401068
81.126015 -236.881744 3.968156 0.399710
83.241516 -236.282471 4.058187 0.394064
83.436844 -236.227142 3.708009 0.398764
87.216957 -235.156342 3.776610 0.742245
87.215668 -235.156708 3.266170 0.753292
87.214409 -235.157059 2.758551 0.776471
87.213150 -235.157410 2.252648 0.694331
87.211884 -235.157776 1.747373 0.740215
87.210602 -235.158142 1.241643 0.743786
87.209335 -235.158493 0.734370 0.746212
87.208038 -235.158859 0.224456 1.000000
85.330933 -235.690598 -0.000025 0.256914
82.933960 -236.369598 -0.000024 0.208121
81.267975 -236.841522 -0.000023 0.222423
80.040558 -237.189224 -0.000023 0.257106
81.498283 -236.845078 4.374893 0.403906
81.232597 -236.918335 3.988198 0.396750
87.284149 -235.249649 4.817209 0.667536
87.282814 -235.250015 4.296467 0.759441
87.281494 -235.250381 3.780848 0.724025
87.280182 -235.250732 3.269188 0.777035
87.278893 -235.251099 2.760358 0.750851
87.277626 -235.251450 2.253250 0.751812
87.276360 -235.251801 1.746771 0.741421
87.275093 -235.252136 1.239835 0.790021
87.273804 -235.252502 0.731353 0.657801
87.272507 -235.252853 0.220224 1.000000
85.356270 -235.781250 -0.000026 0.267542
82.954620 -236.443497 -0.000024 0.223667
81.285378 -236.903793 -0.000023 0.215098
80.055565 -237.242905 -0.000022 0.197386
81.332672 -236.958038 4.327436 0.396078
81.996544 -236.779953 4.155255 0.396078
83.186508 -236.460739 4.039915 0.402121
83.989601 -236.245316 3.786338 0.396078
87.346329 -235.344879 3.785192 0.752361
87.345016 -235.345230 3.272284 0.804059
87.343704 -235.345581 2.762213 0.708843
87.342430 -235.345917 2.253868 0.769329
87.341156 -235.346268 1.746154 0.744244
87.339874 -235.346603 1.237982 0.678264
87.338593 -235.346954 0.728260 0.674937
87.337288 -235.347305 0.215885 1.000000
85.380981 -235.872086 -0.000026 0.266991
82.974754 -236.517548 -0.000024 0.206529
81.302353 -236.966171 -0.000024 0.270139
80.070190 -237.296692 -0.000023 0.201072
81.452065 -236.993942 4.354049 0.398199
82.005989 -236.849487 4.153388 0.409171
83.319977 -236.506821 4.061250 0.403357
83.507080 -236.458038 3.709073 0.401266
84.371498 -236.232605 3.428226 0.400168
87.410164 -235.440186 3.275458 0.846342
87.408852 -235.440536 2.764114 0.724941
87.407562 -235.440872 2.254501 0.473548
87.406281 -235.441193 1.745521 0.497078
87.404999 -235.441528 1.236082 0.472786
87.403702 -235.441864 0.725089 0.711238
87.402390 -235.442215 0.211437 1.000000
85.405045 -235.963074 -0.000026 0.202029
82.994385 -236.591736 -0.000024 0.222626
81.318878 -237.028671 -0.000024 0.263508
80.084450 -237.350586 -0.000023 0.217875
81.429489 -237.067337 4.343995 0.404700
82.015396 -236.918900 4.151624 0.406729
83.454315 -236.554367 4.082770 0.404929
84.639961 -236.254013 3.879365 0.395148
84.024406 -236.409943 3.384475 0.402319
87.475647 -235.535629 3.278710 0.771405
87.474327 -235.535950 2.766062 0.717235
87.473030 -235.536285 2.255150 0.556909
87.471741 -235.536606 1.744872 0.564157
87.470436 -235.536942 1.234135 0.530297
87.469139 -235.537277 0.721840 0.758618
87.467812 -235.537613 0.206879 1.000000
85.428482 -236.054245 -0.000026 0.214261
83.013489 -236.666046 -0.000025 0.246035
81.334976 -237.091278 -0.000024 0.236461
80.098328 -237.404572 -0.000023 0.261175
81.835823 -237.034683 4.444729 0.396078
82.024742 -236.988220 4.149956 0.407843
87.545525 -235.630554 4.845743 0.493111
83.555298 -236.611832 3.710403 0.400671
87.542816 -235.631226 3.798884 0.685420
87.541473 -235.631546 3.282042 0.759899
87.540138 -235.631882 2.768057 0.770382
87.538834 -235.632202 2.255814 0.546075
87.537529 -235.632523 1.744208 0.491646
87.536217 -235.632843 1.232141 0.436210
87.534912 -235.633163 0.718512 0.660822
87.533577 -235.633499 0.202210 1.000000
85.451279 -236.145569 -0.000026 0.192264
83.032074 -236.740509 -0.000025 0.230417
81.350632 -237.154007 -0.000024 0.265734
80.111824 -237.458649 -0.000023 0.248034
81.809555 -237.111008 4.433833 0.398245
82.297180 -236.994690 4.206813 0.398886
87.611717 -235.727020 4.853317 0.328954
84.802589 -236.397079 3.897723 0.392401
84.196510 -236.541641 3.400084 0.400809
87.607643 -235.727982 3.285453 0.750118
87.606293 -235.728302 2.770101 0.725185
87.604980 -235.728622 2.256495 0.327779
87.603676 -235.728928 1.743527 0.317617
87.602341 -235.729248 1.230098 0.319188
87.601036 -235.729568 0.715103 0.847517
87.599693 -235.729889 0.197428 1.000000
85.473442 -236.237061 -0.000026 0.217444
83.050140 -236.815079 -0.000025 0.231865
81.365852 -237.216843 -0.000024 0.238950
80.124947 -237.512833 -0.000023 0.208731
81.618187 -237.224854 4.380647 0.398566
87.679665 -235.823669 5.396360 0.361624
87.678268 -235.823990 4.861072 0.314870
84.836449 -236.480911 3.899769 0.396765
84.822258 -236.484192 3.471675 0.404303
87.674164 -235.824936 3.288946 0.789639
87.672813 -235.825256 2.772194 0.681712
87.671486 -235.825562 2.257192 0.319554
87.670166 -235.825867 1.742831 0.235645
87.668823 -235.826172 1.228008 0.236072
87.667511 -235.826477 0.711614 0.830320
87.666153 -235.826797 0.192534 1.000000
85.494957 -236.328690 -0.000026 0.198248
83.067688 -236.889786 -0.000025 0.204746
81.380638 -237.279770 -0.000024 0.248608
80.137695 -237.567093 -0.000023 0.198427
81.580566 -237.301270 4.367213 0.396063
81.924042 -237.224396 4.117118 0.397742
87.745186 -235.921509 4.869010 0.256886
83.133591 -236.953674 3.637909 0.381399
84.879547 -236.562897 3.476093 0.396078
87.741058 -235.922424 3.292521 0.730297
87.739693 -235.922729 2.774335 0.686213
87.738358 -235.923035 2.257905 0.338598
87.737022 -235.923325 1.742118 0.234363
87.735672 -235.923630 1.225867 0.259937
87.734344 -235.923935 0.708042 0.848219
87.732994 -235.924240 0.187523 1.000000
85.515839 -236.420471 -0.000026 0.246131
83.084702 -236.964615 -0.000025 0.213937
81.394974 -237.342804 -0.000024 0.182199
80.150063 -237.621445 -0.000024 0.240614
81.543083 -237.376892 4.353970 0.413153
87.813904 -236.019257 5.415427 0.261967
84.296379 -236.780807 4.222533 0.399680
82.927338 -237.077194 3.604090 0.354818
84.707863 -236.691711 3.453618 0.402914
87.808327 -236.020462 3.296179 0.781888
87.806946 -236.020767 2.776527 0.624338
87.805603 -236.021057 2.258635 0.346380
87.804253 -236.021347 1.741388 0.195453
87.802895 -236.021637 1.223677 0.317723
87.801567 -236.021927 0.704387 0.781949
87.800194 -236.022217 0.182397 1.000000
85.536079 -236.512405 -0.000026 0.226193
83.101204 -237.039551 -0.000026 0.218342
81.408875 -237.405945 -0.000024 0.254257
80.162048 -237.675888 -0.000024 0.222901
81.880798 -237.373260 4.436899 0.396979
87.881592 -236.117889 5.425291 0.332143
84.209961 -236.886002 4.203168 0.396078
82.919655 -237.155930 3.600545 0.369680
85.235718 -236.671402 3.513499 0.401892
87.875977 -236.119064 3.299922 0.798657
87.874596 -236.119354 2.778769 0.656886
87.873245 -236.119629 2.259381 0.357580
87.871872 -236.119919 1.740641 0.211078
87.870499 -236.120209 1.221437 0.264057
87.869171 -236.120483 0.700648 0.777661
87.867783 -236.120773 0.177151 1.000000
85.555679 -236.604477 -0.000027 0.225439
83.117180 -237.114609 -0.000025 0.229735
81.422333 -237.469177 -0.000024 0.218581
80.173653 -237.730408 -0.000024 0.224804
87.951134 -236.216797 5.984634 0.585153
87.949677 -236.217087 5.435382 0.493751
84.108643 -236.992691 4.181200 0.403525
82.921196 -237.232468 3.598483 0.365347
84.962830 -236.820206 3.479301 0.397223
87.944023 -236.218231 3.303750 0.718486
87.942627 -236.218506 2.781062 0.758495
87.941261 -236.218781 2.260145 0.605402
87.939880 -236.219070 1.739878 0.477272
87.938499 -236.219345 1.219145 0.460227
87.937164 -236.219620 0.696824 0.711849
87.935776 -236.219894 0.171786 1.000000
85.574631 -236.696671 -0.000027 0.230094
83.132637 -237.189774 -0.000026 0.235468
81.435349 -237.532501 -0.000024 0.198260
80.184875 -237.785004 -0.000024 0.261809
88.019638 -236.316589 5.996604 0.772549
88.018173 -236.316879 5.445700 0.542840
88.016724 -236.317169 4.902632 0.389731
82.924522 -237.308472 3.596774 0.361578
84.492447 -237.003235 3.422126 0.397314
88.012474 -236.317993 3.307664 0.635416
88.011070 -236.318268 2.783407 0.652369
88.009689 -236.318527 2.260926 0.923247
82.767792 -237.338974 1.826462 0.396078
82.783325 -237.335953 1.478237 0.363470
88.005562 -236.319336 0.692913 0.728145
88.004166 -236.319611 0.166300 1.000000
85.592941 -236.789001 -0.000027 0.207774
83.147552 -237.265045 -0.000025 0.217420
81.447929 -237.595917 -0.000025 0.259236
80.195717 -237.839691 -0.000024 0.244695
81.205421 -237.707138 4.254681 0.396078
88.087082 -236.417282 5.456249 0.605661
82.495438 -237.465347 3.876636 0.361578
82.880707 -237.393143 3.588032 0.362646
84.956886 -237.003983 3.474590 0.405402
82.839691 -237.400833 2.874391 0.399207
82.792953 -237.409592 2.521548 0.367041
82.758232 -237.416092 2.173147 0.381613
82.723900 -237.422531 1.827424 0.365667
82.738365 -237.419815 1.481180 0.374334
82.782494 -237.411545 1.130380 0.409552
82.835442 -237.401627 0.773712 0.389425
85.610611 -236.881454 -0.000027 0.227832
82.763924 -237.415024 0.073661 0.385458
81.460060 -237.659424 -0.000025 0.231925
80.206177 -237.894440 -0.000024 0.265316
82.851883 -237.474274 4.670850 0.389075
82.861404 -237.472565 4.304996 0.366751
82.858650 -237.473053 3.941382 0.404746
82.833847 -237.477524 3.578933 0.363897
82.848770 -237.474838 3.226273 0.343450
82.790840 -237.485275 2.869200 0.358175
82.746017 -237.493362 2.518537 0.377111
82.712845 -237.499329 2.172171 0.382666
82.700844 -237.501495 1.828029 0.390799
82.693268 -237.502869 1.484096 0.357351
82.734795 -237.495377 1.135469 0.354055
82.783646 -237.486572 0.781340 0.313954
82.794884 -237.484543 0.426939 0.364263
82.713531 -237.499207 0.085449 0.386084
81.471748 -237.723007 -0.000025 0.194155
80.216255 -237.949265 -0.000024 0.263365
82.842453 -237.551453 4.665160 0.371801
82.856873 -237.548950 4.301164 0.379416
82.857506 -237.548843 3.938779 0.398093
82.835419 -237.552673 3.577224 0.419501
82.809067 -237.557236 3.220126 0.374166
82.774536 -237.563202 2.866771 0.394797
82.744255 -237.568451 2.517810 0.396994
82.729820 -237.570938 2.172240 0.365454
82.741974 -237.568832 1.827558 0.388296
82.731903 -237.570587 1.482806 0.371710
82.727760 -237.571304 1.137120 0.404181
82.734985 -237.570053 0.788523 0.388815
82.746529 -237.568054 0.436158 0.361028
82.666351 -237.581924 0.096519 0.362173
81.482994 -237.786667 -0.000025 0.211891
80.225952 -238.004150 -0.000025 0.259978
82.926735 -237.612778 4.683410 0.378012
82.900543 -237.617111 4.308004 0.376974
82.901802 -237.616898 3.944657 0.386740
82.879059 -237.620682 3.581922 0.351232
82.851151 -237.625305 3.223591 0.398123
82.816620 -237.631027 2.869245 0.380804
82.785942 -237.636124 2.519274 0.403540
82.771095 -237.638580 2.172721 0.395178
82.784081 -237.636429 1.827063 0.405844
82.773087 -237.638245 1.481367 0.373449
82.767654 -237.639145 1.134825 0.404395
82.759460 -237.640503 0.787101 0.345876
82.733261 -237.644852 0.440002 0.387030
82.684021 -237.653015 0.095511 0.340856
81.493790 -237.850403 -0.000025 0.224445
80.235268 -238.059113 -0.000025 0.207487
88.368637 -236.825027 6.060551 0.722866
88.367111 -236.825256 5.500826 0.745754
88.365608 -236.825500 4.949065 0.791119
88.364120 -236.825729 4.403942 0.735134
82.893707 -237.693741 3.227163 0.396719
82.899826 -237.692764 2.875169 0.383291
82.906952 -237.691635 2.524705 0.376333
82.955917 -237.683868 2.175588 0.365347
88.356857 -236.826889 1.734926 0.816587
82.989090 -237.678604 1.471209 0.384756
82.808220 -237.707306 1.132436 0.399176
82.799377 -237.708710 0.783824 0.372122
82.773239 -237.712845 0.435762 0.386145
82.722511 -237.720901 0.090575 0.367102
81.504150 -237.914215 -0.000026 0.276936
80.244194 -238.114136 -0.000024 0.272939
84.423096 -237.537323 5.056570 0.398581
81.711334 -237.948212 4.043118 0.394278
88.436752 -236.929153 4.958967 0.818875
88.435257 -236.929382 4.412012 0.688853
88.433777 -236.929611 3.870443 0.773129
88.432304 -236.929840 3.333037 0.720806
88.430847 -236.930054 2.798606 0.833310
88.429382 -236.930283 2.265988 0.776654
88.427925 -236.930496 1.734036 0.826032
88.426476 -236.930725 1.201611 0.690455
88.425049 -236.930939 0.667564 0.812924
82.841995 -237.776886 0.780181 0.378256
82.811760 -237.781464 0.431676 0.353079
82.759537 -237.789383 0.085828 0.362509
81.514053 -237.978104 -0.000026 0.218928
80.252739 -238.169220 -0.000025 0.209090
84.888641 -237.556168 5.171236 0.396521
81.694427 -238.017380 4.037321 0.402716
81.422928 -238.056580 3.666469 0.396078
84.107246 -237.668991 3.760864 0.405859
88.505386 -237.033966 3.876836 0.783795
88.503899 -237.034180 3.337592 0.721523
88.502426 -237.034393 2.801334 0.775830
88.500961 -237.034607 2.266896 0.791959
88.499489 -237.034805 1.733128 0.788388
88.498024 -237.035019 1.198884 0.719539
88.496582 -237.035233 0.663014 0.773312
88.495102 -237.035446 0.124359 1.000000
85.703003 -237.438583 -0.000027 0.216032
83.237282 -237.794617 -0.000026 0.232236
81.523521 -238.042053 -0.000026 0.199026
80.260895 -238.224365 -0.000025 0.193113
83.854523 -237.787338 4.906658 0.407721
84.729301 -237.667252 4.696935 0.388235
88.580475 -237.138611 4.979404 0.777371
88.578987 -237.138824 4.428675 0.697932
84.865662 -237.648544 3.452349 0.388235
88.575989 -237.139236 3.342245 0.701793
88.574501 -237.139435 2.804121 0.824857
88.573021 -237.139633 2.267825 0.872236
88.571548 -237.139847 1.732200 0.824445
88.570068 -237.140045 1.196099 0.729747
88.568611 -237.140244 0.658366 0.726925
88.567123 -237.140442 0.117840 1.000000
85.716125 -237.531799 -0.000027 0.248836
83.247986 -237.870590 -0.000026 0.214656
81.532532 -238.106079 -0.000026 0.260253
80.268669 -238.279556 -0.000024 0.210838
81.986610 -238.112167 4.432110 0.394614
81.766815 -238.140778 4.049186 0.398062
81.441574 -238.183105 3.666699 0.392538
88.651566 -237.244644 4.437265 0.728359
88.650070 -237.244843 3.890027 0.721187
88.648590 -237.245026 3.346995 0.724941
88.647095 -237.245224 2.806967 0.736736
88.645599 -237.245422 2.268772 0.840391
88.644112 -237.245605 1.731252 0.820905
88.642624 -237.245804 1.193254 0.733074
88.641144 -237.246002 0.653620 0.744930
88.639641 -237.246201 0.111183 1.000000
85.728607 -237.625092 -0.000028 0.260385
83.258156 -237.946655 -0.000026 0.296982
81.541107 -238.170151 -0.000026 0.243414
80.276054 -238.334808 -0.000025 0.241212
82.038101 -238.174118 4.442957 0.396078
81.822067 -238.200714 4.059399 0.404074
88.726242 -237.351028 5.000717 0.743694
88.724686 -237.351212 4.446040 0.698604
84.726433 -237.843277 3.433574 0.400793
88.721664 -237.351578 3.351841 0.711482
88.720184 -237.351761 2.809872 0.734615
88.718689 -237.351944 2.269740 0.838132
88.717186 -237.352142 1.730285 0.748150
88.715683 -237.352325 1.190351 0.768978
88.714195 -237.352509 0.648775 0.647822
88.712677 -237.352692 0.104386 1.000000
85.740433 -237.718475 -0.000028 0.215840
83.267792 -238.022781 -0.000026 0.223488
81.549225 -238.234283 -0.000026 0.194801
80.283058 -238.390106 -0.000025 0.238484
81.800102 -238.270264 4.380904 0.398535
81.875565 -238.261520 4.069313 0.395117
88.799934 -237.458374 5.011713 0.656413
88.798370 -237.458557 4.455003 0.675822
84.721809 -237.931396 3.431843 0.402869
88.795273 -237.458923 3.356790 0.693156
88.793777 -237.459091 2.812836 0.660563
88.792290 -237.459259 2.270727 0.720333
88.790802 -237.459442 1.729297 0.701747
88.789284 -237.459610 1.187386 0.684077
88.787781 -237.459793 0.643828 0.727047
88.786247 -237.459961 0.097446 1.000000
85.751602 -237.811951 -0.000027 0.241535
83.276901 -238.098984 -0.000026 0.238831
81.556892 -238.298477 -0.000026 0.242876
80.289673 -238.445465 -0.000025 0.315090
81.838875 -238.332794 4.388804 0.393378
88.875778 -237.566345 5.588531 0.597436
88.874176 -237.566528 5.022938 0.674403
84.453262 -238.048050 3.804729 0.392676
84.341110 -238.060257 3.386663 0.401175
88.869461 -237.567047 3.361845 0.794293
88.867920 -237.567200 2.815862 0.717601
88.866417 -237.567368 2.271735 0.659693
88.864914 -237.567535 1.728290 0.612787
88.863419 -237.567703 1.184360 0.549249
88.861908 -237.567871 0.638778 0.696712
88.860359 -237.568039 0.090364 1.000000
85.762123 -237.905487 -0.000028 0.227892
83.285484 -238.175232 -0.000027 0.278971
81.564125 -238.362717 -0.000026 0.229220
80.295906 -238.500854 -0.000025 0.233301
81.342590 -238.450272 4.262091 0.395773
88.950569 -237.675323 5.602129 0.647593
88.948944 -237.675491 5.034390 0.632609
84.406273 -238.138214 3.796395 0.391821
85.041328 -238.073517 3.466614 0.407019
88.944221 -237.675980 3.367004 0.735775
88.942673 -237.676132 2.818953 0.749966
88.941139 -237.676285 2.272764 0.497368
88.939629 -237.676437 1.727261 0.522606
88.938118 -237.676605 1.181271 0.494545
88.936584 -237.676758 0.633624 0.755856
88.935036 -237.676910 0.083133 1.000000
85.771988 -237.999100 -0.000028 0.228431
83.293526 -238.251556 -0.000027 0.212824
81.570892 -238.427017 -0.000026 0.185598
80.301743 -238.556290 -0.000025 0.242241
81.913986 -238.459427 4.404308 0.393576
81.968361 -238.454269 4.084882 0.395697
89.024307 -237.785294 5.046081 0.531029
84.653603 -238.199677 3.832014 0.418845
84.528633 -238.211533 3.406363 0.388235
89.019547 -237.785751 3.372271 0.718395
89.017990 -237.785889 2.822108 0.690578
89.016434 -237.786041 2.273815 0.557305
89.014908 -237.786179 1.726210 0.557870
89.013390 -237.786331 1.178118 0.522866
89.011848 -237.786469 0.628363 0.721340
89.010277 -237.786621 0.075754 1.000000
85.781197 -238.092773 -0.000027 0.247651
83.301033 -238.327911 -0.000027 0.246813
81.577225 -238.491348 -0.000026 0.266189
80.307198 -238.611771 -0.000025 0.221154
81.281906 -238.582169 4.243841 0.395529
84.086388 -238.336014 4.542762 0.410376
89.100250 -237.895950 5.058012 0.468757
89.098640 -237.896088 4.492742 0.706188
84.699860 -238.282181 3.425240 0.396078
84.064056 -238.337982 2.963507 0.401450
89.093895 -237.896515 2.825327 0.740887
89.092331 -237.896652 2.274887 0.542443
89.090790 -237.896774 1.725138 0.507179
89.089249 -237.896912 1.174901 0.455909
89.087685 -237.897049 0.622995 0.722637
89.086105 -237.897186 0.068222 1.000000
85.789757 -238.186508 -0.000028 0.264442
83.308006 -238.404343 -0.000026 0.218042
81.583099 -238.555740 -0.000026 0.211652
80.312271 -238.667282 -0.000025 0.290005
89.180145 -238.007202 6.227364 0.350607
89.178452 -238.007355 5.644627 0.292699
84.382645 -238.394562 4.195024 0.395163
89.175186 -238.007614 4.502666 0.642802
84.692253 -238.369568 3.423524 0.399069
84.167000 -238.411972 2.971408 0.399496
89.170395 -238.007996 2.828613 0.699382
89.168816 -238.008118 2.275981 0.329671
89.167252 -238.008255 1.724045 0.317845
89.165703 -238.008377 1.171618 0.321218
89.164124 -238.008499 0.617517 0.627649
89.162537 -238.008636 0.060538 1.000000
85.797661 -238.280304 -0.000028 0.209988
83.314453 -238.480804 -0.000027 0.227198
81.588531 -238.620163 -0.000026 0.227533
80.316948 -238.722824 -0.000025 0.204363
81.293449 -238.706726 4.244211 0.394461
82.404091 -238.624863 4.175570 0.396033
89.253967 -238.119904 5.082613 0.215824
89.252335 -238.120026 4.512793 0.637140
84.687073 -238.456558 3.422160 0.394476
89.249123 -238.120270 3.388726 0.696361
89.247513 -238.120392 2.831965 0.775982
89.245926 -238.120499 2.277097 0.329519
89.244339 -238.120621 1.722929 0.232792
89.242775 -238.120728 1.168268 0.253712
89.241180 -238.120850 0.611926 0.786587
89.239571 -238.120972 0.052697 1.000000
85.804909 -238.374161 -0.000028 0.218114
83.320358 -238.557312 -0.000027 0.203166
81.593506 -238.684616 -0.000026 0.198152
80.321243 -238.778397 -0.000025 0.239537
82.295868 -238.702560 4.494761 0.397589
85.237389 -238.506348 4.787797 0.396002
89.331764 -238.233261 5.095290 0.240024
89.330124 -238.233368 4.523126 0.813199
89.328491 -238.233475 3.956602 0.712459
89.326889 -238.233582 3.394436 0.768368
89.325264 -238.233688 2.835386 0.765133
89.323662 -238.233795 2.278237 0.344656
89.322060 -238.233902 1.721790 0.184314
89.320480 -238.234009 1.164850 0.283421
89.318863 -238.234116 0.606223 0.796704
89.317238 -238.234222 0.044696 1.000000
85.811501 -238.468063 -0.000028 0.237861
83.325729 -238.633865 -0.000026 0.218162
81.598038 -238.749100 -0.000026 0.198056
80.325142 -238.834000 -0.000025 0.252881
82.284637 -238.772888 4.490843 0.396078
82.084213 -238.784851 4.104336 0.405158
89.410217 -238.347549 5.108224 0.239643
83.738472 -238.686096 3.691093 0.406806
84.675156 -238.630188 3.419462 0.389914
89.405289 -238.347839 3.400261 0.892699
89.403656 -238.347931 2.838875 0.746502
89.402039 -238.348038 2.279399 0.346777
89.400429 -238.348129 1.720628 0.192798
89.398827 -238.348221 1.161363 0.277684
89.397194 -238.348328 0.600404 0.773709
89.395554 -238.348419 0.036533 1.000000
85.817429 -238.561996 -0.000027 0.222746
83.330574 -238.710449 -0.000027 0.211508
81.602112 -238.813629 -0.000026 0.250523
80.328659 -238.889633 -0.000025 0.187943
82.271019 -238.843124 4.486451 0.397726
84.088577 -238.747360 4.537011 0.402838
89.489326 -238.462799 5.121418 0.505119
83.890121 -238.757813 3.712957 0.402289
89.485992 -238.462967 3.973115 0.747814
89.484352 -238.463058 3.406204 0.721233
89.482719 -238.463150 2.842435 0.773693
89.481087 -238.463226 2.280585 0.580560
89.479462 -238.463318 1.719442 0.496742
89.477829 -238.463409 1.157805 0.322637
89.476181 -238.463486 0.594466 0.788998
89.474525 -238.463577 0.028206 1.000000
85.822716 -238.655991 -0.000027 0.247675
83.334877 -238.787064 -0.000026 0.244491
81.605743 -238.878174 -0.000026 0.194071
80.331787 -238.945297 -0.000025 0.231542
82.264908 -238.912766 4.484066 0.396399
84.666527 -238.803040 4.661096 0.389151
82.412735 -238.906021 3.831375 0.401938
84.707718 -238.801163 3.833773 0.394888
89.565750 -238.579193 3.981622 0.728466
89.564095 -238.579269 3.412266 0.848524
89.562454 -238.579346 2.846067 0.810651
89.560806 -238.579422 2.281794 0.935943
89.559166 -238.579498 1.718233 0.740536
89.557526 -238.579575 1.154175 0.682521
89.555847 -238.579651 0.588410 0.804334
89.554176 -238.579727 0.019710 1.000000
85.827339 -238.750000 -0.000027 0.228239
83.338654 -238.863708 -0.000027 0.229675
81.608917 -238.942734 -0.000026 0.249985
80.334526 -239.000961 -0.000026 0.240925
82.195374 -238.984741 4.465903 0.394232
89.651337 -238.696228 5.737735 0.732601
84.300461 -238.903290 4.174576 0.401816
89.647888 -238.696365 4.566587 0.934279
89.646194 -238.696426 3.990301 0.903944
89.644524 -238.696487 3.418450 0.729824
89.642860 -238.696548 2.849771 0.914260
89.641205 -238.696609 2.283028 0.749279
89.639557 -238.696686 1.716999 0.793286
89.637901 -238.696747 1.150472 0.810788
89.636208 -238.696808 0.582232 0.737987
89.634521 -238.696884 0.011043 1.000000
85.831306 -238.844040 -0.000028 0.208995
83.341881 -238.940384 -0.000026 0.241823
81.611641 -239.007339 -0.000026 0.203932
80.336876 -239.056656 -0.000025 0.211807
83.905251 -238.999283 4.893815 0.399710
83.904282 -238.999313 4.494947 0.396078
84.951698 -238.966110 4.292599 0.362310
89.729065 -238.814636 4.578004 0.666407
89.727348 -238.814697 3.999152 0.736156
89.725662 -238.814743 3.424758 0.742016
89.723984 -238.814804 2.853550 0.652140
89.722321 -238.814850 2.284286 0.745281
89.720650 -238.814911 1.715741 0.754604
89.718979 -238.814957 1.146696 0.719814
89.717278 -238.815018 0.575929 0.734737
89.715569 -238.815063 0.002203 1.000000
85.834618 -238.938110 -0.000027 0.236712
83.344582 -239.017059 -0.000026 0.232703
81.613914 -239.071945 -0.000026 0.191211
80.338837 -239.112366 -0.000025 0.197948
83.931969 -239.079300 4.899939 0.399176
85.264481 -239.046371 4.788319 0.398474
89.812729 -238.933945 5.176911 0.744701
89.810974 -238.933975 4.589651 0.764096
89.809242 -238.934021 4.008183 0.782589
89.807533 -238.934067 3.431192 0.584909
89.805840 -238.934113 2.857405 0.676295
89.804153 -238.934143 2.285569 0.692103
89.802467 -238.934189 1.714458 0.645945
89.800781 -238.934235 1.142844 0.673732
89.799072 -238.934280 0.569501 0.635599
89.797287 -238.934326 -0.006808 1.000000
85.837273 -239.032211 -0.000027 0.247244
83.346748 -239.093781 -0.000026 0.242553
81.615738 -239.136566 -0.000026 0.289431
80.340408 -239.168091 -0.000025 0.234391
84.026314 -239.158463 4.923145 0.396078
83.772621 -239.162964 4.465644 0.403449
89.895401 -239.054382 5.191486 0.711284
89.893639 -239.054413 4.601530 0.761913
89.891884 -239.054443 4.017394 0.736019
89.890152 -239.054474 3.437755 0.617624
89.888435 -239.054504 2.861335 0.759106
89.886734 -239.054535 2.286879 0.562112
89.885033 -239.054565 1.713149 0.709163
89.883331 -239.054596 1.138915 0.798932
89.881615 -239.054626 0.562944 0.743435
89.740967 -239.057129 -0.000029 0.218449
85.839272 -239.126312 -0.000027 0.216259
83.348373 -239.170486 -0.000026 0.235420
81.617111 -239.201202 -0.000026 0.238998
80.341591 -239.223816 -0.000025 0.258374
82.086372 -239.260803 4.436896 0.403815
89.980637 -239.175919 5.806280 0.765438
89.978844 -239.175949 5.206351 0.580179
89.977066 -239.175964 4.613647 0.712337
89.975296 -239.175980 4.026789 0.684871
89.973549 -239.175995 3.444451 0.728679
89.971802 -239.176025 2.865346 0.720012
89.970085 -239.176041 2.288214 0.694759
89.968369 -239.176056 1.711814 0.719951
89.966652 -239.176071 1.134907 0.682933
89.964920 -239.176086 0.556256 0.759121
89.742699 -239.178482 -0.000029 0.241224
85.840607 -239.220444 -0.000027 0.240159
83.349472 -239.247223 -0.000026 0.208660
81.618034 -239.265839 -0.000026 0.206266
80.342384 -239.279556 -0.000025 0.230441
81.990273 -239.329086 4.412701 0.397864
90.064873 -239.298645 5.824281 0.594186
90.063057 -239.298645 5.221512 0.690623
90.061264 -239.298645 4.626005 0.725490
90.059486 -239.298660 4.036372 0.779385
90.057724 -239.298660 3.451280 0.682170
90.055962 -239.298676 2.869436 0.752941
90.054214 -239.298676 2.289576 0.665202
90.052483 -239.298691 1.710452 0.699199
90.050751 -239.298691 1.130820 0.729229
90.049011 -239.298691 0.549434 0.680278
89.743576 -239.299850 -0.000029 0.215733
85.841293 -239.314560 -0.000027 0.213806
83.350021 -239.323959 -0.000026 0.230477
81.618500 -239.330490 -0.000026 0.241021
80.342789 -239.335297 -0.000025 0.264801
90.151764 -239.422531 6.457054 0.843397
90.149910 -239.422531 5.842639 0.665980
90.148087 -239.422516 5.236977 0.865064
90.146271 -239.422516 4.638610 0.647807
90.144478 -239.422516 4.046145 0.725490
90.142700 -239.422501 3.458245 0.736095
90.140930 -239.422501 2.873609 0.754910
90.139160 -239.422501 2.290966 0.706905
90.137398 -239.422485 1.709063 0.745373
90.135651 -239.422485 1.126650 0.726680
90.133904 -239.422470 0.542476 0.656870
89.743607 -239.421219 -0.000029 0.227377
85.841324 -239.408691 -0.000027 0.220795
83.350044 -239.400696 -0.000026 0.246861
81.618515 -239.395142 -0.000026 0.246239
80.342804 -239.391037 -0.000025 0.229005
82.184189 -239.465546 4.461385 0.395102
90.235771 -239.547623 5.861364 0.599435
90.233932 -239.547592 5.252749 0.743191
84.883522 -239.493057 3.858037 0.413046
90.230293 -239.547562 4.056114 0.789639
90.228500 -239.547546 3.465348 0.702663
90.226707 -239.547531 2.877864 0.716335
90.224930 -239.547501 2.292383 0.736477
90.223145 -239.547485 1.707646 0.722805
90.221375 -239.547470 1.122398 0.683803
90.219620 -239.547455 0.535379 0.730846
89.742790 -239.542587 -0.000029 0.229891
85.840691 -239.502823 -0.000027 0.230872
83.349533 -239.477432 -0.000026 0.263616
81.618080 -239.459778 -0.000026 0.242768
80.342430 -239.446777 -0.000025 0.275345
82.211754 -239.534637 4.468526 0.389776
90.322479 -239.673935 5.880463 0.647410
90.320610 -239.673904 5.268836 0.779995
90.318771 -239.673874 4.664577 0.594598
90.316948 -239.673843 4.066280 0.736278
90.315140 -239.673813 3.472593 0.755825
90.313339 -239.673782 2.882204 0.731899
90.311539 -239.673752 2.293828 0.738186
90.309738 -239.673721 1.706201 0.801724
90.307938 -239.673691 1.118061 0.668208
90.306175 -239.673660 0.528141 0.689311
89.741135 -239.663956 -0.000029 0.228371
85.839401 -239.596939 -0.000027 0.241416
83.348480 -239.554153 -0.000026 0.216882
81.617203 -239.524429 -0.000026 0.227018
80.341667 -239.502518 -0.000025 0.247124
82.239441 -239.604126 4.475820 0.387457
90.410072 -239.801529 5.899946 0.738003
90.408188 -239.801483 5.285247 0.699504
90.406334 -239.801437 4.677954 0.688579
90.404488 -239.801392 4.076652 0.700923
90.402657 -239.801346 3.479985 0.670542
90.400833 -239.801300 2.886631 0.839658
90.399017 -239.801254 2.295303 0.500862
90.397202 -239.801208 1.704727 0.515908
90.395386 -239.801163 1.113636 0.495460
90.393600 -239.801132 0.520758 0.721447
89.738625 -239.785309 -0.000029 0.209761
85.837456 -239.691055 -0.000027 0.277954
83.346893 -239.630875 -0.000026 0.228119
81.615860 -239.589066 -0.000025 0.208947
80.340515 -239.558243 -0.000025 0.239046
82.936447 -239.694870 4.650972 0.389395
90.498550 -239.930405 5.919819 0.551827
90.496651 -239.930344 5.301985 0.547723
90.494774 -239.930283 4.691597 0.715770
90.492912 -239.930222 4.087231 0.737133
90.491058 -239.930161 3.487522 0.821134
90.489220 -239.930115 2.891147 0.737911
90.487381 -239.930054 2.296806 0.548592
90.485550 -239.929993 1.703223 0.562432
90.483711 -239.929932 1.109124 0.515602
90.481903 -239.929886 0.513228 0.868254
89.735268 -239.906631 -0.000029 0.231518
85.834854 -239.785141 -0.000027 0.242409
83.344772 -239.707581 -0.000026 0.228742
81.614075 -239.653687 -0.000025 0.256136
80.338974 -239.613968 -0.000025 0.184054
82.889328 -239.767014 4.639803 0.394751
90.587936 -240.060608 5.940087 0.524559
90.586021 -240.060532 5.319057 0.476905
90.584129 -240.060455 4.705511 0.781445
90.582245 -240.060394 4.098020 0.655055
90.580368 -240.060318 3.495211 0.720058
90.578514 -240.060242 2.895752 0.755489
90.576660 -240.060181 2.298341 0.313069
90.574806 -240.060104 1.701690 0.342275
90.572952 -240.060043 1.104521 0.438437
90.571114 -240.059967 0.505548 0.660609
89.731064 -240.027924 -0.000028 0.237550
85.831589 -239.879211 -0.000026 0.218162
83.342117 -239.784286 -0.000026 0.249925
81.611832 -239.718292 -0.000025 0.239106
80.337044 -239.669678 -0.000024 0.315820
90.680206 -240.192261 6.594069 0.780392
90.678253 -240.192169 5.960758 0.269062
90.676323 -240.192078 5.336470 0.308629
90.674416 -240.192001 4.719705 0.640528
90.672508 -240.191910 4.109025 0.744121
90.670624 -240.191818 3.503053 0.687877
90.668747 -240.191742 2.900450 0.846052
90.666870 -240.191650 2.299905 0.332265
90.664993 -240.191574 1.700126 0.331823
90.663124 -240.191483 1.099826 0.577935
90.661263 -240.191406 0.497715 0.792416
89.726013 -240.149200 -0.000028 0.258949
85.827675 -239.973267 -0.000026 0.238579
83.338928 -239.860947 -0.000026 0.236126
81.609146 -239.782883 -0.000025 0.204160
80.334724 -239.725372 -0.000024 0.215326
90.771500 -240.325226 6.618528 0.654612
90.769524 -240.325134 5.981843 0.289296
90.767593 -240.325027 5.354232 0.227604
90.765663 -240.324921 4.734181 0.633906
90.763733 -240.324829 4.120249 0.685420
90.761826 -240.324722 3.511052 0.716060
90.759933 -240.324631 2.905242 0.704921
90.758034 -240.324524 2.301501 0.348318
90.756142 -240.324432 1.698531 0.315831
90.754242 -240.324326 1.095038 0.603067
90.752365 -240.324234 0.489725 0.687984
89.720123 -240.270432 -0.000028 0.230262
85.823105 -240.067291 -0.000026 0.209270
83.335190 -239.937592 -0.000026 0.222040
81.606010 -239.847458 -0.000025 0.205632
80.332016 -239.781052 -0.000024 0.218509
90.863777 -240.459641 6.643477 0.714549
90.861778 -240.459518 6.003348 0.331044
90.859825 -240.459396 5.372347 0.240391
90.857880 -240.459290 4.748947 0.730495
90.855942 -240.459167 4.131699 0.736507
90.854004 -240.459061 3.519210 0.791791
90.852097 -240.458939 2.910129 0.849775
90.850174 -240.458832 2.303128 0.353872
90.848259 -240.458710 1.696903 0.253803
90.846352 -240.458603 1.090154 0.707164
90.844437 -240.458496 0.481575 0.750301
89.713379 -240.391617 -0.000028 0.224996
85.817871 -240.161270 -0.000026 0.286546
83.330933 -240.014221 -0.000026 0.251110
81.602417 -239.912003 -0.000025 0.270641
80.328918 -239.836700 -0.000024 0.262946
90.957062 -240.595505 6.668926 0.731533
90.955040 -240.595367 6.025287 0.592081
90.953072 -240.595245 5.390825 0.520180
90.951118 -240.595108 4.764009 0.739498
90.949158 -240.594986 4.143378 0.609751
90.947205 -240.594849 3.527533 0.758648
90.945267 -240.594727 2.915114 0.714839
90.943329 -240.594589 2.304789 0.577554
90.941391 -240.594467 1.695243 0.485206
90.939461 -240.594345 1.085172 0.711925
90.937523 -240.594208 0.473262 0.744549
89.705788 -240.512741 -0.000028 0.221118
85.811989 -240.255219 -0.000026 0.240327
83.326134 -240.090805 -0.000025 0.239848
81.598373 -239.976532 -0.000025 0.252318
80.325439 -239.892334 -0.000024 0.205536
91.051384 -240.732880 6.694886 0.656489
91.049332 -240.732727 6.047664 0.933364
91.047348 -240.732574 5.409675 0.735973
91.045380 -240.732437 4.779373 0.541817
91.043396 -240.732300 4.155291 0.660914
91.041428 -240.732147 3.536022 0.722148
91.039467 -240.732010 2.920199 0.740780
91.037506 -240.731857 2.306482 0.953033
91.035553 -240.731720 1.693550 0.716823
91.033600 -240.731583 1.080090 0.688243
91.031631 -240.731430 0.464782 1.000000
89.697350 -240.633820 -0.000027 0.246765
85.805450 -240.349121 -0.000026 0.211568
83.320808 -240.167358 -0.000026 0.310351
81.593880 -240.041016 -0.000025 0.239273
80.321564 -239.947952 -0.000024 0.221908
91.146759 -240.871796 6.721368 0.625879
91.144676 -240.871628 6.070488 0.675471
91.142662 -240.871460 5.428899 0.785245
91.140678 -240.871307 4.795043 0.700313
91.138687 -240.871140 4.167443 0.814878
91.136696 -240.870987 3.544682 0.695323
91.134712 -240.870834 2.925386 0.745571
91.132736 -240.870667 2.308209 0.656931
91.130760 -240.870514 1.691823 0.707057
91.128784 -240.870346 1.074906 0.727459
91.126801 -240.870193 0.456132 1.000000
89.688072 -240.754837 -0.000028 0.219562
85.798256 -240.442963 -0.000026 0.249614
83.314941 -240.243866 -0.000025 0.200151
81.588936 -240.105484 -0.000024 0.203190
80.317299 -240.003525 -0.000024 0.239704
91.243256 -241.012299 6.748387 0.763775
91.241135 -241.012115 6.093779 0.751263
91.239044 -241.011932 5.448506 0.720546
91.237038 -241.011749 4.811025 0.769268
91.235046 -241.011581 4.179837 0.637522
91.233040 -241.011398 3.553514 0.652384
91.231041 -241.011230 2.930677 0.736248
91.229042 -241.011063 2.309971 0.641718
91.227043 -241.010880 1.690062 0.721004
91.225044 -241.010712 1.069619 0.776150
91.223053 -241.010529 0.447308 1.000000
89.677956 -240.875793 -0.000028 0.236473
85.790405 -240.536774 -0.000026 0.217899
83.308533 -240.320343 -0.000025 0.220520
81.583549 -240.169907 -0.000025 0.197422
80.312653 -240.059082 -0.000024 0.212549
91.340851 -241.154419 6.775951 0.715541
91.338715 -241.154221 6.117543 0.787167
91.336601 -241.154022 5.468522 0.777417
91.334518 -241.153824 4.827329 0.682246
91.332497 -241.153641 4.192479 0.752911
91.330505 -241.153442 3.562525 0.597803
91.328476 -241.153259 2.936074 0.685344
91.326462 -241.153061 2.311769 0.774777
91.324440 -241.152878 1.688264 0.796292
91.322418 -241.152679 1.064224 0.775769
91.320412 -241.152496 0.438306 1.000000
89.666985 -240.996674 -0.000027 0.219407
85.781891 -240.630524 -0.000026 0.239142
83.301605 -240.396759 -0.000025 0.205823
81.577705 -240.234283 -0.000024 0.197242
80.307617 -240.114594 -0.000024 0.206266
nan nan nan 0.000000
nan nan nan 0.000000
nan nan nan 0.000000
nan nan nan 0.000000
nan nan nan 0.000000
nan nan nan 0.000000
nan nan nan 0.000000
39.413204 -236.028275 2.541870 1.000000
39.413208 -236.028275 1.458131 1.000000
39.413193 -236.028275 0.373229 1.000000
48.090965 -236.907272 0.000010 0.338155
55.063610 -237.613556 0.000226 0.236150
58.945530 -238.006775 0.000223 0.210431
61.423798 -238.257813 0.000219 0.219718
63.146290 -238.432281 0.000216 0.216223
64.415337 -238.560837 0.000211 0.225151
nan nan nan 0.000000
nan nan nan 0.000000
nan nan nan 0.000000
nan nan nan 0.000000
nan nan nan 0.000000
nan nan nan 0.000000
nan nan nan 0.000000
39.567184 -235.812439 2.539732 1.000000
39.567184 -235.812439 1.460268 1.000000
39.567169 -235.812439 0.379647 1.000000
48.108742 -236.737930 0.000012 0.337484
55.076263 -237.492874 0.000225 0.227162
58.955341 -237.913177 0.000223 0.230669
61.431797 -238.181503 0.000219 0.245688
63.153027 -238.367996 0.000215 0.271898
64.421150 -238.505402 0.000211 0.202496
nan nan nan 0.000000
nan nan nan 0.000000
nan nan nan 0.000000
nan nan nan 0.000000
nan nan nan 0.000000
nan nan nan 0.000000
nan nan nan 0.000000
39.719959 -235.598267 2.537637 1.000000
39.719959 -235.598267 1.462363 1.000000
39.719944 -235.598267 0.385936 1.000000
48.127689 -236.568695 0.000013 0.337331
55.089756 -237.372269 0.000225 0.222937
58.965805 -237.819641 0.000223 0.232428
61.440327 -238.105240 0.000219 0.257022
63.160213 -238.303757 0.000215 0.195854
64.427345 -238.450012 0.000211 0.185717
nan nan nan 0.000000
nan nan nan 0.000000
nan nan nan 0.000000
nan nan nan 0.000000
nan nan nan 0.000000
nan nan nan 0.000000
nan nan nan 0.000000
39.871555 -235.385757 2.535584 1.000000
39.871555 -235.385757 1.464416 1.000000
39.871540 -235.385757 0.392098 1.000000
48.147827 -236.399612 0.000015 0.338384
55.104088 -237.251755 0.000225 0.214069
58.976921 -237.726181 0.000222 0.212130
61.449387 -238.029053 0.000219 0.197470
63.167847 -238.239563 0.000215 0.197565
64.433929 -238.394669 0.000210 0.219383
nan nan nan 0.000000
nan nan nan 0.000000
nan nan nan 0.000000
nan nan nan 0.000000
nan nan nan 0.000000
nan nan nan 0.000000
nan nan nan 0.000000
40.022007 -235.174850 2.533574 1.000000
40.022007 -235.174850 1.466427 1.000000
40.022007 -235.174850 0.398136 1.000000
48.169136 -236.230667 0.000016 0.337102
55.119255 -237.131348 0.000224 0.260337
58.988689 -237.632797 0.000222 0.188446
61.458984 -237.952927 0.000219 0.195088
63.175930 -238.175430 0.000214 0.225271
64.440895 -238.339371 0.000210 0.205153
nan nan nan 0.000000
nan nan nan 0.000000
nan nan nan 0.000000
nan nan nan 0.000000
nan nan nan 0.000000
nan nan nan 0.000000
nan nan nan 0.000000
40.171345 -234.965515 2.531603 1.000000
40.171345 -234.965515 1.468397 1.000000
40.171345 -234.965515 0.404051 1.000000
48.191624 -236.061874 0.000017 0.337362
55.135265 -237.011047 0.000223 0.226504
59.001106 -237.539505 0.000221 0.193257
61.469109 -237.876877 0.000218 0.216175
63.184460 -238.111359 0.000214 0.247471
64.448250 -238.284119 0.000210 0.192814
nan nan nan 0.000000
nan nan nan 0.000000
nan nan nan 0.000000
nan nan nan 0.000000
nan nan nan 0.000000
nan nan nan 0.000000
nan nan nan 0.000000
40.319584 -234.757706 2.529672 1.000000
40.319584 -234.757706 1.470327 1.000000
40.319584 -234.757706 0.409845 1.000000
48.215294 -235.893234 0.000019 0.337713
55.152119 -236.890869 0.000223 0.226947
59.014175 -237.446304 0.000221 0.222973
61.479763 -237.800888 0.000218 0.209545
63.193436 -238.047348 0.000213 0.221621
64.455994 -238.228912 0.000209 0.204638
nan nan nan 0.000000
nan nan nan 0.000000
nan nan nan 0.000000
nan nan nan 0.000000
nan nan nan 0.000000
nan nan nan 0.000000
nan nan nan 0.000000
40.466766 -234.551392 2.527782 1.000000
40.466766 -234.551392 1.472217 1.000000
40.466774 -234.551392 0.415521 1.000000
48.240147 -235.724777 0.000021 0.336690
55.169811 -236.770813 0.000223 0.221010
59.027893 -237.353180 0.000220 0.215637
61.490948 -237.724976 0.000217 0.200857
63.202858 -237.983398 0.000213 0.261905
64.464119 -238.173782 0.000209 0.247818
nan nan nan 0.000000
nan nan nan 0.000000
nan nan nan 0.000000
nan nan nan 0.000000
nan nan nan 0.000000
nan nan nan 0.000000
nan nan nan 0.000000
40.612900 -234.346527 2.525932 1.000000
40.612900 -234.346527 1.474069 1.000000
40.612907 -234.346527 0.421079 1.000000
48.266171 -235.556503 0.000022 0.339223
55.188339 -236.650879 0.000222 0.270629
59.042259 -237.260162 0.000219 0.271264
61.502659 -237.649155 0.000216 0.252031
63.212727 -237.919510 0.000212 0.190792
64.472626 -238.118698 0.000208 0.197889
nan nan nan 0.000000
nan nan nan 0.000000
nan nan nan 0.000000
nan nan nan 0.000000
nan nan nan 0.000000
nan nan nan 0.000000
nan nan nan 0.000000
40.758022 -234.143097 2.524118 1.000000
40.758022 -234.143097 1.475882 1.000000
40.758030 -234.143097 0.426522 1.000000
48.293358 -235.388397 0.000023 0.336675
55.207703 -236.531067 0.000221 0.234905
59.057281 -237.167252 0.000219 0.218605
61.514904 -237.573410 0.000216 0.220328
63.223042 -237.855698 0.000212 0.260313
64.481522 -238.063675 0.000208 0.192335
nan nan nan 0.000000
nan nan nan 0.000000
nan nan nan 0.000000
nan nan nan 0.000000
nan nan nan 0.000000
nan nan nan 0.000000
nan nan nan 0.000000
40.902161 -233.941055 2.522342 1.000000
40.902161 -233.941055 1.477657 1.000000
40.902161 -233.941055 0.431851 1.000000
48.321720 -235.220490 0.000024 0.338003
55.227898 -236.411407 0.000221 0.232930
59.072948 -237.074448 0.000219 0.211676
61.527672 -237.497757 0.000215 0.251181
63.233803 -237.791962 0.000211 0.221597
64.490799 -238.008713 0.000207 0.256232
nan nan nan 0.000000
nan nan nan 0.000000
nan nan nan 0.000000
nan nan nan 0.000000
nan nan nan 0.000000
nan nan nan 0.000000
nan nan nan 0.000000
41.045326 -233.740356 2.520605 1.000000
41.045326 -233.740356 1.479395 1.000000
41.045326 -233.740356 0.437069 1.000000
48.351242 -235.052780 0.000024 0.337316
55.248940 -236.291885 0.000220 0.224661
59.089260 -236.981766 0.000218 0.237921
61.540974 -237.422180 0.000215 0.252199
63.245007 -237.728302 0.000211 0.190588
64.500458 -237.953827 0.000206 0.238543
nan nan nan 0.000000
nan nan nan 0.000000
nan nan nan 0.000000
nan nan nan 0.000000
nan nan nan 0.000000
nan nan nan 0.000000
nan nan nan 0.000000
41.187553 -233.540985 2.518903 1.000000
41.187553 -233.540985 1.481097 1.000000
41.187553 -233.540985 0.442176 1.000000
48.381908 -234.885284 0.000022 0.337972
55.270805 -236.172516 0.000219 0.232727
59.106220 -236.889175 0.000217 0.223990
61.554802 -237.346710 0.000214 0.257668
63.256653 -237.664719 0.000210 0.199313
64.510498 -237.899002 0.000206 0.304223
nan nan nan 0.000000
nan nan nan 0.000000
nan nan nan 0.000000
nan nan nan 0.000000
nan nan nan 0.000000
nan nan nan 0.000000
nan nan nan 0.000000
41.328850 -233.342896 2.517239 1.000000
41.328857 -233.342896 1.482761 1.000000
41.328850 -233.342896 0.447174 1.000000
48.413754 -234.718018 0.000020 0.337301
55.293503 -236.053299 0.000219 0.222279
59.123821 -236.796722 0.000216 0.217025
61.569153 -237.271332 0.000213 0.223883
63.268745 -237.601212 0.000209 0.230058
64.520927 -237.844254 0.000205 0.219874
nan nan nan 0.000000
nan nan nan 0.000000
nan nan nan 0.000000
nan nan nan 0.000000
nan nan nan 0.000000
nan nan nan 0.000000
nan nan nan 0.000000
41.469261 -233.146072 2.515609 1.000000
41.469261 -233.146072 1.484390 1.000000
41.469261 -233.146072 0.452066 1.000000
48.446751 -234.550949 0.000018 0.338750
55.317032 -235.934250 0.000218 0.234606
59.142075 -236.704391 0.000216 0.241595
61.584030 -237.196060 0.000212 0.222518
63.281281 -237.537796 0.000209 0.211400
64.531738 -237.789566 0.000205 0.226623
nan nan nan 0.000000
nan nan nan 0.000000
nan nan nan 0.000000
nan nan nan 0.000000
nan nan nan 0.000000
nan nan nan 0.000000
nan nan nan 0.000000
41.608788 -232.950485 2.514015 1.000000
41.608791 -232.950485 1.485985 1.000000
41.608795 -232.950485 0.456851 1.000000
48.480888 -234.384125 0.000013 0.337804
55.341396 -235.815353 0.000217 0.210084
59.160965 -236.612198 0.000215 0.230501
61.599434 -237.120895 0.000211 0.247196
63.294254 -237.474472 0.000208 0.277188
64.542923 -237.734970 0.000204 0.206051
nan nan nan 0.000000
nan nan nan 0.000000
nan nan nan 0.000000
nan nan nan 0.000000
nan nan nan 0.000000
nan nan nan 0.000000
nan nan nan 0.000000
41.747475 -232.756073 2.512456 1.000000
41.747475 -232.756073 1.487544 1.000000
41.747475 -232.756073 0.461532 1.000000
48.516224 -234.217545 0.000011 0.337407
55.366585 -235.696640 0.000216 0.253850
59.180504 -236.520126 0.000214 0.230058
61.615360 -237.045837 0.000211 0.236174
63.307674 -237.411240 0.000207 0.195615
