# This PCD file was generated using the MATLABÂ® pcwrite function
# from Computer Vision ToolboxÂ®.
# .PCD v.7 - Point Cloud Data file format
VERSION .7
FIELDS x y z intensity
SIZE 4 4 4 4
TYPE F F F F
COUNT 1 1 1 1
WIDTH 1259
HEIGHT 1
VIEWPOINT 0 0 0 1 0 0 0
POINTS 1259
DATA ascii
184.018539 -210.579514 4.981081 0.752941
184.018539 -210.579514 4.570400 0.865019
184.018539 -210.579514 4.165486 0.145281
184.018539 -210.579514 3.765367 0.670878
184.018539 -210.579514 3.369116 0.681575
184.018539 -210.579514 2.975837 0.659953
184.018539 -210.579514 2.584665 0.659586
184.018539 -210.579514 2.194749 0.741009
184.018539 -210.579514 1.805251 0.751842
184.018539 -210.579514 1.415334 0.878264
184.018539 -210.579514 1.024163 0.539193
184.018539 -210.579514 0.630885 0.662928
184.018539 -210.579514 0.234634 0.762921
183.975357 -209.670822 0.000044 0.255741
183.893173 -207.941299 0.000044 0.221729
183.832611 -206.667068 0.000044 0.307789
183.931213 -210.476334 4.954297 0.715175
183.931213 -210.476334 4.547307 0.722667
183.931213 -210.476334 4.146030 0.220951
183.931213 -210.476334 3.749506 0.596918
183.931213 -210.476334 3.356815 0.674861
183.931213 -210.476334 2.967070 0.619577
183.931213 -210.476334 2.579412 0.437430
183.931213 -210.476334 2.192999 0.720500
183.931213 -210.476334 1.807001 0.731106
183.931213 -210.476318 1.420588 0.725643
183.931213 -210.476334 1.032929 0.487083
183.931213 -210.476334 0.643185 0.585641
183.931213 -210.476318 0.250494 0.684489
183.898697 -209.674194 0.000044 0.195746
183.828583 -207.944138 0.000044 0.227689
183.776932 -206.669510 0.000044 0.225570
183.845428 -210.374985 4.928134 0.769085
183.845428 -210.374985 4.524749 0.761028
183.845428 -210.374985 4.127026 0.377615
183.845428 -210.374985 3.734013 0.664118
183.845428 -210.374985 3.344799 0.654490
183.845428 -210.374985 2.958506 0.696269
183.845428 -210.374985 2.574281 0.489952
183.845428 -210.374985 2.191290 0.776501
183.845428 -210.374985 1.808710 0.762371
183.845428 -210.374985 1.425719 0.768078
183.845428 -210.374985 1.041494 0.641962
183.845428 -210.374985 0.655201 0.593469
183.845428 -210.374985 0.265988 0.629740
183.822021 -209.677032 0.000044 0.280886
183.763992 -207.946533 0.000044 0.248836
183.721222 -206.671570 0.000044 0.188709
183.761139 -210.275406 4.902569 0.768627
183.761139 -210.275406 4.502705 0.768627
183.761139 -210.275406 4.108454 0.490776
183.761139 -210.275421 3.718874 0.642664
183.761139 -210.275406 3.333058 0.648173
183.761139 -210.275406 2.950137 0.817670
183.761139 -210.275406 2.569267 0.592584
183.761139 -210.275406 2.189620 0.762768
183.761139 -210.275406 1.810380 0.768627
183.761139 -210.275406 1.430733 0.764492
183.761139 -210.275406 1.049862 0.576410
183.761139 -210.275406 0.666942 0.438071
183.761139 -210.275406 0.281127 0.683070
183.745316 -209.679337 0.000044 0.209868
183.699371 -207.948471 0.000044 0.223380
183.665512 -206.673248 0.000044 0.242780
183.678314 -210.177567 4.877586 0.774884
183.678314 -210.177567 4.481164 0.786755
183.678314 -210.177567 4.090307 0.565881
183.678314 -210.177551 3.704079 0.665675
183.678314 -210.177551 3.321584 0.681743
183.678314 -210.177551 2.941959 0.497917
183.678314 -210.177551 2.564368 0.630213
183.678314 -210.177551 2.187988 0.776471
183.678314 -210.177551 1.812012 0.768627
183.678314 -210.177551 1.435632 0.791913
183.678314 -210.177551 1.058040 0.601495
183.678314 -210.177551 0.678416 0.685328
183.678314 -210.177551 0.295922 0.572000
183.668610 -209.681091 0.000044 0.258051
183.634735 -207.949951 0.000045 0.244001
183.609787 -206.674530 0.000044 0.256914
183.596893 -210.081375 4.853168 0.774212
183.596893 -210.081375 4.460109 0.763470
183.596893 -210.081375 4.072569 0.598871
183.596893 -210.081375 3.689619 0.688075
183.596893 -210.081360 3.310369 0.630426
183.596893 -210.081360 2.933966 0.692653
183.596893 -210.081360 2.559578 0.666056
183.596893 -210.081360 2.186393 0.787076
183.596893 -210.081360 1.813607 0.770718
183.596893 -210.081360 1.440422 0.768627
183.596893 -210.081360 1.066034 0.601923
183.596893 -210.081360 0.689631 0.684565
183.596893 -210.081360 0.310382 0.659083
183.591873 -209.682327 0.000045 0.236078
183.570099 -207.950989 0.000045 0.212477
183.554047 -206.675430 0.000045 0.261175
183.516846 -209.986801 4.829297 0.768627
183.516846 -209.986801 4.439526 0.768627
183.516846 -209.986786 4.055228 0.607630
183.516846 -209.986801 3.675482 0.654139
183.516846 -209.986801 3.299406 0.577523
183.516846 -209.986786 2.926152 0.618326
183.516846 -209.986786 2.554896 0.591745
183.516846 -209.986786 2.184833 0.776471
183.516846 -209.986786 1.815166 0.768627
183.516846 -209.986786 1.445103 0.768627
183.516846 -209.986786 1.073848 0.578500
183.516846 -209.986786 0.700594 0.673961
183.516846 -209.986786 0.324519 0.558068
183.515152 -209.683029 0.000045 0.229867
183.505447 -207.951584 0.000045 0.220412
183.498306 -206.675934 0.000045 0.220532
183.438126 -209.893784 4.805958 0.768627
183.438126 -209.893784 4.419402 0.760784
183.438126 -209.893784 4.038275 0.587655
183.438126 -209.893784 3.661661 0.560525
183.438126 -209.893784 3.288688 0.602579
183.438126 -209.893784 2.918512 0.564416
183.438126 -209.893784 2.550319 0.633310
183.438126 -209.893784 2.183309 0.777752
183.438126 -209.893784 1.816691 0.768627
183.438126 -209.893784 1.449681 0.768627
183.438126 -209.893784 1.081488 0.571878
183.438126 -209.893784 0.711313 0.696162
183.438126 -209.893784 0.338340 0.652445
183.438416 -209.683182 0.000046 0.246622
183.440811 -207.951721 0.000045 0.211759
183.442566 -206.676041 0.000045 0.236557
183.360687 -209.802292 4.783134 0.775982
183.360687 -209.802292 4.399724 0.757061
183.360687 -209.802292 4.021696 0.585321
183.360687 -209.802292 3.648145 0.721996
183.360687 -209.802292 3.278205 0.675380
183.360687 -209.802292 2.911041 0.608713
183.360687 -209.802292 2.545843 0.523003
183.360687 -209.802292 2.181818 0.783658
183.360687 -209.802292 1.818182 0.776410
183.360687 -209.802292 1.454157 0.756512
183.360687 -209.802292 1.088959 0.566293
183.360687 -209.802292 0.721795 0.499245
183.360687 -209.802292 0.351855 0.650553
183.361679 -209.682816 0.000046 0.203573
183.376160 -207.951401 0.000046 0.264418
183.386826 -206.675781 0.000045 0.221645
183.284485 -209.712280 4.760814 0.573999
183.284485 -209.712280 4.380477 0.595941
183.284485 -209.712280 4.005481 0.577523
183.284485 -209.712265 3.634927 0.718532
183.284485 -209.712265 3.267954 0.716426
183.284485 -209.712265 2.903734 0.641886
183.284485 -209.712265 2.541465 0.525002
183.284485 -209.712265 2.180359 0.549447
183.284485 -209.712265 1.819641 0.586954
183.284485 -209.712265 1.458534 0.538506
183.284485 -209.712265 1.096266 0.471809
183.284485 -209.712265 0.732046 0.496986
183.284485 -209.712265 0.365073 0.673579
183.284485 -209.712265 -0.005481 0.683558
183.311523 -207.950638 0.000046 0.211508
183.331100 -206.675110 0.000046 0.297054
183.209503 -209.623688 4.738979 0.862699
183.209503 -209.623688 4.361651 0.833646
183.209503 -209.623688 3.989621 0.608377
183.209503 -209.623672 3.621997 0.688563
183.209503 -209.623688 3.257926 0.744335
183.209503 -209.623672 2.896587 0.703075
183.209503 -209.623672 2.537183 0.506859
183.209503 -209.623672 2.178933 0.873671
183.209503 -209.623672 1.821067 0.869474
183.209503 -209.623672 1.462817 0.883848
183.209503 -209.623672 1.103413 0.435416
183.209503 -209.623672 0.742074 0.654871
183.209503 -209.623672 0.378003 0.591989
183.209503 -209.623672 0.010379 0.600381
183.246887 -207.949417 0.000046 0.237646
183.275360 -206.674057 0.000046 0.246813
183.135681 -209.536469 4.717620 0.841245
183.135681 -209.536484 4.343234 0.842618
183.135681 -209.536469 3.974105 0.625711
183.135681 -209.536469 3.609348 0.662043
183.135681 -209.536469 3.248116 0.670909
183.135681 -209.536469 2.889595 0.763210
183.135681 -209.536469 2.532994 0.514031
183.135681 -209.536469 2.177538 0.884215
183.135681 -209.536469 1.822462 0.839994
183.135681 -209.536469 1.467006 0.865660
183.135681 -209.536469 1.110404 0.556344
183.135681 -209.536469 0.751884 0.689845
183.135681 -209.536469 0.390652 0.679866
183.135681 -209.536469 0.025896 0.663020
183.182266 -207.947739 0.000046 0.200474
183.219650 -206.672623 0.000046 0.208911
183.063004 -209.450623 4.696722 0.568460
183.063004 -209.450607 4.325214 0.559365
183.063004 -209.450607 3.958924 0.384161
183.063004 -209.450623 3.596972 0.676524
183.063004 -209.450607 3.238519 0.693004
183.063004 -209.450607 2.882754 0.654292
183.063004 -209.450607 2.528895 0.537972
183.063004 -209.450607 2.176173 0.549966
183.063004 -209.450607 1.823828 0.572076
183.063004 -209.450607 1.471105 0.558206
183.063004 -209.450607 1.117246 0.519081
183.063004 -209.450607 0.761482 0.599420
183.063004 -209.450607 0.403028 0.619730
183.063004 -209.450607 0.041076 0.737438
183.117645 -207.945618 0.000046 0.231147
183.163925 -206.670792 0.000046 0.232117
182.991440 -209.366058 4.676272 0.588235
182.991440 -209.366058 4.307582 0.592401
182.991440 -209.366058 3.944070 0.640284
182.991440 -209.366058 3.584862 0.665858
182.991440 -209.366058 3.229126 0.699092
182.991440 -209.366058 2.876060 0.725811
182.991440 -209.366058 2.524884 0.514321
182.991440 -209.366058 2.174836 0.583337
182.991440 -209.366058 1.825163 0.599252
182.991440 -209.366058 1.475115 0.591302
182.991440 -209.366058 1.123940 0.445304
182.991440 -209.366058 0.770874 0.721736
182.991440 -209.366058 0.415138 0.661692
182.991440 -209.366058 0.055931 0.645136
183.053055 -207.943054 0.000046 0.228000
183.108231 -206.668579 0.000046 0.264693
182.920944 -209.282776 4.656258 0.606104
182.920944 -209.282776 4.290325 0.591287
182.920944 -209.282776 3.929531 0.553964
182.920944 -209.282776 3.573010 0.547631
182.920944 -209.282776 3.219935 0.685939
182.920944 -209.282776 2.869509 0.646952
182.920944 -209.282776 2.520959 0.507683
182.920944 -209.282776 2.173529 0.593408
182.920944 -209.282776 1.826471 0.615412
182.920944 -209.282776 1.479041 0.606577
182.920944 -209.282776 1.130491 0.452277
182.920944 -209.282776 0.780065 0.678401
182.920944 -209.282776 0.426990 0.640543
182.920944 -209.282776 0.070469 0.651621
182.988480 -207.940033 0.000047 0.253264
183.052551 -206.665970 0.000046 0.267649
182.851501 -209.200729 4.636669 0.593149
182.851501 -209.200729 4.273435 0.615183
182.851501 -209.200729 3.915302 0.551873
182.851501 -209.200714 3.561410 0.598489
182.851501 -209.200714 3.210938 0.730159
182.851501 -209.200714 2.863096 0.681544
182.851501 -209.200714 2.517118 0.517174
182.851501 -209.200714 2.172249 0.605722
182.851501 -209.200714 1.827751 0.596078
182.851501 -209.200714 1.482883 0.593439
182.851501 -209.200714 1.136903 0.363531
182.851501 -209.200714 0.789062 0.686320
182.851501 -209.200714 0.438591 0.658854
182.851501 -209.200714 0.084699 0.569162
182.923920 -207.936554 0.000047 0.181409
182.996902 -206.662979 0.000046 0.271036
182.783051 -209.119873 4.617493 0.812604
182.783051 -209.119873 4.256902 0.666926
182.783051 -209.119873 3.901372 0.479942
182.783051 -209.119873 3.550054 0.652430
182.783051 -209.119873 3.202132 0.579339
182.783051 -209.119873 2.856820 0.755154
182.783051 -209.119873 2.513356 0.514473
182.783051 -209.119873 2.170997 0.710613
182.783051 -209.119858 1.829003 0.785199
182.783051 -209.119858 1.486643 0.789105
182.783051 -209.119858 1.143180 0.299763
182.783051 -209.119858 0.797869 0.678904
182.783051 -209.119858 0.449946 0.704967
182.783051 -209.119858 0.098628 0.619181
182.859406 -207.932632 0.000047 0.264609
182.941254 -206.659592 0.000046 0.185382
nan nan nan 0.000000
nan nan nan 0.000000
nan nan nan 0.000000
nan nan nan 0.000000
185.732880 -166.731949 5.686021 1.000000
185.732880 -166.731949 4.627213 1.000000
185.732880 -166.731949 3.574073 1.000000
185.732880 -166.731949 2.524317 1.000000
185.732880 -166.731949 1.475683 1.000000
185.732880 -166.731949 0.425926 1.000000
185.188721 -174.362152 0.000017 0.337285
184.690277 -181.351151 0.000054 0.245916
184.412704 -185.243378 0.000050 0.244467
184.235489 -187.728241 0.000048 0.202999
184.112320 -189.455322 0.000047 0.231710
184.021576 -190.727753 0.000046 0.227210
nan nan nan 0.000000
nan nan nan 0.000000
nan nan nan 0.000000
nan nan nan 0.000000
185.938736 -166.968201 5.660686 1.000000
185.938736 -166.968185 4.609155 1.000000
185.938736 -166.968185 3.563255 1.000000
185.938736 -166.968185 2.520713 1.000000
185.938736 -166.968185 1.479287 1.000000
185.938736 -166.968185 0.436745 1.000000
185.358521 -174.374863 0.000016 0.338155
184.811310 -181.360199 0.000053 0.213543
184.506561 -185.250397 0.000050 0.238328
184.312012 -187.733963 0.000048 0.203274
184.176788 -189.460144 0.000047 0.254401
184.077164 -190.731903 0.000046 0.191833
nan nan nan 0.000000
nan nan nan 0.000000
nan nan nan 0.000000
nan nan nan 0.000000
186.141800 -167.201202 5.635876 1.000000
186.141800 -167.201218 4.591470 1.000000
186.141800 -167.201218 3.552659 1.000000
186.141800 -167.201218 2.517183 1.000000
186.141800 -167.201218 1.482816 1.000000
186.141800 -167.201218 0.447341 1.000000
185.528244 -174.388748 0.000016 0.334997
184.932281 -181.370102 0.000053 0.228574
184.600388 -185.258087 0.000050 0.206206
184.388489 -187.740219 0.000048 0.189439
184.241226 -189.465408 0.000047 0.241667
184.132721 -190.736450 0.000046 0.202460
nan nan nan 0.000000
nan nan nan 0.000000
nan nan nan 0.000000
nan nan nan 0.000000
186.342148 -167.431122 5.611570 1.000000
186.342148 -167.431122 4.574147 1.000000
186.342148 -167.431122 3.542280 1.000000
186.342148 -167.431122 2.513726 1.000000
186.342148 -167.431122 1.486274 1.000000
186.342148 -167.431122 0.457720 1.000000
185.697861 -174.403824 0.000016 0.337881
185.053162 -181.380844 0.000054 0.245401
184.694138 -185.266418 0.000050 0.246334
184.464920 -187.747025 0.000048 0.214201
184.305618 -189.471130 0.000047 0.272233
184.188248 -190.741394 0.000046 0.218689
nan nan nan 0.000000
nan nan nan 0.000000
nan nan nan 0.000000
nan nan nan 0.000000
186.539825 -167.657974 5.587763 1.000000
186.539825 -167.657974 4.557178 1.000000
186.539825 -167.657974 3.532113 1.000000
186.539825 -167.657974 2.510340 1.000000
186.539825 -167.657974 1.489660 1.000000
186.539825 -167.657974 0.467886 1.000000
185.867355 -174.420074 0.000016 0.339071
185.173981 -181.392426 0.000053 0.237287
184.787827 -185.275406 0.000050 0.225498
184.541306 -187.754349 0.000048 0.258458
184.369965 -189.477310 0.000047 0.259750
184.243729 -190.746719 0.000046 0.180858
nan nan nan 0.000000
nan nan nan 0.000000
nan nan nan 0.000000
nan nan nan 0.000000
186.734940 -167.881882 5.564439 1.000000
186.734940 -167.881866 4.540555 1.000000
186.734940 -167.881882 3.522153 1.000000
186.734940 -167.881866 2.507022 1.000000
186.734940 -167.881866 1.492978 1.000000
186.734940 -167.881882 0.477846 1.000000
186.036743 -174.437515 0.000016 0.337041
185.294708 -181.404861 0.000053 0.252606
184.881470 -185.285034 0.000050 0.246478
184.617645 -187.762207 0.000048 0.183647
184.434265 -189.483932 0.000047 0.192683
184.299179 -190.752426 0.000046 0.222291
nan nan nan 0.000000
nan nan nan 0.000000
nan nan nan 0.000000
nan nan nan 0.000000
186.927536 -168.102890 5.541589 1.000000
186.927536 -168.102890 4.524268 1.000000
186.927536 -168.102890 3.512395 1.000000
186.927536 -168.102890 2.503771 1.000000
186.927536 -168.102890 1.496228 1.000000
186.927536 -168.102890 0.487604 1.000000
186.206009 -174.456146 0.000016 0.335912
185.415421 -181.417557 -0.000015 0.339132
184.975021 -185.295334 0.000050 0.242253
184.693909 -187.770599 0.000048 0.240961
184.498535 -189.490997 0.000046 0.227736
184.354584 -190.758514 0.000045 0.259607
nan nan nan 0.000000
nan nan nan 0.000000
nan nan nan 0.000000
nan nan nan 0.000000
187.117691 -168.321106 5.519200 1.000000
187.117691 -168.321106 4.508311 1.000000
187.117691 -168.321106 3.502834 1.000000
187.117691 -168.321106 2.500587 1.000000
187.117691 -168.321106 1.499413 1.000000
187.117691 -168.321106 0.497165 1.000000
186.375137 -174.475937 0.000015 0.337881
185.535965 -181.431671 -0.000015 0.340017
185.068512 -185.306274 0.000050 0.247699
184.770126 -187.779526 0.000048 0.210981
184.562744 -189.498520 0.000046 0.220245
184.409943 -190.764999 0.000046 0.268846
nan nan nan 0.000000
nan nan nan 0.000000
nan nan nan 0.000000
188.859390 -156.371384 8.328645 0.411658
187.305466 -168.536591 5.497263 1.000000
187.305466 -168.536591 4.492674 1.000000
187.305466 -168.536591 3.493467 1.000000
187.305466 -168.536591 2.497467 1.000000
187.305466 -168.536591 1.502534 1.000000
187.305466 -168.536591 0.506534 1.000000
186.544128 -174.496918 0.000015 0.336141
185.645370 -181.533051 0.010007 1.000000
185.161926 -185.317871 0.000049 0.217528
184.846283 -187.788971 0.000048 0.247328
184.626892 -189.506485 0.000046 0.215840
184.465256 -190.771866 0.000045 0.204112
nan nan nan 0.000000
nan nan nan 0.000000
nan nan nan 0.000000
189.084869 -156.928070 8.251125 0.416098
187.490921 -168.749405 5.475765 1.000000
187.490921 -168.749405 4.477352 1.000000
187.490921 -168.749405 3.484286 1.000000
187.490921 -168.749405 2.494408 1.000000
187.490921 -168.749405 1.505591 1.000000
187.490921 -168.749405 0.515714 1.000000
186.712967 -174.519089 0.000014 0.337667
185.765121 -181.548676 0.009997 1.000000
185.255249 -185.330124 0.000049 0.247878
184.922363 -187.798965 0.000048 0.201706
184.690994 -189.514893 0.000046 0.228957
184.520523 -190.779129 0.000045 0.195734
nan nan nan 0.000000
nan nan nan 0.000000
189.646027 -155.068268 10.017142 0.405600
189.530655 -155.880966 8.414046 0.398978
187.674118 -168.959641 5.454697 1.000000
187.674118 -168.959641 4.462336 1.000000
187.674118 -168.959641 3.475289 1.000000
187.674118 -168.959641 2.491411 1.000000
187.674118 -168.959641 1.508588 1.000000
187.674118 -168.959641 0.524710 1.000000
186.881638 -174.542419 0.000014 0.337881
185.884766 -181.565140 0.009986 1.000000
185.348480 -185.343033 0.000049 0.220903
184.998367 -187.809479 0.000047 0.225618
184.755020 -189.523758 0.000046 0.218665
184.575745 -190.786758 0.000045 0.208372
nan nan nan 0.000000
nan nan nan 0.000000
189.748627 -156.466095 9.768134 0.408072
189.509460 -158.070374 8.092209 0.399542
187.855133 -169.167343 5.434050 1.000000
187.855133 -169.167343 4.447619 1.000000
187.855133 -169.167343 3.466472 1.000000
187.855133 -169.167343 2.488474 1.000000
187.855133 -169.167343 1.511525 1.000000
187.855133 -169.167343 0.533528 1.000000
187.050156 -174.566940 0.000014 0.335653
186.017090 -181.496552 -0.000014 0.338613
185.441635 -185.356583 0.000049 0.238268
185.074310 -187.820526 0.000047 0.260445
184.819000 -189.533066 0.000046 0.266847
184.630905 -190.794785 0.000044 0.253144
nan nan nan 0.000000
nan nan nan 0.000000
190.012833 -156.705841 9.732265 0.399496
189.915024 -157.331970 8.209566 0.373846
188.033981 -169.372604 5.413812 1.000000
188.033981 -169.372589 4.433196 1.000000
188.033981 -169.372589 3.457830 1.000000
188.033981 -169.372589 2.485596 1.000000
188.033981 -169.372604 1.514404 1.000000
188.033981 -169.372589 0.542170 1.000000
187.218491 -174.592621 0.000013 0.337957
186.137070 -181.514862 -0.000014 0.337301
185.534683 -185.370789 0.000049 0.230669
185.150162 -187.832108 0.000047 0.206745
184.882904 -189.542831 0.000046 0.197242
184.686005 -190.803207 0.000044 0.213219
nan nan nan 0.000000
nan nan nan 0.000000
190.288330 -156.859558 9.712557 0.408118
190.303741 -156.765228 8.301680 0.396033
188.210754 -169.575439 5.393978 1.000000
188.210754 -169.575455 4.419058 1.000000
188.210754 -169.575439 3.449360 1.000000
188.210754 -169.575439 2.482775 1.000000
188.210754 -169.575455 1.517225 1.000000
188.210754 -169.575455 0.550640 1.000000
187.386642 -174.619507 0.000013 0.337835
186.256912 -181.534027 -0.000014 0.337789
185.627625 -185.385635 0.000049 0.237526
185.225937 -187.844223 0.000047 0.224421
184.946747 -189.553024 0.000045 0.199875
184.741043 -190.811996 0.000044 0.211999
nan nan nan 0.000000
nan nan nan 0.000000
190.640640 -156.553925 9.777966 0.405814
190.769653 -155.797531 8.454647 0.416495
188.385498 -169.775970 5.374535 1.000000
188.385498 -169.775970 4.405200 1.000000
188.385498 -169.775970 3.441057 1.000000
188.385498 -169.775970 2.480009 1.000000
188.385498 -169.775970 1.519991 1.000000
188.385498 -169.775970 0.558943 1.000000
187.554596 -174.647552 0.000013 0.337499
186.376633 -181.554016 -0.000013 0.336812
185.720459 -185.401138 0.000049 0.239573
185.301620 -187.856857 0.000047 0.204076
185.010498 -189.563675 0.000045 0.245102
184.796021 -190.821182 0.000044 0.236545
nan nan nan 0.000000
nan nan nan 0.000000
191.015518 -156.150131 9.862052 0.404562
190.854462 -157.056183 8.272871 0.398703
188.558243 -169.974213 5.355476 1.000000
188.558243 -169.974213 4.391617 1.000000
188.558243 -169.974213 3.432918 1.000000
188.558243 -169.974213 2.477298 1.000000
188.558243 -169.974213 1.522702 1.000000
188.558243 -169.974213 0.567082 1.000000
187.722351 -174.676743 0.000012 0.336187
186.496201 -181.574844 -0.000013 0.339376
185.813202 -185.417297 0.000049 0.210563
185.377213 -187.870026 0.000046 0.243462
185.074188 -189.574768 0.000045 0.244563
184.850937 -190.830734 0.000044 0.215003
nan nan nan 0.000000
nan nan nan 0.000000
191.104156 -157.329437 9.653791 0.405753
191.097122 -157.367493 8.233853 0.407584
188.729065 -170.170258 5.336793 1.000000
188.729065 -170.170242 4.378300 1.000000
188.729065 -170.170258 3.424939 1.000000
188.729065 -170.170258 2.474641 1.000000
188.729065 -170.170258 1.525359 1.000000
188.729065 -170.170258 0.575060 1.000000
187.889908 -174.707123 0.000012 0.339773
186.615631 -181.596497 -0.000013 0.333684
185.905807 -185.434082 0.000049 0.240243
185.452713 -187.883713 0.000046 0.211735
185.137802 -189.586304 0.000045 0.249398
184.905777 -190.840683 0.000044 0.206541
nan nan nan 0.000000
nan nan nan 0.000000
nan nan nan 0.000000
191.428970 -157.195267 8.268083 0.397543
188.898010 -170.364120 5.318478 1.000000
188.898010 -170.364105 4.365247 1.000000
188.898010 -170.364105 3.417119 1.000000
188.898010 -170.364120 2.472035 1.000000
188.898010 -170.364105 1.527964 1.000000
188.898010 -170.364105 0.582881 1.000000
188.057251 -174.738693 0.000012 0.336309
186.734894 -181.618988 -0.000013 0.335760
185.998306 -185.451523 0.000048 0.249422
185.528122 -187.897934 0.000046 0.230310
185.201324 -189.598267 0.000044 0.223679
184.960556 -190.851013 0.000044 0.184305
nan nan nan 0.000000
nan nan nan 0.000000
nan nan nan 0.000000
191.799423 -156.846115 8.329469 0.391119
189.065109 -170.555878 5.300524 1.000000
189.065109 -170.555878 4.352449 1.000000
189.065109 -170.555878 3.409451 1.000000
189.065109 -170.555878 2.469482 1.000000
189.065109 -170.555878 1.530519 1.000000
189.065109 -170.555878 0.590549 1.000000
188.224350 -174.771408 0.000012 0.338048
186.854004 -181.642334 -0.000012 0.337026
186.090683 -185.469620 0.000048 0.236940
185.603424 -187.912674 0.000046 0.263281
185.264771 -189.610703 0.000045 0.249303
185.015259 -190.861725 0.000043 0.241619
nan nan nan 0.000000
nan nan nan 0.000000
nan nan nan 0.000000
nan nan nan 0.000000
189.230423 -170.745575 5.282920 1.000000
189.230423 -170.745575 4.339903 1.000000
189.230423 -170.745575 3.401934 1.000000
189.230423 -170.745575 2.466978 1.000000
189.230423 -170.745575 1.533022 1.000000
189.230423 -170.745575 0.598065 1.000000
188.391235 -174.805313 0.000013 0.339101
186.972946 -181.666489 -0.000011 0.339208
186.182922 -185.488342 0.000048 0.222076
185.678619 -187.927948 0.000046 0.194394
185.328125 -189.623566 0.000045 0.213734
185.069885 -190.872818 0.000043 0.215685
nan nan nan 0.000000
nan nan nan 0.000000
nan nan nan 0.000000
nan nan nan 0.000000
189.393997 -170.933289 5.265663 1.000000
189.393997 -170.933273 4.327603 1.000000
189.393997 -170.933273 3.394565 1.000000
189.393997 -170.933289 2.464522 1.000000
189.393997 -170.933289 1.535477 1.000000
189.393997 -170.933273 0.605435 1.000000
188.557861 -174.840363 0.000013 0.339025
187.091721 -181.691467 -0.000011 0.336370
186.275024 -185.507721 0.000048 0.257369
185.753723 -187.943741 0.000045 0.241128
185.391388 -189.636871 0.000044 0.216032
185.124435 -190.884293 0.000043 0.245078
nan nan nan 0.000000
nan nan nan 0.000000
nan nan nan 0.000000
nan nan nan 0.000000
189.555862 -171.119034 5.248744 1.000000
189.555862 -171.119019 4.315544 1.000000
189.555862 -171.119019 3.387339 1.000000
189.555862 -171.119034 2.462116 1.000000
189.555862 -171.119034 1.537884 1.000000
189.555862 -171.119019 0.612661 1.000000
188.724258 -174.876572 0.000013 0.337346
187.210312 -181.717285 -0.000011 0.337728
186.367004 -185.527740 0.000048 0.202867
185.828705 -187.960052 0.000045 0.244444
185.454559 -189.650620 0.000044 0.242672
185.178894 -190.896149 0.000043 0.227593
nan nan nan 0.000000
nan nan nan 0.000000
nan nan nan 0.000000
nan nan nan 0.000000
189.716064 -171.302872 5.232155 1.000000
189.716064 -171.302872 4.303720 1.000000
189.716064 -171.302872 3.380255 1.000000
189.716064 -171.302872 2.459756 1.000000
189.716064 -171.302872 1.540244 1.000000
189.716064 -171.302872 0.619745 1.000000
188.890381 -174.913956 0.000014 0.339773
187.328720 -181.743927 -0.000011 0.337652
186.458832 -185.548401 0.000047 0.212633
185.903564 -187.976898 0.000045 0.208588
185.517624 -189.664810 0.000044 0.202831
185.233276 -190.908371 0.000042 0.205728
nan nan nan 0.000000
nan nan nan 0.000000
nan nan nan 0.000000
nan nan nan 0.000000
189.874649 -171.484848 5.215892 1.000000
189.874649 -171.484848 4.292128 1.000000
189.874649 -171.484848 3.373310 1.000000
189.874649 -171.484848 2.457443 1.000000
189.874649 -171.484848 1.542557 1.000000
189.874649 -171.484848 0.626690 1.000000
189.056244 -174.952515 0.000014 0.337148
187.446945 -181.771393 -0.000010 0.336294
186.550522 -185.569687 0.000047 0.227940
185.978302 -187.994263 0.000045 0.232176
185.580597 -189.679428 0.000043 0.210850
185.287582 -190.920990 0.000042 0.253013
nan nan nan 0.000000
nan nan nan 0.000000
nan nan nan 0.000000
nan nan nan 0.000000
190.031647 -171.665024 5.199946 1.000000
190.031647 -171.665024 4.280761 1.000000
190.031647 -171.665024 3.366500 1.000000
190.031647 -171.665024 2.455175 1.000000
190.031647 -171.665024 1.544825 1.000000
190.031647 -171.665024 0.633499 1.000000
189.221848 -174.992188 0.000014 0.337652
187.564972 -181.799683 -0.000011 0.336202
186.642059 -185.591629 0.000047 0.240590
186.052933 -188.012146 0.000045 0.214739
185.643463 -189.694504 0.000043 0.258398
185.341782 -190.933975 0.000041 0.223177
nan nan nan 0.000000
nan nan nan 0.000000
nan nan nan 0.000000
nan nan nan 0.000000
190.187103 -171.843414 5.184312 1.000000
190.187103 -171.843414 4.269619 1.000000
190.187103 -171.843430 3.359824 1.000000
190.187103 -171.843414 2.452950 1.000000
190.187103 -171.843414 1.547049 1.000000
190.187103 -171.843414 0.640175 1.000000
189.357544 -175.151138 0.009998 1.000000
187.682800 -181.828796 -0.000010 0.336873
186.733429 -185.614212 0.000046 0.245724
186.127426 -188.030548 0.000044 0.234666
185.706223 -189.710007 0.000042 0.186531
185.395889 -190.947357 0.000042 0.222865
nan nan nan 0.000000
nan nan nan 0.000000
nan nan nan 0.000000
nan nan nan 0.000000
190.341064 -172.020096 5.168983 1.000000
190.341064 -172.020096 4.258693 1.000000
190.341064 -172.020096 3.353278 1.000000
190.341064 -172.020096 2.450771 1.000000
190.341064 -172.020096 1.549229 1.000000
190.341064 -172.020096 0.646721 1.000000
189.521744 -175.192932 0.009998 1.000000
187.800430 -181.858734 -0.000010 0.338903
186.824646 -185.637421 0.000046 0.214931
186.201782 -188.049484 0.000044 0.225953
185.768875 -189.725952 0.000042 0.226994
185.449921 -190.961105 0.000041 0.209497
nan nan nan 0.000000
nan nan nan 0.000000
nan nan nan 0.000000
nan nan nan 0.000000
190.493546 -172.195084 5.153955 1.000000
190.493546 -172.195084 4.247982 1.000000
190.493546 -172.195084 3.346860 1.000000
190.493546 -172.195084 2.448633 1.000000
190.493546 -172.195084 1.551367 1.000000
190.493546 -172.195084 0.653139 1.000000
189.716766 -175.118698 0.000057 0.232524
187.917831 -181.889496 -0.000009 0.341695
186.915710 -185.661285 0.000047 0.211125
186.276016 -188.068924 0.000044 0.265268
185.831406 -189.742325 0.000043 0.222554
185.503830 -190.975220 0.000041 0.204291
nan nan nan 0.000000
nan nan nan 0.000000
nan nan nan 0.000000
nan nan nan 0.000000
190.644608 -172.368439 5.139220 1.000000
190.644608 -172.368439 4.237479 1.000000
190.644608 -172.368439 3.340569 1.000000
190.644608 -172.368423 2.446537 1.000000
190.644608 -172.368423 1.553463 1.000000
190.644608 -172.368423 0.659431 1.000000
189.881195 -175.162979 0.000056 0.230908
188.035019 -181.921082 -0.000009 0.337316
187.006592 -185.685760 0.000046 0.217923
186.350113 -188.088882 0.000044 0.222961
185.893829 -189.759140 0.000042 0.183443
185.557663 -190.989731 0.000041 0.240351
nan nan nan 0.000000
nan nan nan 0.000000
nan nan nan 0.000000
nan nan nan 0.000000
190.794266 -172.540176 5.124774 1.000000
190.794266 -172.540176 4.227184 1.000000
190.794266 -172.540161 3.334400 1.000000
190.794266 -172.540176 2.444482 1.000000
190.794266 -172.540176 1.555518 1.000000
190.794266 -172.540161 0.665600 1.000000
190.045303 -175.208420 0.000055 0.225630
188.151993 -181.953476 -0.000008 0.339300
187.097305 -185.710876 0.000046 0.236198
186.424057 -188.109360 0.000043 0.256735
185.956131 -189.776398 0.000042 0.189128
185.611374 -191.004593 0.000040 0.199408
nan nan nan 0.000000
nan nan nan 0.000000
nan nan nan 0.000000
nan nan nan 0.000000
190.942566 -172.710358 5.110611 1.000000
190.942566 -172.710358 4.217089 1.000000
190.942566 -172.710342 3.328352 1.000000
190.942566 -172.710342 2.442468 1.000000
190.942566 -172.710342 1.557533 1.000000
190.942566 -172.710342 0.671648 1.000000
190.209076 -175.255020 0.000055 0.227856
188.268738 -181.986679 -0.000008 0.338140
187.187836 -185.736633 0.000046 0.203729
186.497864 -188.130356 0.000043 0.220903
186.018311 -189.794083 0.000041 0.238723
185.664993 -191.019852 0.000040 0.230884
nan nan nan 0.000000
nan nan nan 0.000000
nan nan nan 0.000000
191.089523 -172.878998 5.992986 1.000000
191.089523 -172.878998 5.096728 1.000000
191.089523 -172.878998 4.207193 1.000000
191.089523 -172.878998 3.322422 1.000000
191.089523 -172.878998 2.440493 1.000000
191.089523 -172.878998 1.559507 1.000000
191.089523 -172.878998 0.677577 1.000000
190.372543 -175.302750 0.000055 0.225822
188.385239 -182.020706 -0.000008 0.338643
187.278183 -185.763016 0.000045 0.221238
186.571518 -188.151871 0.000043 0.198702
186.080368 -189.812210 0.000041 0.227186
185.718491 -191.035477 0.000040 0.228742
nan nan nan 0.000000
nan nan nan 0.000000
nan nan nan 0.000000
191.235199 -173.046158 5.975434 1.000000
191.235199 -173.046158 5.083116 1.000000
191.235199 -173.046158 4.197491 1.000000
191.235199 -173.046158 3.316610 1.000000
191.235199 -173.046158 2.438557 1.000000
191.235199 -173.046158 1.561444 1.000000
191.235199 -173.046158 0.683390 1.000000
190.535660 -175.351608 0.000055 0.242648
188.501495 -182.055542 -0.000007 0.337774
187.368362 -185.790024 0.000045 0.252665
186.645035 -188.173889 0.000043 0.232643
186.142288 -189.830765 0.000041 0.185538
185.771896 -191.051468 0.000040 0.192096
nan nan nan 0.000000
nan nan nan 0.000000
nan nan nan 0.000000
191.379593 -173.211868 5.958229 1.000000
191.379593 -173.211853 5.069772 1.000000
191.379593 -173.211853 4.187982 1.000000
191.379593 -173.211868 3.310911 1.000000
191.379593 -173.211853 2.436659 1.000000
191.379593 -173.211853 1.563342 1.000000
191.379593 -173.211868 0.689088 1.000000
190.698425 -175.401627 0.000055 0.223093
188.617523 -182.091187 -0.000007 0.335027
187.458328 -185.817673 0.000045 0.223464
186.718384 -188.196426 0.000042 0.206194
186.204086 -189.849747 0.000041 0.267769
185.825180 -191.067841 0.000040 0.222147
nan nan nan 0.000000
nan nan nan 0.000000
nan nan nan 0.000000
191.522751 -173.376160 5.941364 1.000000
191.522751 -173.376144 5.056693 1.000000
191.522751 -173.376144 4.178658 1.000000
191.522751 -173.376144 3.305326 1.000000
191.522751 -173.376144 2.434798 1.000000
191.522751 -173.376144 1.565202 1.000000
191.522751 -173.376144 0.694673 1.000000
190.860840 -175.452774 0.000055 0.237837
188.733292 -182.127655 -0.000007 0.331563
187.548111 -185.845947 0.000044 0.246239
186.791565 -188.219467 0.000042 0.210479
186.265747 -189.869156 0.000040 0.245916
185.878342 -191.084579 0.000040 0.242720
nan nan nan 0.000000
nan nan nan 0.000000
nan nan nan 0.000000
191.664703 -173.539047 5.924833 1.000000
191.664703 -173.539047 5.043871 1.000000
191.664703 -173.539032 4.169520 1.000000
191.664703 -173.539032 3.299851 1.000000
191.664703 -173.539032 2.432974 1.000000
191.664703 -173.539032 1.567026 1.000000
191.664703 -173.539032 0.700149 1.000000
191.022903 -175.505035 0.000054 0.232919
188.848785 -182.164917 -0.000007 0.331914
187.637695 -185.874832 0.000044 0.208755
186.864609 -188.243027 0.000042 0.259918
186.327271 -189.889008 0.000040 0.193652
185.931396 -191.101685 0.000039 0.254891
nan nan nan 0.000000
nan nan nan 0.000000
nan nan nan 0.000000
191.805481 -173.700592 5.908628 1.000000
191.805481 -173.700592 5.031304 1.000000
191.805481 -173.700592 4.160563 1.000000
191.805481 -173.700592 3.294484 1.000000
191.805481 -173.700577 2.431187 1.000000
191.805481 -173.700592 1.568814 1.000000
191.805481 -173.700592 0.705515 1.000000
191.184601 -175.558456 0.000054 0.234750
188.964035 -182.202988 -0.000006 0.339406
187.727066 -185.904358 0.000044 0.216295
186.937469 -188.267090 0.000042 0.204686
186.388657 -189.909286 0.000040 0.224206
185.984314 -191.119171 0.000039 0.204686
nan nan nan 0.000000
nan nan nan 0.000000
nan nan nan 0.000000
191.945099 -173.860809 5.892746 1.000000
191.945099 -173.860809 5.018987 1.000000
191.945099 -173.860809 4.151784 1.000000
191.945099 -173.860809 3.289225 1.000000
191.945099 -173.860809 2.429435 1.000000
191.945099 -173.860809 1.570566 1.000000
191.945099 -173.860809 0.710775 1.000000
191.345901 -175.612976 0.000054 0.236796
189.079025 -182.241852 -0.000007 0.338125
187.816238 -185.934509 0.000044 0.220185
187.010162 -188.291672 0.000041 0.209138
186.449905 -189.929977 0.000039 0.235803
186.037125 -191.137024 0.000038 0.230968
nan nan nan 0.000000
nan nan nan 0.000000
nan nan nan 0.000000
192.083588 -174.019745 5.877180 1.000000
192.083603 -174.019745 5.006916 1.000000
192.083603 -174.019745 4.143179 1.000000
192.083603 -174.019745 3.284070 1.000000
192.083603 -174.019745 2.427717 1.000000
192.083603 -174.019745 1.572283 1.000000
192.083603 -174.019745 0.715931 1.000000
191.506836 -175.668640 0.000054 0.232895
189.193726 -182.281540 -0.000006 0.340673
187.905197 -185.965271 0.000043 0.196991
187.082672 -188.316742 0.000041 0.243534
186.511002 -189.951111 0.000040 0.214620
186.089813 -191.155243 0.000038 0.268631
nan nan nan 0.000000
nan nan nan 0.000000
nan nan nan 0.000000
192.220993 -174.177429 5.861927 1.000000
192.220993 -174.177414 4.995086 1.000000
192.220993 -174.177414 4.134748 1.000000
192.220993 -174.177414 3.279017 1.000000
192.220993 -174.177414 2.426035 1.000000
192.220993 -174.177414 1.573965 1.000000
192.220993 -174.177414 0.720982 1.000000
191.667374 -175.725418 0.000053 0.230920
189.308136 -182.322021 -0.000005 0.339818
187.993942 -185.996658 0.000043 0.249542
187.155014 -188.342331 0.000041 0.246861
186.571945 -189.972672 0.000039 0.245269
186.142349 -191.173828 0.000038 0.217803
nan nan nan 0.000000
nan nan nan 0.000000
nan nan nan 0.000000
192.357330 -174.333878 5.846979 1.000000
192.357330 -174.333878 4.983493 1.000000
192.357330 -174.333862 4.126486 1.000000
192.357330 -174.333862 3.274066 1.000000
192.357330 -174.333862 2.424386 1.000000
192.357330 -174.333862 1.575614 1.000000
192.357330 -174.333862 0.725933 1.000000
191.827499 -175.783325 0.000053 0.222411
189.422287 -182.363281 -0.000006 0.336339
188.082458 -186.028656 0.000043 0.200151
187.227188 -188.368423 0.000040 0.248824
186.632736 -189.994659 0.000039 0.215445
186.194778 -191.192780 0.000037 0.266476
nan nan nan 0.000000
nan nan nan 0.000000
nan nan nan 0.000000
192.492615 -174.489120 5.832333 1.000000
192.492615 -174.489120 4.972135 1.000000
192.492615 -174.489120 4.118390 1.000000
192.492615 -174.489120 3.269216 1.000000
192.492615 -174.489120 2.422771 1.000000
192.492615 -174.489120 1.577230 1.000000
192.492615 -174.489120 0.730783 1.000000
191.987228 -175.842331 0.000053 0.223428
189.536133 -182.405350 -0.000006 0.338125
188.170746 -186.061279 0.000043 0.245233
187.299164 -188.395020 0.000040 0.193077
186.693375 -190.017059 0.000038 0.243091
186.247055 -191.212097 0.000037 0.206541
nan nan nan 0.000000
nan nan nan 0.000000
nan nan nan 0.000000
192.626877 -174.643204 5.817982 1.000000
192.626892 -174.643188 4.961006 1.000000
192.626892 -174.643188 4.110458 1.000000
192.626892 -174.643188 3.264464 1.000000
192.626892 -174.643188 2.421187 1.000000
192.626892 -174.643188 1.578813 1.000000
192.626892 -174.643188 0.735536 1.000000
192.146545 -175.902466 0.000053 0.228083
189.649689 -182.448212 -0.000007 0.337530
188.258804 -186.094513 0.000042 0.240542
187.370956 -188.422119 0.000040 0.222123
186.753860 -190.039886 0.000038 0.226193
186.299210 -191.231781 0.000037 0.201084
nan nan nan 0.000000
nan nan nan 0.000000
nan nan nan 0.000000
192.760162 -174.796143 5.803925 1.000000
192.760162 -174.796143 4.950103 1.000000
192.760162 -174.796127 4.102686 1.000000
192.760162 -174.796127 3.259809 1.000000
192.760162 -174.796127 2.419636 1.000000
192.760162 -174.796127 1.580364 1.000000
192.760162 -174.796127 0.740191 1.000000
192.305420 -175.963699 0.000052 0.230130
189.762939 -182.491852 -0.000007 0.341573
188.346634 -186.128372 0.000042 0.239489
187.442551 -188.449707 0.000039 0.217983
186.814178 -190.063141 0.000038 0.237251
186.351227 -191.251831 0.000036 0.231363
nan nan nan 0.000000
nan nan nan 0.000000
nan nan nan 0.000000
192.892456 -174.947968 5.790154 1.000000
192.892456 -174.947952 4.939423 1.000000
192.892456 -174.947968 4.095075 1.000000
192.892456 -174.947952 3.255248 1.000000
192.892456 -174.947952 2.418117 1.000000
192.892456 -174.947952 1.581883 1.000000
192.892456 -174.947952 0.744752 1.000000
192.463882 -176.026047 0.000052 0.223201
189.875885 -182.536285 -0.000007 0.341772
188.434235 -186.162842 0.000042 0.203394
187.513962 -188.477814 0.000039 0.196022
186.874344 -190.086807 0.000037 0.261641
186.403091 -191.272232 0.000036 0.253551
nan nan nan 0.000000
nan nan nan 0.000000
nan nan nan 0.000000
193.023804 -175.098694 5.776666 1.000000
193.023804 -175.098694 4.928962 1.000000
193.023819 -175.098694 4.087619 1.000000
193.023819 -175.098694 3.250781 1.000000
193.023804 -175.098694 2.416629 1.000000
193.023804 -175.098694 1.583371 1.000000
193.023819 -175.098679 0.749219 1.000000
192.621902 -176.089508 0.000052 0.235480
189.988510 -182.581512 -0.000008 0.337270
188.521576 -186.197906 0.000041 0.245880
187.585175 -188.506409 0.000039 0.199121
186.934326 -190.110901 0.000037 0.244108
186.454819 -191.293015 0.000036 0.206996
nan nan nan 0.000000
nan nan nan 0.000000
nan nan nan 0.000000
193.154236 -175.248367 5.763457 1.000000
193.154236 -175.248367 4.918718 1.000000
193.154236 -175.248367 4.080317 1.000000
193.154236 -175.248352 3.246406 1.000000
193.154236 -175.248367 2.415171 1.000000
193.154236 -175.248367 1.584829 1.000000
193.154236 -175.248352 0.753594 1.000000
192.779465 -176.154068 0.000052 0.224924
190.100830 -182.627533 -0.000009 0.335195
188.608673 -186.233597 0.000041 0.213590
187.656174 -188.535492 0.000038 0.251983
186.994156 -190.135406 0.000037 0.223213
186.506393 -191.314148 0.000035 0.228825
nan nan nan 0.000000
nan nan nan 0.000000
nan nan nan 0.000000
193.283768 -175.397003 5.750522 1.000000
193.283768 -175.397003 4.908686 1.000000
193.283768 -175.397003 4.073167 1.000000
193.283768 -175.397003 3.242121 1.000000
193.283768 -175.397003 2.413744 1.000000
193.283768 -175.397003 1.586255 1.000000
193.283768 -175.397003 0.757878 1.000000
192.936584 -176.219696 0.000051 0.225965
190.212814 -182.674316 -0.000008 0.337591
188.695526 -186.269882 0.000041 0.240937
187.726974 -188.565079 0.000038 0.211400
187.053802 -190.160324 0.000036 0.260720
186.557831 -191.335632 0.000035 0.240123
nan nan nan 0.000000
nan nan nan 0.000000
nan nan nan 0.000000
193.412399 -175.544632 5.737857 1.000000
193.412415 -175.544617 4.898864 1.000000
193.412399 -175.544632 4.066166 1.000000
193.412415 -175.544617 3.237926 1.000000
193.412415 -175.544617 2.412347 1.000000
193.412415 -175.544617 1.587652 1.000000
193.412415 -175.544617 0.762073 1.000000
193.093246 -176.286453 0.000051 0.230573
190.324463 -182.721909 -0.000009 0.337911
188.782120 -186.306778 0.000040 0.224457
187.797577 -188.595154 0.000038 0.224242
187.113266 -190.185669 0.000036 0.229627
186.609116 -191.357483 0.000035 0.203274
nan nan nan 0.000000
nan nan nan 0.000000
nan nan nan 0.000000
193.540192 -175.691269 5.725458 1.000000
193.540192 -175.691269 4.889247 1.000000
193.540192 -175.691269 4.059312 1.000000
193.540192 -175.691254 3.233820 1.000000
193.540192 -175.691254 2.410980 1.000000
193.540192 -175.691254 1.589020 1.000000
193.540192 -175.691254 0.766179 1.000000
193.249420 -176.354309 0.000051 0.231937
190.435791 -182.770248 -0.000009 0.337301
188.868454 -186.344269 0.000040 0.233469
187.867950 -188.625717 0.000037 0.205656
187.172562 -190.211426 0.000036 0.248058
186.660233 -191.379684 0.000034 0.260648
nan nan nan 0.000000
nan nan nan 0.000000
nan nan nan 0.000000
193.667130 -175.836945 5.713320 1.000000
193.667130 -175.836945 4.879835 1.000000
193.667130 -175.836945 4.052604 1.000000
193.667130 -175.836945 3.229801 1.000000
193.667130 -175.836945 2.409641 1.000000
193.667130 -175.836945 1.590359 1.000000
193.667130 -175.836945 0.770199 1.000000
193.405136 -176.423233 0.000051 0.222650
190.546768 -182.819382 -0.000009 0.338216
188.954529 -186.382385 0.000039 0.204291
187.938126 -188.656784 0.000037 0.203980
187.231674 -190.237595 0.000035 0.212274
186.711212 -191.402252 0.000034 0.245569
nan nan nan 0.000000
nan nan nan 0.000000
nan nan nan 0.000000
193.793259 -175.981674 5.701443 1.000000
193.793259 -175.981674 4.870624 1.000000
193.793259 -175.981674 4.046038 1.000000
193.793259 -175.981674 3.225867 1.000000
193.793259 -175.981674 2.408330 1.000000
193.793259 -175.981674 1.591669 1.000000
193.793259 -175.981674 0.774133 1.000000
193.560349 -176.493240 0.000050 0.230836
190.657410 -182.869293 -0.000010 0.337346
189.040329 -186.421082 0.000039 0.239896
188.008072 -188.688339 0.000037 0.219467
187.290604 -190.264160 0.000035 0.241775
186.762024 -191.425171 0.000033 0.233289
nan nan nan 0.000000
nan nan nan 0.000000
nan nan nan 0.000000
193.918594 -176.125504 5.689820 1.000000
193.918594 -176.125504 4.861609 1.000000
193.918594 -176.125504 4.039613 1.000000
193.918594 -176.125488 3.222018 1.000000
193.918594 -176.125488 2.407048 1.000000
193.918594 -176.125488 1.592952 1.000000
193.918594 -176.125488 0.777982 1.000000
193.715088 -176.564331 0.000050 0.236270
190.767700 -182.919952 -0.000010 0.338186
189.125854 -186.460388 0.000039 0.250248
188.077789 -188.720367 0.000037 0.234965
187.349350 -190.291153 0.000035 0.258661
186.812668 -191.448441 0.000033 0.213435
nan nan nan 0.000000
nan nan nan 0.000000
nan nan nan 0.000000
194.043137 -176.268433 5.678449 1.000000
194.043137 -176.268433 4.852790 1.000000
194.043137 -176.268433 4.033328 1.000000
194.043137 -176.268433 3.218252 1.000000
194.043137 -176.268417 2.405794 1.000000
194.043137 -176.268417 1.594206 1.000000
194.043137 -176.268433 0.781748 1.000000
193.869308 -176.636505 0.000049 0.225810
190.877640 -182.971405 -0.000011 0.340368
189.211105 -186.500275 0.000039 0.215039
188.147293 -188.752899 0.000036 0.231482
187.407913 -190.318558 0.000034 0.200115
186.863159 -191.472061 0.000033 0.285745
nan nan nan 0.000000
nan nan nan 0.000000
nan nan nan 0.000000
194.166931 -176.410492 5.667324 1.000000
194.166931 -176.410492 4.844163 1.000000
194.166931 -176.410477 4.027178 1.000000
194.166931 -176.410477 3.214568 1.000000
194.166931 -176.410477 2.404567 1.000000
194.166931 -176.410477 1.595433 1.000000
194.166931 -176.410477 0.785432 1.000000
194.023026 -176.709763 0.000050 0.232930
190.987198 -183.023605 -0.000011 0.336507
189.296082 -186.540771 0.000038 0.229316
188.216568 -188.785904 0.000036 0.219120
187.466263 -190.346375 0.000034 0.194334
186.913483 -191.496048 0.000032 0.202341
nan nan nan 0.000000
nan nan nan 0.000000
nan nan nan 0.000000
194.289978 -176.551697 5.656446 1.000000
194.289978 -176.551697 4.835727 1.000000
194.289978 -176.551697 4.021165 1.000000
194.289978 -176.551697 3.210965 1.000000
194.289978 -176.551697 2.403366 1.000000
194.289978 -176.551697 1.596633 1.000000
194.289978 -176.551682 0.789035 1.000000
194.176239 -176.784073 0.000049 0.223476
191.096405 -183.076584 -0.000011 0.337575
189.380768 -186.581848 0.000038 0.201646
188.285614 -188.819397 0.000036 0.231446
187.524429 -190.374588 0.000034 0.281700
186.963623 -191.520370 0.000032 0.191522
nan nan nan 0.000000
nan nan nan 0.000000
nan nan nan 0.000000
194.412308 -176.692078 5.645809 1.000000
194.412308 -176.692078 4.827477 1.000000
194.412308 -176.692062 4.015285 1.000000
194.412308 -176.692062 3.207442 1.000000
194.412308 -176.692062 2.402193 1.000000
194.412308 -176.692062 1.597807 1.000000
194.412308 -176.692062 0.792557 1.000000
194.328918 -176.859467 0.000049 0.231243
191.205231 -183.130325 -0.000012 0.335927
189.465164 -186.623520 0.000038 0.206146
188.354416 -188.853363 0.000035 0.214273
187.582397 -190.403198 0.000033 0.250427
187.013611 -191.545059 0.000032 0.218354
nan nan nan 0.000000
nan nan nan 0.000000
nan nan nan 0.000000
194.533936 -176.831635 5.635411 1.000000
194.533936 -176.831635 4.819413 1.000000
194.533936 -176.831635 4.009537 1.000000
194.533936 -176.831635 3.203998 1.000000
194.533936 -176.831635 2.401046 1.000000
194.533936 -176.831635 1.598954 1.000000
194.533936 -176.831635 0.796002 1.000000
194.533936 -176.831635 -0.009538 1.000000
191.313690 -183.184814 -0.000012 0.337087
189.549271 -186.665787 0.000037 0.233337
188.422974 -188.887817 0.000035 0.239704
187.640167 -190.432236 0.000033 0.254449
187.063416 -191.570084 0.000032 0.252127
nan nan nan 0.000000
nan nan nan 0.000000
nan nan nan 0.000000
194.654877 -176.970428 5.625247 1.000000
194.654877 -176.970428 4.811530 1.000000
194.654877 -176.970428 4.003920 1.000000
194.654877 -176.970413 3.200632 1.000000
194.654877 -176.970413 2.399925 1.000000
194.654877 -176.970413 1.600075 1.000000
194.654877 -176.970413 0.799367 1.000000
194.654877 -176.970413 -0.003920 1.000000
191.421753 -183.240051 -0.000012 0.336767
189.633087 -186.708618 0.000037 0.220987
188.491302 -188.922745 0.000034 0.305061
187.697723 -190.461655 0.000032 0.251840
187.113052 -191.595459 0.000031 0.192431
nan nan nan 0.000000
nan nan nan 0.000000
nan nan nan 0.000000
194.775146 -177.108444 5.615315 1.000000
194.775146 -177.108444 4.803827 1.000000
194.775146 -177.108429 3.998430 1.000000
194.775146 -177.108444 3.197342 1.000000
194.775146 -177.108429 2.398829 1.000000
194.775146 -177.108429 1.601171 1.000000
194.775146 -177.108429 0.802656 1.000000
194.775146 -177.108429 0.001570 1.000000
191.529434 -183.296051 -0.000013 0.337682
189.716583 -186.752060 0.000037 0.205560
188.559387 -188.958160 0.000034 0.200498
187.755081 -190.491486 0.000032 0.213578
187.162506 -191.621170 0.000031 0.256040
nan nan nan 0.000000
nan nan nan 0.000000
nan nan nan 0.000000
194.894760 -177.245712 5.605614 1.000000
194.894760 -177.245712 4.796304 1.000000
194.894760 -177.245712 3.993066 1.000000
194.894760 -177.245697 3.194131 1.000000
194.894760 -177.245697 2.397759 1.000000
194.894760 -177.245697 1.602241 1.000000
194.894760 -177.245697 0.805869 1.000000
194.894760 -177.245697 0.006932 1.000000
191.636719 -183.352814 -0.000014 0.337545
189.799789 -186.796066 0.000037 0.232440
188.627213 -188.994034 0.000034 0.216989
187.812225 -190.521713 0.000032 0.243642
187.211777 -191.647232 0.000030 0.233553
nan nan nan 0.000000
nan nan nan 0.000000
nan nan nan 0.000000
195.013748 -177.382248 5.596140 1.000000
195.013748 -177.382248 4.788957 1.000000
195.013748 -177.382248 3.987830 1.000000
195.013748 -177.382248 3.190992 1.000000
195.013748 -177.382248 2.396714 1.000000
195.013748 -177.382248 1.603286 1.000000
195.013748 -177.382248 0.809008 1.000000
195.013748 -177.382248 0.012169 1.000000
