# This PCD file was generated using the MATLAB® pcwrite function
# from Computer Vision Toolbox®.
# .PCD v.7 - Point Cloud Data file format
VERSION .7
FIELDS x y z intensity
SIZE 4 4 4 4
TYPE F F F F
COUNT 1 1 1 1
WIDTH 1302
HEIGHT 1
VIEWPOINT 0 0 0 1 0 0 0
POINTS 1302
DATA ascii
108.337006 -7.407118 0.000011 0.340246
106.856415 -6.509449 0.000003 0.335927
105.765549 -5.848072 0.000002 0.338369
nan nan nan 0.000000
nan nan nan 0.000000
nan nan nan 0.000000
nan nan nan 0.000000
145.274536 -30.246210 8.260450 0.390860
143.583145 -29.204525 6.299260 0.412482
145.959961 -30.668350 4.713001 0.405600
nan nan nan 0.000000
nan nan nan 0.000000
133.601715 -23.057190 0.000026 0.227353
119.706558 -14.499486 0.000016 0.222494
113.740822 -10.825324 0.000013 0.220185
110.418205 -8.779000 0.000011 0.204507
108.250259 -7.443810 0.009998 1.000000
106.822701 -6.564612 0.000003 0.346197
105.736481 -5.895636 0.000002 0.335760
nan nan nan 0.000000
nan nan nan 0.000000
nan nan nan 0.000000
nan nan nan 0.000000
152.614029 -35.285549 9.283571 0.415518
144.082733 -29.948816 6.366249 0.408423
144.162857 -29.998932 4.620646 0.406256
nan nan nan 0.000000
nan nan nan 0.000000
133.451813 -23.298664 0.000026 0.232033
119.616760 -14.644168 0.000016 0.234403
113.676811 -10.928444 0.000013 0.232691
110.368568 -8.858977 0.000011 0.245126
108.209976 -7.508671 0.010002 1.000000
106.788612 -6.619541 0.000003 0.339681
105.707092 -5.942997 0.000002 0.328389
nan nan nan 0.000000
nan nan nan 0.000000
nan nan nan 0.000000
nan nan nan 0.000000
152.395538 -35.670399 9.285919 0.404135
151.375275 -35.022209 7.093928 0.401648
153.686981 -36.490856 5.186535 0.394430
nan nan nan 0.000000
nan nan nan 0.000000
133.300262 -23.539085 0.000026 0.229735
119.525955 -14.788215 0.000016 0.235168
113.612091 -11.031114 0.000013 0.228742
110.318375 -8.938602 0.000010 0.251816
108.169220 -7.573239 0.010009 1.000000
106.754128 -6.674225 0.000003 0.336019
105.677361 -5.990150 0.000002 0.332143
nan nan nan 0.000000
nan nan nan 0.000000
nan nan nan 0.000000
nan nan nan 0.000000
nan nan nan 0.000000
154.452728 -37.523773 7.417039 0.400458
153.596313 -36.971260 5.195508 0.407202
nan nan nan 0.000000
nan nan nan 0.000000
133.147018 -23.778452 0.000026 0.226181
119.434135 -14.931629 0.000016 0.223763
113.546646 -11.133332 0.000013 0.234845
110.267624 -9.017877 0.000011 0.196201
108.174225 -7.667332 0.000011 0.326635
106.719276 -6.728672 0.000003 0.327321
105.647308 -6.037097 0.000001 0.340887
nan nan nan 0.000000
nan nan nan 0.000000
nan nan nan 0.000000
nan nan nan 0.000000
nan nan nan 0.000000
nan nan nan 0.000000
153.327728 -37.338177 5.194270 0.407843
nan nan nan 0.000000
nan nan nan 0.000000
132.992096 -24.016731 0.000026 0.228538
119.341324 -15.074399 0.000016 0.223404
113.480499 -11.235092 0.000013 0.233900
110.216316 -9.096793 0.000011 0.223081
108.132401 -7.731667 0.000011 0.337194
106.684036 -6.782873 0.000003 0.333257
105.616928 -6.083833 0.000001 0.341955
nan nan nan 0.000000
nan nan nan 0.000000
nan nan nan 0.000000
nan nan nan 0.000000
nan nan nan 0.000000
nan nan nan 0.000000
nan nan nan 0.000000
nan nan nan 0.000000
nan nan nan 0.000000
132.835541 -24.253941 0.000025 0.227665
119.247513 -15.216511 0.000016 0.231554
113.413635 -11.336381 0.000013 0.230345
110.164459 -9.175350 0.000011 0.216558
108.090134 -7.795713 0.000010 0.228143
106.648422 -6.836825 0.000004 0.338949
105.586220 -6.130353 0.000001 0.334142
nan nan nan 0.000000
nan nan nan 0.000000
nan nan nan 0.000000
nan nan nan 0.000000
nan nan nan 0.000000
nan nan nan 0.000000
nan nan nan 0.000000
nan nan nan 0.000000
nan nan nan 0.000000
132.677322 -24.490042 0.000025 0.230609
119.152718 -15.357969 0.000016 0.241978
113.346069 -11.437208 0.000013 0.239094
110.112061 -9.253545 0.000011 0.196034
108.047417 -7.859458 0.000010 0.222028
106.612434 -6.890530 0.000004 0.343313
105.555191 -6.176659 0.000001 0.341146
nan nan nan 0.000000
nan nan nan 0.000000
nan nan nan 0.000000
nan nan nan 0.000000
nan nan nan 0.000000
nan nan nan 0.000000
nan nan nan 0.000000
nan nan nan 0.000000
nan nan nan 0.000000
132.517441 -24.725016 0.000025 0.230130
119.056931 -15.498757 0.000017 0.226312
113.277794 -11.537556 0.000013 0.219120
110.059113 -9.331367 0.000011 0.222686
108.004257 -7.922903 0.000010 0.241847
106.576065 -6.943979 0.000004 0.331838
105.523834 -6.222746 0.000001 0.331563
nan nan nan 0.000000
nan nan nan 0.000000
nan nan nan 0.000000
nan nan nan 0.000000
nan nan nan 0.000000
nan nan nan 0.000000
nan nan nan 0.000000
nan nan nan 0.000000
nan nan nan 0.000000
132.355942 -24.958883 0.000025 0.229675
118.960175 -15.638876 0.000017 0.230501
113.208824 -11.637422 0.000013 0.235851
110.005630 -9.408822 0.000011 0.266979
107.960648 -7.986047 0.000010 0.200246
106.539330 -6.997174 0.000004 0.333715
105.492157 -6.268613 0.000001 0.337209
120.633987 -17.029306 8.652973 1.000000
120.633987 -17.029306 7.736444 1.000000
120.633987 -17.029308 6.832785 1.000000
120.633987 -17.029308 5.939827 1.000000
120.633995 -17.029310 5.055501 1.000000
120.633987 -17.029310 4.177809 1.000000
120.633995 -17.029310 3.304816 1.000000
120.633995 -17.029312 2.434628 1.000000
120.633995 -17.029314 1.565371 1.000000
120.633995 -17.029314 0.695183 1.000000
118.862434 -15.778317 0.000017 0.237801
113.139160 -11.736809 0.000013 0.226552
109.951599 -9.485900 0.000011 0.195100
107.916603 -8.048882 0.000010 0.211568
106.502228 -7.050112 0.000005 0.341207
105.460167 -6.314260 0.000001 0.339208
120.220146 -16.960848 8.558563 1.000000
120.220146 -16.960850 7.655041 1.000000
120.220146 -16.960848 6.764204 1.000000
120.220146 -16.960850 5.883919 1.000000
120.220154 -16.960852 5.012142 1.000000
120.220154 -16.960850 4.146905 1.000000
120.220154 -16.960852 3.286301 1.000000
120.220154 -16.960855 2.428461 1.000000
120.220154 -16.960855 1.571539 1.000000
120.220154 -16.960854 0.713699 1.000000
118.763718 -15.917074 0.000016 0.234271
113.068810 -11.835711 0.000013 0.230489
109.897034 -9.562599 0.000011 0.227581
107.872124 -8.111409 0.000010 0.211867
106.464745 -7.102790 0.000005 0.334890
105.427856 -6.359682 0.000000 0.336141
119.817871 -16.894299 8.467108 1.000000
119.817871 -16.894300 7.576185 1.000000
119.817871 -16.894300 6.697770 1.000000
119.817871 -16.894300 5.829760 1.000000
119.817879 -16.894304 4.970139 1.000000
119.817879 -16.894302 4.116967 1.000000
119.817879 -16.894304 3.268364 1.000000
119.817879 -16.894306 2.422486 1.000000
119.817879 -16.894306 1.577514 1.000000
119.817879 -16.894306 0.731636 1.000000
118.664047 -16.055134 0.000017 0.232763
112.997765 -11.934114 0.000013 0.227641
109.841934 -9.638915 0.000011 0.238292
107.827202 -8.173625 0.000010 0.292901
106.426910 -7.155205 0.000005 0.324117
105.395226 -6.404877 0.000000 0.335180
119.426636 -16.829578 8.378473 1.000000
119.426636 -16.829578 7.499761 1.000000
119.426643 -16.829580 6.633386 1.000000
119.426643 -16.829580 5.777271 1.000000
119.426643 -16.829580 4.929431 1.000000
119.426643 -16.829582 4.087953 1.000000
119.426643 -16.829582 3.250981 1.000000
119.426643 -16.829582 2.416696 1.000000
119.426651 -16.829584 1.583304 1.000000
119.426651 -16.829586 0.749019 1.000000
118.563408 -16.192497 0.000017 0.227138
112.926033 -12.032021 0.000013 0.214656
109.786301 -9.714845 0.000012 0.220915
107.781853 -8.235525 0.000010 0.211161
106.388695 -7.207353 0.000005 0.334997
105.362282 -6.449843 0.000000 0.342550
119.045975 -16.766607 8.292540 1.000000
119.045967 -16.766605 7.425665 1.000000
119.045975 -16.766605 6.570961 1.000000
119.045975 -16.766607 5.726381 1.000000
119.045975 -16.766609 4.889964 1.000000
119.045975 -16.766607 4.059823 1.000000
119.045975 -16.766609 3.234127 1.000000
119.045975 -16.766609 2.411082 1.000000
119.045975 -16.766609 1.588918 1.000000
119.045975 -16.766611 0.765873 1.000000
118.461815 -16.329157 0.000016 0.225319
112.853622 -12.129423 0.000013 0.200737
109.730148 -9.790385 0.000011 0.229903
107.736069 -8.297109 0.000010 0.230908
106.350128 -7.259236 0.000005 0.334081
105.329025 -6.494577 -0.000000 0.339345
118.675400 -16.705303 8.209187 1.000000
118.675400 -16.705301 7.353794 1.000000
118.675400 -16.705303 6.510412 1.000000
118.675407 -16.705309 5.677023 1.000000
118.675407 -16.705307 4.851684 1.000000
118.675400 -16.705307 4.032537 1.000000
118.675407 -16.705309 3.217780 1.000000
118.675407 -16.705309 2.405636 1.000000
118.675407 -16.705309 1.594363 1.000000
118.675415 -16.705311 0.782220 1.000000
118.359261 -16.465099 0.000017 0.228909
112.780533 -12.226315 0.000013 0.214249
109.673462 -9.865530 0.000011 0.274686
107.689857 -8.358370 0.000010 0.259607
106.311195 -7.310847 0.000005 0.335256
105.295456 -6.539078 0.000000 0.341970
118.314507 -16.645599 8.128309 1.000000
118.314507 -16.645599 7.284061 1.000000
118.314514 -16.645603 6.451665 1.000000
118.314514 -16.645603 5.629128 1.000000
118.314514 -16.645603 4.814540 1.000000
118.314514 -16.645605 4.006064 1.000000
118.314514 -16.645605 3.201917 1.000000
118.314514 -16.645605 2.400353 1.000000
118.314514 -16.645607 1.599647 1.000000
118.314537 -16.645622 0.798081 1.000000
118.314537 -16.645622 -0.006067 1.000000
112.706764 -12.322695 0.000013 0.226611
109.616257 -9.940278 0.000012 0.245700
107.643219 -8.419304 0.000010 0.221202
106.271912 -7.362184 0.000004 0.339315
105.261581 -6.583343 -0.000000 0.342596
117.962875 -16.587429 8.049804 1.000000
117.962875 -16.587431 7.216369 1.000000
117.962875 -16.587431 6.394638 1.000000
117.962875 -16.587431 5.582636 1.000000
117.962883 -16.587435 4.778484 1.000000
117.962875 -16.587435 3.980366 1.000000
117.962875 -16.587435 3.186521 1.000000
117.962883 -16.587437 2.395225 1.000000
117.962883 -16.587437 1.604776 1.000000
117.962898 -16.587450 0.813478 1.000000
117.962898 -16.587450 0.019632 1.000000
112.632332 -12.418561 0.000013 0.225080
109.558525 -10.014624 0.000012 0.217851
107.596161 -8.479914 0.000010 0.233589
106.232262 -7.413249 0.000004 0.347936
105.227394 -6.627372 -0.000000 0.341817
117.620125 -16.530727 7.973571 1.000000
117.620125 -16.530731 7.150639 1.000000
117.620125 -16.530731 6.339262 1.000000
117.620125 -16.530729 5.537492 1.000000
117.620132 -16.530733 4.743473 1.000000
117.620132 -16.530733 3.955411 1.000000
117.620125 -16.530731 3.171568 1.000000
117.620132 -16.530735 2.390244 1.000000
117.620132 -16.530737 1.609756 1.000000
117.620148 -16.530750 0.828430 1.000000
117.620148 -16.530750 0.044586 1.000000
112.557228 -12.513901 0.000014 0.234235
109.500282 -10.088569 0.000011 0.229795
107.548676 -8.540195 0.000010 0.247400
106.156021 -7.435281 0.009995 1.000000
105.192909 -6.671160 -0.000001 0.338003
117.285881 -16.475439 7.899518 1.000000
117.285881 -16.475439 7.086788 1.000000
117.285881 -16.475439 6.285467 1.000000
117.285881 -16.475437 5.493638 1.000000
117.285881 -16.475439 4.709462 1.000000
117.285881 -16.475441 3.931170 1.000000
117.285881 -16.475441 3.157045 1.000000
117.285889 -16.475443 2.385406 1.000000
117.285889 -16.475443 1.614594 1.000000
117.285904 -16.475454 0.842953 1.000000
117.285904 -16.475454 0.068827 1.000000
112.481461 -12.608721 0.000014 0.222279
109.441521 -10.162103 0.000012 0.217169
107.500771 -8.600142 0.000011 0.206278
106.115852 -7.485521 0.009999 1.000000
105.158112 -6.714709 -0.000001 0.337423
116.959808 -16.421495 7.827559 1.000000
116.959808 -16.421494 7.024742 1.000000
116.959808 -16.421494 6.233195 1.000000
116.959808 -16.421497 5.451025 1.000000
116.959808 -16.421495 4.676414 1.000000
116.959808 -16.421495 3.907614 1.000000
116.959816 -16.421499 3.142933 1.000000
116.959808 -16.421495 2.380705 1.000000
116.959816 -16.421499 1.619295 1.000000
116.959831 -16.421515 0.857066 1.000000
116.959831 -16.421511 0.092383 1.000000
112.405037 -12.703010 0.000013 0.231243
109.382248 -10.235225 0.000012 0.270486
107.452454 -8.659755 0.000010 0.223727
106.075325 -7.535475 0.010005 1.000000
105.123009 -6.758012 -0.000001 0.339559
116.641586 -16.368849 7.757613 1.000000
116.641586 -16.368853 6.964432 1.000000
116.641586 -16.368849 6.182387 1.000000
116.641586 -16.368853 5.409604 1.000000
116.641586 -16.368853 4.644290 1.000000
116.641586 -16.368853 3.884719 1.000000
116.641586 -16.368853 3.129214 1.000000
116.641586 -16.368853 2.376136 1.000000
116.641586 -16.368853 1.623864 1.000000
116.641602 -16.368868 0.870785 1.000000
116.641609 -16.368870 0.115279 1.000000
112.327957 -12.796760 0.000013 0.203669
109.322464 -10.307931 0.000012 0.218306
107.403717 -8.719026 0.000010 0.208085
106.070137 -7.614697 0.000003 0.338872
105.087608 -6.801069 -0.000002 0.337514
116.330887 -16.317450 7.689600 1.000000
116.330887 -16.317453 6.905788 1.000000
116.330887 -16.317453 6.132981 1.000000
116.330894 -16.317455 5.369328 1.000000
116.330894 -16.317455 4.613054 1.000000
116.330894 -16.317457 3.862455 1.000000
116.330902 -16.317459 3.115876 1.000000
116.330894 -16.317457 2.371693 1.000000
116.330902 -16.317457 1.628307 1.000000
116.330917 -16.317474 0.884123 1.000000
116.330910 -16.317471 0.137543 1.000000
112.250214 -12.889961 0.000014 0.251600
109.262177 -10.380217 0.000011 0.237706
107.354568 -8.777955 0.000011 0.285553
106.028732 -7.664344 0.000003 0.339193
105.051903 -6.843876 -0.000002 0.332891
116.027435 -16.267252 7.623446 1.000000
116.027435 -16.267252 6.848748 1.000000
116.027435 -16.267252 6.084926 1.000000
116.027443 -16.267256 5.330153 1.000000
116.027451 -16.267260 4.582672 1.000000
116.027451 -16.267260 3.840800 1.000000
116.027451 -16.267258 3.102901 1.000000
116.027451 -16.267258 2.367371 1.000000
116.027451 -16.267258 1.632629 1.000000
116.027466 -16.267271 0.897098 1.000000
116.027466 -16.267273 0.159198 1.000000
112.171829 -12.982625 0.000014 0.232500
109.201385 -10.452082 0.000011 0.209653
107.305008 -8.836541 0.000011 0.210898
105.986984 -7.713702 0.000003 0.340566
105.015907 -6.886435 -0.000002 0.339925
115.730942 -16.218203 7.559078 1.000000
115.730942 -16.218206 6.793249 1.000000
115.730942 -16.218206 6.038170 1.000000
115.730949 -16.218208 5.292035 1.000000
115.730949 -16.218206 4.553110 1.000000
115.730949 -16.218208 3.819730 1.000000
115.730949 -16.218206 3.090276 1.000000
115.730949 -16.218210 2.363166 1.000000
115.730965 -16.218222 1.636834 1.000000
115.730965 -16.218222 0.909722 1.000000
115.730965 -16.218222 0.180268 1.000000
112.092796 -13.074741 0.000014 0.224553
109.140099 -10.523521 0.000012 0.226037
107.255043 -8.894780 0.000011 0.263472
105.944862 -7.762746 0.000010 0.225594
104.979607 -6.928740 -0.000001 0.337606
115.441147 -16.170261 7.496436 1.000000
115.441147 -16.170261 6.739233 1.000000
115.441154 -16.170267 5.992665 1.000000
115.441154 -16.170269 5.254938 1.000000
115.441154 -16.170267 4.524340 1.000000
115.441154 -16.170269 3.799224 1.000000
115.441154 -16.170267 3.077991 1.000000
115.441162 -16.170273 2.359074 1.000000
115.441170 -16.170282 1.640926 1.000000
115.441170 -16.170280 0.922008 1.000000
115.441170 -16.170282 0.200774 1.000000
112.013130 -13.166302 0.000013 0.236114
109.078308 -10.594527 0.000012 0.225175
107.204674 -8.952669 0.000011 0.209581
105.902428 -7.811514 0.000010 0.204471
104.943024 -6.970792 -0.000002 0.341939
115.157799 -16.123390 7.435450 1.000000
115.157799 -16.123390 6.686649 1.000000
115.157799 -16.123390 5.948363 1.000000
115.157806 -16.123392 5.218822 1.000000
115.157799 -16.123392 4.496330 1.000000
115.157806 -16.123394 3.779260 1.000000
115.157806 -16.123394 3.066030 1.000000
115.157806 -16.123396 2.355090 1.000000
115.157814 -16.123407 1.644910 1.000000
115.157822 -16.123407 0.933969 1.000000
115.157814 -16.123405 0.220738 1.000000
111.932823 -13.257304 0.000014 0.223165
109.016022 -10.665106 0.000012 0.234654
107.153900 -9.010203 0.000011 0.212956
105.859650 -7.859986 0.000010 0.254748
104.906143 -7.012589 -0.000002 0.342214
114.880661 -16.077545 7.376062 1.000000
114.880653 -16.077541 6.635442 1.000000
114.880661 -16.077545 5.905224 1.000000
114.880661 -16.077549 5.183654 1.000000
114.880661 -16.077547 4.469056 1.000000
114.880661 -16.077549 3.759820 1.000000
114.880661 -16.077549 3.054382 1.000000
114.880661 -16.077549 2.351210 1.000000
114.880676 -16.077560 1.648790 1.000000
114.880676 -16.077562 0.945616 1.000000
114.880676 -16.077560 0.240178 1.000000
111.851883 -13.347741 0.000014 0.238388
108.953255 -10.735245 0.000012 0.245485
107.102722 -9.067385 0.000011 0.183324
105.816536 -7.908158 0.000010 0.211664
104.868965 -7.054124 -0.000003 0.343938
114.609489 -16.032684 7.318213 1.000000
114.609489 -16.032682 6.585563 1.000000
114.609489 -16.032684 5.863203 1.000000
114.609489 -16.032684 5.149395 1.000000
114.609497 -16.032688 4.442488 1.000000
114.609497 -16.032688 3.740883 1.000000
114.609497 -16.032690 3.043037 1.000000
114.609497 -16.032690 2.347431 1.000000
114.609512 -16.032701 1.652569 1.000000
114.609512 -16.032701 0.956962 1.000000
114.609512 -16.032701 0.259114 1.000000
111.770309 -13.437612 0.000014 0.249590
108.889992 -10.804942 0.000012 0.199385
107.051147 -9.124205 0.000011 0.205919
105.773087 -7.956027 0.000010 0.298239
104.831505 -7.095400 -0.000003 0.330465
114.344086 -15.988777 7.261850 1.000000
114.344086 -15.988780 6.536966 1.000000
114.344086 -15.988780 5.822260 1.000000
114.344086 -15.988781 5.116018 1.000000
114.344086 -15.988781 4.416602 1.000000
114.344086 -15.988782 3.722434 1.000000
114.344093 -15.988787 3.031983 1.000000
114.344086 -15.988783 2.343749 1.000000
114.344101 -15.988793 1.656251 1.000000
114.344101 -15.988798 0.968016 1.000000
114.344101 -15.988795 0.277564 1.000000
111.688110 -13.526914 0.000014 0.231901
108.826248 -10.874198 0.000012 0.234881
106.999184 -9.180665 0.000011 0.232021
105.729309 -8.003593 0.000010 0.231375
104.793755 -7.136414 -0.000003 0.343740
114.084229 -15.945792 7.206920 1.000000
114.084236 -15.945795 6.489604 1.000000
114.084236 -15.945794 5.782358 1.000000
114.084236 -15.945794 5.083490 1.000000
114.084236 -15.945797 4.391375 1.000000
114.084236 -15.945794 3.704452 1.000000
114.084236 -15.945799 3.021210 1.000000
114.084236 -15.945798 2.340160 1.000000
114.084244 -15.945807 1.659840 1.000000
114.084251 -15.945808 0.978790 1.000000
114.084244 -15.945807 0.295546 1.000000
111.605293 -13.615637 0.000014 0.247436
108.762009 -10.943007 0.000012 0.297162
106.946823 -9.236761 0.000011 0.258003
105.685188 -8.050852 0.000010 0.241057
104.755714 -7.177163 -0.000003 0.328832
113.829735 -15.903691 7.153375 1.000000
113.829742 -15.903692 6.443435 1.000000
113.829742 -15.903696 5.743464 1.000000
113.829742 -15.903695 5.051781 1.000000
113.829742 -15.903695 4.366783 1.000000
113.829742 -15.903694 3.686925 1.000000
113.829742 -15.903696 3.010707 1.000000
113.829742 -15.903697 2.336662 1.000000
113.829758 -15.903708 1.663338 1.000000
113.829750 -15.903706 0.989291 1.000000
113.829750 -15.903707 0.313073 1.000000
111.521858 -13.703777 0.000014 0.228119
108.697304 -11.011364 0.000013 0.198391
106.894073 -9.292488 0.000011 0.277630
105.640747 -8.097800 0.000011 0.240446
104.717400 -7.217644 -0.000003 0.353155
113.580414 -15.862446 7.101165 1.000000
113.580406 -15.862447 6.398417 1.000000
113.580406 -15.862447 5.705536 1.000000
113.580406 -15.862445 5.020862 1.000000
113.580414 -15.862449 4.342804 1.000000
113.580406 -15.862449 3.669834 1.000000
113.580414 -15.862450 3.000468 1.000000
113.580429 -15.862462 2.333251 1.000000
113.580429 -15.862462 1.666749 1.000000
113.580421 -15.862460 0.999531 1.000000
113.580421 -15.862461 0.330164 1.000000
111.437805 -13.791339 0.000014 0.205225
108.632126 -11.079273 0.000012 0.231291
106.840927 -9.347847 0.000011 0.241607
105.595985 -8.144439 0.000011 0.250463
104.678802 -7.257860 -0.000004 0.337362
113.336075 -15.822023 7.050246 1.000000
113.336075 -15.822025 6.354513 1.000000
113.336075 -15.822027 5.668549 1.000000
113.336082 -15.822031 4.990709 1.000000
113.336075 -15.822030 4.319419 1.000000
113.336075 -15.822028 3.653166 1.000000
113.336082 -15.822030 2.990482 1.000000
113.336090 -15.822039 2.329925 1.000000
113.336090 -15.822039 1.670075 1.000000
113.336090 -15.822040 1.009517 1.000000
113.336090 -15.822038 0.346832 1.000000
111.353157 -13.878310 0.000014 0.230764
108.566467 -11.146722 0.000012 0.232500
106.787407 -9.402831 0.000011 0.224290
105.550888 -8.190763 0.000010 0.240901
104.639915 -7.297802 -0.000004 0.333639
113.096558 -15.782405 7.000575 1.000000
113.096558 -15.782405 6.311686 1.000000
113.096558 -15.782405 5.632467 1.000000
113.096558 -15.782404 4.961293 1.000000
113.096558 -15.782407 4.296607 1.000000
113.096558 -15.782407 3.636908 1.000000
113.096558 -15.782411 2.980740 1.000000
113.096573 -15.782419 2.326680 1.000000
113.096573 -15.782419 1.673320 1.000000
113.096573 -15.782420 1.019259 1.000000
113.096573 -15.782416 0.363091 1.000000
111.267891 -13.964687 0.000014 0.245030
108.500343 -11.213711 0.000012 0.198307
106.733498 -9.457444 0.000011 0.229412
105.505478 -8.236772 0.000011 0.263365
104.600761 -7.337475 -0.000004 0.332448
112.861694 -15.743552 6.952111 1.000000
112.861687 -15.743551 6.269897 1.000000
112.861694 -15.743553 5.597263 1.000000
112.861694 -15.743552 4.932593 1.000000
112.861694 -15.743554 4.274349 1.000000
112.861694 -15.743555 3.621043 1.000000
112.861694 -15.743555 2.971235 1.000000
112.861702 -15.743564 2.323514 1.000000
112.861702 -15.743564 1.676486 1.000000
112.861702 -15.743565 1.028764 1.000000
112.861702 -15.743566 0.378955 1.000000
111.182022 -14.050464 0.000014 0.223093
108.433754 -11.280235 0.000012 0.197733
106.679214 -9.511677 0.000012 0.227413
105.459740 -8.282461 0.000011 0.217552
104.533211 -7.348529 0.009996 1.000000
112.631325 -15.705441 6.904813 1.000000
112.631325 -15.705442 6.229116 1.000000
112.631325 -15.705441 5.562905 1.000000
112.631325 -15.705442 4.904584 1.000000
112.631332 -15.705446 4.252626 1.000000
112.631332 -15.705447 3.605561 1.000000
112.631332 -15.705449 2.961959 1.000000
112.631340 -15.705458 2.320424 1.000000
112.631340 -15.705457 1.679576 1.000000
112.631340 -15.705458 1.038040 1.000000
112.631340 -15.705457 0.394438 1.000000
111.095566 -14.135643 0.000014 0.241296
108.366699 -11.346293 0.000013 0.246957
106.624550 -9.565532 0.000011 0.203705
105.413689 -8.327831 0.000011 0.192946
104.493690 -7.387445 0.010000 1.000000
112.405304 -15.668054 6.858646 1.000000
112.405304 -15.668053 6.189308 1.000000
112.405304 -15.668054 5.529367 1.000000
112.405304 -15.668054 4.877245 1.000000
112.405312 -15.668055 4.231422 1.000000
112.405312 -15.668056 3.590447 1.000000
112.405312 -15.668057 2.952904 1.000000
112.405319 -15.668066 2.317408 1.000000
112.405319 -15.668066 1.682592 1.000000
112.405319 -15.668066 1.047095 1.000000
112.405319 -15.668066 0.409551 1.000000
111.008514 -14.220217 0.000014 0.236868
108.299179 -11.411883 0.000013 0.216941
106.569504 -9.619000 0.000012 0.213411
105.367317 -8.372879 0.000011 0.256735
104.453903 -7.426090 0.010000 1.000000
112.183495 -15.631359 6.813572 1.000000
112.183495 -15.631357 6.150443 1.000000
112.183495 -15.631358 5.496626 1.000000
112.183495 -15.631359 4.850552 1.000000
112.183495 -15.631360 4.210721 1.000000
112.183495 -15.631363 3.575693 1.000000
112.183495 -15.631363 2.944064 1.000000
112.183502 -15.631373 2.314463 1.000000
112.183502 -15.631371 1.685537 1.000000
112.183502 -15.631371 1.055935 1.000000
112.183502 -15.631371 0.424305 1.000000
110.920876 -14.304180 0.000014 0.238902
108.231216 -11.477000 0.000013 0.201431
106.514099 -9.672088 0.000011 0.258757
105.320633 -8.417601 0.000011 0.214297
104.413857 -7.464457 0.010001 1.000000
111.965744 -15.595337 6.769556 1.000000
111.965744 -15.595337 6.112492 1.000000
111.965744 -15.595337 5.464652 1.000000
111.965744 -15.595339 4.824487 1.000000
111.965744 -15.595341 4.190507 1.000000
111.965744 -15.595340 3.561284 1.000000
111.965752 -15.595345 2.935431 1.000000
111.965759 -15.595348 2.311588 1.000000
111.965759 -15.595348 1.688412 1.000000
111.965752 -15.595345 1.064568 1.000000
111.965752 -15.595345 0.438714 1.000000
110.832642 -14.387526 0.000014 0.217588
108.162788 -11.541640 0.000013 0.237347
106.458321 -9.724783 0.000011 0.203095
105.273643 -8.461995 0.000011 0.293715
104.373535 -7.502542 0.010002 1.000000
111.751938 -15.559966 6.726567 1.000000
111.751938 -15.559967 6.075426 1.000000
111.751938 -15.559968 5.433426 1.000000
111.751938 -15.559967 4.799028 1.000000
111.751938 -15.559970 4.170764 1.000000
111.751938 -15.559971 3.547213 1.000000
111.751945 -15.559980 2.927001 1.000000
111.751953 -15.559981 2.308780 1.000000
111.751953 -15.559981 1.691221 1.000000
111.751945 -15.559978 1.072999 1.000000
111.751953 -15.559979 0.452786 1.000000
110.743835 -14.470254 0.000014 0.220089
108.093918 -11.605800 0.000013 0.221633
106.402168 -9.777088 0.000012 0.219084
105.226341 -8.506062 0.000011 0.207750
104.360085 -7.569674 -0.000005 0.332692
111.541931 -15.525225 6.684572 1.000000
111.541931 -15.525227 6.039215 1.000000
111.541931 -15.525228 5.402920 1.000000
111.541931 -15.525229 4.774159 1.000000
111.541931 -15.525229 4.151477 1.000000
111.541939 -15.525232 3.533465 1.000000
111.541946 -15.525241 2.918765 1.000000
111.541946 -15.525240 2.306036 1.000000
111.541946 -15.525240 1.693964 1.000000
111.541946 -15.525240 1.081235 1.000000
111.541946 -15.525239 0.466533 1.000000
110.654457 -14.552366 0.000014 0.242050
108.024605 -11.669480 0.000013 0.223033
106.345657 -9.829000 0.000012 0.232452
105.178734 -8.549797 0.000011 0.243486
104.319031 -7.607384 -0.000005 0.338872
111.335617 -15.491095 6.643540 1.000000
111.335625 -15.491098 6.003837 1.000000
111.335617 -15.491096 5.373114 1.000000
111.335625 -15.491099 4.749861 1.000000
111.335625 -15.491100 4.132632 1.000000
111.335625 -15.491100 3.520034 1.000000
111.335632 -15.491110 2.910717 1.000000
111.335632 -15.491108 2.303356 1.000000
111.335632 -15.491108 1.696644 1.000000
111.335632 -15.491107 1.089283 1.000000
111.335632 -15.491107 0.479965 1.000000
110.564507 -14.633851 0.000014 0.234989
107.954842 -11.732676 0.000013 0.231423
106.288788 -9.880520 0.000012 0.217312
105.130821 -8.593199 0.000011 0.228969
104.277725 -7.644808 -0.000006 0.335973
111.132874 -15.457557 6.603444 1.000000
111.132874 -15.457558 5.969263 1.000000
111.132881 -15.457559 5.343987 1.000000
111.132874 -15.457558 4.726116 1.000000
111.132881 -15.457561 4.114217 1.000000
111.132881 -15.457561 3.506909 1.000000
111.132889 -15.457570 2.902853 1.000000
111.132889 -15.457568 2.300736 1.000000
111.132889 -15.457568 1.699264 1.000000
111.132889 -15.457569 1.097147 1.000000
111.132889 -15.457570 0.493090 1.000000
110.473991 -14.714705 0.000014 0.233301
107.884644 -11.795380 0.000013 0.228514
106.231560 -9.931638 0.000012 0.216870
105.082603 -8.636266 0.000011 0.207977
104.236107 -7.681893 0.000011 0.201287
110.933601 -15.424590 6.564255 1.000000
110.933609 -15.424594 5.935475 1.000000
110.933609 -15.424594 5.315521 1.000000
110.933601 -15.424592 4.702909 1.000000
110.933609 -15.424595 4.096219 1.000000
110.933609 -15.424598 3.494081 1.000000
110.933617 -15.424606 2.895167 1.000000
110.933617 -15.424606 2.298176 1.000000
110.933617 -15.424605 1.701824 1.000000
110.933617 -15.424605 1.104833 1.000000
110.933617 -15.424604 0.505918 1.000000
110.382912 -14.794922 0.000014 0.235121
107.814003 -11.857589 0.000013 0.234726
106.173973 -9.982353 0.000012 0.241284
105.034088 -8.678990 0.000011 0.201216
104.194275 -7.718733 0.000011 0.258578
110.737679 -15.392177 6.525946 1.000000
110.737679 -15.392181 5.902442 1.000000
110.737679 -15.392181 5.287692 1.000000
110.737679 -15.392181 4.680223 1.000000
110.737679 -15.392183 4.078625 1.000000
110.737679 -15.392183 3.481540 1.000000
110.737686 -15.392194 2.887654 1.000000
110.737686 -15.392193 2.295673 1.000000
110.737686 -15.392191 1.704327 1.000000
110.737686 -15.392194 1.112346 1.000000
110.737686 -15.392191 0.518458 1.000000
110.291275 -14.874503 0.000014 0.222961
107.742935 -11.919310 0.000013 0.234474
106.116035 -10.032670 0.000012 0.213949
104.985283 -8.721383 0.000011 0.246035
104.152191 -7.755284 0.000011 0.247232
110.545006 -15.360305 6.488492 1.000000
110.545013 -15.360306 5.870148 1.000000
110.545013 -15.360307 5.260485 1.000000
110.545013 -15.360311 4.658043 1.000000
110.545013 -15.360311 4.061423 1.000000
110.545013 -15.360312 3.469280 1.000000
110.545021 -15.360321 2.880308 1.000000
110.545021 -15.360317 2.293226 1.000000
110.545021 -15.360317 1.706774 1.000000
110.545021 -15.360318 1.119692 1.000000
110.545021 -15.360318 0.530719 1.000000
110.199081 -14.953441 0.000014 0.216008
107.671432 -11.980530 0.000013 0.230549
106.057747 -10.082578 0.000012 0.251792
104.936172 -8.763428 0.000011 0.220436
104.109848 -7.791539 0.000011 0.212465
110.355492 -15.328956 6.451869 1.000000
110.355492 -15.328957 5.838570 1.000000
110.355492 -15.328960 5.233882 1.000000
110.355492 -15.328960 4.636355 1.000000
110.355492 -15.328960 4.044603 1.000000
110.355499 -15.328970 3.457292 1.000000
110.355499 -15.328967 2.873125 1.000000
110.355499 -15.328968 2.290833 1.000000
110.355499 -15.328968 1.709166 1.000000
110.355499 -15.328965 1.126875 1.000000
110.355499 -15.328968 0.542707 1.000000
110.106339 -15.031734 0.000015 0.226133
107.599510 -12.041249 0.000013 0.216056
105.999115 -10.132077 0.000012 0.225032
104.886780 -8.805133 0.000011 0.208719
104.067253 -7.827497 0.000011 0.234869
110.169029 -15.298112 6.416051 1.000000
110.169029 -15.298113 5.807686 1.000000
110.169029 -15.298111 5.207862 1.000000
110.169037 -15.298115 4.615143 1.000000
110.169037 -15.298114 4.028152 1.000000
110.169037 -15.298120 3.445567 1.000000
110.169037 -15.298122 2.866100 1.000000
110.169037 -15.298121 2.288494 1.000000
110.169037 -15.298121 1.711506 1.000000
110.169037 -15.298120 1.133900 1.000000
110.169037 -15.298120 0.554432 1.000000
110.013054 -15.109383 0.000014 0.237825
107.527168 -12.101470 0.000013 0.246382
105.940132 -10.181170 0.000012 0.225343
104.837090 -8.846489 0.000012 0.252785
104.024414 -7.863156 0.000011 0.272592
109.985542 -15.267756 6.381018 1.000000
109.985542 -15.267756 5.777478 1.000000
109.985542 -15.267759 5.182415 1.000000
109.985542 -15.267758 4.594397 1.000000
109.985550 -15.267763 4.012064 1.000000
109.985550 -15.267768 3.434099 1.000000
109.985550 -15.267769 2.859229 1.000000
109.985550 -15.267767 2.286205 1.000000
109.985550 -15.267767 1.713795 1.000000
109.985550 -15.267767 1.140771 1.000000
109.985550 -15.267765 0.565900 1.000000
109.985550 -15.267769 -0.012064 1.000000
107.454399 -12.161177 0.000013 0.234606
105.880814 -10.229844 0.000012 0.211400
104.787109 -8.887497 0.000012 0.216810
103.981323 -7.898514 0.000011 0.233768
109.804924 -15.237875 6.346743 1.000000
109.804932 -15.237878 5.747927 1.000000
109.804932 -15.237880 5.157517 1.000000
109.804932 -15.237878 4.574100 1.000000
109.804932 -15.237879 3.996322 1.000000
109.804939 -15.237892 3.422881 1.000000
109.804939 -15.237890 2.852507 1.000000
109.804939 -15.237892 2.283966 1.000000
109.804939 -15.237892 1.716034 1.000000
109.804939 -15.237890 1.147492 1.000000
109.804939 -15.237890 0.577119 1.000000
109.804932 -15.237886 0.003677 1.000000
107.381218 -12.220378 0.000013 0.202975
105.821159 -10.278109 0.000012 0.206745
104.736847 -8.928157 0.000012 0.241906
103.937981 -7.933573 0.000011 0.220891
109.627113 -15.208463 6.313212 1.000000
109.627113 -15.208466 5.719015 1.000000
109.627113 -15.208466 5.133160 1.000000
109.627113 -15.208465 4.554244 1.000000
109.627113 -15.208466 3.980922 1.000000
109.627121 -15.208473 3.411904 1.000000
109.627121 -15.208472 2.845931 1.000000
109.627121 -15.208475 2.281775 1.000000
109.627121 -15.208475 1.718224 1.000000
109.627121 -15.208472 1.154069 1.000000
109.627121 -15.208472 0.588096 1.000000
109.627121 -15.208472 0.019077 1.000000
107.307625 -12.279063 0.000013 0.242074
105.761162 -10.325953 0.000012 0.247807
104.686310 -8.968465 0.000012 0.244970
103.894402 -7.968327 0.000012 0.200593
109.452011 -15.179495 6.280400 1.000000
109.452011 -15.179497 5.690723 1.000000
109.452011 -15.179497 5.109325 1.000000
109.452011 -15.179498 4.534813 1.000000
109.452011 -15.179501 3.965853 1.000000
109.452019 -15.179508 3.401163 1.000000
109.452019 -15.179506 2.839496 1.000000
109.452019 -15.179508 2.279632 1.000000
109.452019 -15.179508 1.720368 1.000000
109.452019 -15.179506 1.160504 1.000000
109.452019 -15.179504 0.598837 1.000000
109.452019 -15.179504 0.034146 1.000000
107.233627 -12.337238 0.000013 0.223584
105.700836 -10.373378 0.000012 0.287145
104.635483 -9.008417 0.000012 0.243558
103.850578 -8.002776 0.000012 0.217947
109.279541 -15.150965 6.248290 1.000000
109.279541 -15.150967 5.663036 1.000000
109.279549 -15.150968 5.085999 1.000000
109.279541 -15.150966 4.515797 1.000000
109.279549 -15.150970 3.951106 1.000000
109.279556 -15.150976 3.390652 1.000000
109.279549 -15.150976 2.833198 1.000000
109.279556 -15.150979 2.277534 1.000000
109.279556 -15.150978 1.722466 1.000000
109.279549 -15.150976 1.166802 1.000000
109.279549 -15.150973 0.609348 1.000000
109.279556 -15.150976 0.048893 1.000000
107.159225 -12.394893 0.000013 0.224098
105.640182 -10.420381 0.000012 0.226169
104.584381 -9.048016 0.000012 0.190193
103.806519 -8.036920 0.000011 0.213806
109.109634 -15.122857 6.216862 1.000000
109.109634 -15.122857 5.635937 1.000000
109.109634 -15.122859 5.063169 1.000000
109.109642 -15.122861 4.497186 1.000000
109.109634 -15.122859 3.936671 1.000000
109.109642 -15.122867 3.380363 1.000000
109.109642 -15.122870 2.827034 1.000000
109.109642 -15.122869 2.275481 1.000000
109.109642 -15.122869 1.724519 1.000000
109.109642 -15.122869 1.172966 1.000000
109.109642 -15.122866 0.619636 1.000000
109.109642 -15.122865 0.063328 1.000000
107.084419 -12.452028 0.000013 0.218078
105.579193 -10.466955 0.000013 0.246658
104.533005 -9.087255 0.000012 0.245389
103.762222 -8.070756 0.000011 0.204603
108.942215 -15.095160 6.186097 1.000000
108.942223 -15.095163 5.609412 1.000000
108.942223 -15.095164 5.040823 1.000000
108.942223 -15.095165 4.478967 1.000000
108.942230 -15.095175 3.922544 1.000000
108.942230 -15.095173 3.370294 1.000000
108.942230 -15.095174 2.821001 1.000000
108.942230 -15.095173 2.273471 1.000000
108.942230 -15.095171 1.726529 1.000000
108.942230 -15.095174 1.178999 1.000000
108.942230 -15.095172 0.629706 1.000000
108.942230 -15.095174 0.077456 1.000000
107.009224 -12.508638 0.000013 0.229962
105.517891 -10.513108 0.000012 0.218150
104.481361 -9.126138 0.000012 0.201335
103.717690 -8.104278 0.000011 0.217085
108.777214 -15.067865 6.155980 1.000000
108.777222 -15.067869 5.583444 1.000000
108.777222 -15.067867 5.018945 1.000000
108.777222 -15.067871 4.461132 1.000000
108.777229 -15.067879 3.908712 1.000000
108.777222 -15.067879 3.360435 1.000000
108.777222 -15.067878 2.815094 1.000000
108.777222 -15.067878 2.271504 1.000000
108.777222 -15.067878 1.728496 1.000000
108.777222 -15.067878 1.184906 1.000000
108.777222 -15.067876 0.639565 1.000000
108.777222 -15.067876 0.091288 1.000000
106.933624 -12.564722 0.000013 0.227748
105.456261 -10.558829 0.000012 0.210012
104.429443 -9.164654 0.000012 0.224134
103.672920 -8.137490 0.000011 0.287636
108.614563 -15.040959 6.126493 1.000000
108.614563 -15.040960 5.558018 1.000000
108.614563 -15.040961 4.997525 1.000000
108.614571 -15.040964 4.443670 1.000000
108.614571 -15.040972 3.895169 1.000000
108.614571 -15.040972 3.350782 1.000000
108.614571 -15.040969 2.809310 1.000000
108.614571 -15.040969 2.269578 1.000000
108.614571 -15.040969 1.730422 1.000000
108.614571 -15.040968 1.190690 1.000000
108.614571 -15.040969 0.649217 1.000000
108.614571 -15.040968 0.104831 1.000000
106.857643 -12.620279 0.000013 0.198942
105.394318 -10.604120 0.000012 0.247196
104.377258 -9.202812 0.000012 0.237598
103.627930 -8.170390 0.000011 0.235623
108.454193 -15.014429 6.097619 1.000000
108.454201 -15.014435 5.533123 1.000000
108.454193 -15.014431 4.976551 1.000000
108.454201 -15.014434 4.426572 1.000000
108.454201 -15.014441 3.881908 1.000000
108.454201 -15.014441 3.341331 1.000000
108.454208 -15.014442 2.803648 1.000000
108.454208 -15.014441 2.267691 1.000000
108.454208 -15.014441 1.732309 1.000000
108.454201 -15.014441 1.196352 1.000000
108.454201 -15.014438 0.658669 1.000000
108.454201 -15.014440 0.118092 1.000000
106.781265 -12.675300 0.000013 0.230848
105.332062 -10.648974 0.000013 0.254329
104.324799 -9.240602 0.000012 0.183336
103.582703 -8.202975 0.000011 0.232631
nan nan nan 0.000000
nan nan nan 0.000000
nan nan nan 0.000000
nan nan nan 0.000000
67.756119 42.540325 8.227385 0.401251
68.079086 42.082012 6.392598 0.400565
66.777061 43.929672 4.742833 0.436606
nan nan nan 0.000000
nan nan nan 0.000000
75.487137 31.569553 0.000003 0.230980
84.887886 18.229324 0.000045 0.251265
88.923782 12.502139 0.000049 0.202041
91.171562 9.312412 0.000051 0.261833
92.606567 7.276051 0.000053 0.225020
93.603951 5.860698 0.000054 0.276589
94.338776 4.817939 0.000053 0.277714
nan nan nan 0.000000
nan nan nan 0.000000
nan nan nan 0.000000
nan nan nan 0.000000
67.951370 42.921749 8.250467 0.411582
68.547401 42.063278 6.369329 0.407187
nan nan nan 0.000000
nan nan nan 0.000000
nan nan nan 0.000000
75.720032 31.732460 0.000003 0.232847
85.027420 18.326927 0.000044 0.223021
89.023239 12.571706 0.000049 0.230956
91.248688 9.366362 0.000051 0.226755
92.669449 7.320030 0.000053 0.223368
93.656929 5.897755 0.000053 0.250643
94.384453 4.849887 0.000053 0.210275
nan nan nan 0.000000
nan nan nan 0.000000
nan nan nan 0.000000
nan nan nan 0.000000
nan nan nan 0.000000
nan nan nan 0.000000
nan nan nan 0.000000
nan nan nan 0.000000
nan nan nan 0.000000
75.954048 31.893753 0.000002 0.227772
85.167625 18.423557 0.000044 0.226635
89.123177 12.640574 0.000049 0.222243
91.326195 9.419774 0.000051 0.219084
92.732628 7.363572 0.000053 0.276721
93.710159 5.934437 0.000053 0.206434
94.430351 4.881516 0.000053 0.256076
nan nan nan 0.000000
nan nan nan 0.000000
nan nan nan 0.000000
nan nan nan 0.000000
nan nan nan 0.000000
nan nan nan 0.000000
nan nan nan 0.000000
nan nan nan 0.000000
nan nan nan 0.000000
76.189186 32.053391 0.000002 0.232009
85.308510 18.519201 0.000044 0.245389
89.223587 12.708745 0.000049 0.233493
91.404068 9.472643 0.000051 0.215122
92.796112 7.406675 0.000052 0.237179
93.763641 5.970748 0.000053 0.216307
94.476471 4.912825 0.000053 0.210491
nan nan nan 0.000000
nan nan nan 0.000000
nan nan nan 0.000000
nan nan nan 0.000000
nan nan nan 0.000000
nan nan nan 0.000000
nan nan nan 0.000000
nan nan nan 0.000000
nan nan nan 0.000000
76.425446 32.211391 0.000001 0.228634
85.450058 18.613863 0.000044 0.223536
89.324471 12.776217 0.000048 0.239154
91.482307 9.524966 0.000051 0.239465
92.859901 7.449329 0.000052 0.226324
93.817375 6.006686 0.000052 0.223859
94.522804 4.943812 0.000053 0.219275
nan nan nan 0.000000
nan nan nan 0.000000
nan nan nan 0.000000
nan nan nan 0.000000
nan nan nan 0.000000
nan nan nan 0.000000
nan nan nan 0.000000
nan nan nan 0.000000
nan nan nan 0.000000
76.662788 32.367729 0.000001 0.226695
85.592255 18.707531 0.000044 0.224649
89.425827 12.842983 0.000048 0.223213
91.560913 9.576743 0.000051 0.216343
92.923981 7.491540 0.000052 0.200869
93.871368 6.042246 0.000053 0.247723
94.569351 4.974475 0.000052 0.188518
nan nan nan 0.000000
nan nan nan 0.000000
nan nan nan 0.000000
nan nan nan 0.000000
nan nan nan 0.000000
nan nan nan 0.000000
nan nan nan 0.000000
nan nan nan 0.000000
nan nan nan 0.000000
76.901215 32.522430 -0.000001 0.222483
85.735107 18.800209 0.000043 0.223057
89.527649 12.909034 0.000048 0.236246
91.639885 9.627973 0.000051 0.219455
92.988358 7.533300 0.000052 0.238998
93.925598 6.077430 0.000052 0.241978
94.616112 5.004811 0.000052 0.211137
nan nan nan 0.000000
nan nan nan 0.000000
nan nan nan 0.000000
nan nan nan 0.000000
nan nan nan 0.000000
62.334896 56.030888 7.605525 0.407980
62.987865 55.000858 5.298592 0.416907
nan nan nan 0.000000
nan nan nan 0.000000
77.140724 32.675446 -0.000001 0.229556
85.878609 18.891880 0.000043 0.220675
89.629921 12.974377 0.000048 0.230250
91.719200 9.678648 0.000050 0.226037
93.053024 7.574615 0.000051 0.223284
93.980072 6.112233 0.000052 0.258231
94.663086 5.034819 0.000052 0.211005
nan nan nan 0.000000
nan nan nan 0.000000
nan nan nan 0.000000
nan nan nan 0.000000
nan nan nan 0.000000
62.909756 56.011265 7.579063 0.399054
63.822559 54.548893 5.257964 0.389487
nan nan nan 0.000000
nan nan nan 0.000000
77.381294 32.826797 -0.000001 0.229998
86.022743 18.982552 0.000043 0.232272
89.732658 13.039002 0.000047 0.241368
91.798874 9.728771 0.000050 0.257572
93.117973 7.615475 0.000051 0.240781
94.034798 6.146657 0.000051 0.232871
94.710266 5.064500 0.000052 0.244396
88.814980 14.764101 6.843049 0.396857
nan nan nan 0.000000
nan nan nan 0.000000
nan nan nan 0.000000
63.076962 56.646435 9.879509 0.416022
64.318588 54.626007 7.421674 0.408713
64.076523 55.019894 5.271065 0.412894
nan nan nan 0.000000
nan nan nan 0.000000
77.622925 32.976444 -0.000001 0.228670
86.167503 19.072222 0.000042 0.223524
89.835831 13.102911 0.000047 0.213351
91.878891 9.778334 0.000049 0.219227
93.183212 7.655876 0.000051 0.256005
94.089752 6.180696 0.000052 0.245341
94.757652 5.093850 0.000052 0.240303
88.896408 14.890272 6.859413 0.401297
nan nan nan 0.000000
nan nan nan 0.000000
nan nan nan 0.000000
64.079659 55.912769 9.747395 0.407874
64.856842 54.628071 7.398842 0.399268
63.830193 56.325134 5.332114 0.407965
nan nan nan 0.000000
nan nan nan 0.000000
77.865578 33.124413 -0.000002 0.227976
86.312889 19.160875 0.000042 0.216295
89.939461 13.166097 0.000047 0.221693
91.959259 9.827333 0.000049 0.227820
93.248726 7.695828 0.000051 0.249685
94.144951 6.214351 0.000051 0.203645
94.805244 5.122869 0.000052 0.228347
88.978241 15.017567 6.876204 0.402869
88.765121 15.375475 6.294416 0.396292
nan nan nan 0.000000
nan nan nan 0.000000
64.112869 56.775932 9.830570 0.406928
65.648499 54.197029 7.335133 0.397024
62.705269 59.139835 5.479115 0.400458
nan nan nan 0.000000
nan nan nan 0.000000
78.109268 33.270679 -0.000002 0.231111
86.458893 19.248507 0.000041 0.218820
90.043526 13.228552 0.000047 0.240518
92.039963 9.875774 0.000049 0.261689
93.314514 7.735315 0.000051 0.223524
94.200378 6.247621 0.000051 0.221525
94.853035 5.151556 0.000051 0.196668
nan nan nan 0.000000
89.204559 14.900175 6.157756 0.405676
nan nan nan 0.000000
nan nan nan 0.000000
64.394241 57.235657 9.859641 0.418433
64.794518 56.552647 7.537049 0.396704
65.112579 56.009911 5.286576 0.396933
64.606705 56.873108 3.111114 0.363058
nan nan nan 0.000000
78.353973 33.415241 -0.000002 0.226803
86.605499 19.335117 0.000041 0.231518
90.148018 13.290289 0.000046 0.236198
92.121002 9.923651 0.000049 0.211053
93.380585 7.774347 0.000050 0.217743
94.256035 6.280502 0.000051 0.192383
94.901031 5.179907 0.000051 0.210192
89.669533 14.362925 6.647173 0.398428
89.280243 15.037951 6.175266 0.392538
nan nan nan 0.000000
nan nan nan 0.000000
nan nan nan 0.000000
65.175758 56.835228 7.541369 0.405936
65.412292 56.425076 5.296807 0.405539
nan nan nan 0.000000
nan nan nan 0.000000
78.599663 33.558121 -0.000004 0.230980
86.752708 19.420702 0.000041 0.235264
90.252937 13.351290 0.000046 0.224230
92.202370 9.970963 0.000048 0.225115
93.446922 7.812913 0.000050 0.239142
94.311920 6.312995 0.000050 0.253228
94.949219 5.207922 0.000051 0.191031
nan nan nan 0.000000
89.374794 15.144789 6.185155 0.395697
nan nan nan 0.000000
nan nan nan 0.000000
nan nan nan 0.000000
nan nan nan 0.000000
65.947647 56.430923 5.283997 0.407630
nan nan nan 0.000000
nan nan nan 0.000000
78.846367 33.699249 -0.000004 0.228586
86.900513 19.505262 0.000040 0.224014
90.358284 13.411559 0.000045 0.226911
92.284073 10.017699 0.000048 0.288665
93.513527 7.851017 0.000050 0.230405
94.368034 6.345095 0.000050 0.220400
94.997604 5.235600 0.000051 0.239585
nan nan nan 0.000000
90.007568 14.288798 5.957010 0.397513
nan nan nan 0.000000
nan nan nan 0.000000
nan nan nan 0.000000
75.575188 40.142124 5.930049 0.397330
65.712524 57.809521 5.348684 0.402365
nan nan nan 0.000000
nan nan nan 0.000000
79.094032 33.838665 -0.000005 0.228849
87.048904 19.588783 0.000040 0.233146
90.464050 13.471088 0.000045 0.202975
92.366104 10.063869 0.000048 0.257907
93.580391 7.888657 0.000049 0.240506
94.424370 6.376804 0.000050 0.244695
95.046173 5.262942 0.000050 0.208708
90.017731 14.536028 6.642179 0.396216
89.801727 14.929398 6.099588 0.392981
nan nan nan 0.000000
nan nan nan 0.000000
75.457466 41.051701 7.612026 0.419577
66.476517 57.406891 7.529903 0.394995
76.206825 39.687042 4.320067 0.396078
66.574844 57.227833 3.100269 0.398795
nan nan nan 0.000000
79.342697 33.976326 -0.000005 0.229699
87.197876 19.671270 0.000040 0.230537
90.570229 13.529879 0.000045 0.238615
92.448448 10.109465 0.000047 0.212872
93.647522 7.925827 0.000049 0.227952
94.480927 6.408119 0.000050 0.200330
95.094940 5.289942 0.000050 0.253013
89.920815 14.987755 6.753163 0.407080
89.861557 15.097475 6.125288 0.406470
89.831047 15.153971 5.487116 0.391379
89.994225 14.851833 4.791862 0.402426
75.967674 40.823677 7.560916 0.388464
76.253487 40.294456 5.914227 0.395499
76.036461 40.696312 4.367616 0.392142
nan nan nan 0.000000
nan nan nan 0.000000
79.592285 34.112270 -0.000006 0.230130
87.347412 19.752716 0.000039 0.251193
90.676819 13.587931 0.000044 0.220113
92.531113 10.154482 0.000047 0.243869
93.714912 7.962527 0.000049 0.236808
94.537697 6.439039 0.000049 0.180404
95.143890 5.316602 0.000050 0.210479
89.473373 16.112701 7.054481 0.403586
90.363197 14.437220 5.948428 0.396567
89.879135 15.348667 5.514215 0.394736
76.634789 40.287010 9.053469 0.416724
76.223129 41.062141 7.571226 0.399725
76.428864 40.674759 5.934927 0.406699
76.610100 40.333504 4.338597 0.414023
nan nan nan 0.000000
nan nan nan 0.000000
79.842827 34.246464 -0.000006 0.231446
87.497528 19.833111 0.000039 0.236652
90.783806 13.645230 0.000044 0.217277
92.614082 10.198921 0.000047 0.223057
93.782555 7.998756 0.000048 0.202712
94.594688 6.469561 0.000049 0.243354
95.193024 5.342919 0.000049 0.229567
90.540054 14.374252 6.544682 0.389395
90.225632 14.976393 6.065308 0.396994
90.119125 15.180367 5.466771 0.396078
90.062477 15.288849 4.844367 0.396262
89.995125 15.417847 4.222666 0.392218
76.576393 41.116047 5.961307 0.416648
76.733208 40.815727 4.356741 0.398962
nan nan nan 0.000000
nan nan nan 0.000000
80.094315 34.378891 -0.000006 0.235444
87.648193 19.912458 0.000039 0.233182
90.891190 13.701786 0.000044 0.223919
92.697365 10.242784 0.000046 0.250236
93.850449 8.034511 0.000048 0.280826
94.651886 6.499683 0.000049 0.221370
95.242348 5.368894 0.000049 0.236353
90.256058 15.204876 6.762156 0.400412
90.602531 14.529909 5.942247 0.399664
nan nan nan 0.000000
90.210281 15.294056 4.834973 0.390890
76.813675 41.392349 7.573452 0.404303
76.695686 41.622211 5.993666 0.414069
76.472511 42.056984 4.416782 0.392218
nan nan nan 0.000000
nan nan nan 0.000000
80.346687 34.509590 -0.000007 0.232464
87.799400 19.990759 0.000038 0.237945
90.998970 13.757593 0.000043 0.228012
92.780952 10.286061 0.000046 0.227689
93.918594 8.069795 0.000048 0.189858
94.709297 6.529407 0.000049 0.235659
95.291847 5.394523 0.000048 0.226456
90.280014 15.452055 6.814614 0.400198
89.981293 16.044142 6.294575 0.374334
90.085617 15.837358 5.575910 0.397436
90.792755 14.435772 4.682318 0.399451
90.257927 15.495829 4.216841 0.396063
nan nan nan 0.000000
nan nan nan 0.000000
nan nan nan 0.000000
nan nan nan 0.000000
80.599983 34.638515 -0.000008 0.230740
87.951157 20.067997 0.000038 0.225534
91.107140 13.812643 0.000043 0.240482
92.864838 10.328757 0.000046 0.215445
93.986977 8.104600 0.000047 0.262814
94.766907 6.558730 0.000048 0.315269
95.341522 5.419805 0.000048 0.214787
90.785156 14.735291 6.597437 0.400031
90.557259 15.194946 6.074892 0.388235
91.063950 14.172975 5.225421 0.404974
90.702759 14.901476 4.750073 0.406531
90.408478 15.495024 4.209010 0.402060
77.482086 41.567009 5.960580 0.382971
77.484917 41.561306 4.372636 0.372839
77.544624 41.440876 2.788114 0.368261
77.557320 41.415272 1.212353 0.380591
80.854179 34.765652 -0.000008 0.230537
88.103455 20.144171 0.000037 0.232703
91.215683 13.866937 0.000043 0.229053
92.949020 10.370862 0.000045 0.223213
94.055603 8.138926 0.000047 0.234606
94.824722 6.587648 0.000048 0.227784
95.391373 5.444741 0.000048 0.228251
91.235428 14.103536 6.405667 0.397711
90.726456 15.148380 6.049748 0.395697
91.143494 14.292267 5.238519 0.391974
