# This PCD file was generated using the MATLABÂ® pcwrite function
# from Computer Vision ToolboxÂ®.
# .PCD v.7 - Point Cloud Data file format
VERSION .7
FIELDS x y z intensity
SIZE 4 4 4 4
TYPE F F F F
COUNT 1 1 1 1
WIDTH 1157
HEIGHT 1
VIEWPOINT 0 0 0 1 0 0 0
POINTS 1157
DATA ascii
324.266754 -530.178406 0.022610 1.000000
320.750061 -524.439575 -0.000014 0.249733
318.711151 -521.112305 -0.000010 0.250583
317.409485 -518.988159 -0.000007 0.200701
316.504761 -517.511780 -0.000006 0.222040
315.838226 -516.424011 -0.000004 0.202089
324.109772 -530.244080 8.034347 0.609583
324.107880 -530.240967 7.202250 0.595911
324.105988 -530.237854 6.382084 0.686366
324.104156 -530.234802 5.571874 0.584787
324.102325 -530.231812 4.769730 0.558541
324.100525 -530.228760 3.973838 0.568505
324.098724 -530.225769 3.182437 0.617319
324.096924 -530.222778 2.393808 0.597070
324.095123 -530.219849 1.606249 0.588800
324.093323 -530.216858 0.818074 0.572396
324.091522 -530.213867 0.027590 1.000000
320.646362 -524.502625 -0.000014 0.227940
318.630707 -521.161194 -0.000010 0.247830
317.343903 -519.028015 -0.000008 0.222614
316.449524 -517.545349 -0.000006 0.196428
315.790588 -516.453003 -0.000005 0.290077
323.935120 -530.279358 8.019461 0.572168
323.933228 -530.276245 7.189417 0.540475
323.931396 -530.273132 6.371275 0.632853
323.929596 -530.270081 5.563062 0.603983
323.927795 -530.267029 4.762898 0.490562
323.925995 -530.264038 3.968971 0.594659
323.924225 -530.261047 3.179522 0.552743
323.922455 -530.258057 2.392837 0.532448
323.920715 -530.255127 1.607220 0.542153
323.918945 -530.252136 0.820987 0.594049
323.917175 -530.249146 0.032449 1.000000
320.542206 -524.564941 -0.000015 0.225822
318.549957 -521.209534 -0.000010 0.216068
317.278076 -519.067383 -0.000008 0.224840
316.394073 -517.578552 -0.000006 0.211520
315.742767 -516.481628 -0.000005 0.201024
323.761322 -530.314453 8.004946 0.543679
323.759491 -530.311340 7.176905 0.566369
323.757660 -530.308228 6.360737 0.598306
323.755890 -530.305176 5.554475 0.570474
323.754120 -530.302185 4.756240 0.567010
323.752350 -530.299133 3.964226 0.630915
323.750610 -530.296143 3.176679 0.526467
323.748871 -530.293152 2.391890 0.568200
323.747131 -530.290222 1.608167 0.617838
323.745392 -530.287231 0.823828 0.602045
323.743652 -530.284241 0.037188 1.000000
320.437622 -524.626587 -0.000015 0.229962
318.468842 -521.257324 -0.000010 0.226767
317.211945 -519.106323 -0.000008 0.269385
316.338348 -517.611328 -0.000006 0.214464
315.694733 -516.509888 -0.000005 0.197494
323.588318 -530.349365 7.990778 0.573236
323.586517 -530.346252 7.164697 0.597589
323.584747 -530.343201 6.350457 0.677897
323.583008 -530.340088 5.546096 0.506523
323.581238 -530.337097 4.749743 0.501183
323.579529 -530.334045 3.959595 0.564569
323.577820 -530.331116 3.173907 0.596948
323.576111 -530.328125 2.390967 0.661509
323.574402 -530.325134 1.609089 0.555352
323.572693 -530.322205 0.826598 0.528069
323.570984 -530.319214 0.041810 1.000000
320.332642 -524.687439 -0.000015 0.251421
318.387421 -521.304504 -0.000010 0.217504
317.145569 -519.144836 -0.000008 0.254413
316.282440 -517.643799 -0.000006 0.253731
315.646515 -516.537842 -0.000005 0.249171
323.416168 -530.384155 7.976975 0.595224
323.414398 -530.381042 7.152795 0.536553
323.412659 -530.377930 6.340436 0.700145
323.410919 -530.374878 5.537927 0.217624
323.409210 -530.371887 4.743414 0.370993
323.407501 -530.368835 3.955085 0.577523
323.405823 -530.365845 3.171204 0.561013
323.404144 -530.362915 2.390066 0.624506
323.402466 -530.359924 1.609989 0.182605
323.400787 -530.356934 0.829298 0.413657
323.399109 -530.354004 0.046315 1.000000
320.227203 -524.747559 -0.000015 0.213902
318.305634 -521.351135 -0.000010 0.211233
317.078918 -519.182861 -0.000008 0.234594
316.226257 -517.675781 -0.000006 0.209521
315.598083 -516.565491 -0.000005 0.184197
323.244781 -530.418762 7.963530 0.559930
323.243042 -530.415649 7.141207 0.544732
323.241333 -530.412537 6.330670 0.706310
323.239624 -530.409485 5.529975 0.677836
323.237976 -530.406494 4.737247 0.679393
323.236298 -530.403503 3.950691 0.611063
323.234619 -530.400513 3.168572 0.555322
323.232941 -530.397522 2.389190 0.538582
323.231293 -530.394531 1.610866 0.621881
323.229645 -530.391602 0.831928 0.553552
323.227997 -530.388611 0.050704 1.000000
320.121368 -524.806946 -0.000015 0.230633
318.223572 -521.397217 -0.000011 0.236305
317.011993 -519.220398 -0.000008 0.199911
316.169891 -517.707458 -0.000006 0.272508
315.549469 -516.592773 -0.000005 0.263808
323.074158 -530.453247 7.950432 0.598337
323.072449 -530.450073 7.129916 0.581018
323.070740 -530.447021 6.321162 0.596353
323.069092 -530.443970 5.522221 0.643732
323.067413 -530.440918 4.731233 0.603876
323.065796 -530.437927 3.946407 0.575494
323.064178 -530.434998 3.166008 0.596796
323.062531 -530.432007 2.388336 0.618326
323.060913 -530.429016 1.611720 0.598993
323.059296 -530.426025 0.834491 0.587045
323.057678 -530.423096 0.054980 1.000000
320.015106 -524.865601 -0.000015 0.237418
318.141144 -521.442688 -0.000011 0.215649
316.944794 -519.257507 -0.000008 0.209689
316.113281 -517.738708 -0.000006 0.185669
315.500671 -516.619690 -0.000005 0.217001
322.904266 -530.487549 7.937680 0.564630
322.902588 -530.484375 7.118920 0.560403
322.900940 -530.481323 6.311903 0.626810
322.899292 -530.478271 5.514677 0.604898
322.897675 -530.475281 4.725385 0.562264
322.896057 -530.472290 3.942240 0.596536
322.894440 -530.469299 3.163511 0.587854
322.892853 -530.466309 2.387505 0.566201
322.891266 -530.463318 1.612550 0.617823
322.889648 -530.460388 0.836986 0.579919
322.888062 -530.457397 0.059142 1.000000
319.908447 -524.923523 -0.000015 0.237239
318.058441 -521.487610 -0.000011 0.236210
316.877380 -519.294128 -0.000008 0.274076
316.056488 -517.769531 -0.000006 0.263341
315.451691 -516.646301 -0.000005 0.213543
322.735107 -530.521667 7.925269 0.539528
322.733459 -530.518555 7.108224 0.562799
322.731812 -530.515442 6.302891 0.716747
322.730194 -530.512451 5.507332 0.695476
322.728607 -530.509399 4.719691 0.599298
322.727020 -530.506409 3.938183 0.505455
322.725464 -530.503479 3.161082 0.511391
322.723877 -530.500488 2.386696 0.574655
322.722321 -530.497498 1.613359 0.536446
322.720734 -530.494568 0.839413 0.524315
322.719177 -530.491577 0.063193 1.000000
319.801361 -524.980713 -0.000015 0.266237
317.975403 -521.531982 -0.000011 0.210132
316.809662 -519.330261 -0.000009 0.223308
315.999451 -517.799988 -0.000006 0.215840
315.402527 -516.672546 -0.000005 0.205668
322.566650 -530.555725 7.913205 0.564416
322.565033 -530.552612 7.097828 0.545892
322.563416 -530.549500 6.294134 0.381399
322.561829 -530.546448 5.500190 0.242573
322.560272 -530.543457 4.714154 0.625788
322.558716 -530.540466 3.934238 0.598825
322.557159 -530.537476 3.158719 0.584802
322.555603 -530.534546 2.385910 0.409262
322.554077 -530.531555 1.614146 0.238087
322.552521 -530.528625 0.841774 0.513497
322.550995 -530.525635 0.067132 1.000000
319.693909 -525.037109 -0.000015 0.223703
317.892059 -521.575745 -0.000011 0.224385
316.741730 -519.365906 -0.000009 0.241906
315.942200 -517.830017 -0.000007 0.254604
315.353180 -516.698486 -0.000005 0.202843
322.398865 -530.589661 7.901475 0.585626
322.397278 -530.586487 7.087718 0.555611
322.395691 -530.583435 6.285620 0.422110
322.394135 -530.580383 5.493253 0.497200
322.392578 -530.577332 4.708773 0.655741
322.391052 -530.574341 3.930403 0.582712
322.389526 -530.571411 3.156423 0.559442
322.388031 -530.568420 2.385145 0.694835
322.386505 -530.565491 1.614910 0.689326
322.384979 -530.562500 0.844068 0.620386
322.383453 -530.559509 0.070962 1.000000
319.586060 -525.092773 -0.000015 0.238962
317.808411 -521.618896 -0.000011 0.227174
316.673553 -519.401123 -0.000009 0.226228
315.884766 -517.859680 -0.000006 0.259044
315.303650 -516.723999 -0.000005 0.192742
322.231720 -530.623352 7.890071 0.589319
322.230164 -530.620239 7.077888 0.464683
322.228607 -530.617188 6.277345 0.598703
322.227081 -530.614136 5.486511 0.579995
322.225586 -530.611145 4.703547 0.515496
322.224060 -530.608093 3.926677 0.571389
322.222565 -530.605164 3.154190 0.588037
322.221069 -530.602173 2.384401 0.543069
322.219604 -530.599243 1.615653 0.562081
322.218109 -530.596252 0.846298 0.586328
322.216614 -530.593323 0.074683 1.000000
319.477814 -525.147705 -0.000015 0.229125
317.724457 -521.661499 -0.000011 0.206111
316.605103 -519.435852 -0.000009 0.232009
315.827118 -517.888916 -0.000007 0.208229
315.253937 -516.749268 -0.000005 0.202616
322.065247 -530.656982 7.879002 0.564538
322.063690 -530.653870 7.068345 0.540795
322.062164 -530.650818 6.269306 0.629435
322.060669 -530.647766 5.479960 0.539879
322.059174 -530.644775 4.698467 0.552148
322.057709 -530.641785 3.923059 0.614649
322.056244 -530.638794 3.152024 0.558648
322.054779 -530.635864 2.383680 0.538445
322.053314 -530.632874 1.616374 0.616480
322.051849 -530.629944 0.848463 0.564340
322.050385 -530.626953 0.078295 1.000000
319.369202 -525.201843 -0.000015 0.225893
317.640228 -521.703491 -0.000011 0.230992
316.536438 -519.470093 -0.000009 0.229232
315.769257 -517.917786 -0.000007 0.231518
315.204041 -516.774109 -0.000005 0.265304
321.899353 -530.690491 7.868261 0.597238
321.897858 -530.687378 7.059088 0.600198
321.896362 -530.684326 6.261508 0.581094
321.894867 -530.681274 5.473606 0.586053
321.893433 -530.678284 4.693541 0.634028
321.891968 -530.675293 3.919551 0.607462
321.890533 -530.672302 3.149921 0.572030
321.889099 -530.669373 2.382980 0.619791
321.887665 -530.666382 1.617074 0.662791
321.886200 -530.663452 0.850564 0.603861
321.884766 -530.660461 0.081802 1.000000
319.260193 -525.255249 -0.000015 0.216439
317.555695 -521.744873 -0.000011 0.222949
316.467529 -519.503845 -0.000009 0.225486
315.711212 -517.946228 -0.000007 0.245796
315.153992 -516.798645 -0.000005 0.206087
321.734070 -530.723877 7.857841 0.600488
321.732605 -530.720764 7.050106 0.569497
321.731140 -530.717712 6.253945 0.370001
321.729675 -530.714661 5.467440 0.349126
321.728241 -530.711609 4.688759 0.604273
321.726807 -530.708679 3.916143 0.608484
321.725403 -530.705688 3.147880 0.532479
321.723999 -530.702759 2.382300 0.351644
321.722595 -530.699768 1.617754 0.296773
321.721161 -530.696838 0.852602 0.452277
321.719757 -530.693848 0.085203 1.000000
319.150818 -525.307861 -0.000015 0.222973
317.470886 -521.785706 -0.000011 0.202879
316.398376 -519.537109 -0.000009 0.233720
315.652954 -517.974243 -0.000007 0.199696
315.103760 -516.822815 -0.000006 0.247447
321.569366 -530.757141 7.847744 0.542672
321.567932 -530.754028 7.041401 0.521660
321.566467 -530.750977 6.246613 0.361273
321.565033 -530.747925 5.461463 0.203784
321.563629 -530.744873 4.684124 0.616709
321.562225 -530.741943 3.912841 0.562005
321.560852 -530.738953 3.145903 0.505013
321.559479 -530.736023 2.381641 0.357198
321.558075 -530.733032 1.618412 0.309865
321.556702 -530.730103 0.854578 0.549706
321.555298 -530.727112 0.088498 1.000000
319.041107 -525.359741 -0.000015 0.231494
317.385773 -521.825928 -0.000011 0.223033
316.329010 -519.569885 -0.000009 0.225534
315.594513 -518.001892 -0.000007 0.227665
315.053345 -516.846619 -0.000005 0.250332
321.405243 -530.790344 7.837967 0.617777
321.403809 -530.787170 7.032970 0.554009
321.402374 -530.784119 6.239512 0.576608
321.400970 -530.781067 5.455677 0.549142
321.399597 -530.778015 4.679638 0.541955
321.398224 -530.775085 3.909643 0.574197
321.396851 -530.772095 3.143988 0.568551
321.395508 -530.769165 2.381004 0.543801
321.394135 -530.766174 1.619049 0.570214
321.392761 -530.763245 0.856491 0.575509
321.391418 -530.760254 0.091689 1.000000
318.931000 -525.410828 -0.000016 0.211795
317.300415 -521.865540 -0.000012 0.216511
316.259399 -519.602234 -0.000009 0.248908
315.535858 -518.029114 -0.000007 0.227294
315.002808 -516.870117 -0.000005 0.231554
321.241638 -530.823364 7.828511 0.635584
321.240234 -530.820251 7.024824 0.594278
321.238831 -530.817200 6.232649 0.579614
321.237457 -530.814148 5.450083 0.576272
321.236115 -530.811157 4.675303 0.601770
321.234741 -530.808105 3.906553 0.613382
321.233398 -530.805176 3.142136 0.569650
321.232056 -530.802185 2.380387 0.600137
321.230743 -530.799255 1.619666 0.602350
321.229401 -530.796265 0.858341 0.569650
321.228088 -530.793335 0.094777 1.000000
318.820557 -525.461182 -0.000016 0.224050
317.214752 -521.904602 -0.000012 0.233218
316.189575 -519.634033 -0.000009 0.245257
315.477051 -518.055908 -0.000007 0.219048
314.952087 -516.893250 -0.000005 0.199564
321.078552 -530.856323 7.819360 0.556100
321.077179 -530.853210 7.016934 0.537377
321.075806 -530.850098 6.226007 0.549630
321.074463 -530.847107 5.444672 0.591882
321.073120 -530.844055 4.671108 0.550790
321.071808 -530.841125 3.903565 0.547646
321.070496 -530.838135 3.140347 0.595178
321.069183 -530.835144 2.379791 0.561410
321.067871 -530.832214 1.620262 0.532006
321.066559 -530.829224 0.860131 0.597665
321.065247 -530.826294 0.097762 1.000000
318.709778 -525.510742 -0.000016 0.229939
317.128815 -521.943054 -0.000012 0.241200
316.119537 -519.665344 -0.000009 0.268128
315.418030 -518.082336 -0.000007 0.230046
314.901184 -516.915955 -0.000006 0.265543
320.915985 -530.889221 7.810533 0.555550
320.914612 -530.886047 7.009322 0.557275
320.913269 -530.882935 6.219592 0.452567
320.911957 -530.879944 5.439443 0.541268
320.910645 -530.876892 4.667054 0.589059
320.909363 -530.873962 3.900676 0.601816
320.908051 -530.870972 3.138616 0.567422
320.906769 -530.868042 2.379215 0.389883
320.905487 -530.865051 1.620838 0.538643
320.904205 -530.862122 0.861858 0.548379
320.902924 -530.859131 0.100646 1.000000
318.598633 -525.559509 -0.000016 0.207942
317.042633 -521.980896 -0.000012 0.239908
316.049255 -519.696228 -0.000009 0.218162
315.358826 -518.108276 -0.000007 0.213531
314.850159 -516.938416 -0.000006 0.224182
320.753906 -530.921936 7.802006 0.602609
320.752563 -530.918823 7.001974 0.627436
320.751251 -530.915710 6.213404 0.350744
320.749939 -530.912659 5.434401 0.240589
320.748657 -530.909668 4.663144 0.668177
320.747375 -530.906677 3.897890 0.630152
320.746124 -530.903687 3.136947 0.599725
320.744873 -530.900757 2.378659 0.358373
320.743622 -530.897827 1.621393 0.189746
320.742340 -530.894836 0.863525 0.540459
320.741089 -530.891907 0.103429 1.000000
318.487183 -525.607544 -0.000016 0.208181
316.956177 -522.018127 -0.000012 0.202604
315.978790 -519.726563 -0.000009 0.230310
315.299438 -518.133850 -0.000007 0.213303
314.798950 -516.960449 -0.000006 0.277259
320.592285 -530.954590 7.793786 0.595193
320.590973 -530.951477 6.994890 0.573480
320.589661 -530.948364 6.207440 0.829755
320.588409 -530.945374 5.429541 0.709850
320.587158 -530.942383 4.659377 0.641215
320.585907 -530.939331 3.895205 0.629618
320.584656 -530.936401 3.135339 0.528069
320.583435 -530.933472 2.378124 0.615015
320.582184 -530.930481 1.621929 0.613291
320.580963 -530.927551 0.865133 0.523766
320.579712 -530.924561 0.106111 1.000000
318.375366 -525.654785 -0.000016 0.214093
316.869476 -522.054749 -0.000012 0.218856
315.908081 -519.756409 -0.000009 0.197242
315.239899 -518.158997 -0.000008 0.209677
314.747620 -516.982117 -0.000006 0.217408
320.431091 -530.987183 7.785874 0.503288
320.429810 -530.984009 6.988068 0.527260
320.428558 -530.980957 6.201695 0.591608
320.427307 -530.977905 5.424857 0.511711
320.426086 -530.974915 4.655746 0.544976
320.424835 -530.971924 3.892618 0.592035
320.423645 -530.968933 3.133790 0.513970
320.422424 -530.966003 2.377607 0.533364
320.421204 -530.963013 1.622444 0.574868
320.419983 -530.960083 0.866681 0.504448
320.418762 -530.957092 0.108694 1.000000
318.263214 -525.701233 -0.000016 0.233601
316.782501 -522.090759 -0.000012 0.246059
315.837189 -519.785767 -0.000010 0.208001
315.180176 -518.183777 -0.000007 0.245006
314.696106 -517.003479 -0.000006 0.201694
320.270355 -531.019653 7.778268 0.572091
320.269104 -531.016541 6.981511 0.515908
320.267853 -531.013428 6.196170 0.595880
320.266632 -531.010376 5.420353 0.638911
320.265411 -531.007385 4.652252 0.560845
320.264221 -531.004395 3.890130 0.597818
320.263031 -531.001404 3.132299 0.640284
320.261841 -530.998474 2.377112 0.542504
320.260651 -530.995483 1.622941 0.592905
320.259460 -530.992554 0.868170 0.580209
320.258270 -530.989563 0.111178 1.000000
318.150757 -525.746887 -0.000016 0.223488
316.695282 -522.126160 -0.000012 0.212382
315.766083 -519.814636 -0.000009 0.248620
315.120270 -518.208069 -0.000008 0.245006
314.644470 -517.024414 -0.000006 0.240602
320.110046 -531.052063 7.770961 0.569757
320.108795 -531.048950 6.975215 0.609201
320.107574 -531.045837 6.190867 0.596338
320.106384 -531.042786 5.416032 0.600351
320.105194 -531.039795 4.648903 0.609262
320.104034 -531.036804 3.887742 0.587991
320.102844 -531.033813 3.130867 0.618631
320.101685 -531.030823 2.376634 0.725444
320.100525 -531.027893 1.623417 0.704753
320.099335 -531.024902 0.869600 0.621195
320.098175 -531.021973 0.113563 1.000000
318.037994 -525.791748 -0.000016 0.246071
316.607849 -522.160950 -0.000012 0.252534
315.694794 -519.843018 -0.000010 0.198930
315.060211 -518.231995 -0.000008 0.213926
314.592651 -517.045044 -0.000006 0.238651
319.950104 -531.084351 7.763938 0.592660
319.948883 -531.081238 6.969166 0.579568
319.947693 -531.078125 6.185776 0.361334
319.946533 -531.075073 5.411882 0.328679
319.945374 -531.072083 4.645685 0.642344
319.944214 -531.069092 3.885452 0.560174
319.943054 -531.066101 3.129496 0.597742
319.941925 -531.063171 2.376178 0.357656
319.940796 -531.060181 1.623874 0.256458
319.939636 -531.057251 0.870972 0.449424
319.938507 -531.054260 0.115851 1.000000
317.924927 -525.835815 -0.000016 0.222231
316.520142 -522.195190 -0.000012 0.238735
315.623291 -519.870911 -0.000010 0.211281
314.999969 -518.255493 -0.000008 0.246538
314.540741 -517.065308 -0.000006 0.206278
319.790558 -531.116577 7.757233 0.553170
319.789368 -531.113403 6.963375 0.542519
319.788208 -531.110352 6.180899 0.371374
319.787048 -531.107300 5.407907 0.353048
319.785919 -531.104309 4.642604 0.636179
319.784790 -531.101318 3.883256 0.600107
319.783661 -531.098389 3.128182 0.578759
319.782532 -531.095398 2.375741 0.398245
319.781433 -531.092468 1.624311 0.469688
319.780304 -531.089478 0.872285 0.567224
319.779175 -531.086487 0.118042 1.000000
317.811523 -525.879150 -0.000016 0.207331
316.432190 -522.228760 -0.000012 0.230310
315.551605 -519.898254 -0.000010 0.234091
314.939575 -518.278503 -0.000008 0.192419
314.488647 -517.085144 -0.000006 0.200510
319.631378 -531.148804 7.750826 0.610849
319.630219 -531.145691 6.957860 0.636072
319.629059 -531.142578 6.176248 0.605692
319.627930 -531.139526 5.404115 0.610819
319.626831 -531.136475 4.639661 0.596918
319.625702 -531.133484 3.881157 0.609476
319.624603 -531.130493 3.126924 0.616709
319.623505 -531.127563 2.375321 0.602060
319.622437 -531.124573 1.624730 0.609094
319.621338 -531.121643 0.873539 0.592187
319.620239 -531.118652 0.120136 1.000000
317.697845 -525.921631 -0.000016 0.233649
316.344025 -522.261719 -0.000012 0.257919
315.479736 -519.925171 -0.000010 0.221657
314.879028 -518.301147 -0.000008 0.273490
314.436432 -517.104675 -0.000007 0.251947
319.472534 -531.180847 7.744697 0.604318
319.471405 -531.177734 6.952576 0.629129
319.470276 -531.174683 6.171802 0.640238
319.469177 -531.171631 5.400494 0.600519
319.468079 -531.168579 4.636855 0.615930
319.467010 -531.165588 3.879158 0.640238
319.465942 -531.162598 3.125728 0.588373
319.464844 -531.159668 2.374923 0.598184
319.463776 -531.156677 1.625129 0.634913
319.462708 -531.153748 0.874736 0.596124
319.464539 -531.158752 0.121436 1.000000
317.583862 -525.963379 -0.000016 0.221274
316.255646 -522.294067 -0.000012 0.211592
315.407684 -519.951538 -0.000010 0.226492
314.818329 -518.323364 -0.000008 0.220532
314.384094 -517.123840 -0.000006 0.217791
319.314026 -531.212891 7.738870 0.541711
319.312927 -531.209778 6.947553 0.514519
319.311829 -531.206665 6.167571 0.564355
319.310730 -531.203613 5.397046 0.561395
319.309662 -531.200623 4.634182 0.505806
319.308624 -531.197632 3.877253 0.561517
319.307556 -531.194641 3.124586 0.552041
319.306519 -531.191650 2.374542 0.519966
319.305450 -531.188721 1.625509 0.523659
319.304413 -531.185730 0.875878 0.523903
319.303345 -531.182739 0.124039 1.000000
317.469604 -526.004272 -0.000017 0.222004
316.167023 -522.325806 -0.000012 0.226061
315.335419 -519.977417 -0.000010 0.231949
314.757446 -518.345154 -0.000008 0.233385
314.331635 -517.142639 -0.000006 0.254293
319.155823 -531.244873 7.733332 0.602670
319.154755 -531.241760 6.942779 0.564385
319.153687 -531.238647 6.163550 0.578973
319.152618 -531.235596 5.393768 0.600763
319.151581 -531.232605 4.631641 0.564920
319.150543 -531.229614 3.875443 0.579461
319.149506 -531.226624 3.123501 0.594034
319.148468 -531.223633 2.374182 0.528588
319.147461 -531.220642 1.625870 0.592309
319.146423 -531.217712 0.876961 0.582986
319.145386 -531.214722 0.125846 1.000000
317.355042 -526.044373 -0.000017 0.226863
316.078186 -522.356873 -0.000013 0.235336
315.263000 -520.002747 -0.000010 0.198774
314.696442 -518.366577 -0.000008 0.285529
314.279022 -517.161072 -0.000006 0.212705
318.997925 -531.276794 7.728084 0.576562
318.996887 -531.273682 6.938256 0.627298
318.995819 -531.270569 6.159739 0.597177
318.994781 -531.267517 5.390663 0.579934
318.993774 -531.264465 4.629233 0.619516
318.992767 -531.261475 3.873727 0.602792
318.991760 -531.258484 3.122474 0.571511
318.990753 -531.255554 2.373839 0.617777
318.989746 -531.252563 1.626212 0.607797
318.988739 -531.249573 0.877988 0.572122
318.987732 -531.246643 0.127559 1.000000
317.240234 -526.083679 -0.000017 0.225582
315.989136 -522.387390 -0.000013 0.252665
315.190399 -520.027588 -0.000010 0.249410
314.635284 -518.387512 -0.000008 0.211161
314.226257 -517.179138 -0.000007 0.206721
318.840332 -531.308655 7.723128 0.495140
318.839294 -531.305542 6.933981 0.605936
318.838257 -531.302429 6.156140 0.555322
318.837250 -531.299377 5.387729 0.545357
318.836243 -531.296326 4.626958 0.601373
318.835266 -531.293335 3.872106 0.571481
318.834259 -531.290344 3.121503 0.498756
318.833282 -531.287354 2.373516 0.582040
318.832306 -531.284424 1.626535 0.600702
318.831329 -531.281433 0.878958 0.537331
318.830322 -531.278442 0.129178 1.000000
317.125122 -526.122192 -0.000016 0.228622
315.899872 -522.417236 -0.000013 0.231794
315.117645 -520.051941 -0.000010 0.195268
314.573975 -518.408020 -0.000008 0.231231
314.173401 -517.196777 -0.000007 0.313271
318.682983 -531.340454 7.718457 0.513436
318.681946 -531.337341 6.929954 0.558022
318.680969 -531.334229 6.152750 0.579202
318.679962 -531.331177 5.384965 0.539834
318.678986 -531.328125 4.624815 0.564660
318.678009 -531.325134 3.870579 0.589471
318.677063 -531.322144 3.120588 0.500465
318.676086 -531.319153 2.373212 0.563790
318.675140 -531.316223 1.626839 0.607370
318.674164 -531.313232 0.879872 0.541238
318.673218 -531.310242 0.130704 1.000000
317.009766 -526.159912 -0.000017 0.218761
315.810394 -522.446472 -0.000013 0.222303
315.044708 -520.075806 -0.000010 0.211652
314.512512 -518.428101 -0.000008 0.228730
314.120422 -517.214111 -0.000007 0.246717
318.525879 -531.372192 7.714063 0.604364
318.524872 -531.369080 6.926171 0.544152
318.523895 -531.365967 6.149564 0.577691
318.522949 -531.362915 5.382372 0.611597
318.522003 -531.359863 4.622804 0.551659
318.521027 -531.356873 3.869145 0.575570
318.520111 -531.353882 3.119729 0.615183
318.519165 -531.350891 2.372925 0.554284
318.518219 -531.347961 1.627126 0.569329
318.517273 -531.344971 0.880730 0.595895
318.516327 -531.341980 0.132136 1.000000
316.894135 -526.196838 -0.000017 0.210012
315.720703 -522.475098 -0.000013 0.238723
314.971588 -520.099121 -0.000010 0.218378
314.450928 -518.447754 -0.000008 0.215685
314.067322 -517.231079 -0.000007 0.193161
318.369019 -531.403931 7.709966 0.606943
318.368042 -531.400757 6.922637 0.628916
318.367096 -531.397705 6.146585 0.602152
318.366150 -531.394592 5.379942 0.605905
318.365204 -531.391602 4.620921 0.621897
318.364288 -531.388550 3.867804 0.596231
318.363373 -531.385559 3.118926 0.593545
318.362457 -531.382568 2.372658 0.607919
318.361542 -531.379639 1.627393 0.605859
318.360626 -531.376648 0.881532 0.577111
318.359711 -531.373657 0.133474 1.000000
316.778259 -526.232910 -0.000016 0.225917
315.630829 -522.503113 -0.000013 0.241368
314.898315 -520.121948 -0.000010 0.241152
314.389191 -518.466980 -0.000008 0.213028
314.014099 -517.247620 -0.000007 0.249841
318.212372 -531.435608 7.706148 0.589410
318.211426 -531.432434 6.919346 0.567987
318.210480 -531.429321 6.143814 0.542016
318.209564 -531.426270 5.377684 0.586572
318.208649 -531.423218 4.619170 0.567315
318.207764 -531.420227 3.866557 0.545968
318.206848 -531.417236 3.118179 0.589502
318.205963 -531.414246 2.372409 0.540291
318.205078 -531.411255 1.627642 0.559899
318.204163 -531.408325 0.882278 0.588861
318.203278 -531.405334 0.134720 1.000000
316.662109 -526.268188 -0.000017 0.246167
315.540771 -522.530457 -0.000013 0.249003
314.824890 -520.144287 -0.000010 0.284380
314.327332 -518.485779 -0.000009 0.196584
313.960754 -517.263855 -0.000007 0.191917
318.055908 -531.467224 7.702612 0.605798
318.054993 -531.464050 6.916302 0.565423
318.054077 -531.460938 6.141251 0.579583
318.053192 -531.457886 5.375595 0.626657
318.052307 -531.454895 4.617552 0.560769
318.051422 -531.451843 3.865403 0.587289
318.050537 -531.448853 3.117489 0.594858
318.049683 -531.445862 2.372179 0.541863
318.048798 -531.442932 1.627872 0.599496
318.047943 -531.439941 0.882969 0.566949
318.047058 -531.436890 0.135873 1.000000
316.545746 -526.302673 -0.000018 0.234319
315.450531 -522.557190 -0.000013 0.204303
314.751343 -520.166077 -0.000010 0.220592
314.265350 -518.504089 -0.000009 0.202652
313.907318 -517.279663 -0.000007 0.225965
318.022827 -531.931213 7.811991 0.579477
318.030334 -531.957581 7.017228 0.572000
318.037720 -531.983521 6.231784 0.581399
318.045074 -532.009277 5.453846 0.575616
318.052338 -532.034851 4.681659 0.565209
318.059601 -532.060303 3.913522 0.576699
318.066803 -532.085632 3.147766 0.571756
318.074005 -532.110901 2.382745 0.559411
318.081207 -532.136169 1.616824 0.572641
318.088440 -532.161560 0.848355 0.566155
318.095734 -532.187134 0.075662 0.554421
316.429138 -526.336304 -0.000018 0.219658
315.360077 -522.583313 -0.000013 0.226851
314.677612 -520.187317 -0.000010 0.253467
314.203247 -518.522034 -0.000009 0.226851
313.853760 -517.295166 -0.000007 0.286989
318.839691 -535.482971 8.723833 0.573266
318.849396 -535.518005 7.805400 0.568154
318.859009 -535.552673 6.897423 0.561959
318.868530 -535.587036 5.997807 0.568246
318.878052 -535.621338 5.104568 0.576837
318.887512 -535.655396 4.215679 0.576501
318.896942 -535.689392 3.329239 0.570047
318.906372 -535.723389 2.443341 0.571130
318.915985 -535.758057 1.556071 0.581369
318.925446 -535.792236 0.665518 0.585855
318.184662 -533.120972 -0.000025 0.218976
316.312286 -526.369141 -0.000018 0.224361
315.269470 -522.608765 -0.000013 0.230333
314.603729 -520.208069 -0.000011 0.215948
314.141022 -518.539551 -0.000008 0.246789
313.800110 -517.310242 -0.000008 0.254461
319.960205 -540.355347 9.975122 0.476097
319.973541 -540.404724 8.887497 0.467369
319.986847 -540.454041 7.811803 0.573831
320.000092 -540.503174 6.745499 0.574746
320.013184 -540.551697 5.686115 0.470588
320.026123 -540.599670 4.631353 0.576013
320.039337 -540.648621 3.579044 0.577996
320.052521 -540.697510 2.526801 0.579797
320.065430 -540.745361 1.472388 0.581323
320.078278 -540.792969 0.413610 0.582544
318.020416 -533.165894 -0.000025 0.232631
316.195221 -526.401184 -0.000018 0.249027
315.178680 -522.633606 -0.000013 0.241021
314.529724 -520.228333 -0.000011 0.272436
314.078644 -518.556580 -0.000008 0.195854
313.746338 -517.324951 -0.000008 0.257465
nan nan nan 0.000000
321.613464 -547.533386 10.466457 0.584192
321.633148 -547.608398 9.146840 0.583764
321.652679 -547.682861 7.837742 0.583001
321.672119 -547.756958 6.536222 0.582162
321.691467 -547.830750 5.239449 0.581308
321.710876 -547.904663 3.944641 0.580484
321.729736 -547.976624 2.648969 0.579690
321.748657 -548.048706 1.349811 0.578836
321.767670 -548.121216 0.044356 0.578088
317.855865 -533.209717 -0.000025 0.233744
316.077911 -526.432373 -0.000018 0.224541
315.087708 -522.657837 -0.000013 0.240075
314.455566 -520.248047 -0.000010 0.226348
314.016174 -518.573242 -0.000009 0.241488
313.692474 -517.339294 -0.000008 0.172134
320.042450 -542.477844 10.494613 0.584741
320.029236 -542.426025 9.312826 0.583978
320.016602 -542.376343 8.151510 0.476585
320.004181 -542.327698 7.007448 0.582452
319.991577 -542.278198 5.877609 0.581643
319.979370 -542.230286 4.759711 0.450370
319.966827 -542.181091 3.650964 0.579904
319.954712 -542.133545 2.549125 0.579049
319.942627 -542.086182 1.451675 0.578149
319.930573 -542.038818 0.356246 0.577264
317.690979 -533.252319 -0.000025 0.234474
315.960419 -526.462769 -0.000018 0.225810
314.996582 -522.681396 -0.000013 0.224086
314.381256 -520.267273 -0.000011 0.220771
313.953583 -518.589417 -0.000009 0.240159
313.638489 -517.353210 -0.000008 0.178381
318.584167 -537.570496 9.213421 0.586130
318.575012 -537.533569 8.211470 0.586923
318.566040 -537.497253 7.226173 0.587564
318.557190 -537.461487 6.255060 0.587991
318.548431 -537.426086 5.295787 0.588327
318.539764 -537.391113 4.346117 0.588571
318.531097 -537.356079 3.403883 0.588113
318.522583 -537.321716 2.467047 0.587198
318.514099 -537.287415 1.533530 0.586053
318.505615 -537.253113 0.601326 0.585138
317.525818 -533.293823 -0.000025 0.236246
315.842712 -526.492371 -0.000018 0.233110
314.905304 -522.704285 -0.000013 0.235396
314.306824 -520.286011 -0.000011 0.230764
313.890900 -518.605164 -0.000009 0.242158
313.584442 -517.366821 -0.000008 0.191653
317.508057 -533.949219 8.268309 0.587777
317.501343 -533.921265 7.398562 0.586252
317.494751 -533.893799 6.542983 0.585046
317.488220 -533.866577 5.699426 0.584039
317.481842 -533.840027 4.865913 0.582849
317.475616 -533.814087 4.040494 0.582223
317.469116 -533.787048 3.221181 0.585657
317.462860 -533.761047 2.406332 0.588922
317.456635 -533.735046 1.594105 0.590997
317.450409 -533.709106 0.782757 0.592432
317.360382 -533.334167 -0.000025 0.237777
315.724792 -526.521118 -0.000018 0.226588
314.813843 -522.726624 -0.000013 0.220568
314.232269 -520.304138 -0.000011 0.204974
313.828094 -518.620483 -0.000009 0.215027
313.530273 -517.380005 -0.000008 0.229867
316.681396 -531.167542 7.542587 0.592050
316.676331 -531.145813 6.774201 0.590921
316.671326 -531.124329 6.018106 0.593545
316.666351 -531.102966 5.272431 0.595560
316.661469 -531.081909 4.535414 0.596155
316.656555 -531.060791 3.805340 0.595453
316.651703 -531.039978 3.080605 0.594049
316.646942 -531.019531 2.359601 0.593652
316.642212 -530.999207 1.640741 0.594186
316.637482 -530.978821 0.922478 0.593103
316.632721 -530.958435 0.203275 0.590509
315.606659 -526.549011 -0.000018 0.207487
314.722229 -522.748230 -0.000013 0.199085
314.157593 -520.321838 -0.000011 0.213662
313.765167 -518.635315 -0.000009 0.256471
313.476044 -517.392822 -0.000008 0.233325
316.026093 -528.962341 6.967493 0.566110
316.022125 -528.944702 6.279256 0.586725
316.015686 -528.916199 5.599834 0.588602
316.012665 -528.902771 4.932644 0.573770
316.009552 -528.888977 4.272766 0.586328
316.006500 -528.875366 3.618767 0.596094
316.003479 -528.862000 2.969199 0.583780
316.000488 -528.848694 2.322613 0.581598
315.997498 -528.835388 1.677610 0.595926
315.991302 -528.808044 1.033519 0.591928
315.988342 -528.794800 0.388002 0.582528
315.488342 -526.576111 -0.000018 0.214727
314.630493 -522.769287 -0.000014 0.214105
314.082794 -520.338928 -0.000011 0.257153
313.702148 -518.649780 -0.000009 0.211831
313.421692 -517.405273 -0.000008 0.241787
315.494019 -527.171814 6.500770 0.593454
315.490845 -527.157288 5.877534 0.593988
315.487732 -527.143066 5.264054 0.597025
315.484650 -527.128845 4.658792 0.592752
315.481567 -527.114746 4.060349 0.592920
315.478607 -527.101196 3.467375 0.597269
315.475616 -527.087463 2.878475 0.593225
315.472656 -527.073792 2.292387 0.591501
315.469666 -527.060181 1.707841 0.597360
315.466705 -527.046570 1.123581 0.592981
315.463715 -527.032837 0.538361 0.589914
315.369873 -526.602356 -0.000018 0.214799
314.538574 -522.789673 -0.000014 0.232942
314.007874 -520.355530 -0.000011 0.228239
313.639038 -518.663757 -0.000009 0.247986
313.367279 -517.417358 -0.000008 0.223045
315.053314 -525.688843 6.114416 0.587564
315.050751 -525.676697 5.544935 0.611032
315.048248 -525.664795 4.984289 0.585367
315.045776 -525.653076 4.431099 0.600153
315.043304 -525.641357 3.884044 0.598779
315.040863 -525.629761 3.341881 0.582010
315.038452 -525.618286 2.803399 0.608118
315.036041 -525.606812 2.267417 0.575402
315.033600 -525.595337 1.732775 0.595346
315.031189 -525.583862 1.198329 0.585397
315.028778 -525.572327 0.662933 0.581491
315.251190 -526.627808 -0.000018 0.221358
314.446533 -522.809387 -0.000014 0.209605
313.932861 -520.371643 -0.000011 0.218354
313.575836 -518.677307 -0.000009 0.208097
313.312775 -517.429016 -0.000008 0.213339
314.682190 -524.439819 5.789201 0.589441
314.680084 -524.429443 5.264914 0.574762
314.678009 -524.419312 4.748708 0.589563
314.675995 -524.409302 4.239308 0.561364
314.673950 -524.399353 3.735512 0.585534
314.671967 -524.389587 3.236168 0.566079
314.670013 -524.379883 2.740155 0.578912
314.668060 -524.370300 2.246382 0.569848
314.666107 -524.360657 1.753779 0.577020
314.664154 -524.351074 1.261289 0.568551
314.662170 -524.341492 0.767857 0.577218
314.660217 -524.331787 0.272418 0.571481
314.354370 -522.828491 -0.000014 0.224445
313.857727 -520.387207 -0.000011 0.234797
313.512512 -518.690430 -0.000009 0.224062
313.258179 -517.440308 -0.000008 0.255310
314.365509 -523.374207 5.511909 0.591333
314.363770 -523.365295 5.026148 0.598749
314.362061 -523.356567 4.547819 0.593332
314.360352 -523.347961 4.075753 0.595285
314.358704 -523.339417 3.608833 0.593820
314.357025 -523.330994 3.145992 0.595148
314.355408 -523.322632 2.686192 0.593713
314.353760 -523.314270 2.228428 0.596719
314.352112 -523.305969 1.771710 0.593500
314.350494 -523.297668 1.315056 0.597757
314.348877 -523.289368 0.857484 0.594293
314.347260 -523.281067 0.398007 0.597375
314.262085 -522.846924 -0.000014 0.241380
313.782471 -520.402222 -0.000011 0.264286
313.449127 -518.703064 -0.000009 0.239692
313.203522 -517.451233 -0.000008 0.233912
314.091980 -522.453674 5.272533 0.579446
314.090546 -522.446045 4.820027 0.584665
314.089111 -522.438538 4.374400 0.576288
314.087708 -522.431091 3.934553 0.577859
314.086304 -522.423645 3.499460 0.588052
314.084930 -522.416321 3.068128 0.575463
314.083557 -522.409058 2.639596 0.600671
314.082184 -522.401794 2.212925 0.565713
314.059113 -522.279724 1.789107 1.000000
314.058868 -522.278381 1.366936 1.000000
314.058594 -522.276978 0.943499 1.000000
314.058319 -522.275574 0.517876 1.000000
314.169647 -522.864685 -0.000014 0.243809
313.707123 -520.416748 -0.000011 0.252450
313.385651 -518.715332 -0.000009 0.214871
313.148804 -517.461792 -0.000008 0.189188
313.853363 -521.650696 5.063867 0.577340
313.852142 -521.643921 4.640305 0.593256
313.850922 -521.637329 4.223153 0.514778
313.849731 -521.630798 3.811393 0.559380
313.848572 -521.624329 3.404054 0.517968
313.847382 -521.617859 3.000206 0.573480
313.846222 -521.611511 2.598947 0.560586
313.845093 -521.605164 2.199401 0.586038
313.843933 -521.598816 1.800704 0.602747
313.842773 -521.592529 1.402002 0.535851
313.841614 -521.586182 1.002438 0.573968
313.840485 -521.579773 0.601151 0.521569
313.839294 -521.573364 0.197261 0.566384
313.631653 -520.430725 -0.000011 0.229412
313.322083 -518.727112 -0.000009 0.228155
313.093994 -517.471924 -0.000008 0.243414
313.643433 -520.944580 4.880518 0.598398
313.642395 -520.938599 4.482385 0.583658
313.641388 -520.932739 4.090252 0.592386
313.640381 -520.926941 3.703161 0.608225
313.639374 -520.921143 3.320198 0.578485
313.638367 -520.915466 2.940495 0.610239
313.637360 -520.909729 2.563205 0.596399
313.636383 -520.904053 2.187507 0.601617
313.635376 -520.898376 1.812587 0.604959
313.634399 -520.892761 1.437642 0.594171
313.633392 -520.887085 1.061867 0.611078
313.632416 -520.881348 0.684450 0.598886
313.631409 -520.875610 0.304566 0.601572
313.556122 -520.444153 -0.000011 0.249362
313.258423 -518.738403 -0.000009 0.207499
313.039124 -517.481689 -0.000008 0.267039
313.457123 -520.317627 4.717852 0.561517
313.456268 -520.312378 4.342287 0.512078
313.455353 -520.307068 3.972329 0.584085
313.454498 -520.301880 3.607120 0.590051
313.453644 -520.296753 3.245791 0.559319
313.452789 -520.291626 2.887513 0.566705
313.451935 -520.286560 2.531493 0.538491
313.451080 -520.281494 2.176954 0.599756
313.450256 -520.276428 1.823130 0.619287
313.449402 -520.271423 1.469262 0.490379
313.448547 -520.266357 1.114590 0.570138
313.447693 -520.261230 0.758349 0.560479
313.446838 -520.256165 0.399759 0.570535
313.480469 -520.457092 -0.000011 0.209593
313.194702 -518.749329 -0.000009 0.227988
312.984161 -517.491089 -0.000008 0.264358
313.290741 -519.757690 4.572712 0.585580
313.289978 -519.752869 4.217234 0.559579
313.289215 -519.748169 3.867084 0.597879
313.288452 -519.743530 3.521402 0.589197
313.287720 -519.738892 3.179377 0.559731
313.286987 -519.734375 2.840221 0.597223
313.286285 -519.729797 2.503185 0.580499
313.285553 -519.725281 2.167533 0.571023
313.284821 -519.720703 1.832542 0.571405
313.284088 -519.716187 1.497491 0.559655
313.283356 -519.711670 1.161664 0.606989
313.282623 -519.707092 0.824333 0.589471
313.281891 -519.702515 0.484760 0.553506
313.269989 -519.628235 0.155018 1.000000
313.130920 -518.759766 -0.000009 0.209821
312.929169 -517.500122 -0.000008 0.218306
313.141205 -519.254456 4.442375 0.601297
313.140533 -519.250122 4.104962 0.604761
313.139893 -519.245850 3.772584 0.627146
313.139252 -519.241699 3.444434 0.592096
313.138611 -519.237549 3.119737 0.607309
313.137970 -519.233398 2.797752 0.625132
313.137360 -519.229309 2.477762 0.579065
313.136719 -519.225220 2.159073 0.631037
313.136108 -519.221130 1.840995 0.624903
313.135468 -519.217041 1.522847 0.578393
313.134857 -519.212952 1.203947 0.628489
313.134216 -519.208801 0.883605 0.622278
313.133575 -519.204651 0.561118 0.557275
313.132935 -519.200500 0.235768 0.607233
313.067047 -518.769775 -0.000009 0.214428
312.874084 -517.508728 -0.000008 0.218557
313.006073 -518.799744 4.324720 0.568246
313.005493 -518.795776 4.003606 0.533501
313.004944 -518.791931 3.687268 0.577401
313.004395 -518.788147 3.374942 0.558038
313.003845 -518.784424 3.065888 0.535241
313.003296 -518.780701 2.759403 0.580972
313.002747 -518.776978 2.454806 0.561486
313.002197 -518.773254 2.151433 0.534859
313.001678 -518.769531 1.848629 0.605997
313.001129 -518.765808 1.545746 0.575174
313.000580 -518.762085 1.242135 0.543511
313.000031 -518.758362 0.937138 0.613931
312.999481 -518.754578 0.630087 0.582101
312.998932 -518.750793 0.320296 0.548516
313.003113 -518.779297 -0.000010 0.217719
312.818939 -517.516968 -0.000008 0.227701
312.883362 -518.386780 4.217983 0.560327
312.882874 -518.383179 3.911650 0.585367
312.882385 -518.379700 3.609862 0.585519
312.881897 -518.376221 3.311889 0.564889
312.881439 -518.372803 3.017027 0.606943
312.880951 -518.369446 2.724606 0.593545
312.880493 -518.366028 2.433974 0.545464
312.880005 -518.362671 2.144499 0.581460
312.879547 -518.359253 1.855557 0.598138
312.879089 -518.355896 1.566529 0.622370
312.878601 -518.352539 1.276794 0.553719
312.878143 -518.349121 0.985726 0.605325
312.877655 -518.345703 0.692687 0.587701
312.877167 -518.342224 0.397022 0.544396
312.939087 -518.788452 -0.000010 0.212382
312.763763 -517.524841 -0.000008 0.208540
312.771423 -518.010071 4.120718 0.614923
312.770996 -518.006836 3.827851 0.621271
312.770569 -518.003601 3.539320 0.604593
312.770142 -518.000427 3.254425 0.599237
312.769745 -517.997314 2.972496 0.562646
312.769318 -517.994202 2.692890 0.577676
312.768921 -517.991089 2.414987 0.570291
312.768524 -517.988037 2.138179 0.604349
312.768127 -517.984924 1.861872 0.616709
312.767700 -517.981812 1.585473 0.617716
312.767303 -517.978760 1.308389 0.618387
312.766876 -517.975586 1.030020 0.602472
312.766479 -517.972473 0.749757 0.615961
312.766052 -517.969299 0.466973 0.599023
312.765625 -517.966125 0.181017 0.561944
312.708527 -517.532288 -0.000009 0.225271
312.668884 -517.664978 4.031718 0.595148
312.668518 -517.661987 3.751170 0.594064
312.668152 -517.659058 3.474768 0.531518
312.667786 -517.656128 3.201839 0.593637
312.667419 -517.653259 2.931743 0.606882
312.667053 -517.650391 2.663865 0.584741
312.666718 -517.647583 2.397609 0.454124
312.666351 -517.644775 2.132395 0.586740
312.666016 -517.641907 1.867652 0.642329
312.665649 -517.639099 1.602812 0.533761
312.665283 -517.636230 1.337308 0.581903
312.664948 -517.633362 1.070565 0.602548
312.664581 -517.630493 0.801998 0.575494
312.664215 -517.627563 0.531006 0.486748
312.663849 -517.624634 0.256966 0.577462
312.653229 -517.539368 -0.000008 0.263652
312.574585 -517.347717 3.949981 0.527367
312.574280 -517.344971 3.680745 0.564355
312.573944 -517.342224 3.415481 0.544213
312.573639 -517.339539 3.153541 0.559655
312.573334 -517.336914 2.894312 0.515480
312.573029 -517.334290 2.637204 0.620050
312.572723 -517.331665 2.381646 0.532235
312.572418 -517.329041 2.127082 0.526879
312.572113 -517.326477 1.872961 0.583078
312.571777 -517.323853 1.618741 0.612436
312.571472 -517.321228 1.363875 0.532525
312.571167 -517.318542 1.107813 0.552743
312.570862 -517.315918 0.849993 0.611826
312.570557 -517.313232 0.589837 0.520546
312.570221 -517.310486 0.326748 0.539239
312.597900 -517.546082 -0.000008 0.232248
312.487610 -517.054993 3.874653 0.586435
312.487335 -517.052429 3.615841 0.582391
312.487030 -517.049927 3.360839 0.541650
312.486755 -517.047424 3.109025 0.567315
312.486511 -517.044983 2.859812 0.604654
312.486237 -517.042542 2.612630 0.589166
312.485962 -517.040100 2.366933 0.543450
312.485687 -517.037720 2.122184 0.603235
312.485443 -517.035278 1.877856 0.604501
312.485168 -517.032898 1.633424 0.583535
312.484894 -517.030457 1.388366 0.529824
312.484619 -517.028015 1.142152 0.576822
312.484344 -517.025513 0.894239 0.610422
312.484070 -517.023071 0.644075 0.643442
312.483795 -517.020569 0.391083 0.531502
312.542511 -517.552368 -0.000008 0.187776
312.407074 -516.783997 3.805014 0.560952
312.406830 -516.781616 3.555837 0.599771
312.406586 -516.779297 3.310320 0.587915
312.406342 -516.776978 3.067868 0.617258
312.406128 -516.774719 2.827913 0.536812
312.405884 -516.772461 2.589909 0.609079
312.405640 -516.770203 2.353328 0.621469
312.405426 -516.767944 2.117655 0.584848
312.405182 -516.765747 1.882381 0.571130
312.404968 -516.763489 1.647002 0.598749
312.404724 -516.761230 1.411014 0.634653
312.404480 -516.758972 1.173906 0.583581
312.404266 -516.756714 0.935157 0.560037
312.404022 -516.754395 0.694234 0.602670
312.403778 -516.752075 0.450581 0.638682
312.403534 -516.749695 0.203621 0.602853
312.332306 -516.532410 3.740446 0.641840
312.332092 -516.530212 3.500200 0.622568
312.331879 -516.528015 3.263478 0.562448
312.331696 -516.525879 3.029706 0.574639
312.331482 -516.523743 2.798335 0.633692
312.331268 -516.521667 2.568840 0.611719
312.331085 -516.519592 2.340713 0.570184
312.330872 -516.517517 2.113456 0.557733
312.330688 -516.515381 1.886578 0.635294
312.330475 -516.513306 1.659595 0.614878
312.330292 -516.511230 1.432017 0.566125
312.330078 -516.509155 1.203356 0.575357
312.329865 -516.507019 0.973107 0.615869
312.329651 -516.504883 0.740755 0.631266
312.329468 -516.502686 0.505765 0.563409
312.329254 -516.500488 0.267581 0.578759
312.262695 -516.298157 3.680417 0.646876
312.262512 -516.296143 3.448474 0.517220
312.262360 -516.294067 3.219927 0.560388
312.262177 -516.292114 2.994223 0.577111
312.261993 -516.290100 2.770833 0.634806
312.261810 -516.288147 2.549250 0.545480
312.261658 -516.286194 2.328983 0.532784
312.261475 -516.284302 2.109551 0.523720
312.261292 -516.282349 1.890481 0.631388
312.261139 -516.280396 1.671304 0.570626
312.260956 -516.278442 1.451549 0.525048
312.260773 -516.276489 1.230742 0.624704
312.260590 -516.274475 1.008397 0.606302
312.260406 -516.272522 0.784018 0.530343
312.260254 -516.270447 0.557086 0.532418
312.260071 -516.268433 0.327063 0.623880
312.197754 -516.079529 3.624469 0.511193
312.197601 -516.077637 3.400262 0.583749
312.197449 -516.075745 3.179335 0.558053
312.197266 -516.073853 2.961150 0.502586
312.197144 -516.072021 2.745198 0.512215
312.196991 -516.070190 2.530990 0.544244
312.196838 -516.068359 2.318048 0.501884
312.196686 -516.066589 2.105911 0.494209
312.196533 -516.064758 1.894119 0.560479
312.196381 -516.062927 1.682220 0.605631
312.196228 -516.061096 1.469757 0.512261
312.196075 -516.059265 1.256272 0.558434
312.195923 -516.057434 1.041298 0.503655
312.195770 -516.055542 0.824351 0.550866
312.195618 -516.053650 0.604932 0.581231
312.195465 -516.051758 0.382521 0.543099
312.136963 -515.875000 3.572199 0.584192
312.136841 -515.873230 3.355220 0.574350
312.136688 -515.871460 3.141409 0.575235
312.136566 -515.869690 2.930250 0.620371
312.136444 -515.867981 2.721248 0.673030
312.136322 -515.866272 2.513928 0.548058
312.136169 -515.864563 2.307832 0.534890
312.136047 -515.862854 2.102509 0.498360
312.135925 -515.861145 1.897518 0.622141
312.135803 -515.859436 1.692419 0.603494
312.135681 -515.857727 1.486772 0.597864
312.135529 -515.856018 1.280130 0.626261
312.135406 -515.854309 1.072042 0.618509
312.135284 -515.852539 0.862042 0.674876
312.135132 -515.850769 0.649645 0.580270
312.135010 -515.848938 0.434347 0.609461
312.079987 -515.683228 3.523260 0.587762
312.079865 -515.681519 3.313047 0.521981
312.079742 -515.679871 3.105900 0.532403
312.079620 -515.678223 2.901317 0.610849
312.079529 -515.676636 2.698822 0.598001
312.079407 -515.674988 2.497952 0.631830
312.079315 -515.673401 2.298265 0.576959
312.079193 -515.671814 2.099325 0.633936
312.079071 -515.670227 1.900702 0.607767
312.078979 -515.668579 1.701971 0.564324
312.078857 -515.666992 1.502704 0.573800
312.078766 -515.665405 1.302472 0.503975
312.078644 -515.663757 1.100833 0.562249
312.078522 -515.662109 0.897339 0.611643
312.078430 -515.660461 0.691519 0.603372
312.078308 -515.658752 0.482883 0.536324
312.026428 -515.502991 3.477347 0.617288
312.026337 -515.501404 3.273480 0.604669
312.026215 -515.499878 3.072584 0.629877
312.026123 -515.498291 2.874172 0.572976
312.026031 -515.496765 2.677780 0.564004
312.025940 -515.495239 2.482963 0.548287
312.025848 -515.493774 2.289289 0.602670
312.025757 -515.492249 2.096336 0.581781
312.025665 -515.490723 1.903688 0.504204
312.025574 -515.489258 1.710933 0.562341
312.025482 -515.487732 1.517655 0.539269
312.025391 -515.486206 1.323437 0.570748
312.025299 -515.484680 1.127851 0.543740
312.025208 -515.483154 0.930461 0.530388
312.025116 -515.481567 0.730813 0.577737
312.025024 -515.479980 0.528431 0.589532
311.975983 -515.333313 3.434188 0.592233
311.975922 -515.331848 3.236287 0.587411
311.975830 -515.330383 3.041266 0.554955
311.975769 -515.328918 2.848654 0.577371
311.975677 -515.327454 2.658000 0.549218
311.975586 -515.326050 2.468872 0.495705
311.975525 -515.324585 2.280851 0.603342
311.975433 -515.323181 2.093527 0.628244
311.975372 -515.321777 1.906496 0.563561
311.975281 -515.320374 1.719358 0.541573
311.975220 -515.318909 1.531710 0.507805
311.975128 -515.317505 1.343147 0.578180
311.975067 -515.316101 1.153253 0.618479
311.974976 -515.314636 0.961603 0.592477
311.974915 -515.313171 0.767758 0.602197
311.974823 -515.311646 0.571256 0.564614
311.928436 -515.173279 3.393545 0.513024
311.928375 -515.171875 3.201262 0.645960
311.928314 -515.170471 3.011773 0.726818
311.928223 -515.169128 2.824622 0.627344
311.928162 -515.167725 2.639372 0.671885
311.928101 -515.166382 2.455601 0.526894
311.928040 -515.165039 2.272904 0.658320
311.927979 -515.163696 2.090881 0.744930
311.927917 -515.162354 1.909141 0.591302
311.927856 -515.161011 1.727293 0.658991
311.927795 -515.159668 1.544949 0.528313
311.927734 -515.158325 1.361711 0.629587
311.927673 -515.156982 1.177179 0.682933
311.927612 -515.155579 0.990937 0.575341
311.927521 -515.154236 0.802557 0.648463
