# This PCD file was generated using the MATLAB® pcwrite function
# from Computer Vision Toolbox®.
# .PCD v.7 - Point Cloud Data file format
VERSION .7
FIELDS x y z intensity
SIZE 4 4 4 4
TYPE F F F F
COUNT 1 1 1 1
WIDTH 1173
HEIGHT 1
VIEWPOINT 0 0 0 1 0 0 0
POINTS 1173
DATA ascii
112.441574 -312.488129 0.000007 0.201024
113.946304 -311.631439 0.000007 0.187524
115.054924 -311.000275 0.000007 0.244252
92.623764 -323.500397 10.432177 0.712520
92.626411 -323.498932 9.269886 0.474250
92.629013 -323.497467 8.124121 0.773739
92.631561 -323.496033 6.992132 0.754742
92.634079 -323.494629 5.871272 0.646189
92.636581 -323.493225 4.759015 0.675258
92.639084 -323.491821 3.652900 0.760235
92.641594 -323.490417 2.550526 0.769375
92.644073 -323.489014 1.449520 0.663661
92.646561 -323.487640 0.347519 1.000000
100.712921 -318.969543 0.000009 0.233996
106.825790 -315.545654 0.000009 0.220077
110.230331 -313.638702 0.000008 0.249901
112.403847 -312.421295 0.000008 0.258231
113.914520 -311.575165 0.000007 0.205452
115.027512 -310.951752 0.000007 0.204830
92.517113 -323.290833 10.430039 0.690211
92.519753 -323.289398 9.268046 0.735653
92.522362 -323.287964 8.122572 0.746212
92.524933 -323.286530 6.990863 0.742657
92.527466 -323.285126 5.870290 0.751766
92.529976 -323.283752 4.758316 0.761746
92.532478 -323.282379 3.652482 0.771695
92.534981 -323.281006 2.550387 0.778225
92.537491 -323.279602 1.449659 0.780209
92.539970 -323.278259 0.347937 1.000000
100.630226 -318.820679 0.000010 0.223153
106.766846 -315.439545 0.000009 0.247567
110.184624 -313.556427 0.000008 0.246526
112.366577 -312.354218 0.000008 0.241128
113.883125 -311.518646 0.000008 0.207618
115.000443 -310.903015 0.000007 0.284129
92.410507 -323.081390 10.428315 0.666911
92.413147 -323.079956 9.266562 0.609827
92.415764 -323.078552 8.121323 0.717891
92.418335 -323.077148 6.989846 0.721965
92.420906 -323.075745 5.869497 0.727718
92.423439 -323.074371 4.757749 0.733333
92.425949 -323.073029 3.652143 0.739055
92.428444 -323.071655 2.550274 0.743282
92.430954 -323.070313 1.449772 0.746899
92.433441 -323.068970 0.348275 1.000000
100.548584 -318.671265 0.000010 0.240781
106.708656 -315.333038 0.000010 0.223129
110.139496 -313.473816 0.000009 0.209126
112.329788 -312.286865 0.000009 0.212142
113.852127 -311.461914 0.000008 0.226097
114.973717 -310.854095 0.000008 0.216714
92.303932 -322.872009 10.427001 0.714855
92.306587 -322.870575 9.265429 0.687190
92.309204 -322.869202 8.120368 0.680400
92.311790 -322.867828 6.989068 0.684153
92.314354 -322.866455 5.868896 0.692561
92.316895 -322.865082 4.757319 0.700755
92.319443 -322.863739 3.651886 0.708965
92.321953 -322.862396 2.550188 0.716136
92.324463 -322.861053 1.449858 0.723552
92.326950 -322.859741 0.348532 1.000000
100.467979 -318.521271 0.000011 0.225271
106.651199 -315.226135 0.000010 0.218485
110.094940 -313.390900 0.000010 0.251241
112.293465 -312.219299 0.000009 0.206972
113.821526 -311.404968 0.000008 0.241176
114.947334 -310.804993 0.000008 0.246203
92.197388 -322.662659 10.426099 0.785321
92.200050 -322.661285 9.264650 0.777996
92.202675 -322.659912 8.119713 0.721920
92.205269 -322.658539 6.988535 0.722210
92.207840 -322.657196 5.868483 0.729183
92.210396 -322.655853 4.757026 0.729366
92.212929 -322.654541 3.651709 0.729320
92.215462 -322.653198 2.550131 0.725155
92.218002 -322.651855 1.449917 0.720851
92.220482 -322.650574 0.348709 1.000000
100.388428 -318.370697 0.000012 0.221776
106.594505 -315.118805 0.000011 0.235348
110.050964 -313.307678 0.000010 0.217803
112.257614 -312.151428 0.000010 0.193269
113.791321 -311.347809 0.000009 0.187393
114.921288 -310.755707 0.000009 0.229424
92.090866 -322.453369 10.425609 0.723766
92.093521 -322.451996 9.264231 0.510353
92.096146 -322.450653 8.119361 0.801480
92.098763 -322.449310 6.988246 0.766690
92.101349 -322.447968 5.868258 0.558358
92.103920 -322.446655 4.756865 0.589883
92.106468 -322.445343 3.651613 0.749569
92.108994 -322.444031 2.550097 0.424018
92.111534 -322.442719 1.449949 0.539071
92.114029 -322.441437 0.348805 1.000000
100.309921 -318.219604 0.000012 0.221118
106.538551 -315.011108 0.000011 0.230465
110.007568 -313.224152 0.000011 0.227150
112.222244 -312.083344 0.000010 0.200569
113.761520 -311.290436 0.000009 0.215003
114.895592 -310.706238 0.000009 0.210036
91.984337 -322.244110 10.425529 0.697597
91.987015 -322.242737 9.264160 0.314839
91.989639 -322.241425 8.119303 0.744167
91.992249 -322.240082 6.988201 0.741817
91.994858 -322.238770 5.868221 0.242451
91.997437 -322.237457 4.756839 0.627909
92.000000 -322.236176 3.651597 0.751263
92.002541 -322.234894 2.550092 0.338262
92.005074 -322.233612 1.449954 0.219654
92.007591 -322.232330 0.348821 1.000000
100.232475 -318.067932 0.000012 0.225893
106.483353 -314.903015 0.000012 0.224936
109.964760 -313.140320 0.000011 0.202616
112.187340 -312.015015 0.000011 0.244874
113.732117 -311.232849 0.000010 0.199899
114.870239 -310.656616 0.000010 0.212477
91.877792 -322.034821 10.425861 0.635645
91.880486 -322.033478 9.264450 0.193576
91.883133 -322.032166 8.119544 0.728466
91.885742 -322.030853 6.988398 0.727398
91.888351 -322.029572 5.868376 0.214038
91.890945 -322.028290 4.756948 0.592355
91.893524 -322.027008 3.651661 0.746731
91.896080 -322.025726 2.550114 0.357763
91.898613 -322.024475 1.449933 0.323400
91.901146 -322.023193 0.348756 1.000000
100.156097 -317.915741 0.000013 0.233804
106.428909 -314.794556 0.000012 0.225893
109.922539 -313.056213 0.000012 0.231482
112.152924 -311.946411 0.000011 0.226025
113.703125 -311.175079 0.000011 0.193221
114.845238 -310.606781 0.000010 0.241667
91.771233 -321.825531 10.426611 0.712703
91.773949 -321.824188 9.265091 0.728771
91.776619 -321.822906 8.120081 0.680079
91.779236 -321.821625 6.988838 0.676143
91.781845 -321.820343 5.868717 0.676646
91.784439 -321.819061 4.757193 0.697353
91.787025 -321.817810 3.651808 0.699413
91.789597 -321.816559 2.550163 0.701366
91.792152 -321.815308 1.449883 0.703716
91.794685 -321.814056 0.348610 1.000000
100.080772 -317.763031 0.000013 0.219132
106.375229 -314.685699 0.000013 0.213375
109.880905 -312.971771 0.000012 0.227006
112.118980 -311.877594 0.000012 0.232009
113.674530 -311.117096 0.000011 0.241906
114.820580 -310.556793 0.000010 0.206960
91.664673 -321.616150 10.427763 0.788449
91.667389 -321.614868 9.266083 0.780880
91.670059 -321.613586 8.120923 0.743877
91.672691 -321.612305 6.989521 0.716014
91.675308 -321.611053 5.869248 0.729000
91.677902 -321.609802 4.757571 0.734615
91.680496 -321.608551 3.652035 0.735180
91.683060 -321.607330 2.550238 0.735744
91.685638 -321.606079 1.449808 0.736568
91.688210 -321.604858 0.348384 1.000000
100.006523 -317.609772 0.000014 0.221908
106.322304 -314.576477 0.000013 0.228718
109.839859 -312.887085 0.000013 0.245162
112.085518 -311.808533 0.000012 0.254006
113.646339 -311.058929 0.000011 0.230812
114.796280 -310.506622 0.000011 0.196129
91.558060 -321.406738 10.429330 0.208438
91.560791 -321.405457 9.267435 0.206653
91.563461 -321.404205 8.122060 0.214603
91.566116 -321.402954 6.990448 0.197467
91.568756 -321.401703 5.869965 0.204669
91.571350 -321.400482 4.758082 0.209491
91.573952 -321.399231 3.652342 0.205951
91.576538 -321.398010 2.550340 0.209094
91.579124 -321.396790 1.449706 0.206134
91.581711 -321.395599 0.348079 0.212696
99.933350 -317.456024 0.000015 0.225235
106.270142 -314.466888 0.000014 0.243869
109.799408 -312.802094 0.000013 0.227377
112.052544 -311.739258 0.000012 0.207044
113.618561 -311.000549 0.000012 0.216726
114.772324 -310.456299 0.000012 0.315904
91.451393 -321.197235 10.431314 0.724880
91.454140 -321.195984 9.269142 0.695277
91.456833 -321.194733 8.123498 0.762493
91.459496 -321.193481 6.991619 0.759167
91.462135 -321.192261 5.870874 0.765362
91.464752 -321.191040 4.758729 0.763897
91.467346 -321.189850 3.652730 0.749859
91.469940 -321.188660 2.550470 0.751476
91.472534 -321.187439 1.449577 0.752926
91.475136 -321.186249 0.347691 1.000000
99.861237 -317.301758 0.000015 0.240003
106.218750 -314.356934 0.000014 0.258039
109.759552 -312.716827 0.000014 0.211520
112.020050 -311.669739 0.000013 0.209677
113.591179 -310.941986 0.000013 0.201754
114.748718 -310.405792 0.000012 0.220771
91.344704 -320.987610 10.433698 0.622232
91.347458 -320.986359 9.271200 0.611139
91.350174 -320.985138 8.125228 0.737743
91.352829 -320.983917 6.993030 0.739223
91.355453 -320.982727 5.871971 0.724361
91.358063 -320.981537 4.759514 0.562219
91.360680 -320.980347 3.653200 0.766125
91.363312 -320.979156 2.550625 0.757153
91.365921 -320.977966 1.449421 0.691066
91.368515 -320.976776 0.347222 1.000000
99.790215 -317.147003 0.000015 0.227174
106.168121 -314.246613 0.000014 0.213339
109.720291 -312.631256 0.000014 0.257776
111.988045 -311.600006 0.000013 0.203322
113.564217 -310.883240 0.000013 0.210503
114.725471 -310.355133 0.000012 0.264753
91.237930 -320.777863 10.436501 0.728969
91.240692 -320.776642 9.273618 0.538247
91.243423 -320.775421 8.127262 0.696498
91.246094 -320.774231 6.994689 0.682445
91.248726 -320.773041 5.873257 0.497704
91.251350 -320.771881 4.760430 0.631388
91.253983 -320.770691 3.653748 0.709590
91.256607 -320.769531 2.550808 0.387289
91.259232 -320.768372 1.449239 0.426657
91.261833 -320.767212 0.346674 1.000000
99.720268 -316.991730 0.000016 0.236988
106.118271 -314.135956 0.000015 0.251576
109.681625 -312.545441 0.000015 0.230633
111.956520 -311.530029 0.000014 0.196034
113.537659 -310.824280 0.000013 0.237430
114.702576 -310.304321 0.000013 0.214201
91.131073 -320.567963 10.439719 0.719707
91.133858 -320.566772 9.276390 0.251896
91.136589 -320.565552 8.129598 0.691722
91.139282 -320.564392 6.996593 0.656535
91.141922 -320.563232 5.874733 0.197803
91.144554 -320.562073 4.761482 0.641932
91.147209 -320.560913 3.654378 0.706111
91.149849 -320.559753 2.551018 0.366735
91.152451 -320.558624 1.449028 0.239704
91.155083 -320.557465 0.346045 1.000000
99.651413 -316.835999 0.000016 0.220101
106.069199 -314.024963 0.000016 0.211496
109.643570 -312.459351 0.000015 0.205787
111.925491 -311.459839 0.000014 0.196093
113.511520 -310.765167 0.000014 0.236258
114.680031 -310.253326 0.000013 0.205859
91.024132 -320.357910 10.443351 0.681910
91.026932 -320.356720 9.279518 0.510689
91.029663 -320.355530 8.132236 0.769436
91.032364 -320.354370 6.998742 0.762783
91.035034 -320.353210 5.876399 0.533852
91.037674 -320.352081 4.762669 0.605966
91.040344 -320.350952 3.655088 0.743282
91.042984 -320.349792 2.551255 0.507073
91.045593 -320.348694 1.448792 0.498436
91.048233 -320.347565 0.345333 1.000000
99.583641 -316.679779 0.000017 0.235827
106.020897 -313.913605 0.000016 0.239920
109.606102 -312.373016 0.000015 0.211101
111.894951 -311.389465 0.000015 0.227617
113.485794 -310.705841 0.000014 0.184293
114.657852 -310.202209 0.000014 0.270928
90.917091 -320.147644 10.447396 0.729885
90.919907 -320.146454 9.283005 0.704845
90.922646 -320.145325 8.135174 0.728542
90.925362 -320.144165 7.001138 0.765316
90.928047 -320.143036 5.878255 0.768124
90.930710 -320.141907 4.763990 0.763943
90.933357 -320.140808 3.655882 0.769467
90.936028 -320.139679 2.551518 0.748028
90.938644 -320.138580 1.448527 0.756100
90.941292 -320.137451 0.344541 1.000000
99.516968 -316.523102 0.000017 0.219347
105.973366 -313.801941 0.000016 0.218258
109.569244 -312.286377 0.000016 0.224433
111.864906 -311.318848 0.000015 0.206841
113.460480 -310.646362 0.000015 0.223500
114.636024 -310.150909 0.000014 0.269085
90.809952 -319.937195 10.451858 0.623224
90.812775 -319.936005 9.286850 0.692195
90.815536 -319.934875 8.138412 0.701915
90.818253 -319.933746 7.003778 0.706218
90.820938 -319.932648 5.880303 0.719265
90.823624 -319.931519 4.765450 0.719341
90.826271 -319.930450 3.656757 0.727382
90.828934 -319.929352 2.551811 0.714336
90.831581 -319.928253 1.448236 0.722515
90.834236 -319.927155 0.343667 1.000000
99.451385 -316.365936 0.000018 0.231075
105.926628 -313.689911 0.000017 0.230764
109.532997 -312.199524 0.000016 0.210503
111.835358 -311.248016 0.000016 0.194621
113.435577 -310.586700 0.000015 0.230286
114.614555 -310.099457 0.000015 0.223955
90.702682 -319.726471 10.456739 0.734981
90.705528 -319.725342 9.291058 0.701305
90.708298 -319.724213 8.141954 0.711330
90.711021 -319.723114 7.006665 0.715145
90.713737 -319.722015 5.882540 0.736019
90.716415 -319.720917 4.767044 0.733272
90.719086 -319.719849 3.657712 0.741238
90.721733 -319.718750 2.552129 0.730114
90.724403 -319.717682 1.447918 0.739361
90.727066 -319.716614 0.342711 1.000000
99.386909 -316.208344 0.000019 0.234067
105.880669 -313.577606 0.000018 0.237514
109.497353 -312.112396 0.000017 0.240877
111.806297 -311.177002 0.000016 0.274327
113.411102 -310.526886 0.000016 0.212358
114.593445 -310.047882 0.000015 0.233266
90.595291 -319.515533 10.462035 0.705165
90.598145 -319.514404 9.295625 0.744167
90.600937 -319.513275 8.145800 0.745846
90.603683 -319.512207 7.009799 0.680125
90.606400 -319.511108 5.884972 0.686946
90.609085 -319.510040 4.768777 0.711849
90.611771 -319.508972 3.658749 0.729152
90.614441 -319.507935 2.552474 0.724834
90.617096 -319.506866 1.447572 0.727047
90.619781 -319.505798 0.341674 1.000000
99.323532 -316.050293 0.000020 0.222542
105.835495 -313.464935 0.000018 0.245078
109.462318 -312.025055 0.000018 0.198068
111.777740 -311.105774 0.000017 0.245820
113.387039 -310.466858 0.000016 0.218569
114.572701 -309.996155 0.000016 0.242864
90.487755 -319.304291 10.467754 0.687327
90.490608 -319.303192 9.300557 0.514199
90.493393 -319.302094 8.149960 0.759091
90.496170 -319.301025 7.013184 0.749371
90.498917 -319.299957 5.887595 0.486427
90.501625 -319.298889 4.770646 0.576715
90.504303 -319.297852 3.659868 0.732189
90.506981 -319.296814 2.552848 0.444068
90.509651 -319.295776 1.447199 0.513252
90.512344 -319.294739 0.340555 1.000000
99.261253 -315.891815 0.000020 0.226803
105.791107 -313.351990 0.000019 0.224732
109.427895 -311.937439 0.000018 0.208815
111.749672 -311.034363 0.000017 0.252725
113.363396 -310.406708 0.000016 0.235863
114.552315 -309.944275 0.000016 0.233864
90.380074 -319.092773 10.473893 0.722545
90.382942 -319.091675 9.305847 0.303807
90.385735 -319.090607 8.154415 0.715740
90.388519 -319.089569 7.016818 0.718761
90.391266 -319.088501 5.890412 0.261387
90.393982 -319.087463 4.772655 0.653696
90.396683 -319.086456 3.661072 0.756191
90.399368 -319.085419 2.553248 0.340978
90.402039 -319.084412 1.446799 0.242878
90.404755 -319.083374 0.339352 1.000000
99.200089 -315.732880 0.000021 0.217815
105.747513 -313.238708 0.000020 0.218593
109.394081 -311.849579 0.000018 0.217983
111.722107 -310.962769 0.000018 0.238807
113.340172 -310.346375 0.000017 0.213997
114.532288 -309.892242 0.000016 0.202353
90.272217 -318.880920 10.480457 0.667506
90.275116 -318.879852 9.311504 0.195407
90.277916 -318.878815 8.159180 0.678721
90.280701 -318.877777 7.020702 0.690837
90.283463 -318.876740 5.893425 0.196307
90.286179 -318.875732 4.774802 0.636652
90.288895 -318.874725 3.662358 0.695598
90.291588 -318.873718 2.553677 0.363851
90.294273 -318.872711 1.446370 0.252811
90.297005 -318.871674 0.338067 1.000000
99.140030 -315.573547 0.000021 0.228478
105.704704 -313.125153 0.000020 0.260241
109.360886 -311.761505 0.000019 0.235384
111.695045 -310.890961 0.000018 0.246095
113.317375 -310.285889 0.000018 0.208109
114.512634 -309.840088 0.000017 0.242900
90.164200 -318.668762 10.487443 0.695216
90.167084 -318.667694 9.317528 0.736812
90.169930 -318.666656 8.164251 0.684398
90.172729 -318.665649 7.024836 0.657694
90.175491 -318.664642 5.896630 0.715251
90.178215 -318.663635 4.777087 0.600992
90.180931 -318.662659 3.663727 0.706828
90.183640 -318.661652 2.554132 0.715328
90.186325 -318.660675 1.445914 0.704829
90.189095 -318.659668 0.336699 1.000000
99.081085 -315.413788 0.000022 0.227126
105.662689 -313.011261 0.000020 0.217300
109.328300 -311.673218 0.000019 0.287265
111.668480 -310.818970 0.000019 0.205105
113.294998 -310.225220 0.000018 0.191510
114.493332 -309.787781 0.000017 0.191833
90.055992 -318.456207 10.494854 0.731563
90.058884 -318.455170 9.323923 0.712673
90.061714 -318.454163 8.169640 0.748043
90.064545 -318.453156 7.029224 0.714122
90.067322 -318.452179 5.900035 0.682185
90.070076 -318.451172 4.779510 0.695598
90.072800 -318.450195 3.665179 0.740917
90.075516 -318.449249 2.554616 0.746029
90.078232 -318.448273 1.445431 0.737011
90.080986 -318.447296 0.335247 1.000000
99.023254 -315.253632 0.000022 0.225127
105.621475 -312.897125 0.000021 0.240039
109.296341 -311.584656 0.000020 0.220903
111.642426 -310.746796 0.000019 0.214141
113.273041 -310.164429 0.000019 0.239046
114.474411 -309.735352 0.000018 0.238328
89.947586 -318.243286 10.502695 0.767361
89.950500 -318.242279 9.330680 0.756130
89.953354 -318.241272 8.175331 0.752392
89.956146 -318.240295 7.033869 0.773968
89.958939 -318.239319 5.903635 0.782315
89.961731 -318.238342 4.782074 0.781109
89.964485 -318.237396 3.666715 0.780087
89.967209 -318.236450 2.555128 0.779126
89.969940 -318.235474 1.444920 0.744823
89.972694 -318.234528 0.333712 1.000000
98.966553 -315.093048 0.000022 0.226659
105.581055 -312.782684 0.000021 0.230166
109.264992 -311.495911 0.000021 0.238938
111.616867 -310.674438 0.000020 0.214237
113.251511 -310.103455 0.000019 0.256328
114.455841 -309.682800 0.000018 0.283112
89.838982 -318.029968 10.510966 0.710292
89.841919 -318.028961 9.337806 0.720241
89.844772 -318.027985 8.181335 0.744488
89.847595 -318.027039 7.038761 0.720333
89.850388 -318.026062 5.907431 0.708782
89.853149 -318.025116 4.784783 0.731380
89.855927 -318.024170 3.668336 0.746365
89.858704 -318.023224 2.555667 0.759915
89.861435 -318.022308 1.444380 0.768780
89.864197 -318.021362 0.332092 1.000000
98.910965 -314.932098 0.000023 0.245186
105.541443 -312.667969 0.000022 0.259846
109.234268 -311.406952 0.000021 0.222566
111.591820 -310.601898 0.000020 0.202891
113.230408 -310.042358 0.000020 0.226707
114.437653 -309.630127 0.000019 0.220017
89.730148 -317.816223 10.519669 0.702327
89.733116 -317.815247 9.345305 0.677363
89.735977 -317.814270 8.187653 0.648203
89.738815 -317.813324 7.043911 0.670512
89.741623 -317.812378 5.911423 0.706020
89.744400 -317.811462 4.787627 0.701320
89.747169 -317.810547 3.670042 0.702174
89.749924 -317.809631 2.556236 0.675715
89.752701 -317.808685 1.443813 0.619181
89.755478 -317.807770 0.330389 1.000000
98.856506 -314.770752 0.000023 0.231961
105.502625 -312.552948 0.000022 0.213088
109.204163 -311.317749 0.000021 0.220412
111.567276 -310.529205 0.000020 0.212286
113.209732 -309.981110 0.000020 0.215984
114.419823 -309.577301 0.000019 0.198714
89.621094 -317.602020 10.528806 0.708812
89.624062 -317.601044 9.353184 0.558892
89.626923 -317.600128 8.194292 0.758358
89.629791 -317.599182 7.049321 0.733364
89.632607 -317.598267 5.915618 0.538521
89.635391 -317.597351 4.790617 0.613184
89.638184 -317.596436 3.671832 0.716106
89.640961 -317.595551 2.556832 0.413535
89.643745 -317.594635 1.443216 0.475822
89.646530 -317.593719 0.328599 1.000000
98.803177 -314.609039 0.000024 0.242194
105.464615 -312.437683 0.000023 0.215362
109.174683 -311.228363 0.000022 0.211317
111.543243 -310.456329 0.000021 0.230226
113.189484 -309.919708 0.000020 0.206900
114.402359 -309.524353 0.000019 0.216427
90.802200 -316.976685 10.199175 0.735103
90.824539 -316.969574 9.064575 0.730877
90.846352 -316.962616 7.947530 0.726528
90.867798 -316.955811 6.845262 0.721630
90.889313 -316.948944 5.755105 0.543954
90.910736 -316.942139 4.674609 0.526940
90.931664 -316.935486 3.601392 0.720043
90.952324 -316.928894 2.533062 0.722957
90.973091 -316.922302 1.467296 0.459052
90.994125 -316.915588 0.401828 0.727993
98.750977 -314.446960 0.000024 0.238148
105.427406 -312.322174 0.000023 0.219012
109.145828 -311.138763 0.000023 0.261426
111.519722 -310.383270 0.000022 0.292327
113.169670 -309.858185 0.000021 0.263329
114.385277 -309.471313 0.000020 0.248249
92.313370 -316.268066 9.784834 0.719539
92.333504 -316.261810 8.707825 0.506935
92.353317 -316.255646 7.647367 0.724804
92.372910 -316.249573 6.600856 0.729152
92.392273 -316.243561 5.565823 0.732830
92.411469 -316.237579 4.539893 0.736141
92.430511 -316.231689 3.520777 0.739528
92.449409 -316.225800 2.506239 0.743725
92.468323 -316.219940 1.494084 0.746654
92.487045 -316.214111 0.482131 0.749676
98.699905 -314.284515 0.000025 0.226623
105.391006 -312.206390 0.000024 0.237981
109.117599 -311.048981 0.000023 0.236497
111.496712 -310.310059 0.000022 0.222590
113.150284 -309.796509 0.000022 0.216020
114.368561 -309.418121 0.000021 0.212322
93.679222 -315.627563 9.410697 0.746944
93.697472 -315.622040 8.385664 0.745266
93.715431 -315.616608 7.376317 0.742306
93.733253 -315.611206 6.380169 0.740261
93.750870 -315.605865 5.394886 0.737697
93.768326 -315.600586 4.418210 0.736339
93.785484 -315.595367 3.447971 0.740429
93.802521 -315.590210 2.482021 0.745846
93.819756 -315.584991 1.518274 0.750072
93.837311 -315.579681 0.554689 0.752605
98.649971 -314.121704 0.000025 0.237394
105.355415 -312.090363 0.000024 0.236150
109.089996 -310.958984 0.000024 0.215050
111.474213 -310.236694 0.000023 0.230393
113.131325 -309.734711 0.000021 0.186304
114.352211 -309.364838 0.000021 0.258865
94.919983 -315.045776 9.071171 0.734066
94.936729 -315.040833 8.093260 0.742458
94.953194 -315.035950 7.130267 0.748363
94.969421 -315.031158 6.179832 0.748150
94.985527 -315.026398 5.239703 0.577844
95.001465 -315.021698 4.307737 0.729671
95.017273 -315.017029 3.381851 0.725734
95.058754 -315.004791 2.459581 0.722133
95.059250 -315.004639 1.540428 0.694102
95.059738 -315.004486 0.620323 0.662730
98.601181 -313.958588 0.000026 0.223105
105.320641 -311.974060 0.000025 0.228263
109.063026 -310.868805 0.000024 0.222722
111.452217 -310.163177 0.000023 0.202903
113.112801 -309.672760 0.000022 0.233553
114.336235 -309.311432 0.000021 0.199720
96.052139 -314.514893 8.761694 0.547753
96.067451 -314.510498 7.826747 0.716609
96.082520 -314.506165 6.906007 0.723354
96.097328 -314.501892 5.997236 0.514122
96.111908 -314.497711 5.098278 0.418204
96.126465 -314.493500 4.207057 0.720394
96.140732 -314.489410 3.321610 0.703822
95.618698 -314.639618 2.449112 0.597299
95.633469 -314.635376 1.551140 0.669413
95.648125 -314.631165 0.653206 0.647303
98.553520 -313.795105 0.000027 0.219323
105.286667 -311.857544 0.000025 0.220185
109.036682 -310.778442 0.000024 0.212705
111.430740 -310.089508 0.000023 0.215709
113.094711 -309.610687 0.000023 0.224397
114.320633 -309.257935 0.000021 0.207726
97.089203 -314.028595 8.478525 0.525414
97.103180 -314.024658 7.582894 0.739925
97.117043 -314.020782 6.700803 0.740505
97.130676 -314.016968 5.830132 0.463447
97.144066 -314.013214 4.968827 0.416098
97.157478 -314.009460 4.114891 0.747875
97.170753 -314.005737 3.266442 0.747967
97.184021 -314.002014 2.421621 0.500130
97.197441 -313.998260 1.578608 0.323705
97.210403 -313.994629 0.735580 0.751278
98.507011 -313.631287 0.000027 0.224326
105.253517 -311.740814 0.000026 0.214883
109.010971 -310.687897 0.000025 0.233828
111.409782 -310.015717 0.000023 0.209629
113.077049 -309.548523 0.000023 0.210024
114.305412 -309.204315 0.000022 0.275404
98.043007 -313.581329 8.218393 0.584283
98.056030 -313.577759 7.358819 0.729931
98.068871 -313.574280 6.512223 0.722057
98.081512 -313.570831 5.676553 0.598627
98.093987 -313.567413 4.849833 0.553109
98.106346 -313.564056 4.030169 0.733166
98.118507 -313.560730 3.215739 0.718578
98.130615 -313.557434 2.404752 0.528359
98.142784 -313.554108 1.595455 0.472374
98.154999 -313.550781 0.786118 0.741665
98.461639 -313.467163 0.000027 0.223165
105.221191 -311.623810 0.000026 0.262180
108.985893 -310.597168 0.000025 0.235180
111.389343 -309.941742 0.000025 0.261342
113.059822 -309.486206 0.000023 0.266644
114.290558 -309.150574 0.000023 0.235504
98.923264 -313.168549 7.978611 0.729702
98.935333 -313.165375 7.152288 0.733059
98.947159 -313.162231 6.338425 0.720211
98.958809 -313.159149 5.535022 0.713283
98.970345 -313.156067 4.740184 0.734234
98.981781 -313.153046 3.952097 0.752850
98.993149 -313.150024 3.169005 0.733074
99.004471 -313.147034 2.389199 0.722316
99.015762 -313.144043 1.610993 0.746090
99.027061 -313.141022 0.832717 0.766094
99.038208 -313.138092 0.052689 1.000000
105.189667 -311.506622 0.000026 0.217504
108.961449 -310.506287 0.000026 0.204674
111.369415 -309.867645 0.000025 0.256160
113.043037 -309.423767 0.000024 0.242409
114.276085 -309.096741 0.000023 0.242720
99.738029 -312.786469 7.756950 0.718456
99.749191 -312.783600 6.961370 0.748135
99.760178 -312.780762 6.177742 0.759808
99.771027 -312.777985 5.404156 0.735775
99.781754 -312.775208 4.638790 0.729229
99.792389 -312.772461 3.879897 0.753429
99.802971 -312.769745 3.125789 0.747372
88.648056 -315.644989 2.563500 0.353964
99.823921 -312.764343 1.625359 0.256092
99.834442 -312.761627 0.875807 0.256046
99.844971 -312.758911 0.124554 0.252247
105.158966 -311.389191 0.000027 0.242349
108.937637 -310.415192 0.000027 0.221262
111.349998 -309.793396 0.000025 0.235037
113.026680 -309.361237 0.000024 0.239501
114.261986 -309.042816 0.000023 0.223775
100.494812 -312.431641 7.551335 0.743328
100.505142 -312.429047 6.784270 0.745052
100.515396 -312.426483 6.028683 0.488121
100.525467 -312.423950 5.282760 0.429953
100.535484 -312.421448 4.544729 0.619410
100.545441 -312.418945 3.812915 0.754742
100.555336 -312.416473 3.085692 0.745815
100.565186 -312.414001 2.361472 0.629099
100.574860 -312.411591 1.638690 0.608225
100.584534 -312.409180 0.915786 0.621332
100.594582 -312.406647 0.191238 1.000000
105.129089 -311.271545 0.000028 0.222818
108.914467 -310.323975 0.000027 0.202700
111.331108 -309.719025 0.000026 0.242289
113.010765 -309.298553 0.000025 0.229915
114.248260 -308.988800 0.000024 0.201275
101.199303 -312.101288 7.360188 0.748730
101.208969 -312.098938 6.619607 0.749310
101.218521 -312.096619 5.890094 0.600168
101.227951 -312.094330 5.169878 0.587655
101.237297 -312.092041 4.457266 0.748196
101.246536 -312.089813 3.750638 0.757412
101.255737 -312.087555 3.048415 0.745007
101.264877 -312.085358 2.349068 0.459266
101.273956 -312.083130 1.651085 0.492500
101.283089 -312.080933 0.952967 0.557916
101.292572 -312.078613 0.253246 1.000000
105.100029 -311.153717 0.000028 0.263796
108.891930 -310.232574 0.000027 0.235288
111.312737 -309.644531 0.000026 0.222901
112.995293 -309.235809 0.000025 0.250810
114.234924 -308.934662 0.000025 0.256878
101.856903 -311.792908 7.182014 0.744671
101.865990 -311.790771 6.466114 0.744152
101.874847 -311.788696 5.760912 0.752255
101.883606 -311.786621 5.064672 0.745892
101.892303 -311.784576 4.375751 0.743786
101.900986 -311.782532 3.692586 0.756191
101.909615 -311.780487 3.013664 0.748028
101.918205 -311.778473 2.337502 0.752392
101.926758 -311.776459 1.662642 0.754711
101.935303 -311.774445 0.987633 0.752834
101.944206 -311.772339 0.311054 1.000000
105.071793 -311.035675 0.000028 0.209150
108.870033 -310.141052 0.000028 0.228060
111.294884 -309.569885 0.000027 0.234259
112.980255 -309.172913 0.000026 0.271994
114.221954 -308.880463 0.000025 0.235468
102.472183 -311.504364 7.015554 0.748806
102.480698 -311.502441 6.322713 0.754910
102.489197 -311.500488 5.640172 0.245731
102.497528 -311.498596 4.966306 0.242634
102.505753 -311.496704 4.299524 0.753033
102.513863 -311.494873 3.638304 0.752087
102.521912 -311.493011 2.981172 0.746120
102.529884 -311.491211 2.326689 0.366751
102.537842 -311.489380 1.673444 0.239460
102.545799 -311.487579 1.020032 0.444770
102.554123 -311.485687 0.365081 1.000000
105.044388 -310.917450 0.000030 0.250511
108.848778 -310.049347 0.000028 0.207595
111.277557 -309.495148 0.000027 0.252366
112.965652 -309.109955 0.000026 0.204076
114.209366 -308.826172 0.000025 0.200976
103.049225 -311.233765 6.859673 0.735332
103.057297 -311.231995 6.188409 0.773480
103.065231 -311.230255 5.527132 0.724376
103.073067 -311.228516 4.874229 0.755535
103.080780 -311.226807 4.228177 0.737926
103.088409 -311.225128 3.587493 0.738781
103.095947 -311.223450 2.950754 0.756359
103.103531 -311.221802 2.316564 0.719768
103.111115 -311.220123 1.683562 0.752010
103.118629 -311.218445 1.050387 0.743664
103.126221 -311.216766 0.415682 0.731929
105.017807 -310.799011 0.000030 0.232129
108.828156 -309.957520 0.000028 0.275883
111.260750 -309.420258 0.000028 0.210527
112.951492 -309.046875 0.000026 0.220687
114.197151 -308.771759 0.000026 0.259020
103.591713 -310.979431 6.713360 0.701335
103.599213 -310.977844 6.062382 0.413520
103.606522 -310.976288 5.421075 0.379538
103.613770 -310.974731 4.787862 0.419913
103.621063 -310.973175 4.161244 0.708186
103.628296 -310.971619 3.539821 0.706767
103.635483 -310.970093 2.922211 0.736599
103.642624 -310.968567 2.307065 0.643397
103.649689 -310.967072 1.693054 0.576593
103.656761 -310.965546 1.078858 0.570245
103.664009 -310.963989 0.463173 0.726940
104.992050 -310.680420 0.000030 0.243319
108.808182 -309.865509 0.000029 0.230022
111.244469 -309.345276 0.000028 0.251744
112.937775 -308.983704 0.000027 0.200510
114.185326 -308.717285 0.000026 0.248955
104.102249 -310.740021 6.575885 0.729030
104.109360 -310.738556 5.943933 0.734859
104.116356 -310.737091 5.321346 0.722332
104.123268 -310.735687 4.706612 0.691081
104.130104 -310.734253 4.098287 0.710307
104.136894 -310.732880 3.494987 0.704479
104.143639 -310.731476 2.895371 0.743633
104.150360 -310.730103 2.298131 0.742351
104.157074 -310.728699 1.701981 0.733562
104.163803 -310.727325 1.105640 0.732692
104.170532 -310.725922 0.507830 0.698512
104.967117 -310.561646 0.000030 0.209844
108.788857 -309.773407 0.000029 0.245844
111.228706 -309.270172 0.000028 0.199109
112.924492 -308.920441 0.000027 0.224469
114.173874 -308.662750 0.000026 0.257572
104.583939 -310.514130 6.446393 0.744198
104.590645 -310.512787 5.832372 0.364248
104.597198 -310.511505 5.227445 0.258167
104.603699 -310.510193 4.630124 0.514977
104.610176 -310.508911 4.039011 0.750637
104.616608 -310.507629 3.452767 0.764569
104.622993 -310.506348 2.870094 0.747860
104.629349 -310.505096 2.289718 0.427070
104.635712 -310.503815 1.710388 0.408621
104.642075 -310.502563 1.130862 0.434424
104.648399 -310.501312 0.549890 0.757244
104.943024 -310.442688 0.000031 0.239537
108.770164 -309.681152 0.000030 0.230298
111.213470 -309.194977 0.000029 0.250284
112.911659 -308.857056 0.000028 0.224517
114.162811 -308.608124 0.000027 0.234797
105.039063 -310.300690 6.324256 0.747280
105.045395 -310.299469 5.727143 0.728618
105.051613 -310.298279 5.138856 0.775998
105.057869 -310.297089 4.557942 0.722789
105.064034 -310.295898 3.983068 0.762249
105.070099 -310.294739 3.412926 0.722606
105.076118 -310.293579 2.846242 0.764874
105.082123 -310.292419 2.281779 0.730770
105.088150 -310.291260 1.718321 0.762188
105.094185 -310.290131 1.154661 0.730846
105.100243 -310.288940 0.589590 0.749157
105.106461 -310.287750 0.021902 1.000000
108.752121 -309.588776 0.000030 0.236712
111.198761 -309.119659 0.000029 0.248920
112.899261 -308.793610 0.000028 0.252247
114.152122 -308.553406 0.000027 0.243857
105.470078 -310.098602 6.208794 0.727016
105.476151 -310.097473 5.627648 0.333745
105.482101 -310.096375 5.055084 0.333181
105.487968 -310.095306 4.489708 0.733074
105.493721 -310.094238 3.930200 0.748440
105.499451 -310.093201 3.375273 0.737194
105.505188 -310.092133 2.823697 0.730480
105.510864 -310.091095 2.274275 0.354086
105.516510 -310.090027 1.725819 0.247425
105.522202 -310.088989 1.177153 0.270893
105.527969 -310.087921 0.627105 0.702098
105.533859 -310.086853 0.074495 1.000000
108.734726 -309.496277 0.000031 0.218461
111.184578 -309.044250 0.000029 0.244587
112.887314 -308.730103 0.000028 0.197374
114.141823 -308.498627 0.000028 0.237586
105.878372 -309.907074 6.099615 0.733730
105.884094 -309.906067 5.533587 0.742992
105.889755 -309.905060 4.975897 0.740581
105.895378 -309.904083 4.425191 0.737087
105.900940 -309.903076 3.880187 0.745418
105.906464 -309.902100 3.339643 0.734707
105.911926 -309.901154 2.802364 0.749691
105.917358 -309.900177 2.267173 0.735363
105.922729 -309.899231 1.732916 0.751919
105.928101 -309.898285 1.198443 0.735668
105.933533 -309.897308 0.662611 0.751324
105.939117 -309.896332 0.124274 1.000000
108.717964 -309.403625 0.000031 0.253084
111.170921 -308.968750 0.000030 0.235252
112.875809 -308.666473 0.000029 0.197206
114.131897 -308.443787 0.000028 0.256603
106.266144 -309.725220 5.996119 0.738201
106.271614 -309.724304 5.444406 0.711101
106.277000 -309.723389 4.900817 0.746715
106.282318 -309.722473 4.364030 0.710948
106.287582 -309.721588 3.832789 0.754681
106.292801 -309.720703 3.305887 0.710277
106.297974 -309.719818 2.782154 0.761151
106.303131 -309.718933 2.260446 0.711772
106.308289 -309.718048 1.739639 0.763500
106.313438 -309.717194 1.218617 0.715541
106.318611 -309.716309 0.696259 0.760510
106.323921 -309.715393 0.171451 1.000000
108.701866 -309.310913 0.000031 0.226037
111.157791 -308.893127 0.000031 0.225343
112.864746 -308.602783 0.000029 0.233684
114.122360 -308.388855 0.000028 0.248955
106.634956 -309.552277 5.897876 0.756664
106.640152 -309.551453 5.359757 0.751080
106.645279 -309.550598 4.829551 0.755886
106.650337 -309.549774 4.305973 0.753689
106.655342 -309.548981 3.787795 0.752987
106.660309 -309.548157 3.273839 0.747845
106.665245 -309.547363 2.762964 0.750729
106.670166 -309.546570 2.254058 0.745983
106.675072 -309.545746 1.746023 0.745937
106.679985 -309.544952 1.237769 0.750057
106.684906 -309.544159 0.728205 0.752560
106.689903 -309.543335 0.216234 1.000000
108.686409 -309.218048 0.000032 0.215816
111.145187 -308.817444 0.000031 0.207870
112.854134 -308.539001 0.000030 0.202412
114.113205 -308.333862 0.000029 0.209880
106.986053 -309.387665 5.804536 0.722850
106.991013 -309.386871 5.279330 0.708492
106.995895 -309.386108 4.761839 0.725765
107.000732 -309.385376 4.250807 0.716701
107.005501 -309.384613 3.745039 0.748379
107.010239 -309.383881 3.243383 0.718654
107.014946 -309.383148 2.744730 0.760555
107.019638 -309.382416 2.247988 0.721569
107.024323 -309.381683 1.752090 0.767651
107.029007 -309.380951 1.255970 0.720195
107.033684 -309.380249 0.758562 0.770840
107.038383 -309.379517 0.258790 1.000000
108.671600 -309.125092 0.000032 0.257141
111.133118 -308.741669 0.000031 0.207702
112.843964 -308.475159 0.000030 0.206673
114.104439 -308.278839 0.000029 0.192503
107.320770 -309.230713 5.715733 0.728313
107.325500 -309.230011 5.202812 0.771099
107.330170 -309.229309 4.697416 0.718700
107.334770 -309.228638 4.198321 0.753277
107.339325 -309.227936 3.704360 0.754543
107.343849 -309.227264 3.214408 0.758221
107.348343 -309.226593 2.727380 0.751553
107.352814 -309.225952 2.242213 0.746502
107.357285 -309.225281 1.757861 0.743893
107.361763 -309.224609 1.273286 0.405005
107.366211 -309.223938 0.787445 0.779461
107.370682 -309.223297 0.299287 1.000000
108.657440 -309.032043 0.000033 0.214703
111.121574 -308.665802 0.000032 0.221896
112.834236 -308.411255 0.000031 0.216798
114.096054 -308.223724 0.000030 0.230369
107.640137 -309.080933 5.631178 0.704250
107.644669 -309.080292 5.129950 0.710704
107.649124 -309.079651 4.636071 0.705730
107.653534 -309.079041 4.148341 0.679713
107.657898 -309.078400 3.665621 0.716472
107.662224 -309.077789 3.186814 0.715862
107.666527 -309.077179 2.710856 0.768627
107.670822 -309.076569 2.236712 0.699031
107.675095 -309.075989 1.763359 0.763333
107.679443 -309.075348 1.289784 0.476280
107.683701 -309.074768 0.814965 0.742977
107.687881 -309.074158 0.337862 1.000000
108.643929 -308.938904 0.000033 0.240745
111.110558 -308.589874 0.000032 0.239740
112.824959 -308.347290 0.000031 0.219969
114.088051 -308.168549 0.000030 0.255981
107.820023 -308.954651 5.582217 0.833097
107.820305 -308.954590 5.088661 0.702647
107.820587 -308.954559 4.602054 0.790204
107.820869 -308.954529 4.121229 0.916228
107.821136 -308.954498 3.645070 0.667124
107.821411 -308.954437 3.172501 0.697978
107.821686 -308.954407 2.702481 0.698589
107.821953 -308.954376 2.233989 0.751705
107.822227 -308.954346 1.766016 0.738491
107.822495 -308.954315 1.297559 0.809186
107.822769 -308.954254 0.827611 0.709270
107.823044 -308.954224 0.355151 0.848814
108.631073 -308.845642 0.000034 0.210479
111.100075 -308.513855 0.000033 0.216439
112.816132 -308.283234 0.000032 0.224697
114.080437 -308.113342 0.000031 0.222135
107.773895 -308.859863 5.590594 0.777554
107.774185 -308.859833 5.095884 0.815976
107.774467 -308.859802 4.608138 0.663767
107.774750 -308.859772 4.126189 0.821653
107.775024 -308.859711 3.648916 0.765362
107.775299 -308.859680 3.175243 0.803113
107.775574 -308.859650 2.704124 0.822889
107.775841 -308.859619 2.234536 0.887556
107.776115 -308.859589 1.765469 0.777005
107.776390 -308.859558 1.295916 0.742550
107.776665 -308.859528 0.824870 0.800183
107.776932 -308.859467 0.351306 0.676204
108.618858 -308.752319 0.000034 0.211233
111.090118 -308.437775 0.000033 0.216738
112.807739 -308.219147 0.000032 0.204543
114.073204 -308.058075 0.000031 0.233672
107.727554 -308.764648 5.599186 0.680980
107.727844 -308.764618 5.103292 0.852064
107.728127 -308.764587 4.614379 0.758541
107.728409 -308.764526 4.131276 0.772717
107.728683 -308.764496 3.652861 0.692042
107.728958 -308.764465 3.178055 0.728923
107.729240 -308.764435 2.705809 0.669856
107.729507 -308.764404 2.235097 0.660685
107.729782 -308.764374 1.764908 0.801663
107.730057 -308.764343 1.294232 0.869749
107.730339 -308.764313 0.822059 0.694697
107.730606 -308.764282 0.347362 0.768231
108.607307 -308.658905 0.000035 0.244958
111.080704 -308.361603 0.000033 0.230262
112.799805 -308.154968 0.000032 0.256687
114.066368 -308.002747 0.000031 0.211975
107.680984 -308.668945 5.607995 0.692409
107.681274 -308.668915 5.110887 0.740215
107.681564 -308.668884 4.620778 0.562936
107.681847 -308.668854 4.136492 0.672084
107.682129 -308.668823 3.656907 0.637568
107.682404 -308.668793 3.180937 0.683619
107.682678 -308.668762 2.707535 0.681361
107.682961 -308.668732 2.235672 0.753872
107.683228 -308.668701 1.764332 0.743709
107.683510 -308.668671 1.292505 0.721263
107.683784 -308.668640 0.819176 0.691188
107.684059 -308.668610 0.343318 0.660807
108.596405 -308.565399 0.000035 0.208432
111.071808 -308.285400 0.000033 0.218210
112.792320 -308.090759 0.000033 0.245353
114.059906 -307.947388 0.000032 0.204016
107.634186 -308.572784 5.617024 0.696117
107.634476 -308.572754 5.118671 0.803433
107.634766 -308.572723 4.627335 0.616541
107.635048 -308.572693 4.141838 0.722774
107.635330 -308.572693 3.661052 0.721172
107.635612 -308.572662 3.183892 0.779751
107.635895 -308.572632 2.709306 0.759243
107.636169 -308.572601 2.236262 0.785031
107.636444 -308.572571 1.763743 0.684459
107.636726 -308.572540 1.290735 0.673793
107.637001 -308.572510 0.816222 0.826276
107.637283 -308.572479 0.339173 0.640055
108.586151 -308.471832 0.000035 0.248740
111.063454 -308.209106 0.000034 0.250751
112.785278 -308.026520 0.000033 0.235539
114.053833 -307.891968 0.000032 0.219383
107.587151 -308.476166 5.626276 0.628153
107.587440 -308.476135 5.126649 0.752682
107.587730 -308.476105 4.634056 0.655024
107.588020 -308.476074 4.147316 0.738781
107.588303 -308.476044 3.665300 0.756359
107.588585 -308.476013 3.186920 0.683116
107.588867 -308.475983 2.711120 0.713314
107.589149 -308.475952 2.236866 0.666880
107.589424 -308.475922 1.763139 0.746197
107.589706 -308.475891 1.288921 0.814542
107.589981 -308.475861 0.813195 0.841520
107.590263 -308.475861 0.334926 0.708354
108.576553 -308.378204 0.000036 0.195268
111.055634 -308.132782 0.000034 0.231219
112.778687 -307.962189 0.000033 0.302739
114.048149 -307.836517 0.000032 0.236808
107.539871 -308.378998 5.635753 0.746639
107.540161 -308.378967 5.134819 0.702449
107.540459 -308.378967 4.640939 0.699748
107.540741 -308.378937 4.152928 0.620233
107.541031 -308.378906 3.669652 0.731304
107.541313 -308.378876 3.190022 0.794446
107.541595 -308.378845 2.712978 0.697963
107.541878 -308.378815 2.237485 0.750286
107.542160 -308.378784 1.762520 0.729412
107.542442 -308.378784 1.287063 0.708125
107.542725 -308.378754 0.810094 0.682292
107.542999 -308.378723 0.330576 0.701869
108.567612 -308.284515 0.000036 0.219096
111.048340 -308.056396 0.000035 0.221932
112.772537 -307.897858 0.000033 0.252330
114.042854 -307.781036 0.000032 0.244994
107.492340 -308.281342 5.645459 0.680888
107.492638 -308.281311 5.143187 0.812085
107.492928 -308.281311 4.647987 0.727062
107.493217 -308.281281 4.158674 0.759915
107.493507 -308.281250 3.674108 0.717815
107.493790 -308.281219 3.193198 0.711452
107.494080 -308.281189 2.714881 0.808713
107.494362 -308.281189 2.238119 0.733135
107.494644 -308.281158 1.761886 0.788510
107.494926 -308.281128 1.285161 0.670497
107.495209 -308.281097 0.806919 0.742077
107.495491 -308.281067 0.326121 0.752285
108.559319 -308.190735 0.000036 0.239812
111.041588 -307.979950 0.000035 0.221992
112.766846 -307.833435 0.000034 0.278767
114.037949 -307.725494 0.000033 0.239788
107.444557 -308.183167 5.655392 0.711376
107.444855 -308.183136 5.151752 0.782620
107.445145 -308.183105 4.655204 0.779782
107.445442 -308.183105 4.164557 0.720562
107.445732 -308.183075 3.678670 0.764660
107.446014 -308.183044 3.196449 0.716518
107.446304 -308.183014 2.716829 0.739254
107.446587 -308.183014 2.238767 0.693492
107.446869 -308.182983 1.761237 0.744137
107.447159 -308.182953 1.283213 0.637400
107.447441 -308.182922 0.803668 0.718029
107.447723 -308.182922 0.321560 0.637659
108.551689 -308.096924 0.000037 0.253563
111.035362 -307.903473 0.000036 0.253240
112.761604 -307.769012 0.000034 0.191306
114.033424 -307.669952 0.000033 0.213471
107.396500 -308.084442 5.665560 0.763943
107.396805 -308.084412 5.160520 0.747753
107.397102 -308.084381 4.662590 0.790539
107.397400 -308.084381 4.170577 0.773022
107.397682 -308.084351 3.683340 0.811093
107.397972 -308.084320 3.199777 0.764279
107.398262 -308.084320 2.718822 0.731350
107.398552 -308.084290 2.239432 0.736950
107.398834 -308.084259 1.760573 0.702754
107.399124 -308.084259 1.281219 0.635126
107.399414 -308.084229 0.800341 0.708080
107.399696 -308.084198 0.316892 0.712810
108.544708 -308.003052 0.000037 0.240027
111.029671 -307.826935 0.000036 0.221166
112.756813 -307.704559 0.000034 0.230453
114.029289 -307.614349 0.000034 0.255358
107.348183 -307.985138 5.675966 0.775464
107.348488 -307.985138 5.169490 0.684245
107.348785 -307.985107 4.670147 0.731899
107.349083 -307.985077 4.176738 0.765057
107.349373 -307.985077 3.688117 0.713878
107.349663 -307.985046 3.203182 0.769879
107.349960 -307.985046 2.720863 0.789624
107.350243 -307.985016 2.240111 0.713909
107.350533 -307.984985 1.759894 0.747829
107.350822 -307.984985 1.279180 0.611765
107.351112 -307.984955 0.796936 0.694957
107.351395 -307.984955 0.312116 0.770687
108.538383 -307.909149 0.000038 0.260995
111.024513 -307.750397 0.000036 0.288210
112.752472 -307.640045 0.000035 0.218880
114.025551 -307.558746 0.000034 0.221561
107.299583 -307.885284 5.686610 0.762905
107.299889 -307.885284 5.178668 0.704692
107.300194 -307.885254 4.677877 0.743694
107.300491 -307.885254 4.183041 0.771374
107.300781 -307.885223 3.693005 0.720424
107.301079 -307.885193 3.206666 0.754803
107.301369 -307.885193 2.722950 0.710582
107.301659 -307.885162 2.240807 0.731731
107.301949 -307.885162 1.759198 0.745892
107.302231 -307.885132 1.277093 0.733806
107.302528 -307.885132 0.793453 0.721523
107.302818 -307.885101 0.307229 0.705943
108.532715 -307.815186 0.000038 0.242792
111.019897 -307.673798 0.000037 0.224756
112.748573 -307.575500 0.000035 0.189344
114.022186 -307.503113 0.000034 0.253743
107.250702 -307.784851 5.697495 0.786191
107.251015 -307.784851 5.188054 0.829526
107.251312 -307.784821 4.685786 0.708110
107.251610 -307.784821 4.189487 0.857176
107.251907 -307.784790 3.698004 0.778195
107.252205 -307.784790 3.210228 0.787793
107.252495 -307.784760 2.725084 0.701137
107.252792 -307.784760 2.241518 0.751507
107.253082 -307.784729 1.758487 0.743740
107.253372 -307.784729 1.274958 0.775570
107.253670 -307.784698 0.789891 0.702693
107.253960 -307.784698 0.302232 0.726497
108.527702 -307.721191 0.000038 0.210539
111.015808 -307.597168 0.000037 0.218856
112.745132 -307.510956 0.000036 0.255921
114.019218 -307.447449 0.000035 0.223117
107.201530 -307.683807 5.708628 0.667628
107.201843 -307.683807 5.197652 0.811444
107.202141 -307.683777 4.693872 0.805631
107.202446 -307.683777 4.196079 0.793988
107.202744 -307.683777 3.703116 0.738293
107.203041 -307.683746 3.213872 0.864073
107.203339 -307.683746 2.727267 0.894545
107.203629 -307.683716 2.242245 0.954635
107.203926 -307.683716 1.757761 0.779522
107.204216 -307.683685 1.272776 0.710887
107.204514 -307.683685 0.786248 0.815579
107.204803 -307.683685 0.297121 0.828870
108.523346 -307.627167 0.000039 0.229807
111.012260 -307.520508 0.000038 0.226456
112.742142 -307.446381 0.000036 0.287863
114.016640 -307.391754 0.000035 0.260457
107.152061 -307.582153 5.720009 0.760037
107.152367 -307.582153 5.207466 0.672206
107.152672 -307.582123 4.702140 0.674723
107.152977 -307.582123 4.202818 0.766140
107.153282 -307.582123 3.708342 0.815732
107.153580 -307.582092 3.217597 0.872709
107.153870 -307.582092 2.729499 0.704509
107.154175 -307.582092 2.242988 0.643336
107.154465 -307.582062 1.757017 0.754513
107.154755 -307.582062 1.270544 0.726268
107.155060 -307.582062 0.782524 0.757366
107.155350 -307.582031 0.291896 0.855528
108.519646 -307.533112 0.000039 0.202915
111.009239 -307.443848 0.000037 0.228478
112.739601 -307.381775 0.000036 0.230202
114.014450 -307.336060 0.000035 0.247519
107.102280 -307.479858 5.731643 0.650629
107.102585 -307.479858 5.217497 0.754498
107.102898 -307.479858 4.710589 0.594934
107.103203 -307.479858 4.209707 0.795758
107.103500 -307.479828 3.713685 0.662989
107.103806 -307.479828 3.221404 0.742168
107.104103 -307.479828 2.731780 0.740658
107.104401 -307.479828 2.243747 0.779980
107.104698 -307.479797 1.756257 0.726070
107.104996 -307.479797 1.268264 0.794781
107.105301 -307.479797 0.778718 0.791226
107.105591 -307.479767 0.286555 0.733959
108.516609 -307.439026 0.000039 0.228179
111.006760 -307.367157 0.000038 0.221118
112.737511 -307.317169 0.000036 0.220328
114.012650 -307.280365 0.000036 0.188745
107.052185 -307.376953 5.743532 0.673457
107.052490 -307.376923 5.227749 0.722789
107.052803 -307.376923 4.719227 0.646860
107.053116 -307.376923 4.216747 0.749767
107.053413 -307.376923 3.719145 0.679789
107.053719 -307.376923 3.225296 0.611719
107.054024 -307.376892 2.734111 0.690486
107.054321 -307.376892 2.244524 0.761929
107.054619 -307.376892 1.755481 0.624384
107.054916 -307.376892 1.265932 0.644495
107.055222 -307.376862 0.774827 0.779324
107.055519 -307.376862 0.281097 0.655344
108.514221 -307.344940 0.000040 0.214213
111.004814 -307.290436 0.000038 0.215936
112.735870 -307.252533 0.000037 0.206122
114.011238 -307.224640 0.000036 0.205775
107.001770 -307.273346 5.755682 0.658991
107.002075 -307.273346 5.238225 0.627878
107.002388 -307.273346 4.728051 0.746609
107.002693 -307.273346 4.223942 0.617975
107.003006 -307.273315 3.724724 0.718578
107.003311 -307.273315 3.229272 0.628901
107.003609 -307.273315 2.736494 0.688121
107.003914 -307.273315 2.245318 0.694072
107.004211 -307.273315 1.754687 0.680308
107.004517 -307.273315 1.263550 0.646326
107.004822 -307.273315 0.770851 0.652995
107.005119 -307.273285 0.275519 0.609354
108.512489 -307.250824 0.000040 0.284715
111.003403 -307.213715 0.000039 0.226695
112.734680 -307.187897 0.000038 0.217241
114.010208 -307.168915 0.000036 0.224565
106.951027 -307.169067 5.768095 0.641382
106.951324 -307.169067 5.248928 0.630335
106.951645 -307.169067 4.737068 0.683330
106.951950 -307.169067 4.231292 0.722576
106.952263 -307.169067 3.730424 0.693172
106.952568 -307.169067 3.233335 0.692729
106.952873 -307.169067 2.738928 0.852659
106.953178 -307.169067 2.246128 0.721965
106.953484 -307.169067 1.753877 0.764736
106.953789 -307.169037 1.261117 0.690959
106.954094 -307.169037 0.766790 0.770703
106.954391 -307.169037 0.269821 0.597147
108.511414 -307.156708 0.000040 0.241176
111.002533 -307.136993 0.000039 0.219778
112.733948 -307.123260 0.000037 0.254365
114.009575 -307.113159 0.000036 0.241499
106.899933 -307.064087 5.780775 0.629664
106.900238 -307.064087 5.259861 0.830503
