# This PCD file was generated using the MATLAB® pcwrite function
# from Computer Vision Toolbox®.
# .PCD v.7 - Point Cloud Data file format
VERSION .7
FIELDS x y z intensity
SIZE 4 4 4 4
TYPE F F F F
COUNT 1 1 1 1
WIDTH 1185
HEIGHT 1
VIEWPOINT 0 0 0 1 0 0 0
POINTS 1185
DATA ascii
485.253601 -342.053894 1.378109 1.000000
485.253601 -342.053894 0.132994 1.000000
478.640320 -353.951416 -0.000013 0.337514
475.236145 -360.075592 0.000007 0.214404
473.340271 -363.486298 0.000006 0.240566
472.129913 -365.663757 0.000005 0.258530
471.288696 -367.177155 0.000004 0.286116
470.668884 -368.292175 0.000003 0.227892
nan nan nan 0.000000
nan nan nan 0.000000
nan nan nan 0.000000
nan nan nan 0.000000
nan nan nan 0.000000
485.327820 -342.461914 5.089922 1.000000
485.327820 -342.461914 3.851303 1.000000
485.327820 -342.461914 2.616660 1.000000
485.327820 -342.461884 1.383339 1.000000
485.327820 -342.461884 0.148696 1.000000
478.788849 -354.034637 -0.000014 0.337835
475.342010 -360.134918 0.000007 0.234295
473.422394 -363.532318 0.000006 0.226791
472.196869 -365.701263 0.000005 0.243917
471.345062 -367.208771 0.000004 0.214332
470.717529 -368.319427 0.000003 0.252534
nan nan nan 0.000000
nan nan nan 0.000000
nan nan nan 0.000000
nan nan nan 0.000000
nan nan nan 0.000000
485.400787 -342.863098 5.064301 1.000000
485.400787 -342.863098 3.835950 1.000000
485.400787 -342.863098 2.611546 1.000000
485.400787 -342.863098 1.388453 1.000000
485.400787 -342.863098 0.164048 1.000000
478.936829 -354.118927 -0.000015 0.337102
475.447479 -360.195007 0.000008 0.235827
473.504181 -363.578918 0.000006 0.214751
472.263550 -365.739258 0.000005 0.231662
471.401245 -367.240753 0.000004 0.200557
470.765961 -368.347015 0.000003 0.221262
nan nan nan 0.000000
nan nan nan 0.000000
nan nan nan 0.000000
nan nan nan 0.000000
nan nan nan 0.000000
485.472565 -343.257721 5.039246 1.000000
485.472565 -343.257721 3.820940 1.000000
485.472565 -343.257721 2.606546 1.000000
485.472595 -343.257721 1.393454 1.000000
485.472595 -343.257721 0.179059 1.000000
479.084198 -354.204224 -0.000015 0.337301
475.552521 -360.255798 0.000008 0.223392
473.585632 -363.626068 0.000006 0.218413
472.329956 -365.777679 0.000004 0.249326
471.457184 -367.273163 0.000004 0.210718
470.814209 -368.374939 0.000003 0.215206
nan nan nan 0.000000
nan nan nan 0.000000
nan nan nan 0.000000
nan nan nan 0.000000
nan nan nan 0.000000
485.543182 -343.645966 5.014744 1.000000
485.543182 -343.645966 3.806260 1.000000
485.543182 -343.645966 2.601657 1.000000
485.543213 -343.645935 1.398343 1.000000
485.543213 -343.645966 0.193739 1.000000
479.230957 -354.290588 -0.000014 0.339254
475.657135 -360.317352 0.000008 0.222387
473.666779 -363.673798 0.000006 0.246969
472.396088 -365.816589 0.000004 0.207295
471.512909 -367.305939 0.000003 0.209246
470.862244 -368.403198 0.000003 0.230884
nan nan nan 0.000000
nan nan nan 0.000000
nan nan nan 0.000000
nan nan nan 0.000000
nan nan nan 0.000000
485.612671 -344.028015 4.990777 1.000000
485.612671 -344.028015 3.791901 1.000000
485.612671 -344.028015 2.596873 1.000000
485.612701 -344.028015 1.403126 1.000000
485.612701 -344.028015 0.208098 1.000000
479.377136 -354.377960 -0.000013 0.338201
475.761292 -360.379608 0.000008 0.231997
473.747559 -363.722076 0.000006 0.234474
472.461945 -365.855957 0.000005 0.206517
471.568420 -367.339111 0.000004 0.233373
470.910095 -368.431824 0.000003 0.228873
nan nan nan 0.000000
nan nan nan 0.000000
nan nan nan 0.000000
nan nan nan 0.000000
nan nan nan 0.000000
485.681091 -344.404053 4.967334 1.000000
485.681091 -344.404053 3.777855 1.000000
485.681091 -344.404053 2.592195 1.000000
485.681091 -344.404022 1.407805 1.000000
485.681091 -344.404053 0.222144 1.000000
479.522675 -354.466370 -0.000011 0.337682
475.865051 -360.442627 0.000008 0.240363
473.828003 -363.770935 0.000006 0.221884
472.527557 -365.895813 0.000005 0.247017
471.623657 -367.372650 0.000004 0.247795
470.957733 -368.460754 0.000003 0.203789
nan nan nan 0.000000
nan nan nan 0.000000
nan nan nan 0.000000
nan nan nan 0.000000
nan nan nan 0.000000
485.748413 -344.774261 4.944396 1.000000
485.748413 -344.774261 3.764112 1.000000
485.748413 -344.774261 2.587618 1.000000
485.748444 -344.774261 1.412382 1.000000
485.748444 -344.774261 0.235886 1.000000
479.667603 -354.555786 -0.000010 0.336156
475.968353 -360.506348 0.000008 0.232559
473.908142 -363.820374 0.000006 0.195758
472.592865 -365.936096 0.000005 0.238615
471.678680 -367.406586 0.000004 0.224637
471.005157 -368.489990 0.000003 0.219766
nan nan nan 0.000000
nan nan nan 0.000000
nan nan nan 0.000000
nan nan nan 0.000000
nan nan nan 0.000000
485.814728 -345.138794 4.921953 1.000000
485.814728 -345.138824 3.750666 1.000000
485.814728 -345.138794 2.583138 1.000000
485.814758 -345.138794 1.416861 1.000000
485.814758 -345.138794 0.249334 1.000000
479.811890 -354.646210 -0.000009 0.338842
476.071198 -360.570770 0.000008 0.222614
473.987885 -363.870331 0.000006 0.233218
472.657898 -365.976837 0.000004 0.222423
471.733459 -367.440918 0.000004 0.242648
471.052399 -368.519592 0.000003 0.187022
nan nan nan 0.000000
nan nan nan 0.000000
nan nan nan 0.000000
nan nan nan 0.000000
nan nan nan 0.000000
485.880035 -345.497864 4.899989 1.000000
485.880035 -345.497864 3.737505 1.000000
485.880035 -345.497864 2.578755 1.000000
485.880066 -345.497833 1.421245 1.000000
485.880066 -345.497833 0.262493 1.000000
479.955536 -354.737640 -0.000007 0.337896
476.173584 -360.635925 0.000008 0.233110
474.067322 -363.920868 0.000006 0.239118
472.722626 -366.018005 0.000005 0.238723
471.788025 -367.475616 0.000004 0.248154
471.099426 -368.549530 0.000003 0.213076
469.005371 -371.867920 3.017166 0.947295
469.005371 -371.867920 2.877039 0.958343
469.005371 -371.867920 2.738879 0.945373
469.005371 -371.867920 2.602356 0.968627
469.005371 -371.867920 2.467152 0.955200
469.005371 -371.867920 2.332963 0.948714
469.005371 -371.867920 2.199492 0.929305
469.005371 -371.867920 2.066450 0.955154
469.005371 -371.867920 1.933550 0.949844
469.005371 -371.867920 1.800508 0.947570
469.005371 -371.867920 1.667037 0.934066
469.005371 -371.867920 1.532848 0.931029
469.005371 -371.867920 1.397645 0.023743
469.005371 -371.867920 1.261121 0.036515
469.005371 -371.867920 1.122962 0.685298
469.005371 -371.867920 0.982835 0.899580
469.012878 -371.907990 3.009805 0.940459
469.012878 -371.907990 2.870692 0.946548
469.012878 -371.907990 2.733532 0.934920
469.012878 -371.907990 2.597997 0.968627
469.012878 -371.907990 2.463771 0.948150
469.012878 -371.907990 2.330553 0.912978
469.012878 -371.907990 2.198048 0.939086
469.012878 -371.907990 2.065969 0.926223
469.012878 -371.907990 1.934031 0.926894
469.012878 -371.907990 1.801952 0.940383
469.012878 -371.907990 1.669447 0.912993
469.012878 -371.907990 1.536229 0.941726
469.012878 -371.907990 1.402004 0.028153
469.012878 -371.907990 1.266469 0.037095
469.012878 -371.907990 1.129309 0.654994
469.012878 -371.907990 0.990196 0.884886
469.020264 -371.947479 3.002598 0.926329
469.020264 -371.947479 2.864478 0.934218
469.020264 -371.947479 2.728297 0.920592
469.020264 -371.947479 2.593729 0.933822
469.020264 -371.947479 2.460461 0.923552
469.020264 -371.947479 2.328194 0.906416
469.020264 -371.947479 2.196635 0.928862
469.020264 -371.947479 2.065498 0.918257
469.020264 -371.947479 1.934502 0.916228
469.020264 -371.947479 1.803365 0.942580
469.020264 -371.947479 1.671806 0.908980
469.020264 -371.947479 1.539539 0.949920
469.020264 -371.947479 1.406272 0.016297
469.020264 -371.947479 1.271704 0.043854
469.020264 -371.947479 1.135523 0.656245
469.020264 -371.947479 0.997404 0.877668
469.027557 -371.986420 2.995542 0.914382
469.027557 -371.986420 2.858393 0.925490
469.027557 -371.986420 2.723171 0.913161
469.027557 -371.986420 2.589550 0.913725
469.027557 -371.986420 2.457221 0.907561
469.027557 -371.986420 2.325884 0.905959
469.027557 -371.986420 2.195251 0.920958
469.027557 -371.986420 2.065037 0.920897
469.027557 -371.986420 1.934963 0.915999
469.027557 -371.986420 1.804749 0.947021
469.027557 -371.986420 1.674116 0.912764
469.027557 -371.986420 1.542780 0.948135
469.027557 -371.986420 1.410450 0.016754
469.027557 -371.986420 1.276830 0.034928
469.027557 -371.986420 1.141608 0.676219
469.027557 -371.986420 1.004460 0.839216
469.034729 -372.024811 2.988631 0.922347
469.034729 -372.024811 2.852435 0.925490
469.034729 -372.024811 2.718152 0.921584
469.034729 -372.024811 2.585458 0.942641
469.034729 -372.024811 2.454047 0.914839
469.034729 -372.024811 2.323622 0.906111
469.034729 -372.024811 2.193896 0.927611
469.034729 -372.024811 2.064586 0.941909
469.034729 -372.024811 1.935414 0.936370
469.034729 -372.024811 1.806104 0.953826
469.034729 -372.024811 1.676378 0.924956
469.034729 -372.024811 1.545953 0.929900
469.034729 -372.024811 1.414543 0.007218
469.034729 -372.024811 1.281849 0.049226
469.034729 -372.024811 1.147566 0.698528
469.034729 -372.024811 1.011370 0.797177
469.041809 -372.062653 2.981864 0.918898
469.041809 -372.062653 2.846601 0.931899
469.041809 -372.062653 2.713236 0.921767
469.041809 -372.062653 2.581451 0.946883
469.041809 -372.062683 2.450939 0.926024
469.041809 -372.062683 2.321407 0.905943
469.041809 -372.062683 2.192568 0.924483
469.041809 -372.062683 2.064144 0.944274
469.041809 -372.062683 1.935856 0.943786
469.041809 -372.062683 1.807432 0.956771
469.041809 -372.062683 1.678593 0.936202
469.041809 -372.062683 1.549061 0.918257
469.041809 -372.062683 1.418550 0.007843
469.041809 -372.062683 1.286765 0.031250
469.041809 -372.062683 1.153401 0.737987
469.041809 -372.062683 1.018137 0.796902
469.048798 -372.100006 2.975236 0.908263
469.048798 -372.100006 2.840885 0.944701
469.048798 -372.100006 2.708421 0.912825
469.048798 -372.100006 2.577526 0.939086
469.048798 -372.100006 2.447895 0.938506
469.048798 -372.100006 2.319237 0.906310
469.048798 -372.100006 2.191268 0.914916
469.048798 -372.100006 2.063710 0.932815
469.048798 -372.100006 1.936289 0.941329
469.048798 -372.100006 1.808732 0.957046
469.048798 -372.100006 1.680763 0.944305
469.048798 -372.100037 1.552105 0.914672
469.048798 -372.100037 1.422475 0.000000
469.048798 -372.100037 1.291580 0.030259
469.048798 -372.100037 1.159116 0.730632
469.048798 -372.100037 1.024765 0.807843
469.055695 -372.136871 2.968744 0.936675
469.055695 -372.136871 2.835288 0.949416
469.055695 -372.136871 2.703705 0.918715
469.055695 -372.136871 2.573681 0.940154
469.055695 -372.136871 2.444913 0.938293
469.055695 -372.136871 2.317112 0.905028
469.055695 -372.136871 2.189995 0.906157
469.055695 -372.136871 2.063287 0.925216
469.055695 -372.136871 1.936713 0.910582
469.055695 -372.136871 1.810005 0.953368
469.055695 -372.136871 1.682888 0.934905
469.055695 -372.136871 1.555087 0.929625
469.055695 -372.136871 1.426320 0.004837
469.055695 -372.136871 1.296296 0.023056
469.055695 -372.136871 1.164714 0.711025
469.055695 -372.136871 1.031257 0.812894
469.062500 -372.173248 2.962384 0.956283
469.062500 -372.173248 2.829804 0.952285
469.062500 -372.173248 2.699085 0.925826
469.062500 -372.173248 2.569915 0.940154
469.062500 -372.173248 2.441993 0.934066
469.062500 -372.173248 2.315030 0.906905
469.062500 -372.173248 2.188748 0.902296
469.062500 -372.173248 2.062871 0.918776
469.062500 -372.173248 1.937129 0.886168
469.062500 -372.173248 1.811252 0.948913
469.062500 -372.173248 1.684970 0.930205
469.062500 -372.173248 1.558008 0.941421
469.062500 -372.173248 1.430086 0.005295
469.062500 -372.173248 1.300916 0.039002
469.062500 -372.173248 1.170197 0.688243
469.062500 -372.173248 1.037617 0.825620
469.069214 -372.209137 2.956153 0.940078
469.069214 -372.209137 2.824432 0.958694
469.069214 -372.209137 2.694559 0.925490
469.069214 -372.209137 2.566225 0.931899
469.069214 -372.209137 2.439131 0.919051
469.069214 -372.209137 2.312991 0.929259
469.069214 -372.209137 2.187526 0.917098
469.069214 -372.209137 2.062464 0.915755
469.069214 -372.209137 1.937536 0.903471
469.069214 -372.209137 1.812474 0.946212
469.069214 -372.209137 1.687009 0.953292
469.069214 -372.209137 1.560869 0.922423
469.069214 -372.209137 1.433776 0.011383
469.069214 -372.209137 1.305442 0.025193
469.069214 -372.209137 1.175569 0.649760
469.069214 -372.209137 1.043848 0.823529
469.075867 -372.244568 2.950049 0.936904
469.075867 -372.244568 2.819168 0.956497
469.075867 -372.244568 2.690125 0.935256
469.075867 -372.244568 2.562610 0.928649
469.075867 -372.244568 2.436327 0.912703
469.075867 -372.244568 2.310992 0.943999
469.075867 -372.244568 2.186329 0.928801
469.075867 -372.244568 2.062065 0.914824
469.075867 -372.244568 1.937935 0.909483
469.075867 -372.244568 1.813671 0.940749
469.075867 -372.244568 1.689008 0.964675
469.075867 -372.244568 1.563673 0.909178
469.075867 -372.244568 1.437391 0.007843
469.075867 -372.244568 1.309876 0.009049
469.075867 -372.244568 1.180833 0.647059
469.075867 -372.244568 1.049952 0.823529
469.082397 -372.279541 2.944068 0.949081
469.082397 -372.279541 2.814011 0.942138
469.082397 -372.279541 2.685780 0.958175
469.082397 -372.279541 2.559068 0.934401
469.082397 -372.279541 2.433580 0.918975
469.082397 -372.279541 2.309035 0.943938
469.082397 -372.279541 2.185156 0.934585
469.082397 -372.279541 2.061675 0.917403
469.082397 -372.279541 1.938326 0.897169
469.082397 -372.279541 1.814844 0.934447
469.082397 -372.279541 1.690965 0.955581
469.082397 -372.279541 1.566420 0.907179
469.082397 -372.279541 1.440933 0.017853
469.082397 -372.279541 1.314221 0.021683
469.082397 -372.279541 1.185990 0.635966
469.082397 -372.279541 1.055933 0.827451
469.088867 -372.314087 2.938207 0.954376
469.088867 -372.314087 2.808957 0.939452
469.088867 -372.314087 2.681523 0.961273
469.088867 -372.314087 2.555597 0.940932
469.088867 -372.314117 2.430889 0.924269
469.088867 -372.314117 2.307116 0.941726
469.088867 -372.314117 2.184006 0.931334
469.088867 -372.314117 2.061292 0.915648
469.088867 -372.314117 1.938708 0.896147
469.088867 -372.314117 1.815994 0.937102
469.088867 -372.314117 1.692884 0.940581
469.088867 -372.314117 1.569112 0.911940
469.088867 -372.314117 1.444403 0.931151
469.088867 -372.314117 1.318478 0.019608
469.088867 -372.314117 1.191044 0.635294
469.088867 -372.314117 1.061794 0.839216
469.095245 -372.348236 2.932464 0.952178
469.095245 -372.348236 2.804005 0.952117
469.095245 -372.348236 2.677351 0.948898
469.095245 -372.348236 2.552196 0.951690
469.095245 -372.348236 2.428251 0.927169
469.095245 -372.348236 2.305236 0.938247
469.095245 -372.348236 2.182880 0.921309
469.095245 -372.348236 2.060916 0.910185
469.095245 -372.348236 1.939084 0.904738
469.095245 -372.348236 1.817120 0.948379
469.095245 -372.348236 1.694764 0.919356
469.095245 -372.348236 1.571749 0.922118
469.095245 -372.348236 1.447805 0.941497
469.095245 -372.348236 1.322650 0.010605
469.095245 -372.348236 1.195996 0.647059
469.095245 -372.348236 1.067538 0.807294
469.101563 -372.381927 2.926835 0.953155
469.101563 -372.381927 2.799152 0.953368
469.101563 -372.381927 2.673262 0.941787
469.101563 -372.381927 2.548863 0.940719
469.101563 -372.381927 2.425666 0.919982
469.101563 -372.381927 2.303394 0.935500
469.101563 -372.381927 2.181776 0.929091
469.101563 -372.381927 2.060549 0.899748
469.101563 -372.381927 1.939451 0.906783
469.101563 -372.381927 1.818224 0.950088
469.101563 -372.381927 1.696607 0.914916
469.101563 -372.381927 1.574335 0.924956
469.101563 -372.381927 1.451138 0.936446
469.101563 -372.381927 1.326739 0.013550
469.101563 -372.381958 1.200849 0.645594
469.101563 -372.381958 1.073166 0.716609
469.107788 -372.415253 2.921318 0.956420
469.107788 -372.415253 2.794396 0.947219
469.107788 -372.415253 2.669255 0.935393
469.107788 -372.415253 2.545596 0.918563
469.107788 -372.415253 2.423132 0.908644
469.107788 -372.415253 2.301588 0.935164
469.107788 -372.415253 2.180694 0.946136
469.107788 -372.415253 2.060188 0.886641
469.107788 -372.415253 1.939812 0.905776
469.107788 -372.415253 1.819306 0.946197
469.107788 -372.415253 1.698412 0.918593
469.107788 -372.415253 1.576868 0.924269
469.107788 -372.415253 1.454405 0.923888
469.107788 -372.415253 1.330746 0.029099
469.107788 -372.415253 1.205606 0.650324
469.107788 -372.415253 1.078683 0.731731
469.113953 -372.448151 2.915912 0.953796
469.113953 -372.448151 2.789734 0.941817
469.113953 -372.448151 2.665327 0.939132
469.113953 -372.448151 2.542394 0.917952
469.113953 -372.448151 2.420649 0.929168
469.113953 -372.448151 2.299818 0.927535
469.113953 -372.448151 2.179633 0.937438
469.113953 -372.448151 2.059835 0.890684
469.113953 -372.448151 1.940165 0.904891
469.113953 -372.448181 1.820367 0.940200
469.113953 -372.448151 1.700182 0.920897
469.113953 -372.448181 1.579351 0.916991
469.113953 -372.448181 1.457606 0.927398
469.113953 -372.448181 1.334674 0.013809
469.113953 -372.448181 1.210267 0.616831
469.113953 -372.448181 1.084090 0.751003
469.120026 -372.480682 2.910612 0.946471
469.120026 -372.480682 2.785164 0.937896
469.120026 -372.480682 2.661477 0.948241
469.120026 -372.480713 2.539256 0.923079
469.120026 -372.480713 2.418215 0.962249
469.120026 -372.480713 2.298083 0.915404
469.120026 -372.480713 2.178594 0.919142
469.120026 -372.480713 2.059489 0.900252
469.120026 -372.480713 1.940511 0.903960
469.120026 -372.480713 1.821406 0.933150
469.120026 -372.480713 1.701917 0.921202
469.120026 -372.480713 1.581785 0.907408
469.120026 -372.480713 1.460745 0.936980
469.120026 -372.480713 1.338523 0.005753
469.120026 -372.480713 1.214837 0.591852
469.120026 -372.480713 1.089389 0.773190
469.126068 -372.512848 2.905417 0.946105
469.126068 -372.512848 2.780685 0.940627
469.126068 -372.512848 2.657704 0.952880
469.126068 -372.512848 2.536180 0.921813
469.126068 -372.512848 2.415829 0.949126
469.126068 -372.512848 2.296382 0.913390
469.126068 -372.512848 2.177575 0.923537
469.126068 -372.512848 2.059150 0.915434
469.126068 -372.512848 1.940851 0.891417
469.126068 -372.512848 1.822425 0.926406
469.126068 -372.512848 1.703618 0.919905
469.126068 -372.512848 1.584171 0.921508
469.126068 -372.512848 1.463821 0.932540
469.126068 -372.512848 1.342297 0.013535
469.126068 -372.512848 1.219316 0.656886
469.126068 -372.512848 1.094584 0.770092
469.132019 -372.544647 2.900325 0.946517
469.132019 -372.544647 2.776294 0.944335
469.132019 -372.544647 2.654005 0.955917
469.132019 -372.544647 2.533164 0.921324
469.132019 -372.544647 2.413491 0.928923
469.132019 -372.544647 2.294716 0.914351
469.132019 -372.544647 2.176577 0.931624
469.132019 -372.544647 2.058817 0.930266
469.132019 -372.544647 1.941183 0.877699
469.132019 -372.544647 1.823424 0.920363
469.132019 -372.544647 1.705284 0.917678
469.132019 -372.544647 1.586510 0.938582
469.132019 -372.544647 1.466837 0.924727
469.132019 -372.544647 1.345996 0.008576
469.132019 -372.544647 1.223707 0.600351
469.132019 -372.544647 1.099676 0.775372
469.137878 -372.576111 2.895333 0.945693
469.137878 -372.576111 2.771990 0.951064
469.137878 -372.576111 2.650379 0.948272
469.137878 -372.576111 2.530208 0.916854
469.137878 -372.576111 2.411198 0.917601
469.137878 -372.576111 2.293082 0.924788
469.137878 -372.576111 2.175597 0.930053
469.137878 -372.576111 2.058491 0.936873
469.137878 -372.576111 1.941509 0.886839
469.137878 -372.576111 1.824403 0.917784
469.137878 -372.576111 1.706918 0.917952
469.137878 -372.576111 1.588802 0.926558
469.137878 -372.576111 1.469793 0.916991
469.137878 -372.576111 1.349622 0.021286
469.137878 -372.576111 1.228011 0.588235
469.137878 -372.576111 1.104668 0.753674
469.143707 -372.607208 2.890440 0.945144
469.143707 -372.607208 2.767771 0.956024
469.143707 -372.607208 2.646824 0.938903
469.143707 -372.607208 2.527310 0.912932
469.143707 -372.607208 2.408951 0.910552
469.143707 -372.607208 2.291480 0.935683
469.143707 -372.607208 2.174638 0.926375
469.143707 -372.607208 2.058171 0.940856
469.143707 -372.607208 1.941829 0.902098
469.143707 -372.607208 1.825362 0.915572
469.143707 -372.607208 1.708520 0.920027
469.143707 -372.607208 1.591050 0.909865
469.143707 -372.607208 1.472691 0.908873
469.143707 -372.607208 1.353177 0.038224
469.143707 -372.607208 1.232231 0.588235
469.143707 -372.607208 1.109562 0.751598
469.149475 -372.637970 2.885642 0.945098
469.149475 -372.637970 2.763634 0.935882
469.149475 -372.637970 2.643339 0.934066
469.149475 -372.637970 2.524469 0.910933
469.149475 -372.637970 2.406747 0.911177
469.149475 -372.637970 2.289909 0.947021
469.149475 -372.637970 2.173697 0.928634
469.149475 -372.637970 2.057858 0.935302
469.149475 -372.637970 1.942142 0.913924
469.149475 -372.637970 1.826303 0.921111
469.149475 -372.637970 1.710091 0.920439
469.149475 -372.637970 1.593253 0.907713
469.149475 -372.637970 1.475532 0.913848
469.149475 -372.637970 1.356662 0.011063
469.149475 -372.637970 1.236367 0.410300
469.149475 -372.637970 1.114359 0.747524
469.155151 -372.668396 2.880939 0.942916
469.155151 -372.668396 2.759578 0.912276
469.155151 -372.668396 2.639922 0.931853
469.155151 -372.668396 2.521683 0.910628
469.155151 -372.668396 2.404587 0.914488
469.155151 -372.668396 2.288370 0.956527
469.155151 -372.668396 2.172774 0.932387
469.155151 -372.668396 2.057550 0.927718
469.155151 -372.668396 1.942450 0.923217
469.155151 -372.668396 1.827226 0.928405
469.155151 -372.668396 1.711631 0.919921
469.155151 -372.668396 1.595413 0.910399
469.155151 -372.668396 1.478317 0.922805
469.155151 -372.668396 1.360078 0.009262
469.155151 -372.668396 1.240422 0.214099
469.155151 -372.668396 1.119063 0.710063
469.160797 -372.698517 2.876328 0.942031
469.160797 -372.698517 2.755603 0.916152
469.160797 -372.698517 2.636573 0.934600
469.160797 -372.698517 2.518953 0.921050
469.160797 -372.698517 2.402469 0.912261
469.160797 -372.698517 2.286860 0.944411
469.160797 -372.698517 2.171870 0.930770
469.160797 -372.698517 2.057249 0.930846
469.160797 -372.698517 1.942751 0.939101
469.160797 -372.698517 1.828130 0.926223
469.160797 -372.698517 1.713140 0.923323
469.160797 -372.698517 1.597531 0.912306
469.160797 -372.698517 1.481048 0.924804
469.160797 -372.698517 1.363428 0.004913
469.160797 -372.698517 1.244398 0.031373
469.160797 -372.698517 1.123674 0.690364
469.166382 -372.728302 2.871807 0.944030
469.166382 -372.728302 2.751705 0.931228
469.166382 -372.728302 2.633289 0.937972
469.166382 -372.728302 2.516275 0.938964
469.166382 -372.728302 2.400393 0.907851
469.166382 -372.728302 2.285380 0.921050
469.166382 -372.728302 2.170983 0.926711
469.166382 -372.728302 2.056954 0.939193
469.166382 -372.728302 1.943046 0.959716
469.166382 -372.728302 1.829017 0.919005
469.166382 -372.728302 1.714620 0.929259
469.166382 -372.728302 1.599607 0.914961
469.166382 -372.728302 1.483725 0.924041
469.166382 -372.728302 1.366712 0.007935
469.166382 -372.728302 1.248296 0.031373
469.166382 -372.728302 1.128195 0.665034
469.171906 -372.757813 2.867374 0.945098
469.171906 -372.757813 2.747883 0.935378
469.171906 -372.757813 2.630069 0.944701
469.171906 -372.757813 2.513650 0.934340
469.171906 -372.757813 2.398357 0.905882
469.171906 -372.757813 2.283929 0.919707
469.171906 -372.757813 2.170114 0.933806
469.171906 -372.757813 2.056664 0.942794
469.171906 -372.757813 1.943336 0.966400
469.171906 -372.757813 1.829886 0.918410
469.171875 -372.757813 1.716071 0.925765
469.171875 -372.757813 1.601643 0.915160
469.171875 -372.757813 1.486350 0.929351
469.171875 -372.757813 1.369932 0.015656
469.171875 -372.757813 1.252118 0.031373
469.171875 -372.757813 1.132627 0.649149
469.177368 -372.787018 2.863028 0.945098
469.177368 -372.787018 2.744136 0.934600
469.177368 -372.787018 2.626912 0.954101
469.177368 -372.787018 2.511077 0.915526
469.177368 -372.787018 2.396362 0.905882
469.177368 -372.787018 2.282507 0.928542
469.177368 -372.787018 2.169262 0.946700
469.177368 -372.787018 2.056380 0.944335
469.177368 -372.787018 1.943620 0.966857
469.177368 -372.787018 1.830738 0.921126
469.177368 -372.787018 1.717493 0.917906
469.177368 -372.787018 1.603639 0.914488
469.177368 -372.787018 1.488923 0.936843
469.177368 -372.787018 1.373088 0.021958
469.177338 -372.787018 1.255865 0.031464
469.177338 -372.787018 1.136973 0.660166
469.182770 -372.815918 2.858768 0.945098
469.182770 -372.815918 2.740462 0.934371
469.182770 -372.815918 2.623817 0.952956
469.182770 -372.815918 2.508554 0.914336
469.182770 -372.815918 2.394405 0.916930
469.182770 -372.815918 2.281112 0.931594
469.182770 -372.815918 2.168426 0.947677
469.182770 -372.815918 2.056102 0.944411
469.182770 -372.815918 1.943898 0.954253
469.182770 -372.815918 1.831574 0.924895
469.182770 -372.815918 1.718888 0.914916
469.182770 -372.815918 1.605596 0.906950
469.182770 -372.815918 1.491447 0.938842
469.182770 -372.815918 1.376184 0.015656
469.182770 -372.815918 1.259539 0.033051
469.182770 -372.815918 1.141234 0.671199
469.188110 -372.844543 2.854590 0.945098
469.188110 -372.844543 2.736860 0.933608
469.188110 -372.844543 2.620783 0.939315
469.188110 -372.844543 2.506080 0.930877
469.188110 -372.844543 2.392486 0.937606
469.188110 -372.844543 2.279745 0.929091
469.188110 -372.844543 2.167607 0.935866
469.188110 -372.844543 2.055829 0.943191
469.188110 -372.844543 1.944171 0.929625
469.188110 -372.844543 1.832393 0.929442
469.188110 -372.844543 1.720255 0.917937
469.188110 -372.844543 1.607514 0.894530
469.188110 -372.844543 1.493921 0.935576
469.188110 -372.844543 1.379218 0.023468
469.188110 -372.844543 1.263141 0.037659
469.188110 -372.844543 1.145411 0.700008
469.193420 -372.872894 2.850494 0.943877
469.193420 -372.872894 2.733328 0.932616
469.193420 -372.872894 2.617807 0.925719
469.193420 -372.872894 2.503655 0.943999
469.193420 -372.872894 2.390605 0.954925
469.193420 -372.872894 2.278404 0.925338
469.193420 -372.872894 2.166803 0.925032
469.193420 -372.872894 2.055562 0.940429
469.193420 -372.872894 1.944439 0.911482
469.193420 -372.872894 1.833197 0.931380
469.193420 -372.872894 1.721596 0.920592
469.193420 -372.872894 1.609395 0.884565
469.193420 -372.872894 1.496346 0.928298
469.193420 -372.872894 1.382193 0.012100
469.193420 -372.872894 1.266673 0.037568
469.193420 -372.872894 1.149507 0.721813
469.198669 -372.900970 2.846479 0.935760
469.198669 -372.900970 2.729866 0.932082
469.198669 -372.900970 2.614890 0.926635
469.198669 -372.900970 2.501276 0.928008
469.198669 -372.900970 2.388761 0.943297
469.198669 -372.900970 2.277089 0.925032
469.198669 -372.900970 2.166016 0.921813
469.198669 -372.900970 2.055299 0.931548
469.198669 -372.900970 1.944701 0.938445
469.198669 -372.900970 1.833984 0.920104
469.198669 -372.900970 1.722911 0.920836
469.198669 -372.900970 1.611239 0.893629
469.198669 -372.900970 1.498724 0.915328
469.198669 -372.900970 1.385110 0.020203
469.198669 -372.900970 1.270135 0.047440
469.198669 -372.900970 1.153522 0.739956
469.203888 -372.928802 2.842542 0.926406
469.203888 -372.928802 2.726471 0.933455
469.203888 -372.928802 2.612030 0.926863
469.203888 -372.928802 2.498945 0.911482
469.203888 -372.928802 2.386953 0.933120
469.203888 -372.928802 2.275800 0.925872
469.203888 -372.928802 2.165244 0.918669
469.203888 -372.928802 2.055042 0.922805
469.203888 -372.928802 1.944958 0.965057
469.203888 -372.928802 1.834756 0.908827
469.203888 -372.928802 1.724200 0.921813
469.203888 -372.928802 1.613048 0.901595
469.203888 -372.928802 1.501055 0.905409
469.203888 -372.928802 1.387970 0.019974
469.203888 -372.928802 1.273530 0.035752
469.203888 -372.928802 1.157459 0.724498
469.209045 -372.956360 2.838682 0.928786
469.209045 -372.956360 2.723143 0.945769
469.209045 -372.956360 2.609226 0.919020
469.209045 -372.956360 2.496659 0.909712
469.209045 -372.956360 2.385180 0.921508
469.209045 -372.956360 2.274537 0.922194
469.209045 -372.956360 2.164487 0.915999
469.209045 -372.956360 2.054790 0.928862
469.209045 -372.956360 1.945210 0.966278
469.209045 -372.956360 1.835513 0.908217
469.209045 -372.956360 1.725463 0.926345
469.209045 -372.956360 1.614820 0.901350
469.209045 -372.956360 1.503341 0.906783
469.209045 -372.956360 1.390774 0.027085
469.209045 -372.956360 1.276858 0.023362
469.209045 -372.956360 1.161319 0.707347
469.214142 -372.983673 2.834898 0.934295
469.214142 -372.983673 2.719880 0.959167
469.214142 -372.983673 2.606478 0.910399
469.214142 -372.983673 2.494418 0.906950
469.214142 -372.983673 2.383442 0.910018
469.214142 -372.983673 2.273298 0.917754
469.214142 -372.983673 2.163744 0.912474
469.214142 -372.983673 2.054543 0.937209
469.214142 -372.983673 1.945457 0.968109
469.214142 -372.983673 1.836256 0.907225
469.214142 -372.983673 1.726702 0.931502
469.214142 -372.983673 1.616558 0.900984
469.214142 -372.983673 1.505582 0.908797
469.214142 -372.983673 1.393523 0.019059
469.214142 -372.983673 1.280121 0.021515
469.214142 -372.983673 1.165104 0.705638
469.219208 -373.010742 2.831188 0.940841
469.219208 -373.010742 2.716681 0.953246
469.219208 -373.010742 2.603783 0.920745
469.219208 -373.010742 2.492221 0.913390
469.219208 -373.010742 2.381738 0.905882
469.219208 -373.010742 2.272084 0.914076
469.219208 -373.010742 2.163017 0.916915
469.219208 -373.010742 2.054300 0.937285
469.219208 -373.010742 1.945700 0.962661
469.219208 -373.010742 1.836983 0.922148
469.219208 -373.010742 1.727916 0.936675
469.219208 -373.010742 1.618262 0.901228
469.219208 -373.010742 1.507779 0.906920
469.219208 -373.010742 1.396218 0.005768
469.219208 -373.010742 1.283319 0.038117
469.219208 -373.010742 1.168813 0.670802
469.224243 -373.037567 2.827551 0.947692
469.224243 -373.037567 2.713546 0.931411
469.224243 -373.037567 2.601141 0.948196
469.224243 -373.037567 2.490067 0.927169
469.224243 -373.037567 2.380068 0.905882
469.224243 -373.037567 2.270893 0.909331
469.224243 -373.037567 2.162304 0.926940
469.224243 -373.037567 2.054063 0.931777
469.224243 -373.037567 1.945937 0.952544
469.224243 -373.037567 1.837696 0.949386
469.224243 -373.037567 1.729107 0.942748
469.224243 -373.037567 1.619932 0.902449
469.224243 -373.037567 1.509933 0.905333
469.224243 -373.037567 1.398860 0.035142
469.224243 -373.037567 1.286455 0.020066
469.224243 -373.037567 1.172450 0.665782
469.229218 -373.064178 2.823986 0.950820
469.229218 -373.064178 2.710472 0.914748
469.229218 -373.064178 2.598551 0.965133
469.229218 -373.064178 2.487956 0.935912
469.229218 -373.064178 2.378430 0.908339
469.229218 -373.064178 2.269726 0.910597
469.229218 -373.064178 2.161604 0.937102
469.229218 -373.064178 2.053830 0.931594
469.229218 -373.064178 1.946170 0.945190
469.229218 -373.064178 1.838396 0.965438
469.229218 -373.064178 1.730274 0.944808
469.229218 -373.064178 1.621570 0.903777
469.229218 -373.064178 1.512044 0.904570
469.229218 -373.064178 1.401449 0.019196
469.229218 -373.064178 1.289530 0.022980
469.229218 -373.064178 1.176016 0.647517
469.234161 -373.090546 2.820491 0.938155
469.234161 -373.090546 2.707458 0.918151
469.234161 -373.090546 2.596013 0.955947
469.234161 -373.090546 2.485887 0.936751
469.234161 -373.090546 2.376825 0.919676
469.234161 -373.090546 2.268582 0.931838
469.234161 -373.090546 2.160919 0.950912
469.234161 -373.090546 2.053601 0.947784
469.234161 -373.090546 1.946399 0.945190
469.234161 -373.090546 1.839081 0.951476
469.234161 -373.090546 1.731418 0.935500
469.234161 -373.090546 1.623175 0.912459
469.234161 -373.090546 1.514114 0.905074
469.234161 -373.090546 1.403988 0.010330
469.234161 -373.090546 1.292543 0.041260
469.234161 -373.090546 1.179510 0.635294
469.239044 -373.116699 2.817065 0.923003
469.239044 -373.116699 2.704504 0.924361
469.239044 -373.116699 2.593524 0.946563
469.239044 -373.116699 2.483858 0.939040
469.239044 -373.116699 2.375252 0.932158
469.239044 -373.116699 2.267461 0.955398
469.239044 -373.116699 2.160247 0.966201
469.239044 -373.116699 2.053378 0.965743
469.239044 -373.116699 1.946622 0.945068
469.239044 -373.116699 1.839753 0.936065
469.239044 -373.116699 1.732539 0.922438
469.239044 -373.116699 1.624748 0.922026
469.239044 -373.116699 1.516142 0.905776
469.239044 -373.116699 1.406477 0.008133
469.239044 -373.116699 1.295496 0.019608
469.239044 -373.116699 1.182936 0.635203
469.243896 -373.142639 2.813707 0.935073
469.243896 -373.142639 2.701609 0.939651
469.243896 -373.142639 2.591085 0.939590
469.243896 -373.142639 2.481870 0.936675
469.243896 -373.142639 2.373710 0.928405
469.243896 -373.142639 2.266362 0.956725
469.243896 -373.142639 2.159589 0.958007
469.243896 -373.142639 2.053158 0.966949
469.243896 -373.142639 1.946842 0.938659
469.243896 -373.142639 1.840411 0.934310
469.243896 -373.142639 1.733638 0.919188
469.243896 -373.142639 1.626290 0.922332
469.243896 -373.142639 1.518131 0.913085
469.243896 -373.142639 1.408916 0.013794
469.243896 -373.142639 1.298392 0.019608
469.243896 -373.142639 1.186294 0.647059
469.248718 -373.168365 2.810417 0.952880
469.248718 -373.168365 2.698772 0.956832
469.248718 -373.168365 2.588694 0.933379
469.248718 -373.168365 2.479921 0.933837
469.248718 -373.168365 2.372199 0.920668
469.248718 -373.168365 2.265285 0.953750
469.248718 -373.168365 2.158943 0.945037
469.248718 -373.168365 2.052943 0.964752
469.248718 -373.168365 1.947057 0.930846
469.248718 -373.168365 1.841057 0.934310
469.248718 -373.168365 1.734715 0.917815
469.248718 -373.168365 1.627802 0.919615
469.248718 -373.168365 1.520080 0.921508
469.248718 -373.168365 1.411306 0.014527
469.248718 -373.168365 1.301229 0.036393
469.248718 -373.168365 1.189584 0.647272
469.253479 -373.193878 2.807192 0.962615
469.253479 -373.193878 2.695991 0.961959
469.253479 -373.193878 2.586352 0.930617
469.253479 -373.193878 2.478011 0.930007
469.253479 -373.193878 2.370718 0.917830
469.253479 -373.193878 2.264229 0.951965
469.253479 -373.193878 2.158311 0.935195
469.253479 -373.193878 2.052732 0.960922
469.253479 -373.193878 1.947268 0.925490
469.253479 -373.193878 1.841689 0.934279
469.253479 -373.193878 1.735771 0.916243
469.253479 -373.193878 1.629283 0.919066
469.253479 -373.193878 1.521989 0.923964
469.253479 -373.193878 1.413649 0.011185
469.253479 -373.193878 1.304010 0.035691
469.253479 -373.193878 1.192810 0.647044
469.258209 -373.219177 2.804031 0.953811
469.258209 -373.219177 2.693266 0.945907
469.258209 -373.219177 2.584056 0.935454
469.258209 -373.219177 2.476139 0.927947
469.258209 -373.219177 2.369266 0.926177
469.258209 -373.219177 2.263195 0.948913
469.258209 -373.219177 2.157691 0.932921
469.258209 -373.219177 2.052526 0.952743
469.258209 -373.219177 1.947474 0.925490
469.258209 -373.219177 1.842309 0.934035
469.258209 -373.219177 1.736806 0.914855
469.258209 -373.219177 1.630734 0.923796
469.258209 -373.219177 1.523861 0.917525
469.258209 -373.219177 1.415945 0.007385
469.258209 -373.219177 1.306735 0.025956
469.258209 -373.219177 1.195970 0.644160
469.262939 -373.244293 2.800934 0.945495
469.262909 -373.244293 2.690596 0.930556
469.262939 -373.244293 2.581806 0.939116
469.262909 -373.244293 2.474305 0.925872
469.262909 -373.244293 2.367844 0.934066
469.262909 -373.244293 2.262181 0.945861
469.262909 -373.244293 2.157083 0.930617
469.262909 -373.244293 2.052324 0.944564
469.262909 -373.244293 1.947676 0.925490
469.262909 -373.244293 1.842917 0.933669
469.262909 -373.244293 1.737819 0.913558
469.262909 -373.244293 1.632157 0.928054
469.262909 -373.244293 1.525695 0.911299
469.262909 -373.244293 1.418194 0.002884
469.262909 -373.244293 1.309405 0.030533
469.262909 -373.244293 1.199067 0.635294
469.267578 -373.269226 2.797899 0.944854
469.267578 -373.269226 2.687979 0.933074
469.267578 -373.269226 2.579602 0.943358
469.267578 -373.269226 2.472508 0.933074
469.267578 -373.269226 2.366450 0.939681
469.267578 -373.269226 2.261187 0.947585
469.267578 -373.269226 2.156488 0.925566
469.267578 -373.269226 2.052125 0.936904
469.267578 -373.269226 1.947875 0.925566
469.267578 -373.269226 1.843512 0.933974
469.267578 -373.269226 1.738813 0.914092
469.267578 -373.269226 1.633550 0.926772
469.267578 -373.269226 1.527492 0.910079
469.267578 -373.269226 1.420399 0.001526
469.267578 -373.269226 1.312022 0.010605
469.267578 -373.269226 1.202102 0.644953
469.272217 -373.293976 2.794927 0.945113
469.272217 -373.293976 2.685416 0.939818
469.272217 -373.293976 2.577442 0.948226
469.272217 -373.293976 2.470748 0.942672
469.272217 -373.293976 2.365085 0.945708
469.272217 -373.293976 2.260214 0.950332
469.272217 -373.293976 2.155905 0.919676
469.272217 -373.293976 2.051931 0.929244
469.272217 -373.293976 1.948069 0.925490
469.272217 -373.293976 1.844095 0.934310
469.272217 -373.293976 1.739786 0.914870
469.272217 -373.293976 1.634916 0.924254
469.272217 -373.293976 1.529253 0.910140
469.272217 -373.293976 1.422558 0.000000
469.272217 -373.293976 1.314585 0.008331
469.272217 -373.293976 1.205075 0.627619
469.276825 -373.318542 2.792014 0.947021
469.276825 -373.318542 2.682904 0.944167
469.276825 -373.318542 2.575326 0.952560
469.276825 -373.318542 2.469023 0.946288
469.276825 -373.318542 2.363747 0.948302
469.276825 -373.318542 2.259261 0.949752
469.276825 -373.318542 2.155334 0.913237
469.276825 -373.318542 2.051741 0.923186
469.276825 -373.318542 1.948259 0.927092
469.276825 -373.318542 1.844666 0.934539
469.276825 -373.318542 1.740739 0.916808
469.276825 -373.318542 1.636253 0.922133
469.276825 -373.318542 1.530977 0.911650
469.276825 -373.318542 1.424674 0.000397
469.276825 -373.318542 1.317096 0.021820
469.276825 -373.318542 1.207987 0.597009
469.281372 -373.342926 2.789161 0.955383
469.281372 -373.342926 2.680444 0.940215
469.281372 -373.342926 2.573254 0.953292
469.281372 -373.342926 2.467334 0.933501
469.281372 -373.342926 2.362437 0.939941
469.281372 -373.342926 2.258327 0.936248
469.281372 -373.342926 2.154774 0.910018
469.281372 -373.342926 2.051555 0.923186
469.281372 -373.342926 1.948445 0.934752
469.281372 -373.342926 1.845226 0.930678
469.281372 -373.342926 1.741673 0.920485
469.281372 -373.342926 1.637564 0.923613
469.281372 -373.342926 1.532667 0.917571
469.281372 -373.342926 1.426746 0.000092
469.281372 -373.342926 1.319556 0.021317
469.281372 -373.342926 1.210840 0.589548
469.285919 -373.367126 2.786367 0.962280
469.285919 -373.367126 2.678035 0.936339
469.285919 -373.367126 2.571225 0.953201
469.285919 -373.367126 2.465679 0.920180
469.285919 -373.367126 2.361153 0.932723
469.285919 -373.367126 2.257412 0.922820
469.285889 -373.367126 2.154227 0.906950
469.285889 -373.367126 2.051372 0.923186
469.285889 -373.367126 1.948628 0.942260
469.285889 -373.367126 1.845774 0.926863
469.285889 -373.367126 1.742588 0.924163
469.285889 -373.367126 1.638847 0.925032
469.285889 -373.367126 1.534321 0.923400
469.285889 -373.367126 1.428776 0.000305
469.285889 -373.367126 1.321965 0.019608
469.285889 -373.367126 1.213634 0.606027
469.290405 -373.391144 2.783630 0.955993
469.290405 -373.391144 2.675676 0.943053
469.290405 -373.391144 2.569237 0.948119
469.290405 -373.391144 2.464058 0.915602
469.290405 -373.391144 2.359897 0.923964
469.290405 -373.391144 2.256516 0.917678
469.290405 -373.391144 2.153690 0.914611
469.290405 -373.391144 2.051193 0.928634
469.290405 -373.391144 1.948807 0.935378
469.290405 -373.391144 1.846310 0.928389
469.290405 -373.391144 1.743484 0.928389
469.290405 -373.391144 1.640104 0.926299
469.290405 -373.391174 1.535942 0.922499
469.290405 -373.391174 1.430764 0.000671
469.290405 -373.391174 1.324325 0.007935
469.290405 -373.391174 1.216370 0.587823
469.294861 -373.415039 2.780951 0.942840
469.294861 -373.415039 2.673365 0.953048
469.294861 -373.415039 2.567290 0.942351
469.294861 -373.415039 2.462472 0.915526
469.294861 -373.415039 2.358666 0.914763
469.294861 -373.415039 2.255639 0.918898
469.294861 -373.415039 2.153164 0.928252
469.294861 -373.415039 2.051018 0.937057
469.294861 -373.415039 1.948982 0.920363
469.294861 -373.415039 1.846836 0.932937
469.294861 -373.415039 1.744361 0.932937
469.294861 -373.415039 1.641334 0.927794
469.294861 -373.415039 1.537529 0.917678
469.294861 -373.415039 1.432710 0.000366
469.294861 -373.415039 1.326635 0.008347
469.294861 -373.415039 1.219050 0.595315
469.299316 -373.438751 2.778327 0.933410
469.299316 -373.438751 2.671103 0.961059
469.299316 -373.438751 2.565385 0.936797
469.299316 -373.438751 2.460918 0.914839
469.299316 -373.438751 2.357461 0.906493
469.299316 -373.438751 2.254781 0.920211
469.299316 -373.438751 2.152650 0.940505
469.299316 -373.438751 2.050847 0.944564
469.299316 -373.438751 1.949153 0.907103
469.299316 -373.438751 1.847350 0.936980
469.299316 -373.438751 1.745220 0.936980
469.299316 -373.438751 1.642539 0.929137
469.299316 -373.438751 1.539083 0.912779
469.299316 -373.438751 1.434616 0.011337
469.299316 -373.438751 1.328897 0.026276
469.299316 -373.438751 1.221673 0.588235
469.303711 -373.462280 2.775759 0.934813
469.303711 -373.462280 2.668889 0.943618
469.303711 -373.462280 2.563519 0.932464
469.303711 -373.462280 2.459397 0.922499
469.303711 -373.462280 2.356282 0.910780
469.303711 -373.462280 2.253940 0.920211
469.303711 -373.462280 2.152146 0.941344
469.303711 -373.462280 2.050679 0.945098
469.303711 -373.462280 1.949321 0.920134
469.303711 -373.462280 1.847854 0.928618
469.303711 -373.462280 1.746060 0.927703
469.303711 -373.462280 1.643719 0.930877
469.303711 -373.462280 1.540603 0.916518
469.303711 -373.462280 1.436481 0.001770
469.303711 -373.462280 1.331112 0.014466
469.303711 -373.462280 1.224242 0.588235
469.308105 -373.485687 2.773246 0.935973
469.308105 -373.485687 2.666722 0.925002
469.308105 -373.485687 2.561693 0.928252
469.308105 -373.485687 2.457909 0.930694
469.308105 -373.485687 2.355127 0.915846
469.308105 -373.485687 2.253117 0.920287
469.308105 -373.485687 2.151653 0.941955
469.308105 -373.485687 2.050515 0.945098
469.308105 -373.485687 1.949485 0.935302
469.308075 -373.485687 1.848347 0.919570
469.308075 -373.485687 1.746883 0.917281
469.308075 -373.485687 1.644873 0.931685
469.308075 -373.485687 1.542092 0.920913
469.308075 -373.485687 1.438308 0.000397
469.308075 -373.485687 1.333279 0.015839
469.308075 -373.485687 1.226756 0.580392
469.312439 -373.508942 2.770786 0.933761
469.312439 -373.508942 2.664600 0.912856
469.312439 -373.508942 2.559906 0.925490
469.312439 -373.508942 2.456452 0.938155
469.312439 -373.508942 2.353997 0.921843
469.312439 -373.508942 2.252312 0.920439
469.312439 -373.508942 2.151170 0.941726
469.312439 -373.508942 2.050354 0.942184
469.312439 -373.508942 1.949646 0.946777
469.312439 -373.508942 1.848830 0.914366
469.312439 -373.508942 1.747688 0.909926
469.312439 -373.508942 1.646003 0.931304
469.312439 -373.508942 1.543549 0.921416
469.312439 -373.508942 1.440094 0.006378
469.312439 -373.508942 1.335401 0.011414
469.312439 -373.508942 1.229215 0.588235
469.316772 -373.532043 2.768378 0.921355
469.316772 -373.532043 2.662525 0.913619
469.316772 -373.532043 2.558157 0.925490
469.316772 -373.532043 2.455026 0.943740
469.316772 -373.532043 2.352892 0.933852
469.316772 -373.532043 2.251523 0.918059
469.316772 -373.532043 2.150698 0.940581
469.316772 -373.532043 2.050197 0.928405
469.316772 -373.532043 1.949803 0.954803
469.316772 -373.532043 1.849302 0.918853
469.316772 -373.532043 1.748476 0.911971
469.316772 -373.532043 1.647108 0.927810
469.316772 -373.532043 1.544974 0.914855
469.316772 -373.532043 1.441843 0.010300
469.316772 -373.532043 1.337476 0.020798
469.316772 -373.532043 1.231623 0.611765
469.321075 -373.554993 2.766023 0.911391
469.321075 -373.554993 2.660494 0.913771
469.321045 -373.554993 2.556447 0.925490
469.321045 -373.554993 2.453632 0.948684
469.321045 -373.554993 2.351810 0.945434
469.321045 -373.554993 2.250753 0.916075
469.321045 -373.554993 2.150237 0.939590
469.321045 -373.554993 2.050043 0.916152
469.321045 -373.554993 1.949957 0.962066
469.321045 -373.554993 1.849764 0.922805
469.321045 -373.554993 1.749247 0.913817
469.321045 -373.554993 1.648190 0.924132
469.321045 -373.554993 1.546369 0.909133
469.321045 -373.554993 1.443554 0.028183
469.321045 -373.554993 1.339507 0.007568
469.321045 -373.554993 1.233978 0.611765
469.325317 -373.577820 2.763720 0.912016
469.325317 -373.577820 2.658508 0.920836
469.325317 -373.577820 2.554774 0.925490
469.325317 -373.577820 2.452268 0.950195
469.325317 -373.577820 2.350752 0.950698
469.325317 -373.577820 2.249999 0.920287
469.325317 -373.577820 2.149785 0.940200
469.325317 -373.577820 2.049893 0.912398
469.325317 -373.577820 1.950107 0.958740
469.325317 -373.577820 1.850215 0.926482
469.325317 -373.577820 1.750001 0.912535
469.325317 -373.577820 1.649248 0.917433
469.325317 -373.577820 1.547733 0.901762
469.325317 -373.577820 1.445227 0.920516
469.325317 -373.577820 1.341493 0.009689
469.325317 -373.577820 1.236281 0.475120
469.329590 -373.600494 2.761467 0.923308
469.329590 -373.600494 2.656566 0.932754
469.329590 -373.600494 2.553137 0.925490
469.329590 -373.600494 2.450933 0.945312
469.329590 -373.600494 2.349718 0.948409
469.329559 -373.600494 2.249261 0.930388
469.329559 -373.600494 2.149343 0.942184
469.329559 -373.600494 2.049745 0.918441
469.329559 -373.600494 1.950255 0.944991
469.329559 -373.600494 1.850657 0.928893
469.329559 -373.600494 1.750739 0.908171
469.329559 -373.600494 1.650283 0.908965
469.329559 -373.600494 1.549067 0.894408
469.329559 -373.600494 1.446863 0.922347
469.329559 -373.600494 1.343435 0.020249
469.329559 -373.600494 1.238534 0.341421
469.333801 -373.623047 2.759265 0.937240
469.333801 -373.623047 2.654667 0.944549
469.333801 -373.623047 2.551537 0.925490
469.333801 -373.623047 2.449629 0.939773
469.333801 -373.623047 2.348706 0.945739
469.333801 -373.623047 2.248540 0.942031
469.333801 -373.623047 2.148911 0.944488
469.333801 -373.623047 2.049602 0.925261
469.333801 -373.623047 1.950398 0.929625
469.333801 -373.623047 1.851089 0.931762
469.333801 -373.623047 1.751460 0.903288
469.333801 -373.623047 1.651294 0.900252
469.333801 -373.623047 1.550371 0.885542
469.333801 -373.623047 1.448463 0.924727
469.333801 -373.623047 1.345334 0.001251
469.333801 -373.623047 1.240736 0.246815
469.337982 -373.645477 2.757112 0.936645
469.337982 -373.645477 2.652810 0.944640
469.337982 -373.645477 2.549973 0.928176
469.337982 -373.645477 2.448354 0.934142
469.337982 -373.645477 2.347718 0.936065
469.337982 -373.645477 2.247836 0.943420
469.337982 -373.645477 2.148489 0.941268
469.337982 -373.645477 2.049461 0.930846
469.337982 -373.645477 1.950539 0.921279
469.337982 -373.645477 1.851511 0.926009
469.337982 -373.645477 1.752164 0.916289
469.337982 -373.645477 1.652283 0.897795
469.337982 -373.645477 1.551646 0.880613
469.337982 -373.645477 1.450027 0.920974
469.337982 -373.645477 1.347190 0.007111
469.337982 -373.645477 1.242889 0.214099
469.342163 -373.667786 2.755008 0.930327
469.342163 -373.667786 2.650996 0.939895
469.342163 -373.667786 2.548445 0.932540
469.342163 -373.667786 2.447108 0.926253
469.342163 -373.667786 2.346751 0.921355
469.342163 -373.667786 2.247147 0.940810
469.342163 -373.667786 2.148076 0.934905
469.342163 -373.667786 2.049323 0.937057
469.342163 -373.667786 1.950677 0.914687
469.342163 -373.667786 1.851924 0.915129
469.342163 -373.667786 1.752853 0.939727
469.342163 -373.667786 1.653249 0.897917
469.342163 -373.667786 1.552892 0.878798
469.342163 -373.667786 1.451556 0.913619
469.342163 -373.667786 1.349005 0.008164
469.342163 -373.667786 1.244993 0.040070
469.346313 -373.689941 2.752952 0.923506
469.346313 -373.689941 2.649223 0.935241
469.346313 -373.689941 2.546952 0.937133
469.346313 -373.689941 2.445891 0.919127
469.346313 -373.689941 2.345807 0.908186
469.346313 -373.689941 2.246474 0.938506
469.346313 -373.689941 2.147673 0.929320
469.346313 -373.689941 2.049189 0.942565
469.346313 -373.689941 1.950811 0.908568
469.346313 -373.689941 1.852327 0.905364
469.346313 -373.689941 1.753526 0.961074
469.346313 -373.689941 1.654193 0.898039
469.346313 -373.689941 1.554109 0.877440
469.346313 -373.689941 1.453049 0.907027
469.346313 -373.689972 1.350777 0.014466
469.346313 -373.689972 1.247049 0.031373
469.350433 -373.712006 2.750944 0.935912
469.350433 -373.712006 2.647492 0.943801
469.350433 -373.712006 2.545493 0.938903
469.350433 -373.712006 2.444702 0.916075
469.350433 -373.712006 2.344885 0.914000
469.350433 -373.712006 2.245816 0.940047
469.350433 -373.712006 2.147279 0.928252
469.350433 -373.712006 2.049058 0.938582
469.350433 -373.712006 1.950942 0.912474
