# This PCD file was generated using the MATLAB® pcwrite function
# from Computer Vision Toolbox®.
# .PCD v.7 - Point Cloud Data file format
VERSION .7
FIELDS x y z intensity
SIZE 4 4 4 4
TYPE F F F F
COUNT 1 1 1 1
WIDTH 1191
HEIGHT 1
VIEWPOINT 0 0 0 1 0 0 0
POINTS 1191
DATA ascii
90.201675 -239.504913 4.279954 0.834607
90.201050 -239.506241 3.768030 0.788128
90.200424 -239.507568 3.260044 0.740047
90.199799 -239.508881 2.754874 0.769039
90.199173 -239.510193 2.251421 0.782635
90.198555 -239.511505 1.748603 0.730632
90.197937 -239.512817 1.245340 0.688823
90.197319 -239.514130 0.740551 0.688930
90.196693 -239.515442 0.233141 1.000000
89.394562 -241.211075 0.000021 0.219383
88.329247 -243.463028 0.000021 0.218342
87.588821 -245.028229 0.000021 0.224601
87.043304 -246.181381 0.000022 0.262156
90.273590 -239.602890 5.835647 0.645060
90.272934 -239.604248 5.306911 0.715084
90.272285 -239.605606 4.785703 0.683528
90.271637 -239.606934 4.270767 0.715343
90.271004 -239.608246 3.760906 0.750286
90.270378 -239.609558 3.254967 0.752117
90.269745 -239.610855 2.751833 0.778561
90.269119 -239.612167 2.250408 0.772931
90.268494 -239.613464 1.749615 0.764080
90.267876 -239.614761 1.248380 0.800427
90.267250 -239.616043 0.745623 0.798901
90.266624 -239.617340 0.240255 1.000000
89.479507 -241.251617 0.000020 0.238855
88.398499 -243.496078 0.000021 0.206841
87.647156 -245.056061 0.000021 0.264873
87.093605 -246.205399 0.000021 0.254425
87.751472 -244.990158 4.345792 0.399863
90.342346 -239.705490 5.293797 0.776089
90.341690 -239.706833 4.774656 0.821088
90.341042 -239.708145 4.261764 0.780362
90.340408 -239.709442 3.753925 0.723766
90.339767 -239.710739 3.249992 0.760342
90.339142 -239.712036 2.748852 0.811536
90.338516 -239.713303 2.249416 0.759869
90.337883 -239.714600 1.750607 0.731929
90.337250 -239.715881 1.251358 0.659175
90.336624 -239.717148 0.750593 0.672816
90.335999 -239.718445 0.247228 1.000000
89.564171 -241.292755 0.000020 0.216941
88.467522 -243.529617 0.000021 0.227880
87.705307 -245.084320 0.000021 0.242457
87.143745 -246.229752 0.000021 0.234869
90.411880 -239.804596 5.805526 0.737148
87.745842 -245.147873 3.991558 0.412482
90.410553 -239.807251 4.763832 0.463493
90.409904 -239.808563 4.252941 0.663767
90.409264 -239.809845 3.747084 0.809400
90.408623 -239.811127 3.245117 0.874723
90.407990 -239.812393 2.745932 0.685359
90.407356 -239.813675 2.248443 0.508385
90.406723 -239.814941 1.751580 0.527291
90.406090 -239.816208 1.254277 0.481880
90.405457 -239.817459 0.755463 0.716121
90.404823 -239.818741 0.254060 1.000000
89.648544 -241.334488 0.000020 0.206673
88.536301 -243.563629 0.000020 0.215398
87.763252 -245.112976 0.000021 0.254305
87.193710 -246.254471 0.000021 0.204962
87.610184 -245.557281 4.202876 0.402930
87.797806 -245.187729 3.988914 0.392935
90.478889 -239.906906 4.753225 0.528542
90.478233 -239.908203 4.244296 0.670649
90.477585 -239.909470 3.740380 0.776654
90.476944 -239.910736 3.240340 0.703807
90.476303 -239.911987 2.743070 0.683146
90.475670 -239.913239 2.247490 0.552865
90.475029 -239.914505 1.752533 0.551949
90.474396 -239.915756 1.257136 0.543267
90.473763 -239.917007 0.760236 0.732280
90.473122 -239.918274 0.260755 1.000000
89.732620 -241.376801 0.000019 0.229603
88.604843 -243.598129 0.000020 0.220017
87.820999 -245.142044 0.000020 0.237909
87.243500 -246.279526 0.000020 0.194538
87.650742 -245.612549 4.195184 0.408408
87.849266 -245.228195 3.986202 0.396078
90.546700 -240.005798 4.742832 0.677806
90.546043 -240.007080 4.235825 0.785046
90.545395 -240.008331 3.733812 0.727230
90.544746 -240.009583 3.235660 0.738384
90.544098 -240.010834 2.740267 0.757702
90.543465 -240.012070 2.246557 0.551003
90.542824 -240.013306 1.753466 0.478691
90.542183 -240.014557 1.259939 0.443839
90.541542 -240.015793 0.764912 0.704005
90.540901 -240.017029 0.267314 1.000000
89.816406 -241.419708 0.000019 0.222147
88.673149 -243.633102 0.000020 0.295151
87.878540 -245.171509 0.000020 0.251469
87.293114 -246.304932 0.000020 0.246729
90.615356 -240.101395 5.762586 0.290852
90.614677 -240.102692 5.243927 0.300237
90.614006 -240.103958 4.732651 0.603357
88.172813 -244.750397 3.449167 0.401022
90.612686 -240.106461 3.727377 0.674189
90.612038 -240.107712 3.231074 0.771923
90.611397 -240.108932 2.737520 0.624170
90.610748 -240.110168 2.245641 0.289494
90.610107 -240.111389 1.754381 0.322927
90.609459 -240.112610 1.262684 0.313558
90.608818 -240.113831 0.769493 0.729442
90.608170 -240.115067 0.273741 1.000000
89.899887 -241.463181 0.000019 0.184868
88.741203 -243.668564 0.000019 0.195878
87.935875 -245.201370 0.000019 0.213818
87.342552 -246.330688 0.000019 0.245257
87.768326 -245.652130 4.200105 0.396307
90.681488 -240.200134 5.232086 0.303960
88.003899 -245.211243 3.689132 0.399756
90.680153 -240.202637 4.219397 0.794400
90.679497 -240.203873 3.721073 0.724910
90.678841 -240.205093 3.226582 0.830854
90.678192 -240.206314 2.734829 0.727214
90.677544 -240.207520 2.244745 0.299168
90.676895 -240.208740 1.755277 0.241489
90.676247 -240.209946 1.265373 0.248890
90.675606 -240.211151 0.773981 0.712978
90.674950 -240.212387 0.280036 1.000000
89.983055 -241.507263 0.000019 0.245138
88.809006 -243.704483 0.000019 0.280694
87.993004 -245.231644 0.000019 0.217923
87.391808 -246.356781 0.000019 0.203047
87.769890 -245.777679 4.172603 0.400046
90.747826 -240.296875 5.220488 0.243015
90.747147 -240.298126 4.712907 0.630900
88.401802 -244.614655 3.482934 0.396323
90.745819 -240.300583 3.714899 0.721736
90.745163 -240.301788 3.222182 0.723918
90.744507 -240.302994 2.732193 0.660594
90.743851 -240.304184 2.243868 0.295277
90.743202 -240.305389 1.756155 0.229129
90.742554 -240.306580 1.268008 0.259861
90.741905 -240.307785 0.778377 0.686915
90.741241 -240.308990 0.286203 1.000000
90.065918 -241.551910 0.000018 0.252654
88.876564 -243.740891 0.000019 0.260935
88.049911 -245.262299 0.000018 0.223691
87.440872 -246.383224 0.000019 0.204567
87.808792 -245.832489 4.165246 0.394919
88.191132 -245.140366 4.037734 0.396078
90.813011 -240.394165 4.703340 0.435309
88.380547 -244.797470 3.457636 0.407065
90.811668 -240.396591 3.708852 0.611170
90.811005 -240.397797 3.217872 0.679850
90.810349 -240.398987 2.729612 0.609674
90.809692 -240.400162 2.243008 0.292195
90.809036 -240.401352 1.757014 0.190295
90.808380 -240.402542 1.270588 0.351370
90.807732 -240.403717 0.782683 0.725353
90.807068 -240.404922 0.292243 1.000000
90.148476 -241.597122 0.000018 0.235145
88.943863 -243.777756 0.000018 0.216870
88.106613 -245.293365 0.000018 0.198643
87.489761 -246.410004 0.000018 0.279055
88.100204 -245.436798 4.287354 0.396078
88.178650 -245.297104 4.006847 0.407843
88.392662 -244.916016 3.770238 0.386725
90.877731 -240.490753 4.195996 0.843290
90.877060 -240.491943 3.702930 0.665904
90.876396 -240.493118 3.213652 0.807172
90.875732 -240.494293 2.727084 0.742687
90.875076 -240.495468 2.242166 0.300481
90.874413 -240.496643 1.757856 0.195529
90.873756 -240.497818 1.273114 0.241428
90.873100 -240.498993 0.786899 0.710689
90.872437 -240.500183 0.298157 1.000000
90.230705 -241.642929 0.000017 0.182761
89.010902 -243.815094 0.000018 0.236497
88.163086 -245.324829 0.000018 0.250487
87.538460 -246.437119 0.000018 0.206254
87.992996 -245.753235 4.205151 0.382055
88.331047 -245.160965 4.048651 0.395514
88.472404 -244.913315 3.777814 0.400809
90.942673 -240.585449 4.188519 0.762036
90.942001 -240.586624 3.697131 0.736217
90.941330 -240.587799 3.209520 0.769223
90.940666 -240.588974 2.724608 0.738964
90.940002 -240.590134 2.241342 0.597406
90.939346 -240.591293 1.758680 0.504906
90.938683 -240.592453 1.275588 0.469993
90.938019 -240.593613 0.791028 0.697871
90.937347 -240.594788 0.303949 1.000000
90.312622 -241.689301 0.000017 0.262479
89.077675 -243.852890 0.000018 0.231052
88.219345 -245.356674 0.000017 0.238448
87.586967 -246.464584 0.000018 0.270402
88.037827 -245.798431 4.200935 0.400534
88.446564 -245.093811 4.073667 0.400351
88.534462 -244.942276 3.778877 0.400488
91.007187 -240.679520 4.181197 0.700343
91.006508 -240.680679 3.691454 0.713848
91.005836 -240.681839 3.205474 0.716731
91.005165 -240.682999 2.722185 0.735210
91.004501 -240.684143 2.240534 0.744991
91.003838 -240.685287 1.759487 0.545174
91.003166 -240.686447 1.278011 0.503609
91.002495 -240.687592 0.795071 0.672389
91.001831 -240.688751 0.309619 1.000000
90.394203 -241.736237 0.000017 0.201850
89.144188 -243.891159 0.000017 0.238795
88.275375 -245.388916 0.000017 0.267159
87.635284 -246.492386 0.000018 0.222076
88.102959 -245.808731 4.206946 0.403174
88.428185 -245.256989 4.041238 0.388739
88.680351 -244.829178 3.810042 0.395956
91.071266 -240.772964 4.174030 0.709804
91.070587 -240.774109 3.685896 0.648081
91.069908 -240.775269 3.201514 0.803662
91.069237 -240.776398 2.719812 0.681758
91.068573 -240.777542 2.239745 0.800839
91.067902 -240.778671 1.760277 0.644984
91.067230 -240.779816 1.280382 0.674037
91.066551 -240.780960 0.799028 0.788800
91.065880 -240.782089 0.315169 1.000000
90.475464 -241.783752 0.000016 0.221824
89.210434 -243.929901 0.000017 0.226492
88.331184 -245.421539 0.000017 0.225774
87.683403 -246.520523 0.000017 0.227928
88.157417 -245.837524 4.207714 0.406317
88.542984 -245.193710 4.065652 0.390005
88.416534 -245.404861 3.695469 0.398444
88.935432 -244.538422 3.532004 0.393210
91.134247 -240.866943 3.680457 0.647578
91.133568 -240.868073 3.197638 0.817258
91.132896 -240.869202 2.717490 0.617578
91.132217 -240.870331 2.238971 0.708873
91.131546 -240.871445 1.761050 0.807706
91.130875 -240.872574 1.282702 0.735958
91.130196 -240.873718 0.802901 0.780484
91.129524 -240.874832 0.320602 1.000000
90.556381 -241.831833 0.000016 0.238771
89.276398 -243.969086 0.000016 0.237718
88.386765 -245.454559 0.000016 0.246849
87.731323 -246.548996 0.000017 0.235743
88.107674 -246.037659 4.158355 0.400992
88.540245 -245.326675 4.040760 0.403265
88.486969 -245.414246 3.700630 0.401892
91.198189 -240.958038 4.160150 0.826154
91.197502 -240.959167 3.675134 0.797101
91.196823 -240.960297 3.193844 0.807233
91.196144 -240.961411 2.715218 0.833524
91.195465 -240.962524 2.238215 0.877409
91.194786 -240.963638 1.761807 0.813062
91.194107 -240.964752 1.284974 0.856794
91.193428 -240.965881 0.806691 0.766506
91.192749 -240.966980 0.325918 1.000000
90.636971 -241.880478 0.000016 0.229915
89.342094 -244.008743 0.000016 0.241452
88.442108 -245.487976 0.000016 0.195100
87.779045 -246.577805 0.000017 0.259547
88.170601 -246.050262 4.163903 0.396719
88.613808 -245.333115 4.047881 0.406699
88.556396 -245.426025 3.705406 0.392294
89.003448 -244.702652 3.516437 0.405035
91.260361 -241.050827 3.669926 0.660319
91.259674 -241.051941 3.190133 0.729778
91.258995 -241.053040 2.712995 0.678706
91.258316 -241.054138 2.237474 0.757229
91.257629 -241.055237 1.762547 0.772030
91.256950 -241.056351 1.287196 0.672007
91.256264 -241.057449 0.810399 0.779004
91.255585 -241.058563 0.331120 1.000000
90.717216 -241.929672 0.000015 0.221944
89.407516 -244.048859 0.000016 0.269229
88.497223 -245.521759 0.000016 0.192910
87.826561 -246.606934 0.000017 0.223213
88.326874 -245.914749 4.213414 0.378042
88.705315 -245.311859 4.062227 0.397177
88.806252 -245.151047 3.771913 0.395636
89.394653 -244.213684 3.608685 0.395453
91.322838 -241.141907 3.664830 0.625666
91.322144 -241.143021 3.186502 0.743358
91.321457 -241.144104 2.710820 0.707713
91.320778 -241.145203 2.236750 0.707225
91.320091 -241.146286 1.763271 0.745144
91.319405 -241.147369 1.289370 0.681422
91.318718 -241.148468 0.814026 0.768185
91.318031 -241.149567 0.336209 1.000000
90.797112 -241.979431 0.000015 0.259786
89.472649 -244.089432 0.000016 0.215625
88.552094 -245.555939 0.000016 0.220316
87.873878 -246.636414 0.000016 0.209067
88.305069 -246.063705 4.178958 0.396460
88.736870 -245.386353 4.052272 0.396292
88.867447 -245.181534 3.773176 0.384863
89.162338 -244.718933 3.526922 0.401068
91.384933 -241.232452 3.659847 0.719875
91.384239 -241.233551 3.182951 0.662135
91.383545 -241.234619 2.708692 0.722332
91.382858 -241.235703 2.236041 0.692226
91.382172 -241.236786 1.763980 0.766567
91.381485 -241.237869 1.291496 0.659022
91.380798 -241.238937 0.817574 0.738354
91.380104 -241.240021 0.341186 1.000000
90.876663 -242.029755 0.000014 0.206697
89.537498 -244.130447 0.000015 0.259008
88.606735 -245.590500 0.000015 0.187536
87.920990 -246.666199 0.000015 0.189487
88.369827 -246.075424 4.185258 0.400565
88.671867 -245.608841 4.004256 0.409339
88.831818 -245.361755 3.742083 0.396078
89.799416 -243.867050 3.684318 0.403906
91.446663 -241.322449 3.654974 0.724163
91.445961 -241.323532 3.179478 0.575662
91.445267 -241.324600 2.706612 0.646235
91.444572 -241.325668 2.235348 0.723690
91.443886 -241.326736 1.764673 0.842268
91.443192 -241.327805 1.293575 0.687022
91.442505 -241.328873 0.821044 0.702174
91.441811 -241.329941 0.346053 1.000000
90.955856 -242.080627 0.000014 0.234762
89.602058 -244.171921 0.000015 0.252797
88.661125 -245.625443 0.000015 0.254532
87.967888 -246.696335 0.000015 0.239764
88.435249 -246.086777 4.191828 0.394934
88.850243 -245.455429 4.053057 0.396582
88.904549 -245.372803 3.747631 0.402747
89.176071 -244.959702 3.498047 0.402029
91.508034 -241.411926 3.650210 0.850706
91.507332 -241.412994 3.176083 0.756741
91.506630 -241.414063 2.704578 0.718990
91.505936 -241.415131 2.234671 0.775723
91.505241 -241.416183 1.765350 0.865782
91.504547 -241.417236 1.295608 0.848966
91.503853 -241.418289 0.824436 0.783429
91.503159 -241.419357 0.350811 1.000000
91.034691 -242.132050 0.000014 0.229388
89.666336 -244.213837 0.000014 0.257788
88.715271 -245.660767 0.000015 0.212023
88.014572 -246.726791 0.000015 0.228790
88.508247 -246.087448 4.201787 0.401343
91.571205 -241.497681 5.090224 0.721416
89.040489 -245.289886 3.773866 0.382223
91.569756 -241.499847 4.122000 0.713588
91.569046 -241.500916 3.645552 0.742687
91.568344 -241.501968 3.172764 0.724926
91.567642 -241.503021 2.702590 0.717342
91.566948 -241.504059 2.234009 0.688457
91.566246 -241.505112 1.766012 0.697780
91.565552 -241.506149 1.297595 0.757290
91.564857 -241.507187 0.827752 0.711208
91.564148 -241.508240 0.355463 1.000000
91.113167 -242.184036 0.000013 0.243067
89.730309 -244.256210 0.000014 0.206170
88.769173 -245.696457 0.000014 0.244228
88.061043 -246.757568 0.000015 0.231985
88.575058 -246.098236 4.208882 0.383093
88.281380 -246.531723 3.791494 0.402106
89.082016 -245.349930 3.769016 0.388296
91.630440 -241.588333 4.116130 0.764614
91.629730 -241.589386 3.641000 0.715602
91.629021 -241.590424 3.169520 0.781399
91.628319 -241.591461 2.700647 0.707256
91.627617 -241.592499 2.233361 0.760800
91.626915 -241.593536 1.766659 0.787442
91.626213 -241.594574 1.299537 0.691096
91.625519 -241.595596 0.830992 0.735576
91.624809 -241.596649 0.360008 1.000000
91.191284 -242.236542 0.000013 0.203777
89.793991 -244.299026 0.000014 0.240374
88.822815 -245.732529 0.000014 0.222770
88.107300 -246.788666 0.000014 0.206781
88.616180 -246.147079 4.204581 0.403616
91.692261 -241.674194 5.073326 0.792187
89.125191 -245.406937 3.764878 0.404669
91.690804 -241.676315 4.110399 0.676814
91.690079 -241.677368 3.636555 0.692042
91.689362 -241.678406 3.166351 0.744732
91.688660 -241.679443 2.698749 0.734981
91.687958 -241.680466 2.232730 0.723293
91.687248 -241.681488 1.767291 0.701060
91.686539 -241.682510 1.301434 0.687907
91.685844 -241.683533 0.834158 0.695109
91.685135 -241.684555 0.364449 1.000000
91.269028 -242.289612 0.000013 0.224445
89.857368 -244.342285 0.000013 0.191976
88.876213 -245.768967 0.000013 0.269325
88.153343 -246.820084 0.000013 0.192288
88.717804 -246.108841 4.226953 0.398535
88.037132 -247.083954 3.663325 0.396521
91.751564 -241.762802 4.582079 0.670069
89.917381 -244.390381 3.629655 0.396429
91.750114 -241.764877 3.632214 0.679133
91.749397 -241.765900 3.163258 0.704234
91.748680 -241.766937 2.696895 0.681315
91.747971 -241.767944 2.232112 0.644404
91.747261 -241.768967 1.767908 0.570138
91.746552 -241.769974 1.303287 0.671290
91.745850 -241.770981 0.837250 0.683360
91.745132 -241.772003 0.368787 1.000000
91.346405 -242.343216 0.000012 0.210993
89.920448 -244.385986 0.000013 0.223619
88.929352 -245.805786 0.000013 0.213782
88.199165 -246.851837 0.000013 0.294517
88.287483 -246.823593 4.018499 0.397650
91.812012 -241.848846 5.057199 0.698192
89.242546 -245.475555 3.766863 0.375906
91.810547 -241.850906 4.099329 0.763241
91.809830 -241.851929 3.627974 0.678920
91.809113 -241.852936 3.160237 0.739818
91.808395 -241.853958 2.695086 0.643412
91.807678 -241.854965 2.231510 0.689174
91.806961 -241.855988 1.768511 0.692775
91.806244 -241.856995 1.305097 0.768948
91.805534 -241.857986 0.840270 0.742107
91.804825 -241.858994 0.373023 1.000000
91.423401 -242.397369 0.000012 0.242612
89.983215 -244.430130 0.000012 0.243522
88.982231 -245.842972 0.000013 0.220759
88.244759 -246.883896 0.000013 0.234367
89.936569 -244.626450 4.706436 0.396078
91.871429 -241.935486 5.049422 0.696620
91.870682 -241.936523 4.568817 0.858946
91.869957 -241.937531 4.093989 0.717708
91.869232 -241.938538 3.623833 0.670710
91.868515 -241.939545 3.157287 0.808148
91.867798 -241.940536 2.693319 0.673518
91.867081 -241.941544 2.230921 0.742596
91.866356 -241.942535 1.769099 0.699107
91.865631 -241.943542 1.306863 0.778241
91.864922 -241.944534 0.843218 0.749691
91.864204 -241.945541 0.377158 1.000000
91.500015 -242.452042 0.000011 0.238029
90.045677 -244.474701 0.000012 0.189667
89.034851 -245.880539 0.000012 0.253312
88.290131 -246.916275 0.000013 0.199516
90.135773 -244.481415 4.765127 0.406134
91.930534 -242.021713 5.041831 0.645808
91.929794 -242.022736 4.562422 0.725414
90.696648 -243.712738 3.778630 0.393088
91.928329 -242.024734 3.619792 0.711559
91.927612 -242.025711 3.154407 0.846571
91.926895 -242.026688 2.691594 0.615534
91.926178 -242.027679 2.230347 0.741268
91.925446 -242.028687 1.769674 0.721325
91.924728 -242.029678 1.308587 0.680491
91.924004 -242.030655 0.846094 0.748653
91.923286 -242.031647 0.381193 1.000000
91.576248 -242.507263 0.000011 0.214859
90.107819 -244.519714 0.000012 0.217683
89.087212 -245.918457 0.000012 0.219742
88.335274 -246.948975 0.000012 0.251397
88.281609 -247.115128 3.958492 0.407919
91.989365 -242.107483 5.034427 0.481971
90.391541 -244.265488 4.067838 0.409033
90.810493 -243.699646 3.790198 0.395407
91.987152 -242.110489 3.615850 0.775570
91.986427 -242.111465 3.151598 0.756374
91.985703 -242.112427 2.689911 0.696910
91.984978 -242.113403 2.229786 0.498665
91.984253 -242.114395 1.770234 0.483558
91.983521 -242.115372 1.310268 0.470832
91.982803 -242.116348 0.848901 0.619440
91.982079 -242.117325 0.385130 1.000000
91.652092 -242.563004 0.000011 0.245389
90.169655 -244.565155 0.000011 0.227030
89.139305 -245.956741 0.000012 0.210287
88.380188 -246.981995 0.000012 0.196967
88.615128 -246.762070 4.079329 0.399664
88.980560 -246.275650 3.924277 0.390463
89.945580 -244.991165 3.913478 0.400717
90.345581 -244.458740 3.658706 0.396368
92.045685 -242.195816 3.612006 0.795560
92.044952 -242.196793 3.148859 0.754360
92.044235 -242.197754 2.688271 0.709209
92.043503 -242.198715 2.229239 0.556481
92.042770 -242.199692 1.770780 0.562783
92.042038 -242.200668 1.311909 0.530404
92.041313 -242.201630 0.851638 0.644923
92.040588 -242.202606 0.388969 1.000000
91.727547 -242.619278 0.000010 0.232009
90.231163 -244.611038 0.000011 0.226001
89.191124 -245.995392 0.000011 0.236916
88.424873 -247.015320 0.000012 0.229639
89.696526 -245.439011 4.507059 0.410193
89.723930 -245.403046 4.171445 0.394903
89.748642 -245.370621 3.836797 0.421988
90.413261 -244.498734 3.660034 0.397101
92.103935 -242.280762 3.608258 0.748241
92.103210 -242.281723 3.146187 0.782925
92.102478 -242.282669 2.686671 0.700633
92.101746 -242.283630 2.228707 0.532815
92.101013 -242.284592 1.771313 0.508064
92.100281 -242.285553 1.313508 0.466270
92.099548 -242.286514 0.854307 0.773251
92.098824 -242.287476 0.392712 1.000000
91.802605 -242.676071 0.000010 0.255789
90.292358 -244.657349 0.000011 0.265890
89.242676 -246.034393 0.000011 0.250080
88.469322 -247.048950 0.000011 0.241105
92.164948 -242.361404 5.495067 0.326863
89.035446 -246.408035 3.908723 0.391302
90.581490 -244.408905 4.067883 0.388235
90.333672 -244.729355 3.625710 0.396994
92.161926 -242.365326 3.604605 0.687922
92.161194 -242.366257 3.143585 0.776944
92.160461 -242.367203 2.685111 0.713161
92.159729 -242.368149 2.228188 0.274891
92.158997 -242.369110 1.771832 0.314229
92.158257 -242.370056 1.315066 0.317647
92.157516 -242.371017 0.856907 0.808454
92.156792 -242.371948 0.396360 1.000000
91.877266 -242.733398 0.000009 0.250128
90.353218 -244.704071 0.000010 0.222794
89.293953 -246.073761 0.000010 0.262312
88.513535 -247.082901 0.000011 0.239884
90.451927 -244.702576 4.768743 0.393515
92.221916 -242.446609 5.006624 0.307073
90.210495 -245.010300 3.940072 0.404547
90.290260 -244.908630 3.600773 0.396704
92.219650 -242.449493 3.601048 0.701366
92.218918 -242.450424 3.141049 0.748333
92.218185 -242.451355 2.683592 0.705074
92.217453 -242.452301 2.227682 0.284077
92.216713 -242.453247 1.772338 0.234653
92.215973 -242.454178 1.316584 0.250416
92.215225 -242.455124 0.859440 0.780591
92.214500 -242.456055 0.399913 1.000000
91.951523 -242.791245 0.000009 0.223943
90.413757 -244.751221 0.000010 0.278564
89.344955 -246.113495 0.000010 0.223332
88.557510 -247.117142 0.000010 0.212298
90.216942 -245.121735 4.649870 0.402899
92.279404 -242.530441 5.000116 0.225528
89.939720 -245.470032 3.843892 0.401358
91.373871 -243.668152 3.844804 0.395041
92.277130 -242.533295 3.597583 0.787350
92.276398 -242.534225 3.138581 0.733837
92.275658 -242.535141 2.682113 0.718151
92.274918 -242.536072 2.227189 0.262409
92.274178 -242.537003 1.772830 0.262287
92.273430 -242.537933 1.318062 0.287114
92.272690 -242.538879 0.861907 0.775128
92.271957 -242.539795 0.403373 1.000000
92.025383 -242.849594 0.000009 0.226935
90.473969 -244.798798 0.000010 0.220987
89.395676 -246.153564 0.000010 0.220340
88.601242 -247.151703 0.000010 0.259511
91.349541 -243.836502 5.078506 0.395300
90.169235 -245.298386 4.248603 0.398810
92.335876 -242.614868 4.521951 0.787655
90.523933 -244.859070 3.628112 0.396506
92.334366 -242.616745 3.594211 0.651652
92.333618 -242.617661 3.136177 0.816144
92.332886 -242.618576 2.680674 0.713268
89.370819 -246.287277 2.149570 0.382544
89.306061 -246.367493 1.852117 0.368292
89.328728 -246.339417 1.554261 0.364843
89.396660 -246.255264 1.247170 0.376028
92.329163 -242.623184 0.406741 1.000000
92.098824 -242.908463 0.000008 0.231339
90.533844 -244.846802 0.000009 0.226947
89.446121 -246.194016 0.000010 0.261079
88.644737 -247.186569 0.000010 0.234714
90.598755 -244.888641 4.755379 0.396078
92.393654 -242.697037 4.987622 0.322774
92.392883 -242.697983 4.516761 0.787213
90.580399 -244.911072 3.627411 0.395666
92.391357 -242.699829 3.590932 0.560983
89.379425 -246.377472 2.744163 0.378271
89.318573 -246.451782 2.441141 0.376471
89.314857 -246.456314 2.146846 0.357763
89.321770 -246.447876 1.852975 0.394491
89.317245 -246.453400 1.558961 0.387686
89.312408 -246.459305 1.264509 0.402731
89.369087 -246.390091 0.957804 0.374823
92.171860 -242.967850 0.000008 0.214715
89.408798 -246.341614 0.340190 0.409445
89.258804 -246.524750 0.080958 0.404288
88.687988 -247.221741 0.000010 0.236389
89.466316 -246.372025 4.288240 0.387366
89.460106 -246.379517 3.970907 0.380056
89.405708 -246.444992 3.644941 0.370977
89.417763 -246.430481 3.343803 0.381796
89.389061 -246.465027 3.037008 0.330343
89.369484 -246.488602 2.736615 0.357809
89.354492 -246.506638 2.440185 0.392004
89.349754 -246.512344 2.146502 0.394080
89.356285 -246.504486 1.853331 0.400290
89.351921 -246.509735 1.560013 0.400458
89.347275 -246.515335 1.266234 0.393042
89.347961 -246.514496 0.970391 0.423209
89.339088 -246.525177 0.674460 0.401923
89.321472 -246.546387 0.379044 0.390524
89.293167 -246.580460 0.085516 0.389013
88.730988 -247.257202 0.000009 0.189092
89.465729 -246.471710 4.268995 0.377646
89.466057 -246.471313 3.956525 0.396078
89.454483 -246.485046 3.645046 0.363973
89.439629 -246.502686 3.337670 0.337224
89.422813 -246.522644 3.034416 0.370703
89.403854 -246.545135 2.734868 0.350942
89.389008 -246.562759 2.439158 0.366354
89.384132 -246.568542 2.146158 0.358419
89.390961 -246.560440 1.853669 0.367086
89.386269 -246.566010 1.561051 0.369589
89.381310 -246.571899 1.268000 0.370199
89.381279 -246.571930 0.972999 0.391852
89.371574 -246.583450 0.677996 0.390387
89.354057 -246.604233 0.383312 0.378027
89.326309 -246.637161 0.090317 0.370825
88.773743 -247.292969 0.000009 0.212621
89.502510 -246.526001 4.264587 0.366949
89.502205 -246.526367 3.952510 0.388235
89.490097 -246.540527 3.641541 0.381888
89.475021 -246.558167 3.334790 0.368383
89.458298 -246.577744 3.032224 0.348745
89.439560 -246.599670 2.733353 0.340444
89.434441 -246.605652 2.438996 0.377203
89.442940 -246.595718 2.146441 0.340505
89.467133 -246.567398 1.852949 0.388159
89.451775 -246.585373 1.559694 0.388052
89.423363 -246.618622 1.268691 0.411582
89.415840 -246.627426 0.975294 0.385901
89.405319 -246.639740 0.681125 0.395605
89.387939 -246.660065 0.387069 0.330831
89.359840 -246.692947 0.094816 0.383673
88.816246 -247.329041 0.000008 0.180858
89.584328 -246.527969 4.277583 0.380789
89.578735 -246.534424 3.961973 0.368429
89.570190 -246.544281 3.650530 0.353765
89.529762 -246.590927 3.336404 0.386740
89.516167 -246.606613 3.034050 0.376837
89.523689 -246.597931 2.737961 0.387793
89.519867 -246.602341 2.441857 0.368566
89.526886 -246.594254 2.147356 0.365164
89.550644 -246.566833 1.852051 0.366476
89.535759 -246.584000 1.556951 0.392538
89.507149 -246.617020 1.264109 0.401877
89.470108 -246.659760 0.974041 0.366186
89.436905 -246.698059 0.684626 0.391363
89.419899 -246.717682 0.391222 0.371832
89.420723 -246.716736 0.090133 0.361303
88.858498 -247.365402 0.000008 0.258697
92.676155 -243.106873 5.432467 0.841306
92.675354 -243.107788 4.959340 0.771176
92.674561 -243.108688 4.492938 0.724178
89.617828 -246.586014 3.345544 0.368780
89.600845 -246.605331 3.040566 0.376181
89.608780 -246.596298 2.742650 0.373846
92.671471 -243.112198 2.672845 0.716899
92.670708 -243.113068 2.224102 0.751247
92.669945 -243.113937 1.775916 0.816281
92.669189 -243.114792 1.327324 0.730388
89.590553 -246.617035 1.259614 0.358862
89.551865 -246.661057 0.967968 0.364660
89.516861 -246.700867 0.677140 0.389944
89.494499 -246.726303 0.383477 0.411429
89.502312 -246.717422 0.078657 0.391714
88.900490 -247.402054 0.000007 0.232188
89.520424 -246.790436 4.217635 0.362615
92.731071 -243.189026 4.954178 0.737346
92.730278 -243.189926 4.488590 0.825223
89.838287 -246.433884 3.384118 0.391653
92.728714 -243.191666 3.573127 0.857313
92.727943 -243.192535 3.121151 0.689357
92.727173 -243.193405 2.671672 0.743145
92.726410 -243.194260 2.223712 0.713207
92.725647 -243.195114 1.776307 0.733944
92.724884 -243.195969 1.328497 0.786786
92.724113 -243.196838 0.879320 0.827741
89.637001 -246.659668 0.961356 0.395468
89.601318 -246.699692 0.668705 0.387350
89.578186 -246.725632 0.373293 0.358495
89.587257 -246.715454 0.066178 0.373037
88.942230 -247.438995 0.000007 0.218976
92.787407 -243.269104 5.420680 0.724758
92.786606 -243.269989 4.949179 0.713130
92.785805 -243.270874 4.484379 0.811246
90.811600 -245.454468 3.588677 0.401251
91.124641 -245.108231 3.285783 0.398291
92.783463 -243.273468 3.119254 0.653056
92.782684 -243.274323 2.670536 0.632486
92.781921 -243.275177 2.223333 0.719081
92.781151 -243.276016 1.776685 0.677150
92.780380 -243.276871 1.329633 0.809613
92.779617 -243.277725 0.881215 0.709712
92.778847 -243.278564 0.430459 1.000000
92.671219 -243.397614 0.000005 0.245114
91.000473 -245.245560 0.000006 0.268236
89.839249 -246.529953 0.000007 0.244132
88.983704 -247.476242 0.000007 0.248848
92.842758 -243.349808 5.415064 0.719371
92.841949 -243.350693 4.944338 0.622599
92.841141 -243.351563 4.480302 0.821012
90.917091 -245.450043 3.599697 0.396078
91.197884 -245.143799 3.288429 0.400580
92.838791 -243.354141 3.117418 0.797528
92.838013 -243.354980 2.669436 0.612955
92.837242 -243.355820 2.222967 0.776791
92.836472 -243.356659 1.777051 0.698070
92.835701 -243.357498 1.330732 0.812802
92.834930 -243.358353 0.883050 0.781491
92.834160 -243.359192 0.433033 1.000000
92.740822 -243.460983 0.000005 0.208229
91.057220 -245.297211 0.000006 0.203609
89.887054 -246.573471 0.000006 0.264454
89.024925 -247.513763 0.000006 0.268954
92.897926 -243.430252 5.409634 0.755337
92.897110 -243.431122 4.939656 0.666606
92.896301 -243.431992 4.476357 0.743618
90.761047 -245.728439 3.553654 0.395438
92.894722 -243.433701 3.565396 0.635355
92.893944 -243.434540 3.115643 0.824887
92.893166 -243.435364 2.668372 0.628611
92.892387 -243.436203 2.222613 0.807431
92.891617 -243.437042 1.777406 0.760388
92.890839 -243.437866 1.331795 0.819806
92.890068 -243.438705 0.884824 0.710430
92.889290 -243.439545 0.435522 1.000000
92.809982 -243.524826 0.000005 0.240398
91.113602 -245.349274 0.000005 0.198906
89.934547 -246.617325 0.000006 0.231542
89.065880 -247.551575 0.000006 0.211257
92.952919 -243.510452 5.404385 0.727398
92.952103 -243.511322 4.935132 0.731670
92.951294 -243.512177 4.472548 0.694453
91.160912 -245.410950 3.628572 0.392660
91.347778 -245.212769 3.294361 0.392157
92.948921 -243.514694 3.113926 0.787594
92.948135 -243.515518 2.667344 0.703380
92.947365 -243.516342 2.222270 0.656153
92.946587 -243.517166 1.777748 0.662181
92.945808 -243.517990 1.332823 0.750988
92.945030 -243.518814 0.886539 0.742245
92.944244 -243.519638 0.437928 1.000000
92.878700 -243.589157 0.000004 0.238304
91.169617 -245.401718 0.000005 0.246215
89.981743 -246.661514 0.000006 0.263808
89.106567 -247.589676 0.000005 0.191677
93.007759 -243.590378 5.399325 0.425361
93.006943 -243.591248 4.930770 0.443168
93.006126 -243.592087 4.468872 0.426566
90.875710 -245.820129 3.555427 0.407965
93.004539 -243.593750 3.560665 0.426612
93.003754 -243.594574 3.112271 0.451041
93.002968 -243.595398 2.666353 0.443030
93.002190 -243.596222 2.221940 0.441428
93.001411 -243.597031 1.778078 0.465400
93.000633 -243.597839 1.333813 0.448600
92.999847 -243.598663 0.888191 0.436362
92.999062 -243.599487 0.440246 0.451591
92.946960 -243.653976 0.000004 0.203083
91.225266 -245.454559 0.000004 0.227258
90.028625 -246.706024 0.000005 0.256423
89.146996 -247.628052 0.000005 0.241727
93.062439 -243.670105 5.394441 0.207645
93.061615 -243.670944 4.926559 0.214633
93.060799 -243.671783 4.465326 0.211749
90.932007 -245.867233 3.556186 0.398322
93.059196 -243.673431 3.558424 0.217487
93.058403 -243.674255 3.110673 0.196765
93.057617 -243.675064 2.665396 0.216388
93.056831 -243.675873 2.221622 0.207950
93.056046 -243.676682 1.778397 0.212238
93.055260 -243.677490 1.334770 0.213870
93.054474 -243.678299 0.889788 0.211093
93.053688 -243.679123 0.442487 0.215747
93.014763 -243.719269 0.000003 0.236904
91.280540 -245.507782 0.000004 0.209210
90.075195 -246.750870 0.000004 0.202759
89.187149 -247.666718 0.000005 0.285661
93.116943 -243.749603 5.389731 0.232349
93.116112 -243.750443 4.922499 0.233555
91.195160 -245.704056 3.963588 0.400656
91.320992 -245.576080 3.627398 0.387869
91.199547 -245.699600 3.242188 0.396078
93.112885 -243.753723 3.109133 0.225422
93.112099 -243.754532 2.664473 0.201160
93.111313 -243.755325 2.221315 0.229908
93.110527 -243.756134 1.778704 0.230976
93.109741 -243.756927 1.335693 0.228962
93.108948 -243.757736 0.891328 0.225940
93.108154 -243.758545 0.444646 0.231754
93.082115 -243.785019 0.000003 0.226659
91.335449 -245.561386 0.000004 0.207439
90.121452 -246.796036 0.000004 0.278564
89.227028 -247.705658 0.000005 0.193077
93.171318 -243.828873 5.385204 0.835325
93.170486 -243.829712 4.918596 0.590768
91.188156 -245.817780 3.947989 0.401877
91.085609 -245.920624 3.566513 0.397986
93.168045 -243.832153 3.554183 0.640192
93.167244 -243.832947 3.107652 0.682338
93.166451 -243.833755 2.663586 0.745159
93.165657 -243.834549 2.221019 0.697200
93.164871 -243.835327 1.778999 0.706127
93.164078 -243.836121 1.336579 0.784909
93.163284 -243.836929 0.892807 0.653712
93.162491 -243.837723 0.446722 1.000000
93.136665 -243.863617 0.002594 1.000000
91.389977 -245.615387 0.000004 0.223727
90.167389 -246.841507 0.000003 0.261211
89.266640 -247.744873 0.000004 0.232224
93.225540 -243.907928 5.380853 0.802380
93.224701 -243.908768 4.914845 0.774945
93.223877 -243.909576 4.455459 0.701854
91.339729 -245.772995 3.608676 0.401862
93.222260 -243.911194 3.552187 0.662547
93.221451 -243.911987 3.106229 0.676005
93.220657 -243.912766 2.662733 0.750149
93.219864 -243.913559 2.220735 0.726864
93.219070 -243.914337 1.779283 0.716091
93.218269 -243.915131 1.337431 0.727504
93.217476 -243.915924 0.894230 0.665293
93.216675 -243.916702 0.448716 1.000000
93.199081 -243.934113 0.003412 1.000000
91.444130 -245.669754 0.000003 0.245736
90.213013 -246.887314 0.000003 0.241236
89.305977 -247.784363 0.000003 0.219179
93.279633 -243.986801 5.376678 0.715709
90.640083 -246.561096 4.115174 0.398917
90.575821 -246.623779 3.765638 0.394080
91.173462 -246.040909 3.563232 0.396277
93.276337 -243.990021 3.550271 0.716915
93.275528 -243.990814 3.104864 0.673777
93.274727 -243.991592 2.661915 0.739971
93.273926 -243.992371 2.220463 0.711604
93.273125 -243.993149 1.779556 0.712596
93.272331 -243.993927 1.338249 0.772625
93.271530 -243.994705 0.895594 0.640208
93.270729 -243.995483 0.450630 1.000000
93.260979 -244.004990 0.004229 1.000000
91.497902 -245.724487 0.000003 0.222758
90.258308 -246.933441 0.000003 0.240686
89.345039 -247.824142 0.000003 0.250571
93.333595 -244.065475 5.372677 0.751659
90.743126 -246.556854 4.131798 0.404562
90.527237 -246.764496 3.741475 0.390326
91.378120 -245.946152 3.594820 0.391379
93.330276 -244.068665 3.548433 0.621698
93.329468 -244.069443 3.103554 0.777935
93.328659 -244.070221 2.661131 0.689189
93.327858 -244.070999 2.220201 0.676982
93.327057 -244.071762 1.779817 0.712215
93.326256 -244.072540 1.339033 0.831739
93.325447 -244.073303 0.896902 0.764782
93.324646 -244.074081 0.452465 1.000000
93.322357 -244.076294 0.005046 1.000000
91.551285 -245.779617 0.000002 0.250679
90.303284 -246.979874 0.000003 0.274519
89.383820 -247.864182 0.000003 0.283985
93.387428 -244.143967 5.368849 0.651576
93.386581 -244.144775 4.904495 0.716197
93.385742 -244.145569 4.446741 0.708324
91.330078 -246.095169 3.574398 0.386954
91.351921 -246.074448 3.224474 0.412390
93.383286 -244.147903 3.102302 0.725170
93.382469 -244.148666 2.660381 0.742596
93.381668 -244.149445 2.219951 0.718517
93.380859 -244.150208 1.780066 0.781353
93.380051 -244.150970 1.339783 0.805920
93.379250 -244.151733 0.898153 0.706889
93.378448 -244.152496 0.454219 1.000000
93.383209 -244.147980 0.005864 1.000000
91.604286 -245.835114 0.000002 0.231339
90.347939 -247.026627 0.000002 0.244252
89.422318 -247.904495 0.000003 0.258398
93.441147 -244.222290 5.365192 0.586786
93.440292 -244.223083 4.901343 0.657893
93.439445 -244.223877 4.444086 0.714199
91.705292 -245.845703 3.640287 0.397208
93.437798 -244.225418 3.544999 0.838499
93.436981 -244.226181 3.101107 0.793744
93.436165 -244.226944 2.659664 0.746105
93.435356 -244.227707 2.219713 0.762020
93.434547 -244.228455 1.780305 0.741100
93.433739 -244.229218 1.340498 0.684367
93.432930 -244.229980 0.899347 0.804868
93.432121 -244.230728 0.455894 1.000000
93.443527 -244.220062 0.006681 1.000000
91.656898 -245.890961 0.000001 0.267936
90.392265 -247.073685 0.000002 0.258219
89.460533 -247.945068 0.000002 0.187740
93.494751 -244.300446 5.361710 0.724941
91.028122 -246.575226 4.173891 0.395773
90.852417 -246.737259 3.787948 0.408118
90.797981 -246.787460 3.446603 0.396078
91.656181 -245.996017 3.256204 0.401312
93.490562 -244.304306 3.099967 0.690883
93.489746 -244.305054 2.658983 0.779248
93.488930 -244.305801 2.219486 0.525444
93.488121 -244.306549 1.780532 0.530541
93.487305 -244.307297 1.341180 0.511849
93.486496 -244.308044 0.900485 0.675807
93.485687 -244.308792 0.457491 1.000000
93.503319 -244.292542 0.007498 1.000000
91.709114 -245.947189 0.000001 0.229639
90.436256 -247.121063 0.000001 0.233768
89.498474 -247.985901 0.000002 0.226982
93.548241 -244.378433 5.358398 0.475822
93.547386 -244.379211 4.895487 0.461707
93.546532 -244.379990 4.439153 0.758618
90.691360 -246.976440 3.416007 0.400778
93.544861 -244.381500 3.541880 0.737270
93.544037 -244.382263 3.098884 0.715373
93.543221 -244.383011 2.658333 0.643336
93.542404 -244.383743 2.219270 0.479713
93.541588 -244.384491 1.780748 0.498039
93.540771 -244.385239 1.341829 0.495995
93.539955 -244.385971 0.901568 0.720317
93.539139 -244.386719 0.459009 1.000000
93.562576 -244.365402 0.008315 1.000000
91.760941 -246.003784 0.000001 0.218210
90.479919 -247.168732 0.000001 0.272891
89.536118 -248.027008 0.000001 0.233888
93.601639 -244.456268 5.355258 0.558221
93.600777 -244.457047 4.892778 0.522835
93.599922 -244.457825 4.436871 0.713542
90.722031 -247.038452 3.413218 0.397910
93.598244 -244.459320 3.540439 0.789776
93.597412 -244.460068 3.097857 0.828656
93.596588 -244.460800 2.657718 0.652796
93.595772 -244.461533 2.219065 0.551232
93.594955 -244.462280 1.780953 0.552163
93.594131 -244.463013 1.342444 0.529732
93.593307 -244.463745 0.902595 0.829709
93.592491 -244.464478 0.460450 1.000000
93.621300 -244.438644 0.009132 1.000000
91.812378 -246.060730 0.000000 0.242062
90.523247 -247.216721 0.000001 0.244803
89.573479 -248.068390 0.000001 0.248824
93.654938 -244.533981 5.352284 0.508492
93.654068 -244.534744 4.890215 0.480674
93.653214 -244.535507 4.434712 0.820874
90.760796 -247.092972 3.412136 0.373068
90.656647 -247.185059 3.079177 0.396078
93.650696 -244.537735 3.096884 0.765423
93.649864 -244.538467 2.657135 0.652064
93.649040 -244.539185 2.218870 0.536202
93.648216 -244.539917 1.781147 0.501198
93.647392 -244.540649 1.343027 0.457511
93.646568 -244.541382 0.903567 0.763561
93.645752 -244.542099 0.461812 1.000000
93.644905 -244.542847 0.016796 1.000000
91.863411 -246.118042 0.000000 0.201275
90.566238 -247.264999 0.000000 0.212621
89.610550 -248.110016 0.000000 0.210203
93.708145 -244.611542 5.349479 0.320577
93.707268 -244.612305 4.887798 0.319509
91.033859 -246.943069 3.787526 0.396674
90.816277 -247.132767 3.414425 0.396399
93.704712 -244.614532 3.537787 0.777478
93.703880 -244.615265 3.095967 0.742016
93.703049 -244.615982 2.656586 0.664714
93.702217 -244.616699 2.218688 0.276417
93.701393 -244.617432 1.781330 0.310536
93.700569 -244.618149 1.343575 0.317556
93.699738 -244.618866 0.904483 0.727718
93.698914 -244.619583 0.463099 1.000000
93.698059 -244.620331 0.018453 1.000000
91.914032 -246.175705 -0.000000 0.192455
90.608894 -247.313568 0.000000 0.257106
89.647324 -248.151901 0.000000 0.258123
93.761261 -244.688980 5.346844 0.309789
93.760384 -244.689743 4.885525 0.315892
91.089455 -246.985718 3.790096 0.390967
91.031372 -247.035645 3.447977 0.392157
90.765358 -247.264328 3.082611 0.388922
93.756981 -244.692673 3.095105 0.634165
93.756142 -244.693390 2.656069 0.655390
93.755310 -244.694092 2.218516 0.275807
93.754478 -244.694809 1.781502 0.299077
93.753647 -244.695526 1.344092 0.301091
93.752815 -244.696243 0.905345 0.626978
93.751991 -244.696960 0.464307 1.000000
93.751137 -244.697693 0.020012 1.000000
91.964264 -246.233719 -0.000001 0.235001
90.651207 -247.362442 -0.000000 0.247160
89.683807 -248.194046 -0.000000 0.285936
90.845505 -247.282516 4.369562 0.395865
93.813423 -244.767059 4.883396 0.281270
91.145172 -247.028534 3.792749 0.396918
91.086479 -247.078278 3.450089 0.398428
91.035179 -247.121765 3.116868 0.396750
93.809998 -244.769958 3.094297 0.697826
93.809158 -244.770660 2.655586 0.659449
93.808327 -244.771362 2.218354 0.261982
93.807487 -244.772079 1.781664 0.223728
93.806656 -244.772781 1.344576 0.276112
93.805817 -244.773499 0.906152 0.723613
93.804985 -244.774200 0.465440 1.000000
93.804123 -244.774933 0.021472 1.000000
92.014084 -246.292084 -0.000001 0.191821
90.693176 -247.411621 -0.000000 0.237981
89.720001 -248.236435 -0.000000 0.186842
93.867264 -244.843521 5.342071 0.230457
93.866379 -244.844254 4.881411 0.316167
93.865509 -244.844986 4.427296 0.698131
91.141685 -247.121078 3.452266 0.398947
93.863792 -244.846420 3.534387 0.783062
93.862946 -244.847137 3.093544 0.795499
93.862106 -244.847839 2.655134 0.656458
93.861259 -244.848541 2.218204 0.281270
93.860420 -244.849243 1.781814 0.231327
93.859589 -244.849930 1.345027 0.367987
93.858742 -244.850647 0.906905 0.813031
93.857903 -244.851334 0.466495 1.000000
93.857040 -244.852066 0.022833 1.000000
92.063499 -246.350800 -0.000002 0.230920
90.734810 -247.461075 -0.000001 0.217432
89.755890 -248.279083 -0.000001 0.181217
90.869240 -247.434097 4.349778 0.404608
93.919266 -244.921356 4.879569 0.351766
93.918396 -244.922089 4.425745 0.628199
91.197021 -247.164047 3.454514 0.396292
91.144684 -247.207169 3.120235 0.393423
93.915817 -244.924210 3.092845 0.725139
93.914970 -244.924896 2.654715 0.660258
93.914131 -244.925598 2.218065 0.269932
93.913284 -244.926285 1.781953 0.198367
93.912445 -244.926987 1.345445 0.384421
93.911591 -244.927689 0.907604 0.788952
93.910751 -244.928375 0.467475 1.000000
93.909889 -244.929092 0.024096 1.000000
92.112495 -246.409851 -0.000002 0.259846
90.776093 -247.510834 -0.000001 0.197458
89.791489 -248.321991 -0.000001 0.248201
93.972984 -244.997635 5.337963 0.239414
93.972092 -244.998367 4.877870 0.356130
93.971214 -244.999084 4.424313 0.675517
91.252472 -247.207214 3.456827 0.395926
93.969482 -245.000488 3.532501 0.741619
93.968628 -245.001190 3.092200 0.660563
93.967773 -245.001877 2.654329 0.655344
93.966927 -245.002563 2.217936 0.281178
93.966080 -245.003250 1.782082 0.195270
93.965240 -245.003937 1.345831 0.254719
93.964378 -245.004639 0.908248 0.765316
93.963539 -245.005310 0.468379 1.000000
93.962669 -245.006027 0.025262 1.000000
92.161087 -246.469238 -0.000002 0.206278
90.817024 -247.560867 -0.000002 0.228107
89.826782 -248.365128 -0.000001 0.260361
94.025757 -245.074570 5.336156 0.320638
94.024857 -245.075287 4.876311 0.388952
91.369102 -247.201660 3.804168 0.393637
91.581207 -247.031830 3.511116 0.408072
91.254669 -247.293274 3.123812 0.406470
94.021378 -245.078079 3.091609 0.656291
94.020523 -245.078766 2.653975 0.668727
94.019669 -245.079437 2.217818 0.604837
94.018822 -245.080124 1.782200 0.519905
94.017967 -245.080811 1.346185 0.488380
94.017113 -245.081482 0.908838 0.681270
94.016266 -245.082169 0.469207 1.000000
94.015388 -245.082870 0.026330 1.000000
92.209251 -246.528976 -0.000003 0.236856
90.857605 -247.611191 -0.000002 0.214656
89.861771 -248.408524 -0.000002 0.232404
94.078468 -245.151413 5.334514 0.475120
94.077568 -245.152130 4.874896 0.453269
91.425354 -247.245438 3.807223 0.394842
91.590973 -247.114716 3.504599 0.396826
94.074936 -245.154205 3.530918 0.724620
94.074066 -245.154892 3.091072 0.694163
94.073212 -245.155563 2.653653 0.689296
94.072357 -245.156235 2.217711 0.597314
94.071503 -245.156921 1.782307 0.462684
94.070648 -245.157593 1.346507 0.494392
94.069786 -245.158264 0.909375 0.737102
94.068939 -245.158936 0.469960 1.000000
94.068054 -245.159637 0.027300 1.000000
92.257011 -246.589035 -0.000003 0.213531
90.897835 -247.661804 -0.000002 0.223153
89.896461 -248.452148 -0.000002 0.213172
90.801727 -247.818481 4.276391 0.398733
94.130234 -245.228897 4.873621 0.563989
94.129341 -245.229584 4.420736 0.720363
91.246735 -247.472260 3.431693 0.396063
94.127579 -245.230957 3.530240 0.752270
94.126717 -245.231628 3.090589 0.721477
94.125854 -245.232300 2.653364 0.759640
94.124992 -245.232971 2.217615 0.875120
94.124138 -245.233643 1.782403 0.727871
94.123276 -245.234299 1.346796 0.718303
94.122414 -245.234970 0.909858 0.701366
94.121559 -245.235641 0.470638 1.000000
94.120674 -245.236328 0.028174 1.000000
92.304344 -246.649445 -0.000004 0.270809
90.937714 -247.712677 -0.000003 0.247603
89.930847 -248.496033 -0.000003 0.199600
90.735786 -247.948990 4.243335 0.391531
91.556099 -247.319946 4.157555 0.398672
94.181953 -245.306290 4.419781 0.740734
94.181068 -245.306961 3.972511 0.752468
94.180183 -245.307648 3.529636 0.802731
94.179314 -245.308304 3.090159 0.712093
94.178452 -245.308975 2.653106 0.794186
94.177582 -245.309631 2.217529 0.723064
94.176727 -245.310287 1.782489 0.731579
94.175865 -245.310959 1.347054 0.722194
94.174995 -245.311615 0.910287 0.716442
94.174133 -245.312286 0.471241 1.000000
94.173248 -245.312958 0.028951 1.000000
92.351250 -246.710175 -0.000004 0.205799
90.977234 -247.763840 -0.000003 0.199169
89.964920 -248.540146 -0.000003 0.236916
91.534195 -247.423920 4.482131 0.400717
91.615982 -247.362091 4.162332 0.408392
90.865196 -247.929565 3.650457 0.401450
94.233635 -245.383606 3.971828 0.701869
94.232750 -245.384262 3.529109 0.735531
94.231880 -245.384933 3.089783 0.654093
94.231003 -245.385590 2.652881 0.774517
94.230133 -245.386246 2.217453 0.693858
94.229271 -245.386902 1.782564 0.717998
94.228409 -245.387558 1.347279 0.720882
94.227539 -245.388214 0.910664 0.692409
94.226669 -245.388855 0.471768 1.000000
94.225784 -245.389542 0.029632 1.000000
92.397736 -246.771225 -0.000004 0.276649
91.016396 -247.815277 -0.000004 0.238699
89.998688 -248.584488 -0.000003 0.242960
91.420822 -247.594635 4.433752 0.409308
91.259483 -247.714813 4.055022 0.382574
91.205101 -247.755325 3.718956 0.397238
94.286171 -245.460190 3.971244 0.740291
94.285286 -245.460846 3.528654 0.802289
94.284409 -245.461502 3.089459 0.785718
94.283531 -245.462158 2.652687 0.727428
94.282661 -245.462799 2.217389 0.707637
94.281784 -245.463455 1.782629 0.736248
94.280914 -245.464096 1.347473 0.800916
94.280045 -245.464752 0.910986 0.765835
94.279175 -245.465393 0.472221 1.000000
94.278282 -245.466064 0.030215 1.000000
92.443794 -246.832596 -0.000005 0.220556
91.055199 -247.866989 -0.000004 0.251540
90.032143 -248.629074 -0.000004 0.245592
94.341385 -245.534744 5.328749 0.795575
94.340469 -245.535416 4.869928 0.705455
94.339569 -245.536072 4.417625 0.738033
94.338676 -245.536728 3.970755 0.714824
94.337784 -245.537384 3.528276 0.734051
94.336906 -245.538025 3.089189 0.728573
94.336021 -245.538681 2.652525 0.702800
94.335144 -245.539322 2.217335 0.722362
94.334274 -245.539963 1.782682 0.711818
94.333397 -245.540604 1.347634 0.728420
94.332527 -245.541245 0.911256 0.773190
94.331650 -245.541885 0.472600 1.000000
94.330750 -245.542542 0.030703 1.000000
92.489426 -246.894302 -0.000005 0.243343
91.093636 -247.918961 -0.000004 0.237000
90.065292 -248.673889 -0.000004 0.213339
91.435806 -247.751221 4.413564 0.403540
91.796120 -247.490570 4.177114 0.397711
91.008514 -248.060333 3.657278 0.400381
94.391151 -245.613251 3.970361 0.786480
94.390266 -245.613892 3.527971 0.721187
94.389374 -245.614532 3.088972 0.777676
94.388496 -245.615173 2.652395 0.771923
94.387611 -245.615799 2.217292 0.739666
94.386734 -245.616440 1.782726 0.813443
94.385857 -245.617081 1.347764 0.671229
94.384979 -245.617706 0.911472 0.758450
94.384109 -245.618347 0.472903 1.000000
94.383202 -245.619003 0.031095 1.000000
92.534615 -246.956314 -0.000005 0.233301
91.131714 -247.971207 -0.000005 0.219287
90.098122 -248.718948 -0.000004 0.232069
94.446350 -245.687775 5.327582 0.812970
91.852028 -247.537125 4.181057 0.399359
91.059563 -248.102036 3.660396 0.396078
94.443619 -245.689728 3.970064 0.833570
94.442726 -245.690369 3.527741 0.711452
94.441833 -245.690994 3.088809 0.731441
94.440948 -245.691635 2.652297 0.797894
94.440063 -245.692261 2.217259 0.638849
94.439178 -245.692886 1.782758 0.826658
94.438293 -245.693512 1.347862 0.756878
94.437424 -245.694138 0.911636 0.801511
94.436539 -245.694778 0.473133 1.000000
94.435631 -245.695419 0.031390 1.000000
92.579384 -247.018646 -0.000006 0.197350
91.169418 -248.023727 -0.000005 0.234331
90.130638 -248.764221 -0.000005 0.252713
94.498810 -245.764267 5.327243 0.741314
94.497879 -245.764923 4.868630 0.720058
94.496964 -245.765564 4.416531 0.767758
94.496063 -245.766190 3.969864 0.773587
94.495171 -245.766815 3.527585 0.718639
94.494278 -245.767456 3.088697 0.705959
94.493393 -245.768066 2.652231 0.727886
94.492500 -245.768692 2.217237 0.744289
94.491608 -245.769318 1.782781 0.771801
94.490723 -245.769943 1.347929 0.650339
