# This PCD file was generated using the MATLAB® pcwrite function
# from Computer Vision Toolbox®.
# .PCD v.7 - Point Cloud Data file format
VERSION .7
FIELDS x y z intensity
SIZE 4 4 4 4
TYPE F F F F
COUNT 1 1 1 1
WIDTH 1223
HEIGHT 1
VIEWPOINT 0 0 0 1 0 0 0
POINTS 1223
DATA ascii
-14.731975 13.869043 3.299600 1.000000
-14.731975 13.869043 3.120564 1.000000
-14.731975 13.869043 2.944042 1.000000
-14.731975 13.869043 2.769611 1.000000
-14.731975 13.869043 2.596865 1.000000
-14.731975 13.869043 2.425416 1.000000
-14.731975 13.869043 2.254884 1.000000
-14.731975 13.869041 2.084901 1.000000
-14.731974 13.869040 1.915099 1.000000
-14.731974 13.869041 1.745115 1.000000
-14.731974 13.869040 1.574584 1.000000
-14.731974 13.869040 1.403134 1.000000
-14.731974 13.869041 1.230389 1.000000
-14.731974 13.869041 1.055957 1.000000
-14.731975 13.869041 0.879435 1.000000
-14.731974 13.869041 0.700399 1.000000
-14.771105 13.875387 3.295534 1.000000
-14.771105 13.875387 3.117058 1.000000
-14.771105 13.875387 2.941088 1.000000
-14.771105 13.875387 2.767203 1.000000
-14.771105 13.875386 2.594998 1.000000
-14.771105 13.875387 2.424085 1.000000
-14.771105 13.875386 2.254087 1.000000
-14.771105 13.875387 2.084635 1.000000
-14.771104 13.875385 1.915365 1.000000
-14.771104 13.875384 1.745913 1.000000
-14.771104 13.875385 1.575915 1.000000
-14.771104 13.875384 1.405002 1.000000
-14.771104 13.875385 1.232797 1.000000
-14.771104 13.875385 1.058911 1.000000
-14.771104 13.875385 0.882941 1.000000
-14.771105 13.875385 0.704466 1.000000
-14.809993 13.881691 3.291555 1.000000
-14.809993 13.881692 3.113628 1.000000
-14.809993 13.881691 2.938199 1.000000
-14.809993 13.881691 2.764847 1.000000
-14.809993 13.881691 2.593171 1.000000
-14.809993 13.881691 2.422783 1.000000
-14.809993 13.881690 2.253307 1.000000
-14.809993 13.881690 2.084375 1.000000
-14.809992 13.881687 1.915625 1.000000
-14.809992 13.881688 1.746693 1.000000
-14.809992 13.881689 1.577217 1.000000
-14.809992 13.881688 1.406829 1.000000
-14.809992 13.881688 1.235153 1.000000
-14.809992 13.881689 1.061801 1.000000
-14.809993 13.881689 0.886372 1.000000
-14.809992 13.881689 0.708444 1.000000
-14.848644 13.887958 3.287664 1.000000
-14.848644 13.887957 3.110273 1.000000
-14.848644 13.887958 2.935372 1.000000
-14.848644 13.887957 2.762542 1.000000
-14.848644 13.887957 2.591383 1.000000
-14.848644 13.887956 2.421509 1.000000
-14.848644 13.887956 2.252543 1.000000
-14.848644 13.887957 2.084121 1.000000
-14.848644 13.887957 1.915879 1.000000
-14.848644 13.887956 1.747456 1.000000
-14.848644 13.887956 1.578491 1.000000
-14.848644 13.887957 1.408617 1.000000
-14.848644 13.887956 1.237457 1.000000
-14.848644 13.887957 1.064628 1.000000
-14.848644 13.887956 0.889727 1.000000
-14.848644 13.887957 0.712336 1.000000
-14.887066 13.894185 3.283859 1.000000
-14.887066 13.894186 3.106992 1.000000
-14.887066 13.894185 2.932607 1.000000
-14.887066 13.894185 2.760289 1.000000
-14.887066 13.894185 2.589636 1.000000
-14.887066 13.894184 2.420263 1.000000
-14.887066 13.894184 2.251797 1.000000
-14.887065 13.894182 2.083873 1.000000
-14.887065 13.894183 1.916127 1.000000
-14.887065 13.894182 1.748203 1.000000
-14.887065 13.894182 1.579737 1.000000
-14.887065 13.894182 1.410364 1.000000
-14.887065 13.894182 1.239711 1.000000
-14.887065 13.894182 1.067392 1.000000
-14.887065 13.894183 0.893008 1.000000
-14.887065 13.894183 0.716141 1.000000
-14.925262 13.900378 3.280138 1.000000
-14.925262 13.900377 3.103783 1.000000
-14.925262 13.900377 2.929904 1.000000
-14.925262 13.900377 2.758085 1.000000
-14.925262 13.900377 2.587927 1.000000
-14.925262 13.900377 2.419045 1.000000
-14.925262 13.900377 2.251067 1.000000
-14.925261 13.900373 2.083630 1.000000
-14.925261 13.900374 1.916371 1.000000
-14.925261 13.900374 1.748932 1.000000
-14.925261 13.900375 1.580955 1.000000
-14.925261 13.900374 1.412073 1.000000
-14.925261 13.900375 1.241914 1.000000
-14.925261 13.900375 1.070095 1.000000
-14.925261 13.900375 0.896217 1.000000
-14.925261 13.900375 0.719862 1.000000
-14.963240 13.906534 3.276500 1.000000
-14.963240 13.906534 3.100647 1.000000
-14.963240 13.906534 2.927262 1.000000
-14.963240 13.906533 2.755931 1.000000
-14.963240 13.906533 2.586256 1.000000
-14.963240 13.906533 2.417854 1.000000
-14.963240 13.906533 2.250354 1.000000
-14.963240 13.906530 2.083392 1.000000
-14.963240 13.906530 1.916608 1.000000
-14.963240 13.906531 1.749646 1.000000
-14.963240 13.906531 1.582145 1.000000
-14.963240 13.906531 1.413743 1.000000
-14.963240 13.906532 1.244068 1.000000
-14.963240 13.906532 1.072737 1.000000
-14.963240 13.906532 0.899353 1.000000
-14.963240 13.906532 0.723499 1.000000
-15.001004 13.912655 3.272946 1.000000
-15.001004 13.912655 3.097582 1.000000
-15.001004 13.912655 2.924680 1.000000
-15.001004 13.912655 2.753826 1.000000
-15.001004 13.912655 2.584624 1.000000
-15.001004 13.912655 2.416691 1.000000
-15.001003 13.912653 2.249657 1.000000
-15.001004 13.912652 2.083160 1.000000
-15.001004 13.912652 1.916840 1.000000
-15.001004 13.912653 1.750343 1.000000
-15.001004 13.912653 1.583309 1.000000
-15.001004 13.912653 1.415376 1.000000
-15.001004 13.912653 1.246173 1.000000
-15.001004 13.912653 1.075320 1.000000
-15.001004 13.912653 0.902418 1.000000
-15.001004 13.912653 0.727054 1.000000
-15.038561 13.918743 3.269472 1.000000
-15.038561 13.918745 3.094586 1.000000
-15.038561 13.918743 2.922157 1.000000
-15.038561 13.918743 2.751769 1.000000
-15.038561 13.918743 2.583028 1.000000
-15.038561 13.918742 2.415554 1.000000
-15.038560 13.918741 2.248976 1.000000
-15.038560 13.918741 2.082932 1.000000
-15.038560 13.918741 1.917067 1.000000
-15.038560 13.918741 1.751024 1.000000
-15.038560 13.918741 1.584446 1.000000
-15.038560 13.918741 1.416971 1.000000
-15.038560 13.918742 1.248231 1.000000
-15.038561 13.918741 1.077843 1.000000
-15.038561 13.918742 0.905413 1.000000
-15.038560 13.918741 0.730528 1.000000
-15.075914 13.924799 3.266079 1.000000
-15.075914 13.924798 3.091661 1.000000
-15.075914 13.924798 2.919692 1.000000
-15.075914 13.924799 2.749760 1.000000
-15.075914 13.924799 2.581470 1.000000
-15.075914 13.924799 2.414443 1.000000
-15.075914 13.924796 2.248310 1.000000
-15.075914 13.924796 2.082711 1.000000
-15.075914 13.924796 1.917289 1.000000
-15.075914 13.924797 1.751690 1.000000
-15.075914 13.924797 1.585557 1.000000
-15.075914 13.924796 1.418530 1.000000
-15.075914 13.924797 1.250240 1.000000
-15.075914 13.924795 1.080307 1.000000
-15.075914 13.924795 0.908338 1.000000
-15.075914 13.924797 0.733921 1.000000
-15.113071 13.930823 3.262765 1.000000
-15.113071 13.930822 3.088804 1.000000
-15.113071 13.930822 2.917285 1.000000
-15.113071 13.930822 2.747798 1.000000
-15.113071 13.930822 2.579948 1.000000
-15.113071 13.930821 2.413358 1.000000
-15.113070 13.930819 2.247660 1.000000
-15.113071 13.930820 2.082494 1.000000
-15.113071 13.930820 1.917506 1.000000
-15.113070 13.930819 1.752339 1.000000
-15.113071 13.930820 1.586641 1.000000
-15.113070 13.930820 1.420051 1.000000
-15.113071 13.930820 1.252202 1.000000
-15.113071 13.930820 1.082714 1.000000
-15.113071 13.930820 0.911196 1.000000
-15.113071 13.930821 0.737234 1.000000
-15.150036 13.936814 3.259531 1.000000
-15.150036 13.936815 3.086015 1.000000
-15.150036 13.936815 2.914935 1.000000
-15.150036 13.936814 2.745882 1.000000
-15.150036 13.936814 2.578463 1.000000
-15.150035 13.936811 2.412300 1.000000
-15.150035 13.936811 2.247026 1.000000
-15.150035 13.936811 2.082283 1.000000
-15.150035 13.936811 1.917717 1.000000
-15.150035 13.936811 1.752974 1.000000
-15.150035 13.936811 1.587700 1.000000
-15.150035 13.936812 1.421537 1.000000
-15.150035 13.936811 1.254118 1.000000
-15.150035 13.936813 1.085064 1.000000
-15.150036 13.936813 0.913985 1.000000
-15.150035 13.936813 0.740469 1.000000
-15.186813 13.942778 3.256373 1.000000
-15.186813 13.942777 3.083292 1.000000
-15.186813 13.942778 2.912642 1.000000
-15.186813 13.942776 2.744012 1.000000
-15.186813 13.942776 2.577013 1.000000
-15.186812 13.942774 2.411266 1.000000
-15.186812 13.942774 2.246407 1.000000
-15.186812 13.942774 2.082077 1.000000
-15.186812 13.942774 1.917923 1.000000
-15.186812 13.942774 1.753593 1.000000
-15.186812 13.942774 1.588734 1.000000
-15.186812 13.942774 1.422987 1.000000
-15.186812 13.942775 1.255988 1.000000
-15.186812 13.942775 1.087358 1.000000
-15.186812 13.942774 0.916707 1.000000
-15.186813 13.942776 0.743626 1.000000
-15.223408 13.948709 3.253292 1.000000
-15.223408 13.948709 3.080636 1.000000
-15.223409 13.948709 2.910404 1.000000
-15.223409 13.948709 2.742188 1.000000
-15.223408 13.948708 2.575598 1.000000
-15.223408 13.948707 2.410257 1.000000
-15.223408 13.948707 2.245802 1.000000
-15.223408 13.948707 2.081876 1.000000
-15.223408 13.948707 1.918124 1.000000
-15.223408 13.948707 1.754197 1.000000
-15.223408 13.948708 1.589742 1.000000
-15.223408 13.948707 1.424402 1.000000
-15.223408 13.948708 1.257812 1.000000
-15.223408 13.948708 1.089596 1.000000
-15.223408 13.948708 0.919364 1.000000
-15.223408 13.948708 0.746707 1.000000
-15.259826 13.954613 3.250288 1.000000
-15.259826 13.954613 3.078045 1.000000
-15.259826 13.954612 2.908221 1.000000
-15.259826 13.954613 2.740408 1.000000
-15.259826 13.954611 2.574218 1.000000
-15.259826 13.954609 2.409274 1.000000
-15.259826 13.954609 2.245213 1.000000
-15.259826 13.954609 2.081679 1.000000
-15.259826 13.954609 1.918321 1.000000
-15.259826 13.954610 1.754787 1.000000
-15.259826 13.954610 1.590726 1.000000
-15.259826 13.954611 1.425782 1.000000
-15.259826 13.954611 1.259591 1.000000
-15.259826 13.954611 1.091779 1.000000
-15.259826 13.954611 0.921955 1.000000
-15.259826 13.954611 0.749712 1.000000
-15.296071 13.960489 3.247358 1.000000
-15.296071 13.960489 3.075519 1.000000
-15.296071 13.960488 2.906093 1.000000
-15.296071 13.960487 2.738673 1.000000
-15.296071 13.960485 2.572872 1.000000
-15.296071 13.960485 2.408315 1.000000
-15.296071 13.960485 2.244639 1.000000
-15.296071 13.960485 2.081488 1.000000
-15.296071 13.960485 1.918512 1.000000
-15.296071 13.960485 1.755361 1.000000
-15.296071 13.960485 1.591685 1.000000
-15.296071 13.960485 1.427128 1.000000
-15.296071 13.960485 1.261326 1.000000
-15.296071 13.960486 1.093907 1.000000
-15.296071 13.960487 0.924481 1.000000
-15.296071 13.960487 0.752642 1.000000
-15.332149 13.966336 3.244502 1.000000
-15.332149 13.966337 3.073057 1.000000
-15.332149 13.966337 2.904018 1.000000
-15.332149 13.966336 2.736982 1.000000
-15.332148 13.966333 2.571561 1.000000
-15.332149 13.966333 2.407380 1.000000
-15.332149 13.966333 2.244079 1.000000
-15.332149 13.966333 2.081301 1.000000
-15.332149 13.966333 1.918699 1.000000
-15.332149 13.966333 1.755921 1.000000
-15.332149 13.966335 1.592620 1.000000
-15.332149 13.966334 1.428439 1.000000
-15.332149 13.966334 1.263017 1.000000
-15.332149 13.966335 1.095981 1.000000
-15.332149 13.966335 0.926943 1.000000
-15.332149 13.966335 0.755497 1.000000
-15.368064 13.972159 3.241720 1.000000
-15.368064 13.972158 3.070658 1.000000
-15.368064 13.972159 2.901997 1.000000
-15.368064 13.972159 2.735335 1.000000
-15.368063 13.972157 2.570283 1.000000
-15.368063 13.972155 2.406470 1.000000
-15.368063 13.972157 2.243533 1.000000
-15.368063 13.972157 2.081120 1.000000
-15.368063 13.972157 1.918880 1.000000
-15.368063 13.972157 1.756467 1.000000
-15.368063 13.972156 1.593531 1.000000
-15.368063 13.972157 1.429717 1.000000
-15.368064 13.972157 1.264665 1.000000
-15.368063 13.972157 1.098002 1.000000
-15.368063 13.972157 0.929342 1.000000
-15.368063 13.972157 0.758280 1.000000
-15.403819 13.977955 3.239010 1.000000
-15.403819 13.977955 3.068322 1.000000
-15.403819 13.977955 2.900029 1.000000
-15.403819 13.977953 2.733731 1.000000
-15.403819 13.977951 2.569039 1.000000
-15.403819 13.977953 2.405582 1.000000
-15.403819 13.977952 2.243001 1.000000
-15.403819 13.977952 2.080943 1.000000
-15.403819 13.977953 1.919057 1.000000
-15.403819 13.977953 1.756999 1.000000
-15.403819 13.977953 1.594417 1.000000
-15.403819 13.977953 1.430961 1.000000
-15.403819 13.977954 1.266270 1.000000
-15.403819 13.977953 1.099970 1.000000
-15.403819 13.977953 0.931678 1.000000
-15.403819 13.977953 0.760989 1.000000
-15.439422 13.983727 3.236373 1.000000
-15.439422 13.983727 3.066047 1.000000
-15.439422 13.983726 2.898113 1.000000
-15.439422 13.983724 2.732168 1.000000
-15.439422 13.983724 2.567827 1.000000
-15.439422 13.983723 2.404719 1.000000
-15.439422 13.983724 2.242484 1.000000
-15.439422 13.983723 2.080770 1.000000
-15.439422 13.983723 1.919230 1.000000
-15.439422 13.983725 1.757516 1.000000
-15.439422 13.983724 1.595281 1.000000
-15.439422 13.983725 1.432173 1.000000
-15.439422 13.983725 1.267832 1.000000
-15.439422 13.983725 1.101887 1.000000
-15.439422 13.983725 0.933952 1.000000
-15.439422 13.983727 0.763627 1.000000
-15.474874 13.989473 3.233807 1.000000
-15.474874 13.989474 3.063834 1.000000
-15.474874 13.989473 2.896249 1.000000
-15.474874 13.989470 2.730649 1.000000
-15.474874 13.989471 2.566648 1.000000
-15.474874 13.989471 2.403879 1.000000
-15.474874 13.989471 2.241981 1.000000
-15.474874 13.989470 2.080603 1.000000
-15.474874 13.989471 1.919397 1.000000
-15.474874 13.989471 1.758019 1.000000
-15.474874 13.989471 1.596121 1.000000
-15.474874 13.989471 1.433352 1.000000
-15.474874 13.989470 1.269351 1.000000
-15.474874 13.989471 1.103750 1.000000
-15.474874 13.989473 0.936165 1.000000
-15.474874 13.989472 0.766193 1.000000
-15.510182 13.995197 3.231310 1.000000
-15.510182 13.995197 3.061682 1.000000
-15.510182 13.995197 2.894436 1.000000
-15.510181 13.995194 2.729171 1.000000
-15.510181 13.995193 2.565503 1.000000
-15.510181 13.995195 2.403062 1.000000
-15.510181 13.995194 2.241492 1.000000
-15.510181 13.995195 2.080440 1.000000
-15.510181 13.995195 1.919560 1.000000
-15.510181 13.995195 1.758509 1.000000
-15.510181 13.995195 1.596938 1.000000
-15.510181 13.995195 1.434498 1.000000
-15.510181 13.995195 1.270829 1.000000
-15.510182 13.995195 1.105564 1.000000
-15.510181 13.995195 0.938317 1.000000
-15.510181 13.995197 0.768689 1.000000
-15.545349 14.000897 3.228885 1.000000
-15.545349 14.000897 3.059591 1.000000
-15.545348 14.000895 2.892674 1.000000
-15.545348 14.000895 2.727734 1.000000
-15.545348 14.000895 2.564388 1.000000
-15.545348 14.000895 2.402268 1.000000
-15.545348 14.000895 2.241016 1.000000
-15.545348 14.000895 2.080281 1.000000
-15.545348 14.000896 1.919719 1.000000
-15.545348 14.000896 1.758984 1.000000
-15.545348 14.000896 1.597732 1.000000
-15.545348 14.000896 1.435612 1.000000
-15.545348 14.000896 1.272266 1.000000
-15.545348 14.000896 1.107326 1.000000
-15.545348 14.000896 0.940409 1.000000
-15.545348 14.000896 0.771115 1.000000
-15.580379 14.006577 3.226528 1.000000
-15.580379 14.006577 3.057559 1.000000
-15.580379 14.006574 2.890962 1.000000
-15.580379 14.006574 2.726338 1.000000
-15.580379 14.006575 2.563306 1.000000
-15.580379 14.006574 2.401496 1.000000
-15.580379 14.006575 2.240553 1.000000
-15.580379 14.006575 2.080127 1.000000
-15.580379 14.006575 1.919873 1.000000
-15.580379 14.006575 1.759447 1.000000
-15.580379 14.006575 1.598503 1.000000
-15.580379 14.006575 1.436694 1.000000
-15.580379 14.006575 1.273662 1.000000
-15.580379 14.006575 1.109038 1.000000
-15.580379 14.006575 0.942441 1.000000
-15.580379 14.006575 0.773472 1.000000
-15.615276 14.012234 3.224239 1.000000
-15.615276 14.012234 3.055585 1.000000
-15.615276 14.012230 2.889300 1.000000
-15.615275 14.012230 2.724984 1.000000
-15.615276 14.012231 2.562255 1.000000
-15.615276 14.012232 2.400747 1.000000
-15.615276 14.012232 2.240105 1.000000
-15.615276 14.012232 2.079978 1.000000
-15.615276 14.012232 1.920022 1.000000
-15.615276 14.012232 1.759895 1.000000
-15.615276 14.012232 1.599253 1.000000
-15.615276 14.012232 1.437745 1.000000
-15.615276 14.012232 1.275016 1.000000
-15.615276 14.012232 1.110700 1.000000
-15.615276 14.012233 0.944414 1.000000
-15.615276 14.012232 0.775760 1.000000
-15.650045 14.017870 3.222019 1.000000
-15.650045 14.017870 3.053671 1.000000
-15.650045 14.017866 2.887687 1.000000
-15.650045 14.017866 2.723669 1.000000
-15.650045 14.017867 2.561235 1.000000
-15.650045 14.017867 2.400021 1.000000
-15.650045 14.017866 2.239669 1.000000
-15.650045 14.017866 2.079833 1.000000
-15.650045 14.017866 1.920167 1.000000
-15.650045 14.017867 1.760331 1.000000
-15.650045 14.017868 1.599979 1.000000
-15.650045 14.017868 1.438765 1.000000
-15.650045 14.017868 1.276332 1.000000
-15.650045 14.017868 1.112313 1.000000
-15.650045 14.017868 0.946328 1.000000
-15.650045 14.017868 0.777980 1.000000
-15.684691 14.023487 3.219866 1.000000
-15.684690 14.023483 3.051816 1.000000
-15.684690 14.023485 2.886123 1.000000
-15.684690 14.023485 2.722393 1.000000
-15.684690 14.023485 2.560246 1.000000
-15.684690 14.023485 2.399316 1.000000
-15.684690 14.023486 2.239247 1.000000
-15.684690 14.023485 2.079692 1.000000
-15.684690 14.023485 1.920308 1.000000
-15.684690 14.023486 1.760753 1.000000
-15.684690 14.023485 1.600684 1.000000
-15.684690 14.023485 1.439754 1.000000
-15.684690 14.023485 1.277606 1.000000
-15.684690 14.023485 1.113877 1.000000
-15.684690 14.023485 0.948185 1.000000
-15.684690 14.023485 0.780133 1.000000
-15.719215 14.029082 3.217781 1.000000
-15.719215 14.029079 3.050017 1.000000
-15.719215 14.029080 2.884608 1.000000
-15.719215 14.029080 2.721159 1.000000
-15.719215 14.029080 2.559289 1.000000
-15.719215 14.029080 2.398633 1.000000
-15.719215 14.029079 2.238838 1.000000
-15.719215 14.029081 2.079556 1.000000
-15.719215 14.029081 1.920444 1.000000
-15.719215 14.029079 1.761162 1.000000
-15.719215 14.029081 1.601367 1.000000
-15.719215 14.029081 1.440712 1.000000
-15.719215 14.029081 1.278842 1.000000
-15.719215 14.029081 1.115392 1.000000
-15.719215 14.029081 0.949983 1.000000
-15.719215 14.029081 0.782219 1.000000
-15.753624 14.034661 3.215761 1.000000
-15.753624 14.034658 3.048275 1.000000
-15.753624 14.034658 2.883141 1.000000
-15.753624 14.034658 2.719962 1.000000
-15.753624 14.034658 2.558361 1.000000
-15.753624 14.034657 2.397972 1.000000
-15.753624 14.034658 2.238442 1.000000
-15.753624 14.034658 2.079424 1.000000
-15.753624 14.034658 1.920576 1.000000
-15.753624 14.034658 1.761558 1.000000
-15.753624 14.034658 1.602028 1.000000
-15.753624 14.034658 1.441639 1.000000
-15.753624 14.034659 1.280038 1.000000
-15.753624 14.034660 1.116859 1.000000
-15.753624 14.034660 0.951725 1.000000
-15.753624 14.034660 0.784239 1.000000
-15.787921 14.040220 3.213807 1.000000
-15.787921 14.040216 3.046591 1.000000
-15.787921 14.040216 2.881722 1.000000
-15.787921 14.040218 2.718805 1.000000
-15.787921 14.040217 2.557463 1.000000
-15.787921 14.040218 2.397332 1.000000
-15.787921 14.040218 2.238058 1.000000
-15.787921 14.040218 2.079296 1.000000
-15.787921 14.040218 1.920704 1.000000
-15.787921 14.040218 1.761942 1.000000
-15.787921 14.040218 1.602668 1.000000
-15.787921 14.040218 1.442537 1.000000
-15.787921 14.040218 1.281195 1.000000
-15.787921 14.040218 1.118279 1.000000
-15.787921 14.040218 0.953409 1.000000
-15.787921 14.040220 0.786193 1.000000
-15.822108 14.045759 3.211919 1.000000
-15.822108 14.045759 3.044962 1.000000
-15.822109 14.045763 2.880349 1.000000
-15.822109 14.045763 2.717686 1.000000
-15.822109 14.045761 2.556596 1.000000
-15.822109 14.045761 2.396714 1.000000
-15.822109 14.045761 2.237688 1.000000
-15.822109 14.045762 2.079173 1.000000
-15.822109 14.045762 1.920827 1.000000
-15.822109 14.045761 1.762312 1.000000
-15.822109 14.045761 1.603286 1.000000
-15.822109 14.045761 1.443404 1.000000
-15.822109 14.045763 1.282314 1.000000
-15.822109 14.045763 1.119651 1.000000
-15.822109 14.045761 0.955038 1.000000
-15.822109 14.045761 0.788082 1.000000
-15.856193 14.051285 3.210094 1.000000
-15.856193 14.051285 3.043390 1.000000
-15.856193 14.051285 2.879025 1.000000
-15.856193 14.051286 2.716606 1.000000
-15.856193 14.051285 2.555758 1.000000
-15.856193 14.051285 2.396117 1.000000
-15.856193 14.051285 2.237330 1.000000
-15.856193 14.051286 2.079053 1.000000
-15.856193 14.051287 1.920946 1.000000
-15.856193 14.051286 1.762670 1.000000
-15.856193 14.051286 1.603883 1.000000
-15.856193 14.051286 1.444242 1.000000
-15.856193 14.051287 1.283394 1.000000
-15.856193 14.051287 1.120976 1.000000
-15.856193 14.051287 0.956611 1.000000
-15.856193 14.051287 0.789906 1.000000
-15.890175 14.056794 3.208335 1.000000
-15.890175 14.056793 3.041872 1.000000
-15.890175 14.056793 2.877746 1.000000
-15.890175 14.056794 2.715564 1.000000
-15.890175 14.056793 2.554950 1.000000
-15.890175 14.056794 2.395541 1.000000
-15.890175 14.056793 2.236985 1.000000
-15.890175 14.056795 2.078938 1.000000
-15.890175 14.056795 1.921061 1.000000
-15.890175 14.056794 1.763015 1.000000
-15.890175 14.056795 1.604459 1.000000
-15.890175 14.056794 1.445050 1.000000
-15.890175 14.056795 1.284436 1.000000
-15.890175 14.056795 1.122254 1.000000
-15.890175 14.056795 0.958128 1.000000
-15.890175 14.056797 0.791666 1.000000
-15.924061 14.062286 3.206639 1.000000
-15.924061 14.062287 3.040410 1.000000
-15.924061 14.062286 2.876514 1.000000
-15.924061 14.062286 2.714560 1.000000
-15.924061 14.062287 2.554171 1.000000
-15.924061 14.062287 2.394986 1.000000
-15.924061 14.062288 2.236653 1.000000
-15.924061 14.062286 2.078828 1.000000
-15.924061 14.062287 1.921172 1.000000
-15.924061 14.062288 1.763348 1.000000
-15.924061 14.062288 1.605014 1.000000
-15.924061 14.062288 1.445829 1.000000
-15.924061 14.062288 1.285440 1.000000
-15.924061 14.062289 1.123486 1.000000
-15.924061 14.062289 0.959591 1.000000
-15.924061 14.062288 0.793361 1.000000
-15.957853 14.067766 3.205007 1.000000
-15.957853 14.067765 3.039002 1.000000
-15.957853 14.067766 2.875329 1.000000
-15.957853 14.067764 2.713593 1.000000
-15.957853 14.067766 2.553421 1.000000
-15.957853 14.067766 2.394451 1.000000
-15.957853 14.067766 2.236332 1.000000
-15.957853 14.067766 2.078721 1.000000
-15.957853 14.067766 1.921279 1.000000
-15.957853 14.067766 1.763668 1.000000
-15.957853 14.067766 1.605549 1.000000
-15.957853 14.067766 1.446579 1.000000
-15.957853 14.067766 1.286407 1.000000
-15.957853 14.067767 1.124672 1.000000
-15.957853 14.067767 0.960998 1.000000
-15.957853 14.067768 0.794994 1.000000
-15.991556 14.073229 3.203437 1.000000
-15.991556 14.073228 3.037649 1.000000
-15.991556 14.073229 2.874188 1.000000
-15.991556 14.073229 2.712664 1.000000
-15.991556 14.073229 2.552701 1.000000
-15.991556 14.073229 2.393937 1.000000
-15.991556 14.073229 2.236025 1.000000
-15.991556 14.073229 2.078619 1.000000
-15.991556 14.073229 1.921381 1.000000
-15.991556 14.073229 1.763976 1.000000
-15.991556 14.073229 1.606062 1.000000
-15.991556 14.073229 1.447300 1.000000
-15.991556 14.073229 1.287336 1.000000
-15.991556 14.073231 1.125812 1.000000
-15.991556 14.073229 0.962351 1.000000
-15.991556 14.073230 0.796563 1.000000
-16.025173 14.078678 3.201931 1.000000
-16.025173 14.078678 3.036350 1.000000
-16.025173 14.078678 2.873094 1.000000
-16.025173 14.078678 2.711771 1.000000
-16.025173 14.078678 2.552009 1.000000
-16.025173 14.078678 2.393444 1.000000
-16.025173 14.078678 2.235729 1.000000
-16.025173 14.078678 2.078520 1.000000
-16.025173 14.078678 1.921480 1.000000
-16.025173 14.078678 1.764271 1.000000
-16.025173 14.078680 1.606556 1.000000
-16.025173 14.078678 1.447991 1.000000
-16.025173 14.078679 1.288229 1.000000
-16.025173 14.078680 1.126906 1.000000
-16.025173 14.078680 0.963651 1.000000
-16.025173 14.078680 0.798070 1.000000
-16.058706 14.084114 3.200486 1.000000
-16.058706 14.084114 3.035104 1.000000
-16.058706 14.084114 2.872044 1.000000
-16.058706 14.084114 2.710916 1.000000
-16.058706 14.084114 2.551345 1.000000
-16.058706 14.084114 2.392971 1.000000
-16.058706 14.084114 2.235445 1.000000
-16.058706 14.084114 2.078426 1.000000
-16.058706 14.084114 1.921574 1.000000
-16.058706 14.084115 1.764554 1.000000
-16.058706 14.084115 1.607029 1.000000
-16.058706 14.084115 1.448655 1.000000
-16.058706 14.084116 1.289084 1.000000
-16.058706 14.084116 1.127956 1.000000
-16.058706 14.084116 0.964897 1.000000
-16.058706 14.084116 0.799515 1.000000
-16.092161 14.089538 3.199103 1.000000
-16.092161 14.089537 3.033911 1.000000
-16.092161 14.089539 2.871039 1.000000
-16.092161 14.089540 2.710097 1.000000
-16.092161 14.089539 2.550710 1.000000
-16.092161 14.089539 2.392519 1.000000
-16.092161 14.089539 2.235174 1.000000
-16.092161 14.089539 2.078335 1.000000
-16.092161 14.089539 1.921665 1.000000
-16.092161 14.089539 1.764826 1.000000
-16.092161 14.089539 1.607481 1.000000
-16.092161 14.089539 1.449290 1.000000
-16.092161 14.089539 1.289903 1.000000
-16.092161 14.089539 1.128960 1.000000
-16.092161 14.089539 0.966089 1.000000
-16.092161 14.089539 0.800898 1.000000
-16.125542 14.094949 3.197781 1.000000
-16.125542 14.094950 3.032772 1.000000
-16.125542 14.094950 2.870080 1.000000
-16.125542 14.094950 2.709315 1.000000
-16.125542 14.094948 2.550103 1.000000
-16.125542 14.094948 2.392086 1.000000
-16.125542 14.094949 2.234915 1.000000
-16.125542 14.094950 2.078249 1.000000
-16.125542 14.094950 1.921751 1.000000
-16.125542 14.094950 1.765085 1.000000
-16.125542 14.094949 1.607914 1.000000
-16.125542 14.094950 1.449897 1.000000
-16.125542 14.094950 1.290686 1.000000
-16.125542 14.094951 1.129920 1.000000
-16.125542 14.094951 0.967228 1.000000
-16.125542 14.094951 0.802219 1.000000
-16.158850 14.100348 3.196521 1.000000
-16.158850 14.100348 3.031685 1.000000
-16.158850 14.100348 2.869165 1.000000
-16.158850 14.100349 2.708568 1.000000
-16.158850 14.100348 2.549524 1.000000
-16.158850 14.100348 2.391674 1.000000
-16.158850 14.100349 2.234668 1.000000
-16.158850 14.100349 2.078167 1.000000
-16.158850 14.100349 1.921833 1.000000
-16.158850 14.100349 1.765332 1.000000
-16.158850 14.100349 1.608326 1.000000
-16.158850 14.100349 1.450476 1.000000
-16.158850 14.100349 1.291432 1.000000
-16.158850 14.100348 1.130835 1.000000
-16.158850 14.100349 0.968315 1.000000
-16.158850 14.100349 0.803479 1.000000
-16.192089 14.105737 3.195322 1.000000
-16.192089 14.105737 3.030652 1.000000
-16.192089 14.105737 2.868293 1.000000
-16.192089 14.105738 2.707858 1.000000
-16.192089 14.105736 2.548974 1.000000
-16.192089 14.105737 2.391281 1.000000
-16.192089 14.105738 2.234433 1.000000
-16.192089 14.105738 2.078089 1.000000
-16.192089 14.105738 1.921912 1.000000
-16.192089 14.105738 1.765567 1.000000
-16.192089 14.105738 1.608719 1.000000
-16.192089 14.105738 1.451027 1.000000
-16.192089 14.105738 1.292142 1.000000
-16.192089 14.105738 1.131707 1.000000
-16.192089 14.105738 0.969349 1.000000
-16.192089 14.105738 0.804679 1.000000
-16.225264 14.111115 3.194183 1.000000
-16.225264 14.111115 3.029670 1.000000
-16.225264 14.111115 2.867466 1.000000
-16.225264 14.111115 2.707184 1.000000
-16.225264 14.111115 2.548450 1.000000
-16.225264 14.111115 2.390908 1.000000
-16.225264 14.111115 2.234210 1.000000
-16.225264 14.111116 2.078014 1.000000
-16.225264 14.111116 1.921986 1.000000
-16.225264 14.111116 1.765790 1.000000
-16.225264 14.111116 1.609092 1.000000
-16.225264 14.111116 1.451550 1.000000
-16.225264 14.111116 1.292816 1.000000
-16.225264 14.111116 1.132534 1.000000
-16.225264 14.111116 0.970331 1.000000
-16.225264 14.111116 0.805817 1.000000
-16.258377 14.116482 3.193105 1.000000
-16.258377 14.116482 3.028739 1.000000
-16.258377 14.116482 2.866683 1.000000
-16.258377 14.116483 2.706545 1.000000
-16.258377 14.116482 2.547955 1.000000
-16.258377 14.116483 2.390555 1.000000
-16.258377 14.116484 2.233998 1.000000
-16.258377 14.116483 2.077944 1.000000
-16.258377 14.116484 1.922056 1.000000
-16.258377 14.116484 1.766002 1.000000
-16.258377 14.116484 1.609445 1.000000
-16.258377 14.116483 1.452045 1.000000
-16.258377 14.116484 1.293455 1.000000
-16.258377 14.116484 1.133317 1.000000
-16.258377 14.116484 0.971261 1.000000
-16.258377 14.116484 0.806896 1.000000
-16.291433 14.121841 3.192086 1.000000
-16.291433 14.121841 3.027862 1.000000
-16.291433 14.121841 2.865942 1.000000
-16.291433 14.121841 2.705942 1.000000
-16.291433 14.121841 2.547487 1.000000
-16.291433 14.121841 2.390222 1.000000
-16.291433 14.121841 2.233798 1.000000
-16.291433 14.121841 2.077877 1.000000
-16.291433 14.121841 1.922123 1.000000
-16.291433 14.121842 1.766202 1.000000
-16.291433 14.121842 1.609778 1.000000
-16.291433 14.121841 1.452513 1.000000
-16.291433 14.121842 1.294058 1.000000
-16.291433 14.121843 1.134058 1.000000
-16.291433 14.121841 0.972139 1.000000
-16.291433 14.121843 0.807915 1.000000
-16.324432 14.127192 3.191127 1.000000
-16.324432 14.127191 3.027035 1.000000
-16.324432 14.127191 2.865246 1.000000
-16.324432 14.127192 2.705374 1.000000
-16.324432 14.127191 2.547047 1.000000
-16.324432 14.127192 2.389908 1.000000
-16.324432 14.127192 2.233610 1.000000
-16.324432 14.127192 2.077815 1.000000
-16.324432 14.127192 1.922186 1.000000
-16.324432 14.127192 1.766390 1.000000
-16.324432 14.127192 1.610092 1.000000
-16.324432 14.127192 1.452953 1.000000
-16.324432 14.127192 1.294626 1.000000
-16.324432 14.127192 1.134754 1.000000
-16.324432 14.127192 0.972966 1.000000
-16.324432 14.127192 0.808873 1.000000
-16.357382 14.132530 3.190228 1.000000
-16.357382 14.132532 3.026259 1.000000
-16.357382 14.132531 2.864593 1.000000
-16.357382 14.132532 2.704841 1.000000
-16.357382 14.132532 2.546634 1.000000
-16.357382 14.132532 2.389613 1.000000
-16.357382 14.132532 2.233434 1.000000
-16.357382 14.132531 2.077756 1.000000
-16.357382 14.132531 1.922244 1.000000
-16.357382 14.132532 1.766566 1.000000
-16.357382 14.132533 1.610386 1.000000
-16.357382 14.132532 1.453366 1.000000
-16.357382 14.132533 1.295159 1.000000
-16.357382 14.132532 1.135407 1.000000
-16.357382 14.132533 0.973741 1.000000
-16.357382 14.132532 0.809772 1.000000
-16.390282 14.137864 3.189388 1.000000
-16.390282 14.137865 3.025535 1.000000
-16.390282 14.137865 2.863983 1.000000
-16.390282 14.137865 2.704344 1.000000
-16.390282 14.137865 2.546248 1.000000
-16.390282 14.137865 2.389338 1.000000
-16.390282 14.137866 2.233269 1.000000
-16.390282 14.137865 2.077701 1.000000
-16.390282 14.137866 1.922299 1.000000
-16.390282 14.137867 1.766731 1.000000
-16.390282 14.137866 1.610662 1.000000
-16.390282 14.137867 1.453752 1.000000
-16.390282 14.137867 1.295656 1.000000
-16.390282 14.137865 1.136017 1.000000
-16.390282 14.137867 0.974465 1.000000
-16.390282 14.137867 0.810613 1.000000
-16.423138 14.143190 3.188607 1.000000
-16.423138 14.143192 3.024861 1.000000
-16.423138 14.143191 2.863415 1.000000
-16.423138 14.143191 2.703882 1.000000
-16.423138 14.143192 2.545889 1.000000
-16.423138 14.143192 2.389083 1.000000
-16.423138 14.143190 2.233116 1.000000
-16.423138 14.143191 2.077650 1.000000
-16.423138 14.143191 1.922350 1.000000
-16.423138 14.143191 1.766884 1.000000
-16.423138 14.143192 1.610917 1.000000
-16.423138 14.143192 1.454111 1.000000
-16.423138 14.143192 1.296119 1.000000
-16.423138 14.143192 1.136585 1.000000
-16.423138 14.143192 0.975139 1.000000
-16.423138 14.143192 0.811394 1.000000
-16.455952 14.148510 3.187885 1.000000
-16.455952 14.148510 3.024239 1.000000
-16.455952 14.148512 2.862891 1.000000
-16.455952 14.148512 2.703454 1.000000
-16.455952 14.148512 2.545558 1.000000
-16.455952 14.148512 2.388846 1.000000
-16.455952 14.148512 2.232974 1.000000
-16.455952 14.148512 2.077603 1.000000
-16.455952 14.148512 1.922397 1.000000
-16.455952 14.148512 1.767026 1.000000
-16.455952 14.148512 1.611154 1.000000
-16.455952 14.148512 1.454442 1.000000
-16.455952 14.148512 1.296546 1.000000
-16.455952 14.148512 1.137109 1.000000
-16.455952 14.148512 0.975761 1.000000
-16.455952 14.148512 0.812116 1.000000
-16.488729 14.153825 3.187221 1.000000
-16.488729 14.153824 3.023667 1.000000
-16.488729 14.153824 2.862409 1.000000
-16.488729 14.153824 2.703061 1.000000
-16.488729 14.153824 2.545253 1.000000
-16.488729 14.153824 2.388629 1.000000
-16.488729 14.153824 2.232844 1.000000
-16.488729 14.153824 2.077559 1.000000
-16.488729 14.153825 1.922441 1.000000
-16.488729 14.153825 1.767156 1.000000
-16.488729 14.153825 1.611371 1.000000
-16.488729 14.153824 1.454747 1.000000
-16.488729 14.153825 1.296939 1.000000
-16.488729 14.153825 1.137591 1.000000
-16.488729 14.153826 0.976334 1.000000
-16.488729 14.153827 0.812780 1.000000
-16.521469 14.159132 3.186616 1.000000
-16.521469 14.159131 3.023146 1.000000
-16.521469 14.159131 2.861970 1.000000
-16.521469 14.159132 2.702703 1.000000
-16.521469 14.159132 2.544976 1.000000
-16.521469 14.159132 2.388431 1.000000
-16.521469 14.159132 2.232725 1.000000
-16.521469 14.159132 2.077520 1.000000
-16.521469 14.159132 1.922480 1.000000
-16.521469 14.159132 1.767274 1.000000
-16.521469 14.159133 1.611569 1.000000
-16.521469 14.159132 1.455025 1.000000
-16.521469 14.159132 1.297297 1.000000
-16.521469 14.159132 1.138030 1.000000
-16.521469 14.159133 0.976855 1.000000
-16.521469 14.159133 0.813384 1.000000
-16.554178 14.164434 3.186070 1.000000
-16.554178 14.164434 3.022674 1.000000
-16.554178 14.164434 2.861573 1.000000
-16.554178 14.164434 2.702379 1.000000
-16.554178 14.164434 2.544724 1.000000
-16.554178 14.164434 2.388252 1.000000
-16.554178 14.164434 2.232618 1.000000
-16.554178 14.164434 2.077484 1.000000
-16.554178 14.164434 1.922516 1.000000
-16.554178 14.164435 1.767382 1.000000
-16.554178 14.164435 1.611748 1.000000
-16.554178 14.164435 1.455276 1.000000
-16.554178 14.164436 1.297621 1.000000
-16.554178 14.164436 1.138427 1.000000
-16.554178 14.164435 0.977326 1.000000
-16.554178 14.164436 0.813931 1.000000
-16.586861 14.169731 3.185582 1.000000
-16.586859 14.169733 3.022253 1.000000
-16.586861 14.169731 2.861218 1.000000
-16.586861 14.169732 2.702090 1.000000
-16.586859 14.169733 2.544500 1.000000
-16.586859 14.169733 2.388093 1.000000
-16.586861 14.169732 2.232522 1.000000
-16.586861 14.169732 2.077452 1.000000
-16.586859 14.169733 1.922548 1.000000
-16.586859 14.169733 1.767477 1.000000
-16.586859 14.169733 1.611907 1.000000
-16.586859 14.169733 1.455500 1.000000
-16.586859 14.169733 1.297910 1.000000
-16.586859 14.169733 1.138782 1.000000
-16.586859 14.169734 0.977747 1.000000
-16.586859 14.169733 0.814419 1.000000
-16.619516 14.175026 3.185152 1.000000
-16.619514 14.175026 3.021883 1.000000
-16.619516 14.175026 2.860906 1.000000
-16.619516 14.175026 2.701836 1.000000
-16.619514 14.175026 2.544302 1.000000
-16.619516 14.175026 2.387952 1.000000
-16.619516 14.175026 2.232438 1.000000
-16.619514 14.175026 2.077424 1.000000
-16.619514 14.175026 1.922576 1.000000
-16.619514 14.175026 1.767562 1.000000
-16.619514 14.175027 1.612048 1.000000
-16.619514 14.175027 1.455698 1.000000
-16.619514 14.175028 1.298165 1.000000
-16.619514 14.175027 1.139095 1.000000
-16.619514 14.175028 0.978118 1.000000
-16.619514 14.175028 0.814849 1.000000
-16.652149 14.180315 3.184780 1.000000
-16.652149 14.180316 3.021562 1.000000
-16.652149 14.180315 2.860635 1.000000
-16.652149 14.180316 2.701615 1.000000
-16.652149 14.180316 2.544132 1.000000
-16.652149 14.180317 2.387830 1.000000
-16.652149 14.180317 2.232365 1.000000
-16.652149 14.180317 2.077400 1.000000
-16.652149 14.180317 1.922600 1.000000
-16.652149 14.180317 1.767635 1.000000
-16.652149 14.180317 1.612170 1.000000
-16.652149 14.180317 1.455868 1.000000
-16.652149 14.180317 1.298385 1.000000
-16.652149 14.180317 1.139365 1.000000
-16.652149 14.180317 0.978438 1.000000
-16.652149 14.180317 0.815221 1.000000
-16.684763 14.185602 3.184466 1.000000
-16.684763 14.185602 3.021291 1.000000
-16.684763 14.185602 2.860407 1.000000
-16.684763 14.185602 2.701429 1.000000
-16.684763 14.185602 2.543988 1.000000
-16.684763 14.185602 2.387727 1.000000
-16.684763 14.185603 2.232304 1.000000
-16.684763 14.185602 2.077379 1.000000
-16.684763 14.185603 1.922621 1.000000
-16.684763 14.185604 1.767696 1.000000
-16.684763 14.185603 1.612273 1.000000
-16.684763 14.185604 1.456012 1.000000
-16.684763 14.185604 1.298571 1.000000
-16.684763 14.185604 1.139593 1.000000
-16.684763 14.185604 0.978709 1.000000
-16.684763 14.185604 0.815535 1.000000
-16.717361 14.190887 3.184210 1.000000
-16.717361 14.190887 3.021070 1.000000
-16.717361 14.190887 2.860221 1.000000
-16.717361 14.190887 2.701277 1.000000
-16.717361 14.190887 2.543870 1.000000
-16.717361 14.190888 2.387643 1.000000
-16.717361 14.190887 2.232253 1.000000
-16.717361 14.190887 2.077363 1.000000
-16.717361 14.190887 1.922637 1.000000
-16.717361 14.190887 1.767746 1.000000
-16.717361 14.190889 1.612357 1.000000
-16.717361 14.190888 1.456130 1.000000
-16.717361 14.190888 1.298723 1.000000
-16.717361 14.190889 1.139779 1.000000
-16.717361 14.190889 0.978930 1.000000
-16.717361 14.190889 0.815791 1.000000
-16.749949 14.196169 3.184011 1.000000
-16.749949 14.196170 3.020899 1.000000
-16.749949 14.196170 2.860077 1.000000
-16.749949 14.196170 2.701160 1.000000
-16.749949 14.196171 2.543779 1.000000
-16.749949 14.196170 2.387578 1.000000
-16.749949 14.196170 2.232214 1.000000
-16.749949 14.196169 2.077350 1.000000
-16.749949 14.196169 1.922650 1.000000
-16.749949 14.196171 1.767785 1.000000
-16.749949 14.196171 1.612421 1.000000
-16.749949 14.196171 1.456221 1.000000
-16.749949 14.196171 1.298840 1.000000
-16.749949 14.196171 1.139923 1.000000
-16.749949 14.196171 0.979101 1.000000
-16.749949 14.196171 0.815989 1.000000
-16.782526 14.201450 3.183871 1.000000
-16.782526 14.201451 3.020778 1.000000
-16.782526 14.201450 2.859975 1.000000
-16.782526 14.201450 2.701077 1.000000
-16.782526 14.201451 2.543714 1.000000
-16.782526 14.201451 2.387532 1.000000
-16.782526 14.201451 2.232187 1.000000
-16.782526 14.201450 2.077340 1.000000
-16.782526 14.201450 1.922660 1.000000
-16.782526 14.201451 1.767813 1.000000
-16.782526 14.201452 1.612468 1.000000
-16.782526 14.201452 1.456286 1.000000
-16.782526 14.201452 1.298923 1.000000
-16.782526 14.201452 1.140025 1.000000
-16.782526 14.201452 0.979223 1.000000
-16.782526 14.201452 0.816130 1.000000
-16.815096 14.206730 3.183788 1.000000
-16.815096 14.206731 3.020706 1.000000
-16.815096 14.206731 2.859915 1.000000
-16.815096 14.206732 2.701028 1.000000
-16.815096 14.206731 2.543676 1.000000
-16.815096 14.206732 2.387505 1.000000
-16.815096 14.206732 2.232171 1.000000
-16.815096 14.206732 2.077335 1.000000
-16.815096 14.206732 1.922665 1.000000
-16.815096 14.206732 1.767829 1.000000
-16.815096 14.206733 1.612495 1.000000
-16.815096 14.206732 1.456324 1.000000
-16.815096 14.206733 1.298973 1.000000
-16.815096 14.206732 1.140085 1.000000
-16.815096 14.206732 0.979294 1.000000
-16.815096 14.206732 0.816213 1.000000
-16.847664 14.212009 3.183762 1.000000
-16.847664 14.212009 3.020685 1.000000
-16.847664 14.212010 2.859896 1.000000
-16.847664 14.212010 2.701013 1.000000
-16.847664 14.212011 2.543665 1.000000
-16.847664 14.212011 2.387497 1.000000
-16.847664 14.212011 2.232166 1.000000
-16.847664 14.212011 2.077333 1.000000
-16.847664 14.212011 1.922667 1.000000
-16.847664 14.212011 1.767834 1.000000
-16.847664 14.212011 1.612503 1.000000
-16.847664 14.212011 1.456336 1.000000
-16.847664 14.212010 1.298987 1.000000
-16.847664 14.212011 1.140103 1.000000
-16.847664 14.212011 0.979316 1.000000
-16.847664 14.212011 0.816238 1.000000
-16.880234 14.217289 3.183795 1.000000
-16.880232 14.217290 3.020712 1.000000
-16.880232 14.217289 2.859920 1.000000
-16.880234 14.217289 2.701032 1.000000
-16.880232 14.217289 2.543680 1.000000
-16.880232 14.217290 2.387507 1.000000
-16.880232 14.217290 2.232172 1.000000
-16.880232 14.217290 2.077335 1.000000
-16.880232 14.217290 1.922665 1.000000
-16.880232 14.217291 1.767828 1.000000
-16.880232 14.217291 1.612492 1.000000
-16.880232 14.217291 1.456321 1.000000
-16.880232 14.217291 1.298968 1.000000
-16.880232 14.217291 1.140080 1.000000
-16.880232 14.217292 0.979288 1.000000
-16.880232 14.217291 0.816206 1.000000
-16.912804 14.222570 3.183885 1.000000
-16.912804 14.222570 3.020791 1.000000
-16.912804 14.222569 2.859986 1.000000
-16.912804 14.222570 2.701085 1.000000
-16.912804 14.222570 2.543721 1.000000
-16.912804 14.222570 2.387537 1.000000
-16.912804 14.222570 2.232190 1.000000
-16.912804 14.222570 2.077341 1.000000
-16.912804 14.222570 1.922659 1.000000
-16.912804 14.222570 1.767810 1.000000
-16.912804 14.222571 1.612463 1.000000
-16.912804 14.222571 1.456279 1.000000
-16.912804 14.222570 1.298915 1.000000
-16.912804 14.222570 1.140015 1.000000
-16.912804 14.222571 0.979210 1.000000
-16.912804 14.222571 0.816115 1.000000
-16.945383 14.227850 3.184033 1.000000
-16.945383 14.227851 3.020918 1.000000
-16.945383 14.227851 2.860093 1.000000
-16.945383 14.227851 2.701173 1.000000
-16.945383 14.227852 2.543789 1.000000
-16.945383 14.227852 2.387586 1.000000
-16.945383 14.227852 2.232219 1.000000
-16.945383 14.227852 2.077351 1.000000
-16.945383 14.227852 1.922649 1.000000
-16.945383 14.227852 1.767781 1.000000
-16.945381 14.227853 1.612414 1.000000
-16.945383 14.227852 1.456211 1.000000
-16.945383 14.227852 1.298827 1.000000
-16.945383 14.227852 1.139907 1.000000
-16.945383 14.227852 0.979082 1.000000
-16.945383 14.227852 0.815967 1.000000
-16.977970 14.233133 3.184238 1.000000
-16.977970 14.233133 3.021096 1.000000
-16.977970 14.233133 2.860243 1.000000
-16.977970 14.233133 2.701295 1.000000
-16.977970 14.233133 2.543884 1.000000
-16.977970 14.233133 2.387653 1.000000
-16.977970 14.233133 2.232259 1.000000
-16.977970 14.233134 2.077364 1.000000
-16.977970 14.233134 1.922636 1.000000
-16.977970 14.233134 1.767741 1.000000
-16.977970 14.233135 1.612347 1.000000
-16.977970 14.233133 1.456117 1.000000
-16.977970 14.233135 1.298705 1.000000
-16.977970 14.233133 1.139757 1.000000
-16.977970 14.233135 0.978905 1.000000
-16.977970 14.233135 0.815762 1.000000
-17.010571 14.238419 3.184502 1.000000
-17.010571 14.238419 3.021322 1.000000
-17.010571 14.238419 2.860434 1.000000
-17.010571 14.238419 2.701451 1.000000
-17.010571 14.238419 2.544004 1.000000
-17.010571 14.238419 2.387739 1.000000
-17.010571 14.238420 2.232311 1.000000
-17.010571 14.238420 2.077382 1.000000
-17.010571 14.238420 1.922618 1.000000
-17.010571 14.238420 1.767689 1.000000
-17.010571 14.238419 1.612261 1.000000
-17.010571 14.238420 1.455996 1.000000
-17.010571 14.238420 1.298549 1.000000
-17.010571 14.238419 1.139566 1.000000
-17.010571 14.238420 0.978678 1.000000
-17.010571 14.238420 0.815498 1.000000
-17.043188 14.243706 3.184824 1.000000
-17.043188 14.243706 3.021599 1.000000
-17.043188 14.243706 2.860667 1.000000
-17.043188 14.243707 2.701641 1.000000
-17.043188 14.243706 2.544152 1.000000
-17.043188 14.243706 2.387844 1.000000
-17.043188 14.243706 2.232374 1.000000
-17.043188 14.243706 2.077403 1.000000
-17.043188 14.243706 1.922597 1.000000
-17.043188 14.243706 1.767626 1.000000
-17.043188 14.243706 1.612155 1.000000
-17.043188 14.243707 1.455848 1.000000
-17.043188 14.243708 1.298359 1.000000
-17.043188 14.243707 1.139333 1.000000
-17.043188 14.243707 0.978401 1.000000
-17.043188 14.243708 0.815177 1.000000
-17.075823 14.248997 3.185203 1.000000
-17.075823 14.248997 3.021926 1.000000
-17.075823 14.248997 2.860943 1.000000
-17.075823 14.248997 2.701866 1.000000
-17.075823 14.248997 2.544326 1.000000
-17.075823 14.248997 2.387969 1.000000
-17.075823 14.248997 2.232448 1.000000
-17.075823 14.248997 2.077427 1.000000
-17.075823 14.248997 1.922573 1.000000
-17.075823 14.248997 1.767552 1.000000
-17.075823 14.248997 1.612031 1.000000
-17.075823 14.248997 1.455674 1.000000
-17.075823 14.248997 1.298134 1.000000
-17.075823 14.248998 1.139057 1.000000
-17.075823 14.248999 0.978074 1.000000
-17.075823 14.248998 0.814798 1.000000
-17.108482 14.254290 3.185640 1.000000
-17.108482 14.254290 3.022304 1.000000
-17.108482 14.254291 2.861261 1.000000
-17.108482 14.254292 2.702125 1.000000
-17.108482 14.254291 2.544527 1.000000
-17.108482 14.254292 2.388112 1.000000
-17.108482 14.254292 2.232534 1.000000
-17.108482 14.254292 2.077456 1.000000
-17.108482 14.254292 1.922544 1.000000
-17.108482 14.254292 1.767466 1.000000
-17.108482 14.254292 1.611888 1.000000
-17.108482 14.254292 1.455473 1.000000
-17.108482 14.254292 1.297875 1.000000
-17.108482 14.254292 1.138740 1.000000
-17.108482 14.254292 0.977697 1.000000
-17.108482 14.254292 0.814360 1.000000
-17.141167 14.259589 3.186136 1.000000
-17.141167 14.259588 3.022731 1.000000
-17.141167 14.259588 2.861621 1.000000
-17.141167 14.259590 2.702418 1.000000
-17.141167 14.259589 2.544755 1.000000
-17.141167 14.259590 2.388274 1.000000
-17.141167 14.259588 2.232631 1.000000
-17.141167 14.259590 2.077488 1.000000
-17.141167 14.259590 1.922512 1.000000
-17.141167 14.259589 1.767369 1.000000
-17.141167 14.259590 1.611726 1.000000
-17.141167 14.259590 1.455245 1.000000
-17.141167 14.259590 1.297582 1.000000
-17.141167 14.259590 1.138379 1.000000
-17.141167 14.259589 0.977269 1.000000
-17.141167 14.259590 0.813865 1.000000
-17.173880 14.264893 3.186690 1.000000
-17.173880 14.264892 3.023209 1.000000
-17.173880 14.264893 2.862023 1.000000
-17.173880 14.264893 2.702746 1.000000
-17.173880 14.264893 2.545009 1.000000
-17.173880 14.264893 2.388455 1.000000
-17.173880 14.264893 2.232740 1.000000
-17.173880 14.264893 2.077524 1.000000
-17.173880 14.264893 1.922475 1.000000
-17.173880 14.264893 1.767260 1.000000
-17.173880 14.264893 1.611545 1.000000
-17.173880 14.264894 1.454991 1.000000
-17.173880 14.264893 1.297254 1.000000
-17.173880 14.264894 1.137977 1.000000
-17.173880 14.264893 0.976792 1.000000
-17.173880 14.264894 0.813311 1.000000
-17.206625 14.270201 3.187302 1.000000
-17.206625 14.270201 3.023736 1.000000
-17.206625 14.270201 2.862468 1.000000
-17.206625 14.270201 2.703109 1.000000
-17.206625 14.270201 2.545290 1.000000
-17.206625 14.270201 2.388656 1.000000
-17.206625 14.270201 2.232860 1.000000
-17.206625 14.270201 2.077565 1.000000
-17.206625 14.270201 1.922436 1.000000
-17.206625 14.270201 1.767140 1.000000
-17.206625 14.270201 1.611344 1.000000
-17.206625 14.270202 1.454710 1.000000
-17.206625 14.270201 1.296891 1.000000
-17.206625 14.270203 1.137533 1.000000
-17.206625 14.270203 0.976264 1.000000
-17.206625 14.270203 0.812699 1.000000
-17.239405 14.275515 3.187973 1.000000
-17.239405 14.275515 3.024315 1.000000
-17.239405 14.275515 2.862955 1.000000
-17.239405 14.275515 2.703506 1.000000
-17.239405 14.275515 2.545598 1.000000
-17.239405 14.275516 2.388875 1.000000
-17.239405 14.275515 2.232991 1.000000
-17.239405 14.275516 2.077608 1.000000
-17.239405 14.275516 1.922392 1.000000
-17.239405 14.275516 1.767008 1.000000
-17.239405 14.275517 1.611125 1.000000
-17.239405 14.275517 1.454402 1.000000
-17.239405 14.275517 1.296494 1.000000
-17.239405 14.275517 1.137045 1.000000
-17.239405 14.275517 0.975685 1.000000
-17.239405 14.275517 0.812028 1.000000
-17.272224 14.280835 3.188702 1.000000
-17.272224 14.280834 3.024944 1.000000
-17.272224 14.280834 2.863485 1.000000
-17.272224 14.280836 2.703938 1.000000
-17.272224 14.280835 2.545933 1.000000
-17.272224 14.280835 2.389114 1.000000
-17.272224 14.280836 2.233135 1.000000
-17.272224 14.280835 2.077656 1.000000
-17.272224 14.280835 1.922344 1.000000
-17.272224 14.280836 1.766865 1.000000
-17.272224 14.280836 1.610886 1.000000
-17.272224 14.280836 1.454067 1.000000
-17.272224 14.280836 1.296062 1.000000
-17.272224 14.280836 1.136515 1.000000
-17.272224 14.280836 0.975056 1.000000
-17.272224 14.280836 0.811298 1.000000
-17.305086 14.286162 3.189490 1.000000
-17.305086 14.286161 3.025624 1.000000
-17.305086 14.286161 2.864058 1.000000
-17.305086 14.286161 2.704405 1.000000
-17.305086 14.286161 2.546295 1.000000
-17.305086 14.286162 2.389372 1.000000
-17.305086 14.286162 2.233289 1.000000
-17.305086 14.286162 2.077708 1.000000
-17.305086 14.286162 1.922292 1.000000
-17.305086 14.286162 1.766711 1.000000
-17.305086 14.286163 1.610628 1.000000
-17.305086 14.286161 1.453705 1.000000
-17.305086 14.286162 1.295595 1.000000
-17.305086 14.286163 1.135943 1.000000
-17.305086 14.286163 0.974377 1.000000
-17.305086 14.286163 0.810510 1.000000
-17.337994 14.291496 3.190338 1.000000
-17.337994 14.291496 3.026354 1.000000
-17.337994 14.291496 2.864673 1.000000
-17.337994 14.291496 2.704907 1.000000
-17.337994 14.291496 2.546685 1.000000
-17.337992 14.291496 2.389650 1.000000
-17.337992 14.291497 2.233455 1.000000
