# This PCD file was generated using the MATLABÂ® pcwrite function
# from Computer Vision ToolboxÂ®.
# .PCD v.7 - Point Cloud Data file format
VERSION .7
FIELDS x y z intensity
SIZE 4 4 4 4
TYPE F F F F
COUNT 1 1 1 1
WIDTH 1259
HEIGHT 1
VIEWPOINT 0 0 0 1 0 0 0
POINTS 1259
DATA ascii
464.484009 -314.719055 -0.000011 0.226073
nan nan nan 0.000000
469.129364 -322.226654 5.631186 1.000000
469.129364 -322.226654 5.059166 1.000000
469.129364 -322.226654 4.493919 1.000000
469.129364 -322.226654 3.934139 1.000000
469.129364 -322.226624 3.378558 1.000000
469.129364 -322.226654 2.825952 1.000000
469.129364 -322.226624 2.275121 1.000000
469.129364 -322.226624 1.724880 1.000000
469.129364 -322.226624 1.174048 1.000000
469.129364 -322.226624 0.621442 1.000000
469.129364 -322.226654 0.065862 1.000000
467.359558 -319.406311 -0.000017 0.225714
466.035370 -317.296112 -0.000014 0.213985
465.114990 -315.829437 -0.000013 0.237083
464.436920 -314.748871 -0.000011 0.273083
nan nan nan 0.000000
469.185944 -322.541565 5.695383 1.000000
469.185944 -322.541565 5.113251 1.000000
469.185944 -322.541565 4.538012 1.000000
469.185944 -322.541565 3.968334 1.000000
469.185944 -322.541565 3.402930 1.000000
469.185944 -322.541565 2.840554 1.000000
469.185944 -322.541565 2.279985 1.000000
469.185944 -322.541565 1.720015 1.000000
469.185944 -322.541565 1.159446 1.000000
469.185944 -322.541565 0.597069 1.000000
469.185944 -322.541565 0.031667 1.000000
467.279633 -319.456085 -0.000017 0.249015
465.970215 -317.336670 -0.000014 0.219790
465.060120 -315.863617 -0.000012 0.232859
464.389587 -314.778320 -0.000011 0.273478
nan nan nan 0.000000
469.244598 -322.867828 5.762079 1.000000
469.244598 -322.867828 5.169440 1.000000
469.244568 -322.867828 4.583818 1.000000
469.244568 -322.867828 4.003859 1.000000
469.244568 -322.867828 3.428251 1.000000
469.244568 -322.867828 2.855725 1.000000
469.244568 -322.867828 2.285038 1.000000
469.244568 -322.867828 1.714962 1.000000
469.244568 -322.867828 1.144275 1.000000
469.244568 -322.867798 0.571749 1.000000
469.244568 -322.867828 -0.003858 1.000000
467.199402 -319.505280 -0.000017 0.223488
465.904785 -317.376770 -0.000014 0.217923
465.005005 -315.897400 -0.000012 0.285876
464.342072 -314.807465 -0.000011 0.180164
nan nan nan 0.000000
469.305389 -323.206085 5.831415 1.000000
469.305389 -323.206085 5.227854 1.000000
469.305389 -323.206116 4.631442 1.000000
469.305359 -323.206085 4.040791 1.000000
469.305359 -323.206085 3.454574 1.000000
469.305359 -323.206085 2.871497 1.000000
469.305359 -323.206085 2.290292 1.000000
469.305359 -323.206085 1.709708 1.000000
469.305359 -323.206085 1.128503 1.000000
469.305359 -323.206085 0.545426 1.000000
469.123322 -322.902039 -0.000021 0.224086
467.118805 -319.553894 -0.000017 0.213566
465.839081 -317.416412 -0.000014 0.201168
464.949646 -315.930786 -0.000012 0.225379
464.294342 -314.836243 -0.000011 0.186507
nan nan nan 0.000000
469.368469 -323.557098 5.903552 1.000000
469.368469 -323.557098 5.288626 1.000000
469.368469 -323.557098 4.680984 1.000000
469.368439 -323.557098 4.079214 1.000000
469.368439 -323.557098 3.481960 1.000000
469.368439 -323.557098 2.887904 1.000000
469.368439 -323.557098 2.295757 1.000000
469.368439 -323.557098 1.704243 1.000000
469.368439 -323.557098 1.112095 1.000000
469.368439 -323.557098 0.518040 1.000000
469.018982 -322.964020 -0.000021 0.228658
467.037872 -319.601990 -0.000017 0.241260
465.773102 -317.455597 -0.000014 0.303529
464.894073 -315.963806 -0.000012 0.212657
464.246429 -314.864716 -0.000011 0.246945
nan nan nan 0.000000
469.433960 -323.921570 5.978652 1.000000
469.433960 -323.921570 5.351897 1.000000
469.433960 -323.921570 4.732564 1.000000
469.433960 -323.921570 4.119216 1.000000
469.433960 -323.921570 3.510472 1.000000
469.433960 -323.921570 2.904987 1.000000
469.433960 -323.921570 2.301447 1.000000
469.433960 -323.921570 1.698553 1.000000
469.433960 -323.921570 1.095013 1.000000
469.433960 -323.921570 0.489528 1.000000
468.914185 -323.025269 -0.000021 0.207176
466.956604 -319.649475 -0.000017 0.233026
465.706879 -317.494324 -0.000014 0.222052
464.838257 -315.996429 -0.000012 0.240410
464.198303 -314.892853 -0.000011 0.267853
nan nan nan 0.000000
nan nan nan 0.000000
469.502045 -324.300385 5.417820 1.000000
469.502045 -324.300385 4.786305 1.000000
469.502045 -324.300385 4.160896 1.000000
469.502045 -324.300385 3.540179 1.000000
469.502045 -324.300354 2.922786 1.000000
469.502045 -324.300354 2.307375 1.000000
469.502045 -324.300354 1.692624 1.000000
469.502014 -324.300354 1.077214 1.000000
469.502045 -324.300385 0.459821 1.000000
468.808990 -323.085785 -0.000021 0.223141
466.875031 -319.696411 -0.000017 0.212178
465.640350 -317.532593 -0.000014 0.243845
464.782227 -316.028687 -0.000012 0.197637
464.149963 -314.920654 -0.000010 0.265004
nan nan nan 0.000000
nan nan nan 0.000000
469.572845 -324.694397 5.486562 1.000000
469.572845 -324.694397 4.842347 1.000000
469.572845 -324.694397 4.204358 1.000000
469.572845 -324.694397 3.571155 1.000000
469.572845 -324.694397 2.941346 1.000000
469.572845 -324.694397 2.313558 1.000000
469.572845 -324.694397 1.686442 1.000000
469.572845 -324.694397 1.058654 1.000000
469.572845 -324.694397 0.428844 1.000000
468.703369 -323.145569 -0.000021 0.208803
466.793091 -319.742767 -0.000017 0.232296
465.573578 -317.570404 -0.000014 0.217468
464.725952 -316.060516 -0.000012 0.201252
464.101471 -314.948090 -0.000011 0.204016
nan nan nan 0.000000
nan nan nan 0.000000
469.646576 -325.104614 5.558302 1.000000
469.646576 -325.104645 4.900832 1.000000
469.646576 -325.104614 4.249716 1.000000
469.646576 -325.104614 3.603484 1.000000
469.646576 -325.104614 2.960715 1.000000
469.646576 -325.104614 2.320010 1.000000
469.646576 -325.104614 1.679991 1.000000
469.646576 -325.104614 1.039285 1.000000
469.646576 -325.104614 0.396516 1.000000
468.597321 -323.204620 -0.000022 0.214739
466.710876 -319.788574 -0.000017 0.235180
465.506531 -317.607727 -0.000014 0.220053
464.669464 -316.091949 -0.000012 0.196381
464.052765 -314.975220 -0.000011 0.217983
nan nan nan 0.000000
nan nan nan 0.000000
469.723389 -325.532104 5.633238 1.000000
469.723389 -325.532104 4.961922 1.000000
469.723389 -325.532104 4.297094 1.000000
469.723389 -325.532074 3.637252 1.000000
469.723389 -325.532074 2.980947 1.000000
469.723389 -325.532074 2.326748 1.000000
469.723389 -325.532074 1.673251 1.000000
469.723389 -325.532074 1.019053 1.000000
469.723389 -325.532074 0.362747 1.000000
468.490875 -323.262909 -0.000021 0.229699
466.628296 -319.833771 -0.000017 0.220233
465.439209 -317.644592 -0.000014 0.241643
464.612762 -316.123016 -0.000012 0.217372
464.003876 -315.001984 -0.000011 0.211305
nan nan nan 0.000000
nan nan nan 0.000000
469.803528 -325.977997 5.711582 1.000000
469.803528 -325.977997 5.025790 1.000000
469.803528 -325.977997 4.346626 1.000000
469.803528 -325.977997 3.672558 1.000000
469.803528 -325.977966 3.002099 1.000000
469.803528 -325.977966 2.333794 1.000000
469.803528 -325.977966 1.666206 1.000000
469.803528 -325.977966 0.997901 1.000000
469.803528 -325.977966 0.327443 1.000000
468.384003 -323.320465 -0.000021 0.243773
466.545441 -319.878418 -0.000017 0.240805
465.371674 -317.680969 -0.000014 0.224744
464.555847 -316.153687 -0.000012 0.250092
463.954803 -315.028442 -0.000011 0.196871
nan nan nan 0.000000
nan nan nan 0.000000
469.887207 -326.443573 5.793568 1.000000
469.887207 -326.443542 5.092628 1.000000
469.887207 -326.443573 4.398461 1.000000
469.887207 -326.443542 3.709503 1.000000
469.887177 -326.443542 3.024235 1.000000
469.887177 -326.443542 2.341167 1.000000
469.887177 -326.443542 1.658832 1.000000
469.887177 -326.443542 0.975765 1.000000
469.887177 -326.443542 0.290498 1.000000
468.276764 -323.377289 -0.000021 0.236006
466.462250 -319.922485 -0.000017 0.213207
465.303864 -317.716888 -0.000014 0.213219
464.498718 -316.183929 -0.000012 0.232236
463.905548 -315.054535 -0.000010 0.242864
nan nan nan 0.000000
nan nan nan 0.000000
469.974640 -326.930176 5.879451 1.000000
469.974640 -326.930176 5.162642 1.000000
469.974640 -326.930176 4.452760 1.000000
469.974640 -326.930176 3.748206 1.000000
469.974640 -326.930145 3.047422 1.000000
469.974640 -326.930145 2.348891 1.000000
469.974640 -326.930145 1.651109 1.000000
469.974640 -326.930145 0.952578 1.000000
469.974640 -326.930145 0.251796 1.000000
468.169098 -323.433350 -0.000022 0.228670
466.378754 -319.965973 -0.000017 0.223356
465.235779 -317.752350 -0.000014 0.188949
464.441376 -316.213806 -0.000012 0.230621
463.856110 -315.080261 -0.000011 0.231159
nan nan nan 0.000000
nan nan nan 0.000000
470.066162 -327.439392 5.969512 1.000000
470.066162 -327.439362 5.236061 1.000000
470.066162 -327.439362 4.509700 1.000000
470.066162 -327.439392 3.788790 1.000000
470.066162 -327.439362 3.071739 1.000000
470.066162 -327.439362 2.356990 1.000000
470.066162 -327.439362 1.643009 1.000000
470.066162 -327.439331 0.928262 1.000000
470.066162 -327.439331 0.211212 1.000000
468.061066 -323.488647 -0.000022 0.212142
466.294983 -320.008850 -0.000017 0.229998
465.167480 -317.787292 -0.000014 0.236461
464.383820 -316.243256 -0.000011 0.214644
463.806488 -315.105682 -0.000011 0.227736
nan nan nan 0.000000
nan nan nan 0.000000
nan nan nan 0.000000
470.162018 -327.972809 5.313137 1.000000
470.162018 -327.972809 4.569476 1.000000
470.162018 -327.972809 3.831394 1.000000
470.162018 -327.972809 3.097265 1.000000
470.162018 -327.972778 2.365494 1.000000
470.162018 -327.972778 1.634506 1.000000
470.162018 -327.972778 0.902736 1.000000
470.162018 -327.972778 0.168608 1.000000
467.952637 -323.543213 -0.000022 0.209545
466.210876 -320.051147 -0.000017 0.216283
465.098938 -317.821808 -0.000014 0.237514
464.326080 -316.272308 -0.000012 0.218904
463.756653 -315.130676 0.000000 0.341772
nan nan nan 0.000000
nan nan nan 0.000000
nan nan nan 0.000000
470.262573 -328.532288 5.394142 1.000000
470.262573 -328.532288 4.632298 1.000000
470.262573 -328.532288 3.876171 1.000000
470.262573 -328.532288 3.124093 1.000000
470.262543 -328.532227 2.374429 1.000000
470.262543 -328.532227 1.625571 1.000000
470.262543 -328.532227 0.875908 1.000000
470.262543 -328.532227 0.123831 1.000000
467.843842 -323.596985 -0.000022 0.219060
466.126526 -320.092865 -0.000017 0.214811
465.030151 -317.855804 -0.000014 0.237586
464.268127 -316.300964 -0.000012 0.194562
463.706696 -315.155396 0.000001 0.334691
nan nan nan 0.000000
nan nan nan 0.000000
nan nan nan 0.000000
470.368164 -329.119812 5.479381 1.000000
470.368164 -329.119843 4.698405 1.000000
470.368164 -329.119812 3.923289 1.000000
470.368164 -329.119812 3.152323 1.000000
470.368164 -329.119812 2.383833 1.000000
470.368134 -329.119781 1.616167 1.000000
470.368134 -329.119781 0.847679 1.000000
470.368134 -329.119781 0.076714 1.000000
467.734680 -323.650024 -0.000022 0.228969
466.041840 -320.134003 -0.000017 0.252845
464.961121 -317.889343 -0.000014 0.208576
464.209991 -316.329224 -0.000012 0.204591
463.639252 -315.143799 0.009990 1.000000
nan nan nan 0.000000
nan nan nan 0.000000
nan nan nan 0.000000
470.479218 -329.737671 5.569191 1.000000
470.479218 -329.737671 4.768056 1.000000
470.479218 -329.737701 3.972934 1.000000
470.479218 -329.737671 3.182067 1.000000
470.479218 -329.737671 2.393741 1.000000
470.479187 -329.737640 1.606260 1.000000
470.479187 -329.737640 0.817935 1.000000
470.479187 -329.737640 0.027071 1.000000
467.625122 -323.702301 -0.000022 0.245006
465.956879 -320.174530 -0.000017 0.238172
464.891876 -317.922394 -0.000014 0.219718
464.151642 -316.357056 -0.000011 0.239513
463.589203 -315.167694 0.009991 1.000000
nan nan nan 0.000000
nan nan nan 0.000000
nan nan nan 0.000000
470.596130 -330.388306 5.663943 1.000000
470.596130 -330.388306 4.841540 1.000000
470.596130 -330.388306 4.025309 1.000000
470.596130 -330.388306 3.213447 1.000000
470.596130 -330.388306 2.404193 1.000000
470.596100 -330.388245 1.595808 1.000000
470.596100 -330.388245 0.786555 1.000000
470.466278 -330.108704 -0.000031 0.230501
467.515228 -323.753815 -0.000021 0.229005
465.871643 -320.214478 -0.000017 0.222147
464.822388 -317.954956 -0.000014 0.195064
464.093109 -316.384491 -0.000011 0.201802
463.538971 -315.191223 0.009993 1.000000
nan nan nan 0.000000
nan nan nan 0.000000
nan nan nan 0.000000
470.719452 -331.074463 5.764051 1.000000
470.719452 -331.074463 4.919178 1.000000
470.719452 -331.074463 4.080646 1.000000
470.719452 -331.074463 3.246602 1.000000
470.719452 -331.074463 2.415237 1.000000
470.719421 -331.074402 1.584764 1.000000
470.719421 -331.074402 0.753400 1.000000
470.311584 -330.179871 -0.000030 0.250715
467.404968 -323.804535 -0.000021 0.217384
465.786133 -320.253845 -0.000017 0.244180
464.752686 -317.987030 -0.000014 0.215218
464.034332 -316.411438 0.000003 0.339452
463.488586 -315.214417 0.009994 1.000000
nan nan nan 0.000000
nan nan nan 0.000000
nan nan nan 0.000000
470.849701 -331.799194 5.869979 1.000000
470.849701 -331.799194 5.001329 1.000000
470.849701 -331.799194 4.139198 1.000000
470.849701 -331.799194 3.281684 1.000000
470.849701 -331.799194 2.426923 1.000000
470.849701 -331.799194 1.573078 1.000000
470.849670 -331.799133 0.718319 1.000000
470.156403 -330.249969 -0.000030 0.237035
467.294342 -323.854492 -0.000022 0.212298
465.700348 -320.292572 -0.000017 0.234091
464.682739 -318.018616 -0.000014 0.239740
463.975433 -316.438049 0.000003 0.338643
463.454346 -315.273651 0.000001 0.339788
nan nan nan 0.000000
nan nan nan 0.000000
nan nan nan 0.000000
nan nan nan 0.000000
470.987488 -332.565948 5.088394 1.000000
470.987488 -332.565948 4.201253 1.000000
470.987488 -332.565948 3.318863 1.000000
470.987488 -332.565948 2.439308 1.000000
470.987488 -332.565948 1.560693 1.000000
470.987457 -332.565887 0.681139 1.000000
470.000732 -330.318970 -0.000030 0.228275
467.183411 -323.903687 -0.000021 0.229400
465.614319 -320.330719 -0.000017 0.226671
464.612579 -318.049713 -0.000014 0.198607
463.897736 -316.421936 0.009989 1.000000
463.403381 -315.296234 0.000001 0.338949
nan nan nan 0.000000
nan nan nan 0.000000
nan nan nan 0.000000
nan nan nan 0.000000
471.133514 -333.378540 5.180818 1.000000
471.133514 -333.378540 4.267128 1.000000
471.133514 -333.378540 3.358333 1.000000
471.133514 -333.378540 2.452454 1.000000
471.133514 -333.378540 1.547546 1.000000
471.133484 -333.378479 0.641671 1.000000
469.844574 -330.386902 -0.000030 0.229149
467.072113 -323.952118 -0.000021 0.235551
465.527985 -320.368286 -0.000017 0.249303
464.542206 -318.080322 -0.000014 0.257716
463.838745 -316.447571 0.009991 1.000000
463.352264 -315.318481 0.000001 0.336355
nan nan nan 0.000000
nan nan nan 0.000000
nan nan nan 0.000000
nan nan nan 0.000000
471.288574 -334.241333 5.279110 1.000000
471.288574 -334.241333 4.337186 1.000000
471.288574 -334.241333 3.400306 1.000000
471.288574 -334.241333 2.466435 1.000000
471.288574 -334.241333 1.533564 1.000000
471.288574 -334.241333 0.599693 1.000000
469.687927 -330.453735 -0.000030 0.226145
466.960449 -323.999725 -0.000021 0.205057
465.441406 -320.405212 -0.000017 0.220304
464.471649 -318.110443 -0.000014 0.207858
463.779572 -316.472809 0.009993 1.000000
463.300995 -315.340363 0.000001 0.335286
485.462463 -368.964691 18.534014 1.000000
485.462463 -368.964691 16.256248 1.000000
485.462463 -368.964691 14.010468 1.000000
485.462463 -368.964691 11.791285 1.000000
471.453522 -335.159180 5.383842 1.000000
471.453522 -335.159180 4.411834 1.000000
471.453522 -335.159180 3.445031 1.000000
471.453522 -335.159180 2.481333 1.000000
471.453522 -335.159180 1.518667 1.000000
471.453522 -335.159180 0.554969 1.000000
469.530853 -330.519501 -0.000030 0.228000
466.848511 -324.046600 -0.000021 0.227162
465.354584 -320.441559 -0.000017 0.265974
464.400848 -318.140076 -0.000014 0.210096
463.720245 -316.497650 0.009995 1.000000
463.249573 -315.361877 0.000001 0.337224
484.927124 -368.871277 18.461462 0.961944
484.927460 -368.872131 16.193893 0.974670
484.927460 -368.872131 13.957932 0.976562
484.927460 -368.872131 11.748461 0.973419
484.927460 -368.872131 9.560333 0.970962
484.927460 -368.872131 7.388631 0.759503
484.927460 -368.872131 5.228555 0.754864
484.927460 -368.872131 3.075415 0.739391
484.927460 -368.872131 0.924583 0.477821
475.514862 -345.702148 0.000051 0.337972
469.373322 -330.584137 -0.000030 0.229508
466.736206 -324.092682 -0.000021 0.217253
465.267517 -320.477295 -0.000017 0.221166
464.329834 -318.169098 0.000005 0.337667
463.678131 -316.564911 0.000003 0.343023
463.197998 -315.383026 0.000001 0.328710
484.466919 -368.955719 18.438080 0.983551
484.467896 -368.958130 16.174088 0.984146
484.467865 -368.958069 13.941242 0.988998
484.467865 -368.958099 11.734850 0.988785
484.467865 -368.958099 9.549784 0.983108
484.467865 -368.958099 7.381111 0.776349
484.467865 -368.958099 5.224049 0.763714
484.467865 -368.958099 3.073915 0.750088
484.467865 -368.958099 0.926084 0.878843
475.251221 -345.808289 0.000047 0.338750
469.215332 -330.647675 -0.000031 0.213411
466.623596 -324.137939 -0.000021 0.217444
465.180176 -320.512421 -0.000017 0.241057
464.258636 -318.197723 0.000005 0.338613
463.618164 -316.589050 0.000003 0.343832
463.146301 -315.403839 0.000001 0.336538
484.080200 -369.224976 18.465309 0.219242
484.009552 -369.043884 16.155029 0.993667
484.074371 -369.210052 13.957643 0.785031
484.079590 -369.223450 11.750357 1.000000
484.074371 -369.210052 9.560153 0.865125
484.009552 -369.043884 7.373875 0.777752
484.079590 -369.223450 5.229183 1.000000
484.009552 -369.043884 3.072471 0.760510
484.009552 -369.043884 0.927529 0.468269
474.986847 -345.912598 0.000042 0.339086
469.056885 -330.710114 -0.000031 0.226731
466.510681 -324.182465 -0.000021 0.248237
465.092590 -320.546936 -0.000017 0.220257
464.167267 -318.174713 0.009997 1.000000
463.558014 -316.612732 0.000003 0.339696
463.094421 -315.424255 0.000001 0.345754
483.621124 -369.309235 18.443584 1.000000
483.552429 -369.129425 16.136709 0.992218
483.615997 -369.295776 13.942158 0.767498
483.621124 -369.309235 11.737736 1.000000
483.621124 -369.309235 9.552021 1.000000
483.552429 -369.129425 7.366920 0.790463
483.617004 -369.298462 5.224438 0.259739
483.552399 -369.129395 3.071083 0.759213
483.552429 -369.129425 0.928917 0.472175
474.721741 -346.015045 0.000036 0.338613
468.898041 -330.771423 -0.000031 0.222303
466.397461 -324.226166 -0.000022 0.220999
465.004791 -320.580841 -0.000017 0.223392
464.096039 -318.202179 0.010002 1.000000
463.497711 -316.636017 0.000003 0.335988
463.042419 -315.444336 0.000001 0.332860
483.096497 -369.214752 18.374979 0.985534
483.096466 -369.214752 16.119123 1.000000
483.096497 -369.214783 13.894945 0.997391
483.096497 -369.214783 11.697107 0.997650
483.096497 -369.214783 9.520509 0.991073
483.096466 -369.214752 7.360243 0.777203
483.096466 -369.214752 5.211548 0.767498
483.096466 -369.214752 3.069752 0.760174
483.096497 -369.214752 0.930248 0.620874
474.455933 -346.115601 0.000034 0.338811
468.738739 -330.831665 -0.000030 0.243642
466.283936 -324.269104 -0.000022 0.233553
464.916748 -320.614105 -0.000017 0.239094
464.024628 -318.229156 0.010004 1.000000
463.437225 -316.658875 0.000003 0.341588
462.990295 -315.464050 0.000001 0.334859
482.641632 -369.299896 18.355434 0.994278
482.641632 -369.299866 16.102268 1.000000
482.641632 -369.299866 13.880742 0.999695
482.641632 -369.299866 11.685527 0.996368
482.641632 -369.299866 9.511530 0.999176
482.641632 -369.299866 7.353844 0.777249
482.641632 -369.299866 5.207715 0.770016
482.641632 -369.299866 3.068475 0.759350
482.641632 -369.299866 0.931527 0.619104
474.189362 -346.214172 0.000037 0.338445
468.579041 -330.890747 -0.000030 0.229412
466.170105 -324.311218 -0.000022 0.249099
464.828461 -320.646790 -0.000017 0.237981
463.971893 -318.307281 0.000004 0.334066
463.376587 -316.681335 0.000003 0.336782
462.938019 -315.483398 0.000001 0.328435
482.187836 -369.384735 18.336700 0.760433
482.187836 -369.384766 16.086136 0.996124
482.247681 -369.551849 13.899442 0.746975
482.247681 -369.551880 11.700774 0.743679
482.247681 -369.551880 9.523355 0.807492
482.187836 -369.384796 7.347719 0.777340
482.187836 -369.384766 5.204043 0.747021
482.187836 -369.384766 3.067251 0.759457
482.187836 -369.384766 0.932748 0.523293
473.922119 -346.310913 0.000039 0.338277
468.418945 -330.948761 -0.000031 0.210969
466.056000 -324.352539 -0.000022 0.234857
464.739899 -320.678680 0.000009 0.337591
463.899750 -318.333405 0.000004 0.329931
463.315826 -316.703339 0.000003 0.340490
462.885590 -315.502380 0.000001 0.340764
481.798431 -369.650330 18.366835 1.000000
481.735077 -369.469513 16.070728 0.995315
481.798431 -369.650330 13.889030 1.000000
481.798431 -369.650330 11.692286 1.000000
481.793701 -369.636810 9.515125 0.897459
481.735077 -369.469513 7.341869 0.785122
481.794617 -369.639465 5.209385 0.263813
481.735077 -369.469513 3.066085 0.759304
481.735077 -369.469513 0.933915 0.914855
473.654205 -346.405762 0.000042 0.338415
468.258423 -331.005615 -0.000030 0.230501
465.941589 -324.393066 -0.000021 0.215493
464.651184 -320.710114 0.000010 0.336263
463.827423 -318.359039 0.000005 0.336065
463.254883 -316.724915 0.000003 0.340047
462.833069 -315.520996 0.000001 0.338537
481.283264 -369.554047 18.301813 0.997864
481.283264 -369.554047 16.056036 0.998260
481.283264 -369.554047 13.841787 0.974136
481.283264 -369.554047 11.653773 0.972305
481.283264 -369.554016 9.486900 0.963546
481.283264 -369.554016 7.336290 0.782177
481.283264 -369.554016 5.197196 0.774838
481.283264 -369.554016 3.064970 0.768750
481.283264 -369.554016 0.935029 0.877531
473.385651 -346.498779 0.000044 0.338567
468.097504 -331.061340 -0.000030 0.229579
465.826904 -324.432800 -0.000021 0.231004
464.540405 -320.677155 0.010006 1.000000
463.754913 -318.384155 0.000004 0.341390
463.193787 -316.746094 0.000003 0.339269
462.780396 -315.539246 0.000001 0.343221
480.832397 -369.638428 18.285601 1.000000
480.832397 -369.638428 16.042059 0.999924
480.832397 -369.638428 13.830015 1.000000
480.832397 -369.638397 11.644172 0.999985
480.832367 -369.638397 9.479456 0.999985
480.832367 -369.638397 7.330983 0.786053
480.832367 -369.638397 5.194017 0.774594
480.832367 -369.638367 3.063911 0.767071
480.832367 -369.638367 0.936089 0.644724
473.116425 -346.589905 0.000047 0.338064
467.936218 -331.115967 -0.000030 0.226432
465.711945 -324.471741 -0.000022 0.232404
464.451691 -320.707184 0.010010 1.000000
463.682251 -318.408752 0.000004 0.339605
463.132568 -316.766815 0.000003 0.342718
462.727600 -315.557129 0.000001 0.334997
480.382385 -369.722626 18.270216 0.978149
480.382385 -369.722626 16.028793 1.000000
480.382355 -369.722595 13.818835 0.966522
480.382355 -369.722595 11.635057 0.973220
480.382355 -369.722595 9.472388 0.974533
480.382355 -369.722595 7.325946 0.782757
480.382355 -369.722595 5.190999 0.766293
480.382355 -369.722565 3.062907 0.773449
480.382355 -369.722565 0.937093 0.557214
472.846588 -346.679138 0.000050 0.337774
467.774567 -331.169464 -0.000030 0.234510
465.596710 -324.509857 -0.000021 0.220927
464.383728 -320.800690 0.000010 0.338506
463.609375 -318.432861 0.000005 0.338674
463.071198 -316.787140 0.000003 0.334951
462.674683 -315.574646 0.000001 0.339269
479.933197 -369.806671 18.255650 0.682658
479.933197 -369.806702 16.016239 0.996155
479.991241 -369.988495 13.842987 1.000000
479.991241 -369.988495 11.654748 1.000000
479.986908 -369.974915 9.486024 0.909972
479.933197 -369.806641 7.321181 0.773144
479.987762 -369.977570 5.196956 0.263325
479.933197 -369.806641 3.061954 0.754788
479.933167 -369.806641 0.938045 0.919081
472.576141 -346.766479 0.000053 0.338552
467.612518 -331.221832 -0.000030 0.227210
465.481232 -324.547180 -0.000021 0.221741
464.294159 -320.829620 0.000010 0.337285
463.536377 -318.456482 0.000004 0.334539
463.009674 -316.807007 0.000003 0.332845
462.621643 -315.591766 0.000001 0.343053
479.484802 -369.890594 18.241901 0.961395
479.484802 -369.890594 16.004383 0.999969
479.484802 -369.890625 13.798281 0.949798
479.484802 -369.890594 11.618301 0.941512
479.484802 -369.890564 9.459389 0.960784
479.484772 -369.890533 7.316679 0.783642
479.484772 -369.890533 5.185446 0.755673
479.484772 -369.890533 3.061058 0.769177
479.484772 -369.890564 0.938943 0.481422
472.305115 -346.852020 0.000049 0.338933
467.450134 -331.273071 -0.000031 0.225199
465.365417 -324.583496 0.000003 0.335851
464.204376 -320.857941 0.000010 0.336019
463.463196 -318.479553 0.000005 0.336568
462.948029 -316.826477 0.000003 0.340764
462.568481 -315.608551 0.000001 0.337072
479.037140 -369.974365 18.228971 0.999191
479.037140 -369.974365 15.993232 1.000000
479.037140 -369.974396 13.788882 1.000000
479.037140 -369.974365 11.610640 0.998657
479.037140 -369.974335 9.453451 0.990875
479.037109 -369.974335 7.312447 0.785657
479.037140 -369.974335 5.182910 0.767391
479.037109 -369.974335 3.060211 0.765774
479.037109 -369.974335 0.939788 0.799161
472.033508 -346.935760 0.000043 0.338949
467.287384 -331.323181 -0.000030 0.222387
465.224121 -324.536072 0.009998 1.000000
464.114410 -320.885620 0.000010 0.335393
463.389832 -318.502136 0.000004 0.340017
462.886230 -316.845490 0.000003 0.336370
462.515198 -315.624939 0.000001 0.337758
478.590179 -370.058044 18.216854 0.995834
478.590179 -370.058014 15.982777 0.996262
478.590149 -370.057983 13.780069 0.995697
478.590149 -370.057983 11.603459 0.997055
478.590149 -370.057983 9.447878 0.987701
478.590149 -370.057983 7.308480 0.786114
478.590149 -370.057983 5.180532 0.767330
478.590149 -370.057983 3.059421 0.762234
478.590179 -370.058014 0.940579 0.896651
471.761292 -347.017456 0.000045 0.338323
467.124146 -331.371704 0.000006 0.336736
465.133179 -324.654114 0.000002 0.335317
464.024261 -320.912689 0.000010 0.334325
463.316345 -318.524200 0.000005 0.338170
462.824310 -316.864075 0.000003 0.329946
462.461823 -315.640961 0.000001 0.342397
478.197083 -370.325867 18.253593 0.233829
478.143860 -370.141541 15.973017 0.997848
478.196625 -370.324310 13.806471 1.000000
478.196625 -370.324310 11.624980 1.000000
478.192688 -370.310669 9.462940 0.917800
478.143860 -370.141541 7.304778 0.779309
478.143860 -370.141541 5.178314 0.771984
478.143860 -370.141541 3.058681 0.757961
478.143860 -370.141541 0.941319 0.464652
471.432220 -346.902252 0.010016 1.000000
466.926880 -331.302368 0.010004 1.000000
465.016693 -324.688202 0.000001 0.338567
463.933929 -320.939117 0.000010 0.338170
463.242706 -318.545746 0.000004 0.336400
462.762268 -316.882233 0.000003 0.338018
462.408325 -315.656616 0.000001 0.340352
477.698120 -370.224915 18.195011 0.980545
477.698120 -370.224945 15.963954 0.999222
477.745728 -370.394257 13.796223 0.764538
477.745728 -370.394287 11.616629 0.751842
477.745758 -370.394318 9.458097 0.833890
477.698120 -370.224915 7.301336 0.781155
477.749573 -370.407959 5.185591 1.000000
477.749603 -370.407959 3.061106 1.000000
477.749603 -370.407959 0.938894 1.000000
471.215729 -347.177032 -0.000051 0.232356
466.796967 -331.466217 0.000005 0.336629
464.899963 -324.721466 0.000001 0.336934
463.843414 -320.964935 0.000010 0.337682
463.168915 -318.566772 0.000004 0.338720
462.700104 -316.899933 0.000003 0.338384
462.354706 -315.671906 0.000001 0.342168
477.252960 -370.308228 18.185305 0.994583
477.252960 -370.308258 15.955585 0.999649
477.252930 -370.308228 13.757159 0.999039
477.252930 -370.308228 11.584780 1.000000
477.252930 -370.308228 9.433397 0.995758
477.252930 -370.308228 7.298156 0.793835
477.303101 -370.491516 5.183683 1.000000
477.303101 -370.491516 3.060468 1.000000
477.303101 -370.491516 0.939530 1.000000
470.941864 -347.253052 -0.000051 0.227485
466.632904 -331.511871 -0.000004 0.337942
464.783020 -324.753937 0.000001 0.339681
463.752716 -320.990112 0.000010 0.332860
463.094971 -318.587280 0.000004 0.338354
462.637817 -316.917236 0.000003 0.326955
462.300995 -315.686798 0.000001 0.338155
476.808289 -370.391449 18.176399 0.989899
476.808289 -370.391449 15.947902 1.000000
476.808289 -370.391449 13.750691 0.999619
476.808289 -370.391418 11.579505 0.996811
476.808289 -370.391418 9.429303 0.999069
476.808289 -370.391418 7.295238 0.785855
476.857147 -370.574951 5.181931 1.000000
476.857147 -370.574951 3.059887 1.000000
476.857147 -370.574951 0.940114 1.000000
470.667450 -347.327118 -0.000051 0.231363
466.468506 -331.556274 -0.000007 0.338064
464.665833 -324.785583 0.000000 0.337255
463.661835 -321.014648 0.000010 0.336843
463.020874 -318.607300 0.000004 0.336721
462.575378 -316.934082 0.000003 0.338933
462.247162 -315.701355 0.000001 0.336233
476.411652 -370.658325 18.215830 1.000000
476.364105 -370.474579 15.940908 0.995651
476.408112 -370.644592 13.776754 0.744198
476.411652 -370.658325 11.602858 1.000000
476.408112 -370.644592 9.445786 0.920531
476.364075 -370.474518 7.292582 0.788098
476.364105 -370.474548 5.171009 0.782391
476.364105 -370.474548 3.056247 0.776913
476.364105 -370.474548 0.943752 0.469841
470.392548 -347.399292 -0.000051 0.226109
466.303772 -331.599396 0.000003 0.336492
464.548431 -324.816406 -0.000000 0.334188
463.570770 -321.038544 0.000010 0.335866
462.946655 -318.626770 0.000004 0.331868
462.512848 -316.950500 0.000003 0.335180
462.193268 -315.715485 0.000001 0.324773
475.966980 -370.743195 18.208900 0.240345
475.920319 -370.557617 15.934593 0.984833
475.963135 -370.727875 13.771426 0.776272
475.966583 -370.741577 11.598508 1.000000
475.963135 -370.727844 9.442413 0.899123
475.920319 -370.557526 7.290183 0.782925
475.920319 -370.557556 5.169572 0.781933
475.920319 -370.557556 3.055770 0.761517
475.920319 -370.557556 0.944230 0.835645
470.117157 -347.469543 -0.000051 0.231387
466.138763 -331.641449 0.000005 0.339391
464.430847 -324.846405 -0.000000 0.334173
463.479584 -321.061798 0.000010 0.336858
462.872314 -318.645752 0.000004 0.332784
462.450226 -316.966461 0.000003 0.343526
462.139252 -315.729279 0.000001 0.335103
475.476929 -370.640564 18.154434 0.996033
475.476959 -370.640564 15.928968 0.997757
475.476929 -370.640564 13.734740 1.000000
475.476929 -370.640533 11.566500 1.000000
475.476929 -370.640533 9.419219 0.992309
475.476929 -370.640533 7.288050 0.786023
475.476929 -370.640533 5.168294 0.765270
475.476929 -370.640564 3.055343 0.769177
475.476929 -370.640533 0.944657 0.866255
469.841278 -347.537872 -0.000051 0.228072
465.973389 -331.682068 0.000033 0.337728
464.313019 -324.875580 -0.000001 0.340566
463.388214 -321.084412 0.000010 0.336004
462.797821 -318.664185 0.000004 0.338674
462.387482 -316.982025 0.000003 0.330678
462.085144 -315.742676 0.000001 0.343542
475.033875 -370.723450 18.148706 1.000000
475.033905 -370.723480 15.924028 0.999634
475.033875 -370.723450 13.730575 1.000000
475.033875 -370.723480 11.563110 1.000000
475.033905 -370.723480 9.416589 0.996155
475.033875 -370.723450 7.286175 0.785458
475.033905 -370.723480 5.167171 0.764599
475.033905 -370.723480 3.054969 0.764141
475.033905 -370.723480 0.945031 0.467811
469.564911 -347.604248 -0.000051 0.230226
465.807831 -331.721924 0.000026 0.336217
464.195007 -324.903931 -0.000001 0.336629
463.296692 -321.106415 0.000011 0.339437
462.723206 -318.682129 0.000004 0.338262
462.324615 -316.997131 0.000003 0.337179
462.030945 -315.755676 0.000001 0.339635
474.485596 -370.345886 18.025436 0.348394
474.591125 -370.806335 15.919769 0.991318
474.630310 -370.977264 13.758897 0.769909
474.630310 -370.977264 11.586197 0.703105
474.630310 -370.977295 9.434502 0.891722
474.591125 -370.806335 7.284560 0.786130
474.591125 -370.806274 5.166198 0.736294
474.591125 -370.806305 3.054647 0.758312
474.591156 -370.806366 0.945352 0.493904
469.288086 -347.668701 -0.000051 0.230022
465.642059 -331.760864 -0.000000 0.337636
464.076813 -324.931458 -0.000002 0.342260
463.205017 -321.127747 0.000011 0.333272
462.648468 -318.699524 0.000004 0.327840
462.261658 -317.011780 0.000003 0.341726
461.976654 -315.768341 0.000001 0.334951
474.190033 -371.075745 18.187492 0.246479
474.148621 -370.889130 15.916186 0.978302
474.189667 -371.074097 13.758449 1.000000
474.189667 -371.074097 11.585830 1.000000
474.186615 -371.060303 9.432587 0.918074
474.148621 -370.889130 7.283198 0.788083
474.187195 -371.063049 5.174138 0.260685
474.148621 -370.889160 3.054375 0.763485
474.148621 -370.889160 0.945624 0.890257
469.010834 -347.731262 -0.000051 0.229735
465.475952 -331.798309 -0.000001 0.338155
463.958405 -324.958160 -0.000002 0.338323
463.113190 -321.148468 0.000010 0.340688
462.573608 -318.716400 0.000004 0.337438
462.198578 -317.026001 0.000003 0.335119
461.922272 -315.780609 0.000001 0.334249
473.706329 -370.971893 18.136250 0.998001
473.706329 -370.971924 15.913289 0.998917
473.706329 -370.971924 13.721532 0.969757
473.706329 -370.971893 11.555734 0.979690
473.706329 -370.971924 9.410872 0.979324
473.706329 -370.971893 7.282100 0.780118
473.706329 -370.971924 5.164730 0.765026
473.706329 -370.971893 3.054157 0.766537
473.706329 -370.971893 0.945845 0.472572
468.733124 -347.791809 -0.000051 0.231758
465.309570 -331.834564 0.000004 0.335790
463.839813 -324.984039 -0.000003 0.338689
463.021240 -321.168549 0.000010 0.335332
462.498627 -318.732758 0.000004 0.338659
462.135406 -317.039795 0.000003 0.334081
461.867828 -315.792480 0.000001 0.339590
473.264191 -371.054626 18.133671 0.997925
473.264191 -371.054626 15.911064 0.998611
473.264191 -371.054626 13.719657 0.996551
473.264191 -371.054626 11.554208 1.000000
473.264191 -371.054626 9.409685 1.000000
473.264191 -371.054626 7.281254 0.784649
473.264191 -371.054626 5.164223 0.776272
473.264191 -371.054626 3.053988 0.763897
473.264191 -371.054626 0.946012 0.453712
468.455048 -347.850494 -0.000051 0.226779
465.142975 -331.869751 0.000001 0.336751
463.721069 -325.009094 -0.000003 0.341070
462.929108 -321.187958 0.000010 0.335332
462.423553 -318.748596 0.000004 0.334554
462.072174 -317.053131 0.000003 0.341833
461.813263 -315.803986 0.000001 0.338582
472.822174 -371.137360 18.131886 0.977111
472.822174 -371.137360 15.909524 0.998535
472.822144 -371.137329 13.718355 0.968780
472.822144 -371.137329 11.553146 0.968841
472.822144 -371.137329 9.408865 0.967773
472.822174 -371.137360 7.280670 0.785016
472.822144 -371.137329 5.163872 0.773205
472.822144 -371.137329 3.053870 0.767941
472.822174 -371.137360 0.946130 0.312078
468.176514 -347.907166 -0.000050 0.230944
464.976074 -331.903656 0.000006 0.339117
463.602142 -325.033325 -0.000003 0.336324
462.836884 -321.206726 0.000010 0.339086
462.348358 -318.763916 0.000004 0.340383
462.008820 -317.066040 0.000002 0.341756
461.758667 -315.815094 0.000001 0.341421
472.380219 -371.220062 18.130886 0.704402
472.380219 -371.220032 15.908654 0.980865
472.416046 -371.406006 13.752089 1.000000
472.416046 -371.405975 11.580644 1.000000
472.413391 -371.392120 9.428564 0.917464
472.380219 -371.220032 7.280340 0.787503
472.413910 -371.394836 5.172420 0.264607
472.380219 -371.220001 3.053804 0.761303
472.380219 -371.220032 0.946196 0.827604
467.897614 -347.961914 -0.000050 0.230441
464.809052 -331.936707 -0.000014 0.335042
463.483032 -325.056702 -0.000004 0.337377
462.744537 -321.224884 0.000010 0.335668
462.273071 -318.778687 0.000004 0.340185
461.945374 -317.078491 0.000003 0.333776
461.703949 -315.825836 0.000001 0.336873
471.938293 -371.302704 18.130659 0.986862
471.938293 -371.302734 15.908467 0.998383
471.970276 -371.475006 13.749354 0.687877
471.970276 -371.475037 11.578422 0.674907
471.970276 -371.475067 9.428467 0.689570
471.938324 -371.302734 7.280271 0.785412
471.938293 -371.302734 5.163631 0.756588
471.938324 -371.302734 3.053790 0.762997
471.938324 -371.302734 0.946208 0.894759
467.618347 -348.014740 -0.000050 0.229579
464.641632 -331.967926 0.000021 0.337240
463.363770 -325.079224 -0.000002 0.337881
462.652039 -321.242371 0.000011 0.337758
462.197662 -318.792938 0.000004 0.334829
461.881866 -317.090485 0.000003 0.350896
461.649170 -315.836212 0.000001 0.337697
471.496399 -371.385406 18.131231 1.000000
471.496399 -371.385437 15.908957 1.000000
471.496399 -371.385437 13.717888 1.000000
471.496399 -371.385437 11.552767 0.998367
471.496399 -371.385437 9.408566 0.998795
471.496399 -371.385437 7.280457 0.780652
471.496399 -371.385437 5.163743 0.770596
471.496399 -371.385437 3.053827 0.763073
471.496399 -371.385406 0.946172 0.896666
467.338715 -348.065613 -0.000050 0.233469
464.474182 -331.998840 -0.000015 0.337774
463.244385 -325.100952 -0.000002 0.337407
462.559418 -321.259216 0.000011 0.335607
462.122162 -318.806671 0.000004 0.334035
461.818268 -317.102051 0.000003 0.336065
461.594330 -315.846191 0.000001 0.339406
471.054413 -371.468140 18.132593 0.998749
471.054413 -371.468140 15.910131 0.998276
471.054413 -371.468140 13.718874 0.997665
471.054413 -371.468140 11.553566 0.996185
471.054413 -371.468140 9.409188 0.997040
471.054413 -371.468140 7.280901 0.781018
471.054413 -371.468140 5.164010 0.769833
471.054413 -371.468140 3.053917 0.769177
471.054413 -371.468109 0.946083 0.746990
467.058746 -348.114532 -0.000050 0.228933
464.306396 -332.027832 0.000010 0.337911
463.124817 -325.121857 -0.000003 0.339864
462.466705 -321.275391 0.000011 0.337285
462.046570 -318.819885 0.000004 0.332891
461.754578 -317.113190 0.000002 0.338323
461.539429 -315.855774 0.000001 0.338140
470.643250 -371.739380 18.182592 0.245029
470.612366 -371.550873 15.911980 0.982177
470.643005 -371.737762 13.754893 1.000000
470.643005 -371.737762 11.582932 1.000000
470.640717 -371.723816 9.430336 0.926146
470.612366 -371.550873 7.281604 0.791119
470.641144 -371.726563 5.173177 0.287449
470.612366 -371.550842 3.054055 0.768139
470.612366 -371.550842 0.945943 0.463157
466.778412 -348.161469 -0.000050 0.230633
464.138428 -332.055878 0.000016 0.338079
463.005096 -325.141907 -0.000003 0.338994
462.373871 -321.290955 0.000011 0.338643
461.970886 -318.832550 0.000004 0.339193
461.690796 -317.123871 0.000002 0.337591
461.484467 -315.864990 0.000001 0.339147
470.199738 -371.822388 18.185528 0.242878
470.170135 -371.633606 15.914509 0.990677
470.197296 -371.806824 13.754458 0.710842
470.199493 -371.820770 11.584671 1.000000
470.197296 -371.806824 9.431686 0.897185
470.170135 -371.633636 7.282563 0.788479
470.197723 -371.809570 5.173757 0.710063
470.170166 -371.633667 3.054248 0.748394
470.170135 -371.633636 0.945751 0.468055
466.497772 -348.206482 -0.000050 0.226947
463.970306 -332.082916 0.000011 0.336416
462.885254 -325.161133 -0.000004 0.339910
462.280914 -321.305847 0.000011 0.334951
461.895142 -318.844727 0.000005 0.325811
461.626984 -317.134094 0.000002 0.340795
461.429413 -315.873810 0.000001 0.334478
469.727753 -371.716400 18.141388 0.982620
469.727753 -371.716400 15.917712 0.987976
469.727753 -371.716400 13.725258 0.987625
469.727753 -371.716400 11.558776 0.986709
469.727753 -371.716431 9.413231 0.983505
469.727753 -371.716431 7.283782 0.776349
469.727753 -371.716400 5.165734 0.773220
469.727753 -371.716400 3.054493 0.756695
469.727753 -371.716400 0.945509 0.469902
466.216827 -348.249512 -0.000050 0.230549
463.802002 -332.108795 0.000002 0.337209
462.765289 -325.179504 -0.000004 0.333349
462.187897 -321.320099 0.000011 0.337850
461.819275 -318.856323 0.000004 0.338842
461.563080 -317.143890 0.000003 0.335180
461.374329 -315.882233 0.000001 0.330861
469.285156 -371.799225 18.145893 0.974426
469.285126 -371.799225 15.921597 0.976089
469.285156 -371.799225 13.728535 0.973556
469.285156 -371.799225 11.561445 0.975921
469.285156 -371.799225 9.415298 0.972473
469.285156 -371.799255 7.285257 0.767086
469.285156 -371.799225 5.166619 0.764172
469.285126 -371.799194 3.054785 0.766278
469.285126 -371.799194 0.945215 0.470542
465.935608 -348.290588 -0.000050 0.223643
463.633484 -332.133392 0.000005 0.337423
462.645203 -325.197052 -0.000005 0.338460
462.094757 -321.333710 0.000011 0.328603
461.743347 -318.867432 0.000004 0.334554
461.499115 -317.153229 0.000002 0.341894
461.319153 -315.890289 0.000001 0.338659
nan nan nan 0.000000
nan nan nan 0.000000
nan nan nan 0.000000
nan nan nan 0.000000
nan nan nan 0.000000
nan nan nan 0.000000
nan nan nan 0.000000
nan nan nan 0.000000
nan nan nan 0.000000
465.654083 -348.329681 -0.000050 0.231183
463.464813 -332.156616 0.000020 0.337835
462.524994 -325.213745 -0.000005 0.340719
462.001526 -321.346649 0.000011 0.337270
461.667328 -318.877991 0.000004 0.333928
461.435059 -317.162140 0.000003 0.333272
461.263947 -315.897980 0.000001 0.338735
nan nan nan 0.000000
nan nan nan 0.000000
nan nan nan 0.000000
nan nan nan 0.000000
nan nan nan 0.000000
nan nan nan 0.000000
nan nan nan 0.000000
nan nan nan 0.000000
nan nan nan 0.000000
465.372284 -348.366821 -0.000050 0.228670
463.295959 -332.178802 0.000027 0.338262
462.404663 -325.229614 -0.000005 0.335790
461.908203 -321.358978 0.000011 0.332174
461.591248 -318.888000 0.000004 0.337072
461.370972 -317.170563 0.000003 0.340917
461.208679 -315.905243 0.000001 0.343542
nan nan nan 0.000000
nan nan nan 0.000000
nan nan nan 0.000000
nan nan nan 0.000000
nan nan nan 0.000000
nan nan nan 0.000000
nan nan nan 0.000000
nan nan nan 0.000000
nan nan nan 0.000000
465.090271 -348.402008 -0.000050 0.229783
463.127014 -332.199890 0.000025 0.337453
462.284210 -325.244629 -0.000004 0.335454
461.814789 -321.370605 0.000012 0.338567
461.515106 -318.897491 0.000005 0.334783
461.306824 -317.178589 0.000003 0.338338
461.153381 -315.912140 0.000001 0.336873
nan nan nan 0.000000
nan nan nan 0.000000
nan nan nan 0.000000
nan nan nan 0.000000
nan nan nan 0.000000
nan nan nan 0.000000
nan nan nan 0.000000
nan nan nan 0.000000
nan nan nan 0.000000
464.807983 -348.435211 -0.000050 0.232655
462.957886 -332.219788 0.000024 0.339147
462.163666 -325.258789 -0.000005 0.335714
461.721313 -321.381622 0.000011 0.333455
461.438904 -318.906464 0.000004 0.335027
461.242615 -317.186127 0.000003 0.333059
461.098022 -315.918671 0.000001 0.338323
nan nan nan 0.000000
nan nan nan 0.000000
nan nan nan 0.000000
nan nan nan 0.000000
nan nan nan 0.000000
nan nan nan 0.000000
nan nan nan 0.000000
nan nan nan 0.000000
nan nan nan 0.000000
464.525482 -348.466431 -0.000050 0.230489
462.788635 -332.238525 0.000022 0.335668
462.043030 -325.272156 -0.000005 0.335927
461.627747 -321.391937 0.000011 0.336645
461.362640 -318.914917 0.000004 0.335470
461.178375 -317.193237 0.000003 0.336263
461.042603 -315.924774 0.000001 0.333761
nan nan nan 0.000000
nan nan nan 0.000000
nan nan nan 0.000000
nan nan nan 0.000000
nan nan nan 0.000000
nan nan nan 0.000000
nan nan nan 0.000000
nan nan nan 0.000000
nan nan nan 0.000000
464.242767 -348.495697 -0.000050 0.232272
462.619263 -332.256104 0.000018 0.337377
461.922302 -325.284637 -0.000005 0.337301
461.534119 -321.401642 0.000011 0.336538
461.286316 -318.922791 0.000004 0.338491
461.114075 -317.199890 0.000003 0.336492
460.987152 -315.930542 0.000001 0.338186
nan nan nan 0.000000
nan nan nan 0.000000
nan nan nan 0.000000
nan nan nan 0.000000
nan nan nan 0.000000
nan nan nan 0.000000
nan nan nan 0.000000
nan nan nan 0.000000
nan nan nan 0.000000
463.959869 -348.522980 -0.000050 0.225881
462.449768 -332.272491 0.000017 0.337957
461.801514 -325.296295 -0.000005 0.332876
461.440430 -321.410675 0.000011 0.338476
461.209930 -318.930176 0.000004 0.334524
461.049713 -317.206085 0.000003 0.335058
460.931671 -315.935883 0.000001 0.340734
nan nan nan 0.000000
nan nan nan 0.000000
nan nan nan 0.000000
nan nan nan 0.000000
nan nan nan 0.000000
nan nan nan 0.000000
nan nan nan 0.000000
nan nan nan 0.000000
nan nan nan 0.000000
463.676758 -348.548279 -0.000050 0.228957
462.280151 -332.287659 0.000015 0.339193
461.680603 -325.307098 -0.000004 0.339773
461.346680 -321.419067 0.000012 0.339025
461.133484 -318.937012 0.000004 0.338155
460.985321 -317.211853 0.000003 0.321889
460.876160 -315.940857 0.000001 0.332128
nan nan nan 0.000000
nan nan nan 0.000000
nan nan nan 0.000000
nan nan nan 0.000000
nan nan nan 0.000000
nan nan nan 0.000000
nan nan nan 0.000000
nan nan nan 0.000000
nan nan nan 0.000000
463.393494 -348.571594 -0.000048 0.231087
462.110443 -332.301666 0.000013 0.338033
461.559662 -325.317078 -0.000005 0.335607
461.252869 -321.426788 0.000011 0.338903
461.057007 -318.943298 0.000004 0.335409
460.920898 -317.217163 0.000003 0.342077
460.820618 -315.945404 0.000001 0.330922
nan nan nan 0.000000
nan nan nan 0.000000
nan nan nan 0.000000
nan nan nan 0.000000
nan nan nan 0.000000
nan nan nan 0.000000
nan nan nan 0.000000
nan nan nan 0.000000
nan nan nan 0.000000
463.110077 -348.592957 -0.000048 0.228634
461.940643 -332.314484 0.000012 0.340200
461.438629 -325.326172 -0.000005 0.340902
461.158997 -321.433868 0.000011 0.336583
460.980499 -318.949066 0.000004 0.338415
460.856415 -317.222015 0.000002 0.343359
460.765015 -315.949615 0.000001 0.323644
nan nan nan 0.000000
nan nan nan 0.000000
nan nan nan 0.000000
nan nan nan 0.000000
nan nan nan 0.000000
nan nan nan 0.000000
nan nan nan 0.000000
nan nan nan 0.000000
nan nan nan 0.000000
462.826508 -348.612335 -0.000048 0.233110
461.770752 -332.326111 0.000010 0.335805
461.317535 -325.334473 -0.000005 0.337896
461.065094 -321.440277 0.000011 0.339147
460.903931 -318.954315 0.000004 0.325994
460.791931 -317.226440 0.000003 0.338628
460.709412 -315.953400 0.000001 0.342565
nan nan nan 0.000000
nan nan nan 0.000000
nan nan nan 0.000000
nan nan nan 0.000000
nan nan nan 0.000000
nan nan nan 0.000000
nan nan nan 0.000000
nan nan nan 0.000000
nan nan nan 0.000000
462.542816 -348.629730 -0.000048 0.231339
461.600800 -332.336548 0.000008 0.337499
461.196381 -325.341888 -0.000004 0.338262
460.971130 -321.446045 0.000011 0.333471
460.827362 -318.958984 0.000004 0.339254
460.727417 -317.230377 0.000002 0.332387
460.653778 -315.956818 0.000001 0.328237
nan nan nan 0.000000
nan nan nan 0.000000
nan nan nan 0.000000
nan nan nan 0.000000
nan nan nan 0.000000
nan nan nan 0.000000
nan nan nan 0.000000
nan nan nan 0.000000
nan nan nan 0.000000
462.259033 -348.645142 -0.000048 0.230657
461.430756 -332.345825 0.000005 0.337896
461.075195 -325.348450 -0.000004 0.331167
460.877167 -321.451141 0.000011 0.339605
460.750732 -318.963165 0.000005 0.343969
460.662842 -317.233887 0.000003 0.338827
460.598114 -315.959839 0.000001 0.329061
nan nan nan 0.000000
nan nan nan 0.000000
nan nan nan 0.000000
nan nan nan 0.000000
nan nan nan 0.000000
nan nan nan 0.000000
nan nan nan 0.000000
nan nan nan 0.000000
nan nan nan 0.000000
461.975128 -348.658569 -0.000048 0.224290
461.260681 -332.353882 0.000004 0.338155
460.953949 -325.354218 -0.000004 0.333501
460.783142 -321.455597 0.000011 0.336522
460.674072 -318.966797 0.000005 0.328634
460.598267 -317.236938 0.000002 0.336019
460.542419 -315.962463 0.000001 0.347570
nan nan nan 0.000000
nan nan nan 0.000000
nan nan nan 0.000000
nan nan nan 0.000000
nan nan nan 0.000000
nan nan nan 0.000000
nan nan nan 0.000000
nan nan nan 0.000000
nan nan nan 0.000000
461.691132 -348.670044 -0.000048 0.230932
461.090515 -332.360779 0.000002 0.337896
460.832672 -325.359100 -0.000004 0.340795
460.689087 -321.459381 0.000011 0.335393
460.597412 -318.969879 0.000004 0.338476
460.533691 -317.239563 0.000002 0.327459
460.486725 -315.964722 0.000000 0.340475
nan nan nan 0.000000
nan nan nan 0.000000
nan nan nan 0.000000
nan nan nan 0.000000
nan nan nan 0.000000
nan nan nan 0.000000
nan nan nan 0.000000
nan nan nan 0.000000
nan nan nan 0.000000
461.407074 -348.679474 -0.000048 0.223560
460.920349 -332.366455 0.000001 0.336690
460.711395 -325.363129 -0.000004 0.340078
460.595001 -321.462524 0.000011 0.329656
460.520721 -318.972443 0.000004 0.333959
460.469055 -317.241699 0.000002 0.339162
460.431030 -315.966583 0.000001 0.340658
nan nan nan 0.000000
nan nan nan 0.000000
nan nan nan 0.000000
nan nan nan 0.000000
nan nan nan 0.000000
nan nan nan 0.000000
nan nan nan 0.000000
nan nan nan 0.000000
nan nan nan 0.000000
461.122925 -348.686981 -0.000048 0.231758
460.750122 -332.370972 -0.000001 0.338354
460.590057 -325.366333 -0.000003 0.336187
460.500916 -321.464996 0.000011 0.342702
460.444000 -318.974457 0.000004 0.341665
460.404449 -317.243408 0.000003 0.341726
460.375305 -315.968048 0.000001 0.341588
nan nan nan 0.000000
nan nan nan 0.000000
nan nan nan 0.000000
nan nan nan 0.000000
nan nan nan 0.000000
nan nan nan 0.000000
461.590576 -396.077057 6.328195 0.565728
461.593903 -396.286255 3.445124 0.584253
461.597229 -396.495575 0.551449 0.588937
460.838776 -348.692505 -0.000048 0.233182
