# This PCD file was generated using the MATLABÂ® pcwrite function
# from Computer Vision ToolboxÂ®.
# .PCD v.7 - Point Cloud Data file format
VERSION .7
FIELDS x y z intensity
SIZE 4 4 4 4
TYPE F F F F
COUNT 1 1 1 1
WIDTH 1157
HEIGHT 1
VIEWPOINT 0 0 0 1 0 0 0
POINTS 1157
DATA ascii
199.441284 -228.800308 8.832682 0.698238
199.441284 -228.800308 7.891394 0.606638
199.441299 -228.800308 6.963326 0.630396
199.441284 -228.800308 6.046249 0.646677
199.441299 -228.800293 5.138033 0.599252
199.441284 -228.800308 4.236634 0.548837
199.441299 -228.800308 3.340061 0.660548
199.441284 -228.800308 2.446368 0.442313
199.441284 -228.800308 1.553632 0.590570
199.441284 -228.800308 0.659937 0.615534
201.035873 -226.394974 -0.000007 0.229651
204.907318 -220.555176 -0.000006 0.337362
207.063477 -217.302750 -0.000010 0.217312
208.440018 -215.226334 -0.000010 0.255634
209.396759 -213.783142 -0.000011 0.266333
210.101654 -212.719864 -0.000011 0.225522
199.313416 -228.649231 8.819004 0.587289
199.313431 -228.649231 7.879603 0.590478
199.313416 -228.649231 6.953392 0.609766
199.313416 -228.649231 6.038150 0.654734
199.313416 -228.649231 5.131753 0.611688
199.313416 -228.649231 4.232158 0.543709
199.313416 -228.649231 3.337380 0.590066
199.313416 -228.649246 2.445476 0.414343
199.313416 -228.649246 1.554525 0.599359
199.313416 -228.649246 0.662620 0.569787
200.894287 -226.300385 -0.000006 0.230956
204.806381 -220.487762 -0.000006 0.337850
206.985199 -217.250458 -0.000010 0.228981
208.376205 -215.183701 -0.000010 0.240793
209.343002 -213.747238 -0.000010 0.226360
210.055298 -212.688904 -0.000010 0.240063
199.186066 -228.498749 8.805714 0.713359
199.186050 -228.498764 7.868144 0.805890
199.186050 -228.498764 6.943738 0.570230
199.186050 -228.498764 6.030279 0.601770
199.186050 -228.498764 5.125649 0.739956
199.186050 -228.498764 4.227808 0.538613
199.186050 -228.498764 3.334773 0.626505
199.186050 -228.498764 2.444607 0.375036
199.186050 -228.498764 1.555393 0.805844
199.186050 -228.498764 0.665226 0.591974
200.753342 -226.204819 -0.000006 0.229962
204.705933 -220.419647 -0.000007 0.337423
206.907318 -217.197617 -0.000005 0.333669
208.312698 -215.140640 -0.000010 0.267027
209.289490 -213.710953 -0.000010 0.212070
210.009155 -212.657608 -0.000010 0.219526
199.059174 -228.348862 8.792807 0.629587
199.059174 -228.348862 7.857016 0.807385
199.059174 -228.348862 6.934361 0.611765
199.059174 -228.348862 6.022635 0.630747
199.059174 -228.348862 5.119721 0.765850
199.059189 -228.348862 4.223582 0.542062
199.059174 -228.348862 3.332242 0.577966
199.059174 -228.348877 2.443764 0.355810
199.059174 -228.348877 1.556237 0.885527
199.059174 -228.348877 0.667758 0.632563
200.613083 -226.108261 -0.000006 0.230752
204.605957 -220.350830 -0.000006 0.335485
206.829773 -217.144241 -0.000005 0.340658
208.249481 -215.097122 -0.000010 0.225020
209.236252 -213.674286 -0.000010 0.192012
209.963242 -212.626007 -0.000010 0.187752
198.932785 -228.199524 8.780277 0.680323
198.932785 -228.199524 7.846211 0.742184
198.932770 -228.199524 6.925261 0.614343
198.932785 -228.199524 6.015216 0.668070
198.932785 -228.199524 5.113968 0.752941
198.932770 -228.199539 4.219481 0.532860
198.932770 -228.199524 3.329784 0.676509
198.932770 -228.199539 2.442945 0.164294
198.932770 -228.199539 1.557055 0.876570
198.932770 -228.199539 0.670215 0.648371
200.473495 -226.010727 -0.000006 0.234738
204.506470 -220.281311 -0.000006 0.337179
206.752625 -217.090317 -0.000005 0.335134
208.186584 -215.053177 -0.000009 0.227425
209.183258 -213.637268 -0.000010 0.275392
209.917557 -212.594086 -0.000010 0.206206
198.806839 -228.050735 8.768126 0.673655
198.806839 -228.050735 7.835732 0.751690
198.806839 -228.050735 6.916432 0.522744
198.806839 -228.050735 6.008019 0.578973
198.806824 -228.050735 5.108386 0.753445
198.806839 -228.050735 4.215503 0.515755
198.806839 -228.050735 3.327401 0.666407
198.806824 -228.050751 2.442151 0.152621
198.806824 -228.050751 1.557849 0.869734
198.806824 -228.050751 0.672599 0.681697
200.334595 -225.912216 -0.000005 0.230405
204.407455 -220.211105 -0.000006 0.340047
206.675842 -217.035873 -0.000006 0.338491
208.123993 -215.008789 -0.000009 0.210407
209.130524 -213.599869 -0.000010 0.257584
209.872086 -212.561844 -0.000010 0.224397
198.681335 -227.902466 8.756342 0.635904
198.681335 -227.902466 7.825573 0.607217
198.681335 -227.902466 6.907874 0.586313
198.681335 -227.902466 6.001043 0.613138
198.681335 -227.902466 5.102974 0.596399
198.681335 -227.902466 4.211645 0.499107
198.681335 -227.902466 3.325090 0.637201
198.681335 -227.902481 2.441381 0.137301
198.681335 -227.902481 1.558618 0.630167
198.681335 -227.902481 0.674909 0.713512
200.196381 -225.812744 -0.000005 0.229807
204.308945 -220.140198 -0.000006 0.335836
206.599442 -216.980896 -0.000006 0.336980
208.061707 -214.963959 -0.000009 0.183731
209.078049 -213.562103 -0.000009 0.231267
209.826843 -212.529282 -0.000009 0.262635
198.556274 -227.754715 8.744930 0.534310
198.556274 -227.754715 7.815733 0.768627
198.556274 -227.754715 6.899582 0.599908
198.556274 -227.754715 5.994284 0.626062
198.556274 -227.754715 5.097733 0.776287
198.556274 -227.754715 4.207911 0.505882
198.556274 -227.754715 3.322852 0.606332
198.556259 -227.754715 2.440636 0.124926
198.556259 -227.754715 1.559364 0.763928
198.556259 -227.754715 0.677147 0.592264
200.058868 -225.712311 -0.000005 0.231758
204.210938 -220.068619 -0.000006 0.336751
206.523422 -216.925369 -0.000005 0.336751
207.999741 -214.918701 -0.000008 0.255418
209.025833 -213.523972 -0.000009 0.257596
209.781830 -212.496399 -0.000009 0.270330
198.431610 -227.607452 8.733884 0.622736
198.431610 -227.607452 7.806210 0.768627
198.431610 -227.607437 6.891560 0.599619
198.431610 -227.607437 5.987742 0.562341
198.431610 -227.607452 5.092661 0.776303
198.431610 -227.607452 4.204294 0.497978
198.431610 -227.607452 3.320685 0.665461
198.431610 -227.607452 2.439914 0.129564
198.431610 -227.607452 1.560086 0.782834
198.431610 -227.607452 0.679314 0.657343
199.922058 -225.610916 -0.000005 0.223584
204.113419 -219.996353 -0.000006 0.332525
206.447800 -216.869339 -0.000005 0.340414
207.938095 -214.873001 -0.000008 0.215242
208.973907 -213.485474 -0.000009 0.222219
209.737045 -212.463211 -0.000009 0.233876
198.307373 -227.460648 8.723201 0.623331
198.307358 -227.460648 7.796998 0.768627
198.307358 -227.460648 6.883799 0.641123
198.307373 -227.460648 5.981415 0.700557
198.307358 -227.460648 5.087753 0.774746
198.307373 -227.460648 4.200798 0.490944
198.307358 -227.460648 3.318590 0.605737
198.307358 -227.460663 2.439216 0.142794
198.307358 -227.460663 1.560783 0.768627
198.307358 -227.460663 0.681409 0.658808
199.785950 -225.508575 -0.000005 0.229412
204.016418 -219.923416 -0.000006 0.335744
206.372559 -216.812759 -0.000005 0.333654
207.876755 -214.826889 -0.000008 0.230716
208.922226 -213.446625 -0.000008 0.201467
209.692490 -212.429703 -0.000008 0.209007
198.183502 -227.314316 8.712879 0.603235
198.183502 -227.314316 7.788097 0.768750
198.183502 -227.314316 6.876302 0.420722
198.183502 -227.314316 5.975303 0.727718
198.183502 -227.314316 5.083013 0.776501
198.183502 -227.314316 4.197418 0.479759
198.183502 -227.314316 3.316566 0.658976
198.183487 -227.314331 2.438542 0.146685
198.183487 -227.314331 1.561458 0.768368
198.183502 -227.314316 0.683433 0.688014
199.650574 -225.405273 -0.000004 0.227186
203.919922 -219.849792 -0.000006 0.336828
206.297729 -216.755661 -0.000006 0.342275
207.815750 -214.780334 -0.000008 0.227461
208.870834 -213.407410 -0.000008 0.220699
209.648178 -212.395889 -0.000008 0.218138
198.060013 -227.168427 8.702914 0.636744
198.060013 -227.168427 7.779506 0.587533
198.060013 -227.168427 6.869062 0.599557
198.060013 -227.168427 5.969402 0.703182
198.060013 -227.168427 5.078437 0.584329
198.060013 -227.168427 4.194157 0.317311
198.060013 -227.168427 3.314612 0.664637
198.059998 -227.168427 2.437891 0.155734
198.059998 -227.168427 1.562109 0.586419
198.059998 -227.168427 0.685388 0.669871
199.515915 -225.301056 -0.000004 0.219682
203.823944 -219.775497 -0.000007 0.336461
206.264816 -216.644806 0.010011 1.000000
207.755066 -214.733368 -0.000008 0.204591
208.819717 -213.367828 -0.000008 0.240949
209.604095 -212.361771 -0.000008 0.197314
197.936874 -227.022949 8.693306 0.663249
197.936890 -227.022949 7.771220 0.863081
197.936890 -227.022949 6.862082 0.617929
197.936874 -227.022949 5.963712 0.745846
197.936874 -227.022949 5.074024 0.859037
197.936874 -227.022949 4.191010 0.299046
197.936874 -227.022949 3.312727 0.623316
197.936874 -227.022949 2.437263 0.173724
197.936874 -227.022949 1.562737 0.863798
197.936874 -227.022949 0.687273 0.611582
199.381989 -225.195877 -0.000004 0.225451
203.728485 -219.700546 -0.000007 0.336110
206.191147 -216.586960 0.010010 1.000000
207.694717 -214.685974 -0.000007 0.222770
208.768875 -213.327911 -0.000007 0.219634
209.560257 -212.327347 -0.000008 0.252163
197.814102 -226.877884 8.684048 0.621729
197.814102 -226.877899 7.763239 0.586191
197.814102 -226.877899 6.855358 0.555673
197.814102 -226.877899 5.958230 0.579889
197.814102 -226.877899 5.069773 0.590982
197.814102 -226.877899 4.187981 0.394141
197.814102 -226.877899 3.310911 0.604395
197.814087 -226.877899 2.436658 0.259113
197.814087 -226.877899 1.563342 0.585016
197.814087 -226.877899 0.689088 0.645228
199.248810 -225.089767 -0.000004 0.237000
203.633545 -219.624924 -0.000007 0.334157
206.075638 -216.581268 -0.000006 0.336110
207.634705 -214.638153 -0.000007 0.258434
208.718307 -213.287628 -0.000007 0.217229
209.516663 -212.292618 -0.000007 0.193532
197.691650 -226.733215 8.675140 0.654566
197.691650 -226.733231 7.755559 0.603601
197.691650 -226.733231 6.848888 0.603540
197.691650 -226.733231 5.952957 0.603403
197.691650 -226.733231 5.065681 0.599832
197.691650 -226.733231 4.185065 0.357839
197.691650 -226.733231 3.309165 0.669947
197.691650 -226.733231 2.436076 0.229480
197.691650 -226.733231 1.563923 0.604150
197.691650 -226.733231 0.690835 0.662730
199.116364 -224.982742 -0.000004 0.219886
203.539154 -219.548645 -0.000007 0.333776
206.002426 -216.522095 -0.000006 0.337804
207.575012 -214.589935 -0.000007 0.208384
208.668030 -213.246994 -0.000007 0.209354
209.473297 -212.257584 -0.000007 0.243079
197.569519 -226.588943 8.666584 0.683436
197.569519 -226.588943 7.748181 0.788083
197.569519 -226.588943 6.842672 0.575525
197.569519 -226.588943 5.947887 0.604654
197.569519 -226.588943 5.061751 0.737972
197.569519 -226.588943 4.182264 0.340856
197.569519 -226.588943 3.307487 0.633112
197.569519 -226.588943 2.435518 0.197177
197.569519 -226.588943 1.564483 0.802853
197.569519 -226.588943 0.692513 0.667628
198.984665 -224.874786 -0.000003 0.228143
203.445282 -219.471695 -0.000007 0.338750
205.972626 -216.410355 0.010011 1.000000
207.515671 -214.541275 -0.000006 0.237023
208.618027 -213.206009 -0.000007 0.223248
209.430191 -212.222244 -0.000007 0.228814
197.447693 -226.445007 8.658373 0.580346
197.447693 -226.445007 7.741101 0.820081
197.447693 -226.445007 6.836707 0.600824
197.447693 -226.445007 5.943024 0.698421
197.447693 -226.445007 5.057980 0.765652
197.447693 -226.445023 4.179576 0.344503
197.447693 -226.445023 3.305875 0.580194
197.447693 -226.445023 2.434981 0.188006
197.447693 -226.445023 1.565019 0.878950
197.447693 -226.445023 0.694123 0.670939
198.853729 -224.765915 -0.000003 0.221872
203.351959 -219.394104 -0.000007 0.339712
205.900620 -216.350464 0.010012 1.000000
207.456665 -214.492218 -0.000006 0.205692
208.568329 -213.164673 -0.000006 0.231399
209.387329 -212.186600 -0.000006 0.232176
197.326172 -226.301437 8.650505 0.669032
197.326172 -226.301437 7.734315 0.744808
197.326172 -226.301437 6.830992 0.646799
197.326172 -226.301437 5.938366 0.703182
197.326172 -226.301437 5.054368 0.752941
197.326172 -226.301437 4.177001 0.366140
197.326172 -226.301437 3.304333 0.626154
197.326157 -226.301437 2.434467 0.173342
197.326157 -226.301437 1.565533 0.885863
197.326157 -226.301453 0.695666 0.661204
198.723557 -224.656128 -0.000003 0.237251
203.259171 -219.315857 -0.000007 0.333944
205.829025 -216.290085 0.010012 1.000000
207.398010 -214.442749 -0.000005 0.236844
208.518906 -213.123001 -0.000006 0.263233
209.344727 -212.150665 -0.000006 0.251038
197.204926 -226.158188 8.642980 0.657176
197.204926 -226.158188 7.727827 0.751842
197.204926 -226.158188 6.825525 0.668284
197.204926 -226.158188 5.933909 0.639826
197.204910 -226.158188 5.050910 0.752941
197.204910 -226.158188 4.174537 0.208682
197.204910 -226.158188 3.302857 0.593835
197.204910 -226.158203 2.433975 0.158938
197.204910 -226.158203 1.566025 0.877882
197.204910 -226.158188 0.697143 0.605188
198.594162 -224.545441 -0.000002 0.230908
203.166931 -219.236969 -0.000007 0.340169
205.757843 -216.229202 0.010013 1.000000
207.339691 -214.392868 -0.000005 0.243821
208.469772 -213.080963 -0.000005 0.247256
209.302368 -212.114426 -0.000006 0.209701
197.083939 -226.015259 8.635792 0.549981
197.083939 -226.015259 7.721632 0.705119
197.083939 -226.015259 6.820306 0.623194
197.083939 -226.015259 5.929654 0.650721
197.083939 -226.015259 5.047610 0.726940
197.083939 -226.015259 4.172185 0.234272
197.083939 -226.015259 3.301447 0.611368
197.083939 -226.015259 2.433506 0.143008
197.083939 -226.015259 1.566494 0.711711
197.083939 -226.015259 0.698552 0.648692
198.465530 -224.433853 -0.000002 0.213985
203.075256 -219.157425 -0.000008 0.338582
205.687103 -216.167831 0.010014 1.000000
207.281738 -214.342575 -0.000005 0.239728
208.420944 -213.038605 -0.000005 0.221549
209.260254 -212.077896 -0.000006 0.194562
196.963211 -225.872635 8.628946 0.589639
196.963211 -225.872635 7.715727 0.766079
196.963211 -225.872635 6.815331 0.647807
196.963211 -225.872635 5.925598 0.639857
196.963211 -225.872635 5.044465 0.774594
196.963211 -225.872635 4.169944 0.236927
196.963211 -225.872635 3.300104 0.609293
196.963211 -225.872635 2.433059 0.128939
196.963211 -225.872635 1.566941 0.760784
196.963211 -225.872635 0.699895 0.672312
198.337692 -224.321365 -0.000001 0.237371
202.984131 -219.077255 -0.000008 0.336736
205.616730 -216.106033 0.010001 1.000000
207.224121 -214.291885 -0.000005 0.216499
208.372406 -212.995911 -0.000005 0.223464
209.218414 -212.041077 -0.000005 0.246801
196.842728 -225.730301 8.622434 0.588388
196.842728 -225.730301 7.710114 0.768627
196.842728 -225.730301 6.810602 0.623758
196.842728 -225.730301 5.921742 0.602716
196.842728 -225.730301 5.041475 0.775723
196.842728 -225.730301 4.167811 0.227863
196.842728 -225.730301 3.298827 0.615656
196.842728 -225.730301 2.432633 0.124819
196.842728 -225.730301 1.567367 0.779171
196.842728 -225.730301 0.701172 0.648844
198.210632 -224.207993 -0.000001 0.217037
202.893570 -218.996445 -0.000007 0.337667
205.546844 -216.043671 0.010001 1.000000
207.166870 -214.240799 -0.000005 0.211987
208.324173 -212.952866 -0.000005 0.243247
209.176819 -212.003967 -0.000005 0.230345
196.722488 -225.588226 8.616259 0.682414
196.722488 -225.588226 7.704789 0.768627
196.722473 -225.588226 6.806115 0.704860
196.722473 -225.588226 5.918085 0.631861
196.722473 -225.588226 5.038638 0.771862
196.722473 -225.588226 4.165791 0.223743
196.722473 -225.588226 3.297616 0.610925
196.722473 -225.588226 2.432230 0.129442
196.722473 -225.588226 1.567770 0.768826
196.722473 -225.588226 0.702383 0.684291
198.084366 -224.093735 -0.000001 0.227677
202.803574 -218.915009 -0.000007 0.338888
205.477402 -215.980835 0.010002 1.000000
207.109970 -214.189316 -0.000004 0.221429
208.276230 -212.909485 -0.000005 0.241428
209.135483 -211.966568 -0.000005 0.228179
196.602448 -225.446411 8.610416 0.623346
196.602448 -225.446411 7.699750 0.768627
196.602448 -225.446411 6.801870 0.698360
196.602448 -225.446426 5.914626 0.610636
196.602448 -225.446411 5.035955 0.776165
196.602448 -225.446411 4.163877 0.239750
196.602448 -225.446426 3.296471 0.614496
196.602448 -225.446426 2.431848 0.139544
196.602448 -225.446426 1.568152 0.768627
196.602448 -225.446426 0.703529 0.661067
197.958908 -223.978592 -0.000000 0.228383
202.714157 -218.832947 -0.000008 0.337072
205.408401 -215.917511 0.010003 1.000000
207.053436 -214.137421 -0.000004 0.219431
208.228607 -212.865768 -0.000005 0.244958
209.094421 -211.928879 -0.000005 0.220759
196.482620 -225.304855 8.604906 0.603037
196.482620 -225.304855 7.694999 0.658717
196.482620 -225.304855 6.797868 0.677241
196.482620 -225.304855 5.911362 0.646723
196.482620 -225.304855 5.033424 0.624659
196.482620 -225.304855 4.162074 0.245380
196.482620 -225.304855 3.295389 0.570932
196.482620 -225.304855 2.431489 0.149889
196.482620 -225.304855 1.568512 0.652811
196.482620 -225.304855 0.704610 0.631952
197.834259 -223.862579 -0.000000 0.232428
202.625305 -218.750259 -0.000008 0.341863
205.339844 -215.853699 0.010003 1.000000
206.997253 -214.085144 -0.000004 0.203525
208.181274 -212.821732 -0.000004 0.224373
209.053619 -211.890900 -0.000004 0.225642
196.362991 -225.163513 8.599726 0.693187
196.362991 -225.163513 7.690534 0.877928
196.362991 -225.163513 6.794104 0.661418
196.362991 -225.163513 5.908294 0.648219
196.362991 -225.163513 5.031045 0.879622
196.362991 -225.163513 4.160378 0.216236
196.362976 -225.163513 3.294374 0.613321
196.362976 -225.163513 2.431149 0.168002
196.362976 -225.163513 1.568850 0.851530
196.362976 -225.163513 0.705626 0.687343
197.710419 -223.745697 0.000000 0.225774
202.537033 -218.666962 -0.000008 0.337331
205.271667 -215.789474 0.009990 1.000000
206.941452 -214.032471 -0.000003 0.196692
208.134262 -212.777359 -0.000004 0.222865
209.013077 -211.852646 -0.000004 0.198643
196.243530 -225.022385 8.594874 0.612009
196.243530 -225.022400 7.686350 0.847883
196.243530 -225.022400 6.790582 0.609537
196.243530 -225.022400 5.905423 0.625971
196.243530 -225.022400 5.028818 0.862989
196.243530 -225.022400 4.158791 0.205020
196.243530 -225.022400 3.293422 0.588067
196.243530 -225.022400 2.430832 0.181170
196.243530 -225.022400 1.569167 0.850050
196.243530 -225.022400 0.706577 0.670878
197.587402 -223.627960 0.000001 0.223631
202.449341 -218.583038 -0.000008 0.339727
205.204010 -215.724716 0.009991 1.000000
206.886017 -213.979416 -0.000003 0.208492
208.087555 -212.732651 -0.000004 0.206733
208.972809 -211.814102 -0.000004 0.214883
196.124252 -224.881470 8.590351 0.651118
196.124252 -224.881470 7.682449 0.591058
196.124252 -224.881470 6.787295 0.733776
196.124252 -224.881470 5.902743 0.620310
196.124252 -224.881470 5.026740 0.589273
196.124252 -224.881470 4.157310 0.230823
196.124252 -224.881470 3.292535 0.642603
196.124252 -224.881470 2.430538 0.253346
196.124252 -224.881470 1.569462 0.598657
196.124252 -224.881470 0.707464 0.667842
197.465195 -223.509369 0.000001 0.224852
202.362244 -218.498520 -0.000009 0.335561
205.136810 -215.659485 0.009991 1.000000
206.830948 -213.925980 -0.000003 0.211867
208.041168 -212.687637 -0.000003 0.261917
208.932800 -211.775284 -0.000004 0.201551
196.005127 -224.740738 8.586155 0.660594
196.005127 -224.740738 7.678832 0.589807
196.005127 -224.740738 6.784247 0.691310
196.005127 -224.740738 5.900259 0.614054
196.005127 -224.740738 5.024813 0.600732
196.005127 -224.740738 4.155936 0.218814
196.005127 -224.740738 3.291712 0.619821
196.005127 -224.740738 2.430263 0.228687
196.005127 -224.740738 1.569737 0.595453
196.005127 -224.740738 0.708287 0.632273
197.343826 -223.389923 0.000001 0.225355
202.275742 -218.413391 -0.000008 0.335637
205.070053 -215.593796 0.009992 1.000000
206.776260 -213.872147 -0.000002 0.211245
207.995087 -212.642288 -0.000003 0.255382
208.893082 -211.736176 -0.000003 0.198284
195.886154 -224.600174 8.582287 0.619318
195.886154 -224.600174 7.675495 0.842542
195.886154 -224.600174 6.781436 0.663157
195.886154 -224.600174 5.897966 0.675471
195.886154 -224.600174 5.023036 0.762844
195.886154 -224.600174 4.154670 0.293248
195.886154 -224.600174 3.290953 0.622965
195.886154 -224.600174 2.430010 0.199084
195.886154 -224.600174 1.569989 0.843748
195.886154 -224.600174 0.709047 0.655924
197.223297 -223.269623 0.000001 0.230788
202.189819 -218.327652 -0.000009 0.337301
205.003769 -215.527634 0.009993 1.000000
206.721939 -213.817947 -0.000002 0.208301
207.949341 -212.596619 -0.000003 0.264430
208.853622 -211.696793 -0.000003 0.213519
195.767303 -224.459763 8.578739 0.660304
195.767303 -224.459763 7.672438 0.860960
195.767303 -224.459763 6.778862 0.671366
195.767303 -224.459763 5.895867 0.600427
195.767303 -224.459763 5.021408 0.769085
195.767303 -224.459763 4.153509 0.290532
195.767303 -224.459763 3.290257 0.567727
195.767303 -224.459763 2.429779 0.187228
195.767303 -224.459763 1.570221 0.884596
195.767303 -224.459763 0.709741 0.664469
197.103622 -223.148499 0.000002 0.236497
202.104523 -218.241318 -0.000009 0.337514
204.937943 -215.460999 0.009993 1.000000
206.667999 -213.763367 -0.000002 0.205907
207.903900 -212.550629 -0.000002 0.223093
208.814438 -211.657150 -0.000002 0.282202
195.648590 -224.319504 8.575520 0.667613
195.648590 -224.319504 7.669663 0.838514
195.648590 -224.319504 6.776522 0.628641
195.648590 -224.319504 5.893961 0.613382
195.648590 -224.319504 5.019929 0.752941
195.648590 -224.319504 4.152455 0.299367
195.648590 -224.319504 3.289627 0.621530
195.648590 -224.319504 2.429568 0.168414
195.648590 -224.319504 1.570432 0.879210
195.648590 -224.319504 0.710373 0.665553
196.984787 -223.026535 0.000002 0.224852
202.019806 -218.154388 -0.000009 0.337697
204.872574 -215.393921 0.009994 1.000000
206.614456 -213.708405 -0.000001 0.213327
207.858780 -212.504333 -0.000002 0.227760
208.775543 -211.617218 -0.000002 0.272460
195.529968 -224.179367 8.572623 0.634974
195.529968 -224.179382 7.667165 0.858778
195.529968 -224.179367 6.774417 0.679500
195.529968 -224.179367 5.892245 0.625666
195.529968 -224.179367 5.018598 0.752941
195.529968 -224.179382 4.151506 0.300404
195.529968 -224.179382 3.289058 0.637430
195.529968 -224.179367 2.429379 0.158862
195.529984 -224.179367 1.570621 0.877516
195.529968 -224.179367 0.710942 0.673915
196.866791 -222.903748 0.000003 0.234462
201.935715 -218.066879 -0.000010 0.340475
204.807693 -215.326385 0.009994 1.000000
206.561279 -213.653061 -0.000001 0.253132
207.813980 -212.457718 -0.000001 0.256232
208.736923 -211.577026 -0.000002 0.201311
195.411469 -224.039352 8.570049 0.688640
195.411469 -224.039352 7.664944 0.581704
195.411469 -224.039352 6.772547 0.649561
195.411469 -224.039352 5.890719 0.631281
195.411469 -224.039352 5.017415 0.590448
195.411469 -224.039352 4.150663 0.277867
195.411453 -224.039368 3.288554 0.646693
195.411453 -224.039368 2.429211 0.138613
195.411453 -224.039368 1.570789 0.624598
195.411453 -224.039368 0.711447 0.691585
196.749664 -222.780136 0.000003 0.230226
201.852234 -217.978790 -0.000010 0.337194
204.743271 -215.258408 0.009995 1.000000
206.508499 -213.597366 -0.000001 0.211831
207.769531 -212.410782 -0.000001 0.230776
208.698578 -211.536575 -0.000002 0.253515
195.293030 -223.899445 8.567797 0.661509
195.293030 -223.899445 7.663002 0.764035
195.293030 -223.899445 6.770911 0.650629
195.293030 -223.899445 5.889386 0.708553
195.293030 -223.899445 5.016381 0.774868
195.293030 -223.899445 4.149926 0.264057
195.293030 -223.899445 3.288111 0.645319
195.293030 -223.899445 2.429063 0.127581
195.293030 -223.899445 1.570936 0.761349
195.293030 -223.899445 0.711888 0.660716
196.633408 -222.655716 0.000003 0.237801
201.769363 -217.890106 -0.000010 0.338704
204.629898 -215.235825 -0.000006 0.339376
206.456116 -213.541290 -0.000000 0.210586
207.725388 -212.363541 -0.000000 0.236988
208.660522 -211.495834 -0.000001 0.219203
195.174683 -223.759628 8.565864 0.641215
195.174683 -223.759628 7.661337 0.768627
195.174683 -223.759628 6.769507 0.670710
195.174683 -223.759628 5.888243 0.684947
195.174683 -223.759628 5.015494 0.774777
195.174683 -223.759628 4.149294 0.269520
195.174683 -223.759628 3.287732 0.654246
195.174683 -223.759628 2.428938 0.122652
195.174683 -223.759628 1.571062 0.773266
195.174683 -223.759628 0.712267 0.672938
196.518036 -222.530487 0.000004 0.224517
201.687119 -217.800842 -0.000010 0.338537
204.566116 -215.166611 -0.000006 0.339239
206.404129 -213.484863 0.000000 0.212190
207.681580 -212.316010 -0.000000 0.223320
208.622757 -211.454849 -0.000001 0.256842
195.056396 -223.619873 8.564255 0.680980
195.056396 -223.619873 7.659949 0.768627
195.056396 -223.619873 6.768337 0.691081
195.056396 -223.619873 5.887289 0.653223
195.056396 -223.619873 5.014754 0.771496
195.056396 -223.619873 4.148767 0.279622
195.056396 -223.619873 3.287417 0.633249
195.056396 -223.619873 2.428832 0.126055
195.056396 -223.619873 1.571168 0.768627
195.056396 -223.619873 0.712583 0.677607
196.403534 -222.404449 0.000004 0.231566
201.605499 -217.711014 -0.000010 0.336706
204.502823 -215.096939 -0.000006 0.337575
206.352524 -213.428070 0.000000 0.233254
207.638107 -212.268158 0.000000 0.209725
208.585266 -211.413589 -0.000000 0.263365
194.938171 -223.480194 8.562964 0.542977
194.938171 -223.480194 7.658835 0.768627
194.938171 -223.480194 6.767401 0.679103
194.938171 -223.480194 5.886524 0.553002
194.938156 -223.480194 5.014162 0.776471
194.938171 -223.480194 4.148345 0.291310
194.938171 -223.480194 3.287164 0.643290
194.938171 -223.480194 2.428748 0.145892
194.938171 -223.480194 1.571252 0.768627
194.938171 -223.480194 0.712836 0.693477
196.289902 -222.277618 0.000004 0.236090
201.524506 -217.620621 -0.000010 0.332128
204.440002 -215.026825 -0.000006 0.336583
206.301315 -213.370911 0.000000 0.236521
207.594971 -212.220001 0.000001 0.222530
208.548080 -211.372070 -0.000000 0.231578
194.819977 -223.340546 8.561995 0.582071
194.819977 -223.340546 7.657999 0.660380
194.819977 -223.340546 6.766696 0.642863
194.819962 -223.340561 5.885951 0.687587
194.819977 -223.340546 5.013717 0.625757
194.819977 -223.340546 4.148027 0.307225
194.819962 -223.340561 3.286973 0.619837
194.819962 -223.340561 2.428685 0.153246
194.819962 -223.340561 1.571315 0.652750
194.819962 -223.340561 0.713027 0.577188
196.177155 -222.149994 0.000005 0.236126
201.444153 -217.529663 -0.000011 0.340841
204.377686 -214.956284 -0.000006 0.335454
206.250519 -213.313400 0.000001 0.227485
207.552170 -212.171555 0.000001 0.237526
208.511169 -211.330292 0.000000 0.230920
194.701797 -223.200958 8.561346 0.599863
194.701813 -223.200958 7.657440 0.871305
194.701813 -223.200958 6.766225 0.652079
194.701813 -223.200958 5.885566 0.700511
194.701813 -223.200958 5.013419 0.878920
194.701813 -223.200958 4.147815 0.272099
194.701797 -223.200958 3.286846 0.647257
194.701797 -223.200958 2.428642 0.172503
194.701797 -223.200958 1.571357 0.853025
194.701813 -223.200958 0.713154 0.669062
196.065308 -222.021591 0.000005 0.220053
201.364426 -217.438141 -0.000011 0.336583
204.315872 -214.885315 -0.000006 0.340291
206.200104 -213.255539 0.000001 0.236425
207.509705 -212.122803 0.000001 0.255119
208.474564 -211.288269 0.000001 0.211652
194.583649 -223.061371 8.561016 0.639872
194.583649 -223.061371 7.657156 0.839979
194.583649 -223.061371 6.765986 0.616175
194.583649 -223.061371 5.885371 0.646311
194.583649 -223.061371 5.013268 0.855482
194.583649 -223.061371 4.147707 0.292531
194.583649 -223.061371 3.286782 0.608454
194.583649 -223.061371 2.428621 0.188449
194.583649 -223.061371 1.571379 0.838956
194.583649 -223.061371 0.713218 0.659892
195.954376 -221.892410 0.000005 0.232081
201.285339 -217.346069 -0.000011 0.338918
204.254532 -214.813904 -0.000006 0.336675
206.150116 -213.197327 0.000002 0.242349
207.467590 -212.073761 0.000001 0.189308
208.438248 -211.245972 0.000001 0.226887
194.465515 -222.921799 8.561006 0.630304
194.465515 -222.921799 7.657147 0.597192
194.465515 -222.921799 6.765978 0.693599
194.465515 -222.921799 5.885365 0.620630
194.465515 -222.921799 5.013264 0.595056
194.465515 -222.921799 4.147704 0.251347
194.465515 -222.921799 3.286779 0.644785
194.465515 -222.921799 2.428620 0.260197
194.465515 -222.921799 1.571380 0.599435
194.465515 -222.921799 0.713220 0.663340
195.844330 -221.762451 0.000006 0.228395
201.206909 -217.253448 -0.000012 0.338247
204.193710 -214.742065 -0.000006 0.342275
206.100525 -213.138763 0.000002 0.267206
207.425812 -212.024429 0.000002 0.202544
208.402222 -211.203430 0.000001 0.199468
194.347366 -222.782211 8.561316 0.622583
194.347366 -222.782211 7.657414 0.591028
194.347366 -222.782211 6.766204 0.687053
194.347366 -222.782211 5.885550 0.671458
194.347366 -222.782211 5.013404 0.601221
194.347366 -222.782211 4.147805 0.254765
194.347366 -222.782211 3.286839 0.671824
194.347366 -222.782211 2.428640 0.234836
194.347366 -222.782211 1.571360 0.595193
194.347366 -222.782211 0.713159 0.635538
195.735199 -221.631729 0.000006 0.237777
201.129120 -217.160278 -0.000011 0.337758
204.133377 -214.669815 -0.000006 0.337957
206.051346 -213.079849 0.000002 0.237251
207.384384 -211.974792 0.000002 0.179973
208.366501 -211.160645 0.000001 0.182187
194.229202 -222.642609 8.561945 0.635904
194.229202 -222.642609 7.657957 0.849165
194.229202 -222.642609 6.766662 0.667231
194.229218 -222.642609 5.885921 0.767086
194.229202 -222.642609 5.013694 0.771008
194.229202 -222.642609 4.148012 0.266789
194.229202 -222.642609 3.286964 0.652201
194.229202 -222.642609 2.428681 0.204990
194.229202 -222.642609 1.571319 0.872129
194.229202 -222.642609 0.713036 0.629191
195.626984 -221.500259 0.000006 0.221214
201.051987 -217.066574 -0.000012 0.336019
204.073563 -214.597137 -0.000006 0.337682
206.002594 -213.020599 0.000003 0.218773
207.343292 -211.924881 0.000003 0.228251
208.331070 -211.117615 0.000002 0.234295
194.111008 -222.502975 8.562897 0.631388
194.111023 -222.502975 7.658776 0.865705
194.111008 -222.502991 6.767352 0.673823
194.111008 -222.502991 5.886485 0.614801
194.111008 -222.502991 5.014131 0.780377
194.111023 -222.502975 4.148322 0.268681
194.111023 -222.502975 3.287149 0.631098
194.111023 -222.502975 2.428744 0.184970
194.111023 -222.502975 1.571256 0.884749
194.111023 -222.502975 0.712850 0.642908
195.519684 -221.368027 0.000007 0.232356
200.975510 -216.972321 -0.000012 0.337316
204.014252 -214.524048 -0.000006 0.341405
205.954239 -212.961014 0.000003 0.205847
207.302567 -211.874680 0.000003 0.224062
208.295959 -211.074326 0.000002 0.250966
193.992783 -222.363297 8.564166 0.649226
193.992783 -222.363297 7.659872 0.870329
193.992783 -222.363297 6.768274 0.710323
193.992783 -222.363297 5.887237 0.688960
193.992783 -222.363297 5.014715 0.752941
193.992783 -222.363297 4.148738 0.272526
193.992783 -222.363297 3.287399 0.594858
193.992783 -222.363297 2.428826 0.174029
193.992783 -222.363297 1.571173 0.878981
193.992783 -222.363297 0.712601 0.649210
195.413315 -221.235046 0.000007 0.235863
200.899689 -216.877548 -0.000012 0.331609
203.955444 -214.450546 -0.000006 0.336446
205.906311 -212.901093 0.000003 0.224373
207.262177 -211.824203 0.000003 0.227198
208.261139 -211.030792 0.000003 0.268343
193.874496 -222.223557 8.565758 0.616510
193.874496 -222.223557 7.661244 0.810788
193.874496 -222.223557 6.769431 0.676158
193.874496 -222.223557 5.888179 0.642741
193.874496 -222.223557 5.015444 0.752941
193.874496 -222.223557 4.149259 0.257130
193.874496 -222.223557 3.287712 0.631174
193.874496 -222.223557 2.428931 0.156252
193.874496 -222.223557 1.571070 0.839475
193.874496 -222.223557 0.712288 0.717586
195.307877 -221.101334 0.000007 0.228131
200.824539 -216.782242 -0.000013 0.336324
203.897171 -214.376633 -0.000005 0.342657
205.858795 -212.840836 0.000004 0.198822
207.222153 -211.773438 0.000003 0.199947
208.226624 -210.987015 0.000003 0.180751
193.756149 -222.083740 8.567669 0.645228
193.756149 -222.083740 7.662892 0.608179
193.756149 -222.083740 6.770818 0.674098
193.756165 -222.083740 5.889310 0.650324
193.756149 -222.083740 5.016322 0.594568
193.756149 -222.083740 4.149885 0.252644
193.756149 -222.083740 3.288086 0.654032
193.756165 -222.083740 2.429055 0.138857
193.756165 -222.083740 1.570945 0.626978
193.756149 -222.083740 0.711913 0.730968
195.203384 -220.966888 0.000008 0.232966
200.750061 -216.686417 -0.000013 0.336797
203.839401 -214.302307 -0.000005 0.333928
205.811691 -212.780258 0.000004 0.240554
207.182480 -211.722397 0.000004 0.240566
208.192413 -210.943008 0.000003 0.198619
193.637741 -221.943832 8.569901 0.628473
193.637741 -221.943832 7.664816 0.768627
193.637726 -221.943832 6.772440 0.662821
193.637741 -221.943832 5.890632 0.701518
193.637741 -221.943832 5.017347 0.773754
193.637741 -221.943832 4.150615 0.237659
193.637726 -221.943832 3.288524 0.658869
193.637741 -221.943832 2.429201 0.124071
193.637741 -221.943832 1.570799 0.763745
193.637726 -221.943832 0.711476 0.614313
195.099823 -220.831711 0.000008 0.240626
200.676239 -216.590073 -0.000013 0.337987
203.782150 -214.227585 -0.000005 0.339101
205.765030 -212.719345 0.000005 0.208396
207.143173 -211.671066 0.000005 0.228311
208.158508 -210.898758 0.000003 0.244408
193.519226 -221.803833 8.572456 0.587747
193.519226 -221.803833 7.667019 0.768627
193.519226 -221.803833 6.774296 0.687419
193.519226 -221.803833 5.892145 0.691615
193.519226 -221.803833 5.018520 0.775418
193.519226 -221.803833 4.151452 0.218021
193.519226 -221.803818 3.289025 0.628550
193.519226 -221.803833 2.429368 0.125444
193.519226 -221.803833 1.570632 0.783322
193.519226 -221.803818 0.710975 0.672709
194.997208 -220.695816 0.000009 0.232416
200.603088 -216.493225 -0.000013 0.337545
203.779358 -214.112045 0.009991 1.000000
205.718781 -212.658096 0.000005 0.230333
207.104202 -211.619476 0.000005 0.214464
208.124924 -210.854279 0.000004 0.201072
193.400620 -221.663696 8.575336 0.672831
193.400620 -221.663696 7.669501 0.768627
193.400620 -221.663712 6.776386 0.658732
193.400620 -221.663696 5.893849 0.500618
193.400620 -221.663696 5.019842 0.769619
193.400620 -221.663696 4.152393 0.243137
193.400620 -221.663696 3.289589 0.670375
193.400620 -221.663696 2.429556 0.137957
193.400620 -221.663696 1.570444 0.768627
193.400620 -221.663696 0.710410 0.671962
194.895554 -220.559204 0.000009 0.222602
200.530624 -216.395859 -0.000013 0.336385
203.723434 -214.036911 0.009992 1.000000
205.672974 -212.596542 0.000005 0.212238
207.065613 -211.567627 0.000005 0.230046
208.091644 -210.809555 0.000004 0.224828
193.281906 -221.523453 8.578533 0.457084
193.281906 -221.523453 7.672262 0.768627
193.281906 -221.523453 6.778711 0.676020
193.281906 -221.523453 5.895745 0.652689
193.281906 -221.523453 5.021314 0.776471
193.281906 -221.523453 4.153441 0.264012
193.281906 -221.523453 3.290216 0.630915
193.281906 -221.523453 2.429765 0.147280
193.281906 -221.523453 1.570235 0.768627
193.281906 -221.523453 0.709782 0.686534
194.794846 -220.421890 0.000010 0.234893
200.458847 -216.297989 -0.000014 0.339467
203.668045 -213.961395 0.009992 1.000000
205.627594 -212.534668 0.000006 0.229316
207.027374 -211.515488 0.000005 0.255741
208.058670 -210.764618 0.000005 0.209162
193.163071 -221.383057 8.582059 0.671839
193.163071 -221.383057 7.675301 0.615228
193.163071 -221.383057 6.781272 0.669841
193.163071 -221.383057 5.897833 0.672694
193.163071 -221.383057 5.022933 0.627039
193.163071 -221.383057 4.154594 0.288441
193.163071 -221.383057 3.290908 0.601755
193.163071 -221.383057 2.429995 0.154025
193.163071 -221.383057 1.570004 0.624033
193.163071 -221.383057 0.709091 0.590021
194.695099 -220.283875 0.000010 0.227844
200.387741 -216.199615 -0.000014 0.336049
203.613190 -213.885483 0.009992 1.000000
205.582642 -212.472473 0.000006 0.244743
206.989517 -211.463089 0.000005 0.252725
208.026031 -210.719437 0.000005 0.265627
193.044098 -221.242493 8.585909 0.589715
193.044098 -221.242493 7.678619 0.872374
193.044098 -221.242493 6.784068 0.634256
193.044098 -221.242493 5.900112 0.626596
193.044098 -221.242508 5.024700 0.879362
193.044098 -221.242493 4.155855 0.253300
193.044098 -221.242493 3.291664 0.649561
193.044098 -221.242493 2.430247 0.177661
193.044098 -221.242493 1.569753 0.859251
193.044098 -221.242493 0.708336 0.647501
194.596313 -220.145172 0.000010 0.235097
200.317337 -216.100754 -0.000014 0.337499
203.558929 -213.809143 0.010006 1.000000
205.538132 -212.409958 0.000006 0.256950
206.952011 -211.410431 0.000006 0.209569
207.993683 -210.674026 0.000005 0.269038
192.924988 -221.101776 8.590084 0.647013
192.924988 -221.101776 7.682221 0.625910
192.924988 -221.101776 6.787102 0.651316
192.924988 -221.101776 5.902586 0.591608
192.924988 -221.101776 5.026617 0.598627
192.924988 -221.101776 4.157222 0.294087
192.924988 -221.101776 3.292483 0.600824
192.924988 -221.101776 2.430520 0.198489
192.924988 -221.101776 1.569480 0.622110
192.924988 -221.101776 0.707517 0.626780
194.498505 -220.005783 0.000011 0.223260
200.247620 -216.001404 -0.000014 0.340276
203.505142 -213.732468 0.010007 1.000000
205.494049 -212.347153 0.000007 0.230501
206.914871 -211.357513 0.000006 0.232380
207.961670 -210.628403 0.000006 0.175700
192.805725 -220.960861 8.594585 0.646220
192.805710 -220.960861 7.686102 0.600153
192.805710 -220.960861 6.790372 0.679316
192.805710 -220.960861 5.905252 0.540856
192.805710 -220.960861 5.028687 0.600336
192.805710 -220.960861 4.158696 0.209812
192.805710 -220.960861 3.293366 0.629786
192.805725 -220.960861 2.430814 0.263157
192.805725 -220.960861 1.569186 0.600000
192.805710 -220.960861 0.706634 0.680201
194.401672 -219.865707 0.000011 0.233062
200.178589 -215.901566 -0.000015 0.332631
203.451874 -213.655426 0.010007 1.000000
205.450424 -212.284027 0.000007 0.200725
206.878113 -211.304337 0.000007 0.268248
207.929977 -210.582550 0.000006 0.206948
192.686279 -220.819748 8.599418 0.654704
192.686279 -220.819748 7.690268 0.561975
192.686264 -220.819763 6.793883 0.686915
192.686279 -220.819748 5.908113 0.572213
192.686279 -220.819748 5.030904 0.571221
192.686279 -220.819748 4.160277 0.221698
192.686279 -220.819748 3.294312 0.604623
192.686279 -220.819748 2.431129 0.231647
192.686279 -220.819748 1.568871 0.573205
192.686279 -220.819748 0.705686 0.646128
194.305817 -219.724960 0.000011 0.221382
200.110275 -215.801254 -0.000014 0.338857
203.399155 -213.578018 0.010008 1.000000
205.407227 -212.220596 0.000007 0.208528
206.841721 -211.250900 0.000007 0.222411
207.898605 -210.536469 0.000007 0.208827
192.566650 -220.678436 8.604578 0.684947
192.566650 -220.678436 7.694716 0.842863
192.566650 -220.678436 6.797630 0.679683
192.566650 -220.678436 5.911168 0.603830
192.566650 -220.678436 5.033274 0.761929
192.566650 -220.678421 4.161966 0.233616
192.566650 -220.678436 3.295325 0.611490
192.566650 -220.678421 2.431466 0.208515
192.566650 -220.678421 1.568533 0.876692
192.566650 -220.678421 0.704675 0.661265
194.210953 -219.583557 0.000012 0.241607
200.042648 -215.700470 -0.000015 0.335012
203.346985 -213.500244 0.010008 1.000000
205.364471 -212.156876 0.000008 0.211340
206.805710 -211.197220 0.000007 0.277343
207.867538 -210.490189 0.000007 0.226300
192.446838 -220.536880 8.610069 0.611215
192.446838 -220.536880 7.699449 0.843046
192.446838 -220.536880 6.801618 0.671016
192.446838 -220.536880 5.914421 0.591775
192.446838 -220.536880 5.035795 0.773037
192.446838 -220.536880 4.163764 0.273610
192.446838 -220.536880 3.296401 0.597971
192.446838 -220.536880 2.431825 0.186938
192.446838 -220.536880 1.568175 0.884657
192.446838 -220.536880 0.703598 0.639246
194.117065 -219.441498 0.000012 0.237658
199.975723 -215.599213 -0.000015 0.333196
203.295349 -213.422104 0.010008 1.000000
205.322174 -212.092850 0.000008 0.213124
206.770065 -211.143280 0.000008 0.220340
207.836807 -210.443680 0.000007 0.261869
192.326813 -220.395081 8.615891 0.529747
192.326813 -220.395081 7.704471 0.783566
192.326813 -220.395081 6.805848 0.711940
192.326813 -220.395081 5.917867 0.572229
192.326813 -220.395081 5.038469 0.752941
192.326813 -220.395081 4.165670 0.284337
192.326813 -220.395081 3.297544 0.631632
192.326813 -220.395081 2.432206 0.175006
192.326813 -220.395081 1.567794 0.880171
192.326813 -220.395081 0.702456 0.670802
194.024185 -219.298767 0.000012 0.226240
199.909515 -215.497498 -0.000016 0.333593
203.244263 -213.343613 0.010009 1.000000
205.280304 -212.028549 0.000008 0.210802
206.734802 -211.089096 0.000008 0.210622
207.806412 -210.396957 0.000008 0.181169
192.206573 -220.253036 8.622047 0.676219
192.206573 -220.253036 7.709779 0.744564
192.206573 -220.253036 6.810320 0.626993
192.206589 -220.253036 5.921513 0.615259
192.206573 -220.253036 5.041297 0.755856
192.206573 -220.253036 4.167685 0.298421
192.206573 -220.253036 3.298751 0.648753
192.206589 -220.253036 2.432607 0.158282
192.206589 -220.253036 1.567392 0.755520
192.206573 -220.253036 0.701248 0.734585
193.932312 -219.155396 0.000013 0.220711
199.844025 -215.395309 -0.000015 0.334676
203.193726 -213.264755 0.010010 1.000000
205.238907 -211.963943 0.000009 0.219886
206.699921 -211.034668 0.000008 0.250164
207.776337 -210.350037 0.000008 0.227401
192.086121 -220.110703 8.628536 0.547356
192.086121 -220.110718 7.715376 0.628794
192.086121 -220.110703 6.815033 0.667704
192.086105 -220.110718 5.925356 0.628046
192.086105 -220.110718 5.044277 0.625315
192.086121 -220.110703 4.169808 0.300710
192.086121 -220.110703 3.300024 0.627771
192.086121 -220.110703 2.433032 0.127382
192.086121 -220.110703 1.566968 0.639139
192.086121 -220.110703 0.699976 0.715267
193.841431 -219.011398 0.000013 0.224409
199.779236 -215.292664 -0.000016 0.338079
203.143738 -213.185547 0.010010 1.000000
205.197952 -211.899048 0.000010 0.236808
206.665421 -210.979996 0.000009 0.254473
207.746582 -210.302887 0.000008 0.212250
191.965408 -219.968094 8.635363 0.630716
191.965408 -219.968094 7.721261 0.768627
191.965393 -219.968109 6.819993 0.671641
191.965408 -219.968094 5.929399 0.784482
191.965393 -219.968109 5.047413 0.775891
191.965408 -219.968094 4.172044 0.290120
191.965408 -219.968094 3.301363 0.623240
191.965408 -219.968094 2.433478 0.130373
191.965408 -219.968094 1.566522 0.765332
191.965408 -219.968094 0.698637 0.646006
193.751556 -218.866760 0.000013 0.231985
199.715179 -215.189575 -0.000016 0.335302
203.094299 -213.106018 0.010008 1.000000
205.157455 -211.833862 0.000010 0.222459
206.631302 -210.925095 0.000009 0.250056
207.717163 -210.255554 0.000009 0.213100
191.844437 -219.825195 8.642529 0.658457
191.844437 -219.825195 7.727439 0.768627
191.844437 -219.825195 6.825198 0.686809
191.844437 -219.825195 5.933643 0.711208
191.844437 -219.825195 5.050704 0.770092
191.844452 -219.825195 4.174389 0.284977
191.844437 -219.825195 3.302768 0.617105
191.844452 -219.825180 2.433946 0.135561
191.844452 -219.825180 1.566054 0.781491
191.844452 -219.825195 0.697232 0.648280
193.662689 -218.721497 0.000014 0.220233
199.651825 -215.086044 -0.000017 0.335195
202.987717 -213.061142 -0.000005 0.337407
205.117401 -211.768402 0.000010 0.233230
206.597565 -210.869949 0.000009 0.183084
207.688065 -210.207993 0.000009 0.281879
191.723221 -219.681961 8.650032 0.656184
191.723206 -219.681961 7.733911 0.768627
191.723206 -219.681961 6.830648 0.647013
191.723206 -219.681961 5.938086 0.698573
191.723206 -219.681961 5.054150 0.765805
191.723206 -219.681961 4.176846 0.278035
191.723221 -219.681961 3.304239 0.598764
191.723221 -219.681961 2.434436 0.140978
191.723221 -219.681961 1.565564 0.768627
191.723221 -219.681961 0.695760 0.682078
193.574829 -218.575638 0.000014 0.227054
199.589218 -214.982071 -0.000016 0.331884
202.939148 -212.980515 -0.000005 0.337896
205.077820 -211.702667 0.000010 0.221118
206.564209 -210.814560 0.000010 0.233481
207.659317 -210.160248 0.000010 0.234857
191.601700 -219.538406 8.657879 0.657038
191.601700 -219.538406 7.740677 0.768978
191.601700 -219.538406 6.836349 0.590478
191.601700 -219.538406 5.942733 0.796460
191.601700 -219.538406 5.057754 0.776471
191.601700 -219.538406 4.179414 0.273228
191.601700 -219.538406 3.305778 0.629496
191.601700 -219.538406 2.434948 0.150851
191.601700 -219.538406 1.565052 0.768627
191.601700 -219.538406 0.694221 0.695674
193.488007 -218.429138 0.000015 0.228299
199.527328 -214.877670 -0.000016 0.336690
202.891159 -212.899536 -0.000005 0.327932
205.038696 -211.636658 0.000011 0.240961
206.531250 -210.758957 0.000011 0.244432
207.630890 -210.112289 0.000010 0.218892
191.479889 -219.394501 8.666071 0.622934
191.479889 -219.394501 7.747738 0.684276
191.479889 -219.394501 6.842298 0.645563
191.479889 -219.394501 5.947583 0.676341
191.479889 -219.394501 5.061516 0.692988
191.479889 -219.394501 4.182096 0.267185
191.479904 -219.394501 3.307385 0.633295
191.479904 -219.394501 2.435484 0.167605
191.479904 -219.394501 1.564516 0.678340
191.479904 -219.394501 0.692614 0.710430
193.402206 -218.282059 0.000015 0.232966
199.466171 -214.772827 -0.000016 0.337957
202.843735 -212.818237 -0.000004 0.338125
205.000031 -211.570374 0.000011 0.225522
206.498672 -210.703110 0.000011 0.197972
207.602798 -210.064148 0.000010 0.209545
191.357788 -219.250244 8.674608 0.662821
191.357773 -219.250244 7.755099 0.864210
191.357788 -219.250244 6.848500 0.604822
191.357788 -219.250244 5.952639 0.745861
191.357788 -219.250229 5.065436 0.863279
191.357788 -219.250229 4.184890 0.237064
191.357788 -219.250229 3.309059 0.603342
191.357788 -219.250229 2.436041 0.189166
191.357788 -219.250229 1.563959 0.862470
191.357788 -219.250229 0.690940 0.639414
193.317444 -218.134369 0.000015 0.226599
199.405746 -214.667572 -0.000016 0.333028
202.796875 -212.736603 -0.000004 0.338384
204.961823 -211.503830 0.000012 0.264394
206.466492 -210.647049 0.000011 0.230465
207.575058 -210.015808 0.000011 0.186184
191.235352 -219.105591 8.683493 0.617670
191.235352 -219.105591 7.762759 0.591150
191.235352 -219.105591 6.854954 0.547723
191.235352 -219.105591 5.957901 0.592035
191.235352 -219.105591 5.069516 0.594614
191.235352 -219.105591 4.187798 0.331884
191.235352 -219.105591 3.310802 0.622675
191.235352 -219.105591 2.436621 0.294087
191.235352 -219.105591 1.563378 0.586725
191.235352 -219.105591 0.689198 0.677943
193.233704 -217.986099 0.000016 0.227545
199.346054 -214.561890 -0.000016 0.335866
202.750580 -212.654633 -0.000004 0.338552
204.924088 -211.437012 0.000012 0.194370
206.434708 -210.590744 0.000012 0.234223
207.547653 -209.967270 0.000011 0.195555
191.112579 -218.960571 8.692728 0.650462
191.112595 -218.960556 7.770721 0.600565
191.112579 -218.960571 6.861662 0.624018
191.112579 -218.960571 5.963369 0.576715
191.112595 -218.960571 5.073758 0.599680
191.112595 -218.960556 4.190821 0.493034
191.112595 -218.960556 3.312613 0.622110
191.112595 -218.960556 2.437225 0.259846
191.112595 -218.960556 1.562775 0.601129
191.112595 -218.960556 0.687387 0.657511
193.150986 -217.837250 0.000016 0.221441
199.287109 -214.455795 -0.000016 0.339193
202.704865 -212.572357 -0.000004 0.333013
204.886826 -211.369934 0.000013 0.262455
206.403305 -210.534241 0.000012 0.224373
207.520569 -209.918549 0.000011 0.261558
190.989487 -218.815125 8.702313 0.658152
190.989487 -218.815125 7.778989 0.783780
190.989471 -218.815125 6.868628 0.545266
190.989471 -218.815125 5.969046 0.597833
190.989487 -218.815125 5.078160 0.737423
190.989487 -218.815125 4.193960 0.476860
190.989487 -218.815125 3.314494 0.610941
190.989487 -218.815109 2.437851 0.222950
190.989487 -218.815109 1.562148 0.801938
190.989487 -218.815125 0.685506 0.666575
193.069336 -217.687820 0.000016 0.243929
199.228897 -214.349289 -0.000016 0.337087
202.659714 -212.489761 -0.000004 0.333043
204.850021 -211.302597 0.000013 0.199349
206.372299 -210.477509 0.000012 0.249362
207.493835 -209.869629 0.000012 0.245963
190.866013 -218.669250 8.712255 0.585626
190.866013 -218.669250 7.787562 0.830274
190.866013 -218.669250 6.875849 0.691722
190.866013 -218.669250 5.974934 0.701534
190.866028 -218.669250 5.082726 0.767529
190.866013 -218.669250 4.197214 0.489708
190.866013 -218.669250 3.316443 0.588769
190.866013 -218.669250 2.438501 0.210269
190.866013 -218.669250 1.561499 0.879316
190.866028 -218.669250 0.683556 0.678340
192.988708 -217.537827 0.000017 0.217719
199.171432 -214.242386 -0.000016 0.334432
202.615143 -212.406845 -0.000004 0.343954
204.813690 -211.235001 0.000013 0.203071
206.341690 -210.420563 0.000013 0.200438
207.467453 -209.820526 0.000012 0.208600
190.742172 -218.522949 8.722557 0.633417
190.742172 -218.522949 7.796443 0.741176
190.742172 -218.522949 6.883330 0.655573
190.742172 -218.522949 5.981035 0.664179
190.742172 -218.522949 5.087457 0.752941
