# This PCD file was generated using the MATLABÂ® pcwrite function
# from Computer Vision ToolboxÂ®.
# .PCD v.7 - Point Cloud Data file format
VERSION .7
FIELDS x y z intensity
SIZE 4 4 4 4
TYPE F F F F
COUNT 1 1 1 1
WIDTH 1291
HEIGHT 1
VIEWPOINT 0 0 0 1 0 0 0
POINTS 1291
DATA ascii
-80.779892 10.216939 5.177724 1.000000
-80.779892 10.216937 4.590574 1.000000
-80.779892 10.216940 4.009098 1.000000
-80.779892 10.216936 3.431985 1.000000
-80.779892 10.216938 2.857962 1.000000
-80.779892 10.216938 2.285783 1.000000
-80.779892 10.216938 1.714217 1.000000
-80.779892 10.216938 1.142037 1.000000
-80.779892 10.216937 0.568014 1.000000
-80.843575 10.264088 0.000018 0.214404
-83.979729 12.586052 0.000013 0.267111
-85.981865 14.068402 0.000002 0.334295
-87.373451 15.098709 -0.000004 0.343893
-88.398720 15.857801 -0.000006 0.340383
-81.038620 10.258809 6.316340 1.000000
-81.038620 10.258808 5.721712 1.000000
-81.038635 10.258822 5.135428 1.000000
-81.038628 10.258820 4.556093 1.000000
-81.038635 10.258821 3.982357 1.000000
-81.038635 10.258822 3.412925 1.000000
-81.038635 10.258822 2.846543 1.000000
-81.038635 10.258822 2.281979 1.000000
-81.038635 10.258822 1.718021 1.000000
-81.038635 10.258822 1.153457 1.000000
-81.038635 10.258823 0.587075 1.000000
-81.038635 10.258821 0.017643 1.000000
-84.036003 12.510597 0.000013 0.215050
-86.027740 14.006888 0.000002 0.337011
-87.412102 15.046885 -0.000004 0.332006
-88.432045 15.813118 -0.000005 0.335561
-81.290573 10.299594 6.259851 1.000000
-81.290573 10.299594 5.673003 1.000000
-81.290588 10.299606 5.094393 1.000000
-81.290588 10.299607 4.522639 1.000000
-81.290588 10.299608 3.956412 1.000000
-81.290588 10.299607 3.394433 1.000000
-81.290588 10.299608 2.835463 1.000000
-81.290588 10.299606 2.278289 1.000000
-81.290588 10.299606 1.721711 1.000000
-81.290588 10.299609 1.164536 1.000000
-81.290588 10.299607 0.605567 1.000000
-81.290588 10.299608 0.043588 1.000000
-84.092804 12.435539 0.000014 0.218713
-86.117744 13.979006 0.009999 1.000000
-87.451111 14.995335 -0.000004 0.340993
-88.465683 15.768669 -0.000005 0.337911
-81.536026 10.339327 6.205021 1.000000
-81.536034 10.339329 5.625726 1.000000
-81.536049 10.339342 5.054563 1.000000
-81.536049 10.339341 4.490170 1.000000
-81.536049 10.339342 3.931230 1.000000
-81.536049 10.339340 3.376485 1.000000
-81.536049 10.339340 2.824710 1.000000
-81.536049 10.339341 2.274707 1.000000
-81.536049 10.339341 1.725293 1.000000
-81.536049 10.339340 1.175290 1.000000
-81.536041 10.339339 0.623514 1.000000
-81.536049 10.339342 0.068770 1.000000
-84.150124 12.360875 0.000013 0.237718
-86.164230 13.918438 0.009997 1.000000
-87.490479 14.944056 -0.000004 0.325399
-88.499626 15.724453 -0.000006 0.336721
-81.775253 10.378052 6.151785 1.000000
-81.775253 10.378054 5.579824 1.000000
-81.775269 10.378066 5.015893 1.000000
-81.775276 10.378067 4.458644 1.000000
-81.775269 10.378066 3.906781 1.000000
-81.775269 10.378065 3.359058 1.000000
-81.775276 10.378067 2.814269 1.000000
-81.775276 10.378067 2.271229 1.000000
-81.775276 10.378068 1.728771 1.000000
-81.775276 10.378067 1.185731 1.000000
-81.775269 10.378065 0.640941 1.000000
-81.775269 10.378066 0.093219 1.000000
-84.207962 12.286617 0.000013 0.188793
-86.211136 13.858191 0.009994 1.000000
-87.530205 14.893053 -0.000004 0.335866
-88.533875 15.680478 -0.000006 0.352804
-82.008522 10.415813 6.100077 1.000000
-82.008530 10.415824 5.535236 1.000000
-82.008530 10.415824 4.978333 1.000000
-82.008530 10.415825 4.428023 1.000000
-82.008530 10.415825 3.883034 1.000000
-82.008530 10.415824 3.342132 1.000000
-82.008530 10.415825 2.804128 1.000000
-82.008537 10.415827 2.267851 1.000000
-82.008537 10.415827 1.732149 1.000000
-82.008530 10.415825 1.195872 1.000000
-82.008530 10.415824 0.657867 1.000000
-82.008530 10.415825 0.116966 1.000000
-84.266327 12.212766 0.000013 0.234558
-86.215508 13.764085 0.000001 0.336904
-87.570290 14.842331 -0.000004 0.338293
-88.568436 15.636744 -0.000006 0.343328
-82.236046 10.452645 6.049836 1.000000
-82.236061 10.452657 5.491918 1.000000
-82.236061 10.452657 4.941837 1.000000
-82.236061 10.452656 4.398272 1.000000
-82.236061 10.452658 3.859959 1.000000
-82.236061 10.452657 3.325687 1.000000
-82.236061 10.452658 2.794274 1.000000
-82.236069 10.452660 2.264569 1.000000
-82.236069 10.452660 1.735431 1.000000
-82.236061 10.452658 1.205725 1.000000
-82.236061 10.452657 0.674313 1.000000
-82.236061 10.452658 0.140041 1.000000
-84.325195 12.139322 0.000013 0.265004
-86.263496 13.704207 0.000000 0.336522
-87.610718 14.791887 -0.000004 0.339559
-88.603302 15.593249 -0.000006 0.343908
-82.458084 10.488587 6.001004 1.000000
-82.458099 10.488598 5.449813 1.000000
-82.458099 10.488599 4.906364 1.000000
-82.458099 10.488602 4.369353 1.000000
-82.458099 10.488601 3.837532 1.000000
-82.458099 10.488602 3.309701 1.000000
-82.458099 10.488600 2.784697 1.000000
-82.458099 10.488601 2.261379 1.000000
-82.458099 10.488601 1.738621 1.000000
-82.458099 10.488600 1.215303 1.000000
-82.458099 10.488602 0.690298 1.000000
-82.458099 10.488601 0.162468 1.000000
-84.384583 12.066292 0.000014 0.231638
-86.311951 13.644706 0.000011 0.260480
-87.651505 14.741728 -0.000005 0.339895
-88.638466 15.550001 -0.000006 0.346914
-82.674835 10.523674 5.953526 1.000000
-82.674850 10.523685 5.408875 1.000000
-82.674850 10.523684 4.871878 1.000000
-82.674850 10.523687 4.341238 1.000000
-82.674850 10.523685 3.815728 1.000000
-82.674850 10.523686 3.294160 1.000000
-82.674850 10.523687 2.775386 1.000000
-82.674850 10.523685 2.258277 1.000000
-82.674850 10.523685 1.741723 1.000000
-82.674850 10.523687 1.224614 1.000000
-82.674850 10.523686 0.705839 1.000000
-82.674850 10.523685 0.184272 1.000000
-84.444473 11.993677 0.000014 0.227150
-86.360779 13.585508 0.000010 0.261821
-87.692642 14.691856 -0.000004 0.341131
-88.673935 15.507000 -0.000005 0.332662
-82.886536 10.557954 5.907345 1.000000
-82.886536 10.557953 5.369061 1.000000
-82.886536 10.557953 4.838334 1.000000
-82.886536 10.557952 4.313893 1.000000
-82.886536 10.557954 3.794520 1.000000
-82.886536 10.557952 3.279045 1.000000
-82.886536 10.557952 2.766330 1.000000
-82.886536 10.557954 2.255261 1.000000
-82.886536 10.557954 1.744739 1.000000
-82.886536 10.557952 1.233670 1.000000
-82.886536 10.557952 0.720955 1.000000
-82.886536 10.557953 0.205480 1.000000
-84.504868 11.921477 0.000013 0.225295
-86.410019 13.526652 0.000011 0.251241
-87.734123 14.642271 -0.000005 0.342687
-88.709702 15.464245 -0.000006 0.337148
-83.093338 10.591430 5.862422 1.000000
-83.093338 10.591431 5.330326 1.000000
-83.093338 10.591430 4.805701 1.000000
-83.093338 10.591430 4.287290 1.000000
-83.093330 10.591428 3.773889 1.000000
-83.093338 10.591430 3.264339 1.000000
-83.093330 10.591429 2.757519 1.000000
-83.093330 10.591428 2.252326 1.000000
-83.093330 10.591428 1.747674 1.000000
-83.093330 10.591429 1.242481 1.000000
-83.093338 10.591430 0.735660 1.000000
-83.093330 10.591429 0.226112 1.000000
-84.565773 11.849706 0.000013 0.214009
-86.459663 13.468143 0.000011 0.231865
-87.775948 14.592976 -0.000005 0.322850
-88.745773 15.421743 -0.000005 0.341024
-83.295441 10.624144 5.818704 1.000000
-83.295448 10.624146 5.292631 1.000000
-83.295441 10.624146 4.773944 1.000000
-83.295448 10.624146 4.261400 1.000000
-83.295448 10.624146 3.753810 1.000000
-83.295441 10.624145 3.250029 1.000000
-83.295441 10.624145 2.748945 1.000000
-83.295441 10.624146 2.249470 1.000000
-83.295441 10.624146 1.750530 1.000000
-83.295441 10.624145 1.251055 1.000000
-83.295441 10.624145 0.749971 1.000000
-83.295448 10.624146 0.246190 1.000000
-84.627174 11.778362 0.000013 0.219574
-86.509720 13.409981 0.000011 0.204938
-87.818115 14.543976 -0.000005 0.343526
-88.782127 15.379492 -0.000006 0.329641
-83.493042 10.656133 5.776146 1.000000
-83.493042 10.656133 5.255935 1.000000
-83.493042 10.656132 4.743030 1.000000
-83.493042 10.656131 4.236198 1.000000
-83.493042 10.656132 3.734264 1.000000
-83.493042 10.656132 3.236097 1.000000
-83.493042 10.656131 2.740598 1.000000
-83.493042 10.656132 2.246690 1.000000
-83.493042 10.656132 1.753310 1.000000
-83.493042 10.656131 1.259402 1.000000
-83.493042 10.656132 0.763902 1.000000
-83.493042 10.656131 0.265735 1.000000
-84.689072 11.707449 0.000013 0.216666
-86.560181 13.352171 0.000011 0.212477
-87.860626 14.495270 -0.000005 0.339361
-88.818787 15.337498 -0.000005 0.338964
-83.686287 10.687413 5.734706 1.000000
-83.686287 10.687413 5.220205 1.000000
-83.686295 10.687415 4.712927 1.000000
-83.686295 10.687414 4.211658 1.000000
-83.686295 10.687414 3.715232 1.000000
-83.686287 10.687413 3.222533 1.000000
-83.686287 10.687411 2.732471 1.000000
-83.686287 10.687413 2.243983 1.000000
-83.686287 10.687413 1.756018 1.000000
-83.686287 10.687413 1.267529 1.000000
-83.686287 10.687413 0.777467 1.000000
-83.686287 10.687413 0.284767 1.000000
-84.751465 11.636971 0.000014 0.241667
-86.611046 13.294710 0.000010 0.218114
-87.903481 14.446863 -0.000005 0.342672
-88.855736 15.295759 -0.000006 0.335027
-83.875351 10.718019 5.694345 1.000000
-83.875351 10.718019 5.185404 1.000000
-83.875351 10.718019 4.683607 1.000000
-83.875359 10.718019 4.187756 1.000000
-83.875351 10.718019 3.696695 1.000000
-83.875351 10.718018 3.209320 1.000000
-83.875351 10.718019 2.724554 1.000000
-83.875351 10.718018 2.241346 1.000000
-83.875351 10.718018 1.758654 1.000000
-83.875351 10.718019 1.275445 1.000000
-83.875351 10.718018 0.790679 1.000000
-83.875351 10.718019 0.303305 1.000000
-84.814339 11.566925 0.000013 0.230932
-86.662308 13.237611 0.000011 0.251373
-87.946663 14.398756 -0.000005 0.333562
-88.892967 15.254279 -0.000006 0.351507
-84.060387 10.747971 5.655022 1.000000
-84.060387 10.747972 5.151498 1.000000
-84.060379 10.747970 4.655044 1.000000
-84.060387 10.747972 4.164469 1.000000
-84.060387 10.747972 3.678636 1.000000
-84.060379 10.747972 3.196448 1.000000
-84.060387 10.747972 2.716842 1.000000
-84.060387 10.747972 2.238777 1.000000
-84.060387 10.747972 1.761223 1.000000
-84.060387 10.747971 1.283157 1.000000
-84.060387 10.747971 0.803551 1.000000
-84.060387 10.747972 0.321364 1.000000
-84.877708 11.497322 0.000013 0.245545
-86.713966 13.180867 0.000010 0.199109
-87.990189 14.350953 -0.000005 0.326162
-88.930496 15.213059 -0.000006 0.334859
-84.241524 10.777293 5.616702 1.000000
-84.241524 10.777293 5.118457 1.000000
-84.241524 10.777295 4.627208 1.000000
-84.241524 10.777293 4.141777 1.000000
-84.241524 10.777291 3.661037 1.000000
-84.241524 10.777292 3.183905 1.000000
-84.241531 10.777295 2.709327 1.000000
-84.241524 10.777293 2.236274 1.000000
-84.241524 10.777293 1.763727 1.000000
-84.241531 10.777296 1.290673 1.000000
-84.241524 10.777292 0.816095 1.000000
-84.241524 10.777294 0.338963 1.000000
-84.941559 11.428164 0.000013 0.218617
-86.766022 13.124489 0.000011 0.240650
-88.067970 14.335001 0.010001 1.000000
-88.968307 15.172106 -0.000006 0.341726
-84.418907 10.806005 5.579351 1.000000
-84.418915 10.806008 5.086251 1.000000
-84.418915 10.806008 4.600076 1.000000
-84.418915 10.806008 4.119658 1.000000
-84.418915 10.806005 3.643883 1.000000
-84.418915 10.806007 3.171678 1.000000
-84.418915 10.806006 2.702001 1.000000
-84.418915 10.806006 2.233834 1.000000
-84.418915 10.806006 1.766167 1.000000
-84.418915 10.806006 1.297998 1.000000
-84.418915 10.806008 0.828322 1.000000
-84.418915 10.806006 0.356117 1.000000
-85.005898 11.359455 0.000013 0.217683
-86.818466 13.068474 0.000011 0.204387
-88.111931 14.288039 0.009998 1.000000
-89.006409 15.131416 -0.000006 0.353079
-84.592690 10.834139 5.542933 1.000000
-84.592690 10.834140 5.054850 1.000000
-84.592690 10.834138 4.573622 1.000000
-84.592690 10.834138 4.098091 1.000000
-84.592682 10.834138 3.627157 1.000000
-84.592682 10.834137 3.159757 1.000000
-84.592690 10.834138 2.694859 1.000000
-84.592690 10.834139 2.231454 1.000000
-84.592690 10.834139 1.768546 1.000000
-84.592690 10.834138 1.305141 1.000000
-84.592682 10.834138 0.840243 1.000000
-84.592682 10.834138 0.372843 1.000000
-85.070709 11.291194 0.000013 0.203298
-86.871300 13.012825 0.000011 0.201000
-88.156212 14.241385 0.009997 1.000000
-89.044792 15.090992 -0.000006 0.323735
-84.762970 10.861703 5.507418 1.000000
-84.762970 10.861703 5.024228 1.000000
-84.762970 10.861703 4.547822 1.000000
-84.762970 10.861704 4.077059 1.000000
-84.762970 10.861703 3.610846 1.000000
-84.762970 10.861702 3.148131 1.000000
-84.762970 10.861704 2.687893 1.000000
-84.762970 10.861704 2.229134 1.000000
-84.762970 10.861704 1.770866 1.000000
-84.762970 10.861704 1.312106 1.000000
-84.762970 10.861702 0.851869 1.000000
-84.762970 10.861703 0.389154 1.000000
-85.135986 11.223385 0.000013 0.268930
-86.924522 12.957546 0.000010 0.188889
-88.200821 14.195044 0.009995 1.000000
-89.083450 15.050838 -0.000006 0.335500
-84.929878 10.888723 5.472775 1.000000
-84.929878 10.888723 4.994358 1.000000
-84.929878 10.888723 4.522657 1.000000
-84.929878 10.888723 4.056544 1.000000
-84.929878 10.888721 3.594936 1.000000
-84.929878 10.888721 3.136791 1.000000
-84.929878 10.888721 2.681099 1.000000
-84.929878 10.888721 2.226871 1.000000
-84.929878 10.888722 1.773129 1.000000
-84.929878 10.888721 1.318901 1.000000
-84.929878 10.888721 0.863209 1.000000
-84.929878 10.888721 0.405064 1.000000
-85.201752 11.156036 0.000013 0.208923
-86.978134 12.902641 0.000010 0.245186
-88.212738 14.116551 -0.000006 0.339818
-89.122391 15.010954 -0.000006 0.333577
-85.093521 10.915211 5.438977 1.000000
-85.093521 10.915211 4.965217 1.000000
-85.093521 10.915212 4.498107 1.000000
-85.093521 10.915212 4.036530 1.000000
-85.093521 10.915212 3.579413 1.000000
-85.093521 10.915213 3.125727 1.000000
-85.093521 10.915212 2.674471 1.000000
-85.093521 10.915211 2.224663 1.000000
-85.093521 10.915211 1.775337 1.000000
-85.093521 10.915212 1.325529 1.000000
-85.093529 10.915213 0.874272 1.000000
-85.093529 10.915213 0.420586 1.000000
-85.267975 11.089152 0.000013 0.256519
-87.032127 12.848116 0.000011 0.251564
-88.258224 14.070614 -0.000006 0.338659
-89.161613 14.971345 -0.000006 0.344503
-85.254028 10.941194 5.405995 1.000000
-85.254028 10.941195 4.936777 1.000000
-85.254028 10.941195 4.474147 1.000000
-85.254036 10.941195 4.016997 1.000000
-85.254036 10.941195 3.564265 1.000000
-85.254036 10.941195 3.114930 1.000000
-85.254028 10.941194 2.668002 1.000000
-85.254028 10.941195 2.222508 1.000000
-85.254028 10.941195 1.777492 1.000000
-85.254028 10.941194 1.331998 1.000000
-85.254036 10.941197 0.885069 1.000000
-85.254036 10.941195 0.435735 1.000000
-85.334671 11.022727 0.000013 0.213734
-87.086494 12.793962 0.000010 0.223165
-88.304085 14.025042 0.000009 0.222375
-89.201103 14.932007 -0.000006 0.322148
-85.411491 10.966683 5.373802 1.000000
-85.411491 10.966682 4.909019 1.000000
-85.411491 10.966681 4.450763 1.000000
-85.411491 10.966681 3.997933 1.000000
-85.411491 10.966683 3.549480 1.000000
-85.411491 10.966681 3.104393 1.000000
-85.411491 10.966683 2.661688 1.000000
-85.411491 10.966683 2.220405 1.000000
-85.411491 10.966683 1.779595 1.000000
-85.411491 10.966683 1.338312 1.000000
-85.411491 10.966682 0.895607 1.000000
-85.411491 10.966683 0.450520 1.000000
-85.411491 10.966682 0.002067 1.000000
-87.141243 12.740194 0.000010 0.276314
-88.350204 13.979744 0.000009 0.229029
-89.240875 14.892948 -0.000006 0.342412
-85.566017 10.991698 5.342372 1.000000
-85.566017 10.991698 4.881920 1.000000
-85.566017 10.991698 4.427932 1.000000
-85.566017 10.991697 3.979321 1.000000
-85.566017 10.991698 3.535046 1.000000
-85.566010 10.991697 3.094104 1.000000
-85.566017 10.991697 2.655524 1.000000
-85.566017 10.991698 2.218352 1.000000
-85.566017 10.991698 1.781648 1.000000
-85.566017 10.991697 1.344476 1.000000
-85.566017 10.991697 0.905895 1.000000
-85.566017 10.991696 0.464954 1.000000
-85.566017 10.991698 0.020679 1.000000
-87.196365 12.686810 0.000011 0.241930
-88.396637 13.934765 0.000009 0.184903
-89.280914 14.854166 -0.000006 0.343282
-85.717690 11.016248 5.311684 1.000000
-85.717697 11.016251 4.855458 1.000000
-85.717690 11.016250 4.405639 1.000000
-85.717690 11.016250 3.961147 1.000000
-85.717697 11.016251 3.520951 1.000000
-85.717697 11.016250 3.084059 1.000000
-85.717690 11.016250 2.649505 1.000000
-85.717697 11.016253 2.216347 1.000000
-85.717697 11.016251 1.783653 1.000000
-85.717690 11.016249 1.350495 1.000000
-85.717690 11.016249 0.915941 1.000000
-85.717690 11.016250 0.479049 1.000000
-85.717690 11.016250 0.038853 1.000000
-87.251854 12.633807 0.000010 0.243582
-88.443390 13.890115 0.000009 0.235444
-89.321228 14.815666 -0.000006 0.327871
-85.866615 11.040358 5.281713 1.000000
-85.866615 11.040357 4.829617 1.000000
-85.866615 11.040357 4.383868 1.000000
-85.866615 11.040358 3.943398 1.000000
-85.866608 11.040354 3.507187 1.000000
-85.866615 11.040357 3.074248 1.000000
-85.866615 11.040358 2.643627 1.000000
-85.866615 11.040356 2.214389 1.000000
-85.866615 11.040357 1.785611 1.000000
-85.866615 11.040358 1.356373 1.000000
-85.866615 11.040357 0.925752 1.000000
-85.866608 11.040354 0.492813 1.000000
-85.866615 11.040358 0.056602 1.000000
-87.307716 12.581197 0.000010 0.232105
-88.490456 13.845792 0.000009 0.209629
-89.361801 14.777451 -0.000006 0.343969
-86.012871 11.064032 5.252435 1.000000
-86.012878 11.064034 4.804372 1.000000
-86.012878 11.064034 4.362600 1.000000
-86.012878 11.064034 3.926061 1.000000
-86.012878 11.064034 3.493740 1.000000
-86.012878 11.064033 3.064664 1.000000
-86.012878 11.064033 2.637885 1.000000
-86.012878 11.064033 2.212476 1.000000
-86.012878 11.064033 1.787524 1.000000
-86.012878 11.064034 1.362115 1.000000
-86.012878 11.064033 0.935336 1.000000
-86.012878 11.064033 0.506260 1.000000
-86.012878 11.064034 0.073939 1.000000
-87.363937 12.528975 0.000010 0.230202
-88.537827 13.801798 0.000009 0.241428
-89.402649 14.739515 -0.000006 0.318639
-86.156555 11.087290 5.223832 1.000000
-86.156555 11.087290 4.779709 1.000000
-86.156555 11.087290 4.341822 1.000000
-86.156555 11.087291 3.909122 1.000000
-86.156555 11.087289 3.480604 1.000000
-86.156555 11.087290 3.055301 1.000000
-86.156555 11.087290 2.632275 1.000000
-86.156555 11.087292 2.210608 1.000000
-86.156555 11.087291 1.789392 1.000000
-86.156555 11.087290 1.367725 1.000000
-86.156555 11.087290 0.944699 1.000000
-86.156555 11.087289 0.519396 1.000000
-86.156555 11.087290 0.090878 1.000000
-87.420525 12.477146 0.000010 0.206721
-88.585495 13.758135 0.000009 0.266117
-89.443756 14.701869 -0.000006 0.337881
-86.297729 11.110144 5.195881 1.000000
-86.297729 11.110143 4.755609 1.000000
-86.297737 11.110145 4.321519 1.000000
-86.297737 11.110146 3.892570 1.000000
-86.297737 11.110145 3.467767 1.000000
-86.297737 11.110146 3.046151 1.000000
-86.297737 11.110146 2.626793 1.000000
-86.297737 11.110144 2.208782 1.000000
-86.297737 11.110146 1.791218 1.000000
-86.297737 11.110146 1.373207 1.000000
-86.297737 11.110145 0.953849 1.000000
-86.297737 11.110145 0.532233 1.000000
-86.297737 11.110145 0.107430 1.000000
-87.477478 12.425718 0.000010 0.230728
-88.633476 13.714806 0.000009 0.288868
-89.485123 14.664509 -0.000006 0.331426
-86.436493 11.132607 5.168564 1.000000
-86.436493 11.132608 4.732054 1.000000
-86.436493 11.132609 4.301675 1.000000
-86.436493 11.132608 3.876393 1.000000
-86.436493 11.132608 3.455220 1.000000
-86.436493 11.132608 3.037209 1.000000
-86.436493 11.132607 2.621435 1.000000
-86.436493 11.132608 2.206997 1.000000
-86.436493 11.132608 1.793003 1.000000
-86.436493 11.132608 1.378564 1.000000
-86.436493 11.132608 0.962791 1.000000
-86.436493 11.132608 0.544779 1.000000
-86.436493 11.132608 0.123607 1.000000
-87.534790 12.374686 0.000010 0.216582
-88.681755 13.671814 0.000009 0.221848
-89.526756 14.627438 -0.000007 0.337453
-86.572914 11.154690 5.141861 1.000000
-86.572914 11.154690 4.709032 1.000000
-86.572914 11.154691 4.282278 1.000000
-86.572914 11.154691 3.860580 1.000000
-86.572914 11.154690 3.442957 1.000000
-86.572914 11.154690 3.028468 1.000000
-86.572914 11.154691 2.616199 1.000000
-86.572906 11.154690 2.205253 1.000000
-86.572906 11.154690 1.794747 1.000000
-86.572914 11.154691 1.383801 1.000000
-86.572914 11.154691 0.971532 1.000000
-86.572914 11.154690 0.557043 1.000000
-86.572914 11.154691 0.139420 1.000000
-87.592453 12.324058 0.000010 0.199420
-88.730331 13.629159 0.000009 0.232356
-89.594894 14.620770 0.010000 1.000000
-86.707054 11.176404 5.115757 1.000000
-86.707054 11.176404 4.686523 1.000000
-86.707047 11.176403 4.263316 1.000000
-86.707047 11.176403 3.845121 1.000000
-86.707054 11.176405 3.430968 1.000000
-86.707054 11.176404 3.019923 1.000000
-86.707054 11.176404 2.611079 1.000000
-86.707054 11.176404 2.203547 1.000000
-86.707054 11.176404 1.796453 1.000000
-86.707047 11.176403 1.388921 1.000000
-86.707054 11.176404 0.980077 1.000000
-86.707054 11.176405 0.569032 1.000000
-86.707047 11.176403 0.154878 1.000000
-87.650459 12.273829 0.000010 0.200713
-88.779213 13.586844 0.000008 0.237813
-89.636826 14.584465 0.009999 1.000000
-86.838989 11.197760 5.090232 1.000000
-86.838989 11.197762 4.664514 1.000000
-86.838989 11.197762 4.244774 1.000000
-86.838989 11.197762 3.830005 1.000000
-86.838989 11.197762 3.419245 1.000000
-86.838989 11.197762 3.011568 1.000000
-86.838989 11.197762 2.606073 1.000000
-86.838989 11.197762 2.201880 1.000000
-86.838989 11.197762 1.798120 1.000000
-86.838989 11.197762 1.393927 1.000000
-86.838989 11.197762 0.988432 1.000000
-86.838989 11.197762 0.580755 1.000000
-86.838989 11.197762 0.169995 1.000000
-87.708824 12.224010 0.000010 0.221681
-88.828384 13.544874 0.000009 0.221238
-89.679008 14.548452 0.009998 1.000000
-86.968788 11.218773 5.065269 1.000000
-86.968788 11.218774 4.642989 1.000000
-86.968788 11.218772 4.226641 1.000000
-86.968788 11.218774 3.815223 1.000000
-86.968788 11.218773 3.407781 1.000000
-86.968788 11.218773 3.003396 1.000000
-86.968788 11.218773 2.601177 1.000000
-86.968788 11.218773 2.200249 1.000000
-86.968788 11.218773 1.799751 1.000000
-86.968788 11.218773 1.398823 1.000000
-86.968788 11.218772 0.996603 1.000000
-86.968788 11.218772 0.592219 1.000000
-86.968788 11.218774 0.184777 1.000000
-87.767540 12.174598 0.000010 0.229903
-88.877838 13.503245 0.000009 0.202556
-89.721436 14.512735 0.009997 1.000000
-87.096512 11.239449 5.040853 1.000000
-87.096512 11.239447 4.621939 1.000000
-87.096512 11.239449 4.208905 1.000000
-87.096512 11.239448 3.800764 1.000000
-87.096512 11.239448 3.396568 1.000000
-87.096512 11.239449 2.995404 1.000000
-87.096512 11.239448 2.596388 1.000000
-87.096512 11.239450 2.198654 1.000000
-87.096512 11.239450 1.801346 1.000000
-87.096512 11.239448 1.403611 1.000000
-87.096512 11.239450 1.004596 1.000000
-87.096512 11.239449 0.603433 1.000000
-87.096512 11.239448 0.199236 1.000000
-87.826591 12.125599 0.000010 0.266740
-88.927589 13.461964 0.000008 0.195782
-89.764114 14.477316 0.009996 1.000000
nan nan nan 0.000000
nan nan nan 0.000000
-119.531174 51.038193 9.133033 0.410788
-118.786942 50.121906 7.639955 0.405219
-119.474007 50.967812 6.499389 0.396399
-101.256493 28.538622 2.837650 1.000000
-101.256493 28.538622 2.501871 1.000000
-101.256493 28.538622 2.167171 1.000000
-101.256493 28.538622 1.832829 1.000000
-101.256493 28.538622 1.498129 1.000000
-101.256493 28.538622 1.162350 1.000000
-101.256493 28.538622 0.824764 1.000000
-101.256493 28.538622 0.484625 1.000000
-101.256493 28.538624 0.141168 1.000000
-100.654007 27.796848 -0.000012 0.239489
-99.849724 26.806629 -0.000014 0.255514
nan nan nan 0.000000
nan nan nan 0.000000
-119.881622 51.913742 9.297075 0.402609
-119.333710 51.229446 7.818755 0.397955
-119.356308 51.257671 6.516846 0.400854
-101.150543 28.520412 2.831034 1.000000
-101.150543 28.520412 2.497908 1.000000
-101.150543 28.520412 2.165851 1.000000
-101.150543 28.520412 1.834149 1.000000
-101.150543 28.520412 1.502092 1.000000
-101.150543 28.520412 1.168965 1.000000
-101.150543 28.520412 0.834046 1.000000
-101.150543 28.520412 0.496594 1.000000
-101.150543 28.520412 0.155848 1.000000
-100.603683 27.837433 -0.000012 0.183467
-99.806335 26.841619 -0.000014 0.260098
nan nan nan 0.000000
-119.256927 51.574181 10.520152 0.396445
-119.104744 51.381378 9.133282 0.402792
-118.290436 50.349701 7.620297 0.396689
-119.506668 51.890587 6.584607 0.393042
-101.046257 28.502491 2.824563 1.000000
-101.046257 28.502489 2.494030 1.000000
-101.046257 28.502487 2.164559 1.000000
-101.046257 28.502487 1.835441 1.000000
-101.046257 28.502487 1.505970 1.000000
-101.046257 28.502489 1.175437 1.000000
-101.046257 28.502491 0.843125 1.000000
-101.046257 28.502489 0.508302 1.000000
-101.046257 28.502489 0.170210 1.000000
-100.553078 27.877665 -0.000013 0.216355
-99.762703 26.876308 -0.000014 0.250116
nan nan nan 0.000000
-119.401833 52.208908 10.647359 0.402075
-118.655304 51.249416 9.063938 0.401541
-119.114960 51.840210 7.869766 0.399268
-118.672485 51.271500 6.469354 0.400626
-100.943573 28.484840 2.818230 1.000000
-100.943573 28.484840 2.490236 1.000000
-100.943573 28.484840 2.163295 1.000000
-100.943573 28.484840 1.836705 1.000000
-100.943573 28.484840 1.509764 1.000000
-100.943573 28.484840 1.181770 1.000000
-100.943573 28.484840 0.852010 1.000000
-100.943573 28.484840 0.519757 1.000000
-100.943573 28.484840 0.184262 1.000000
-100.502197 27.917540 -0.000012 0.222782
-99.718826 26.910690 -0.000014 0.249506
nan nan nan 0.000000
-118.918587 52.038101 10.554360 0.397299
-118.459961 51.440067 9.069665 0.401022
-118.192719 51.091587 7.698254 0.403281
-118.430511 51.401669 6.464188 0.397528
-100.842453 28.467463 2.812034 1.000000
-100.842453 28.467461 2.486523 1.000000
-100.842453 28.467461 2.162059 1.000000
-100.842453 28.467461 1.837941 1.000000
-100.842453 28.467461 1.513476 1.000000
-100.842453 28.467461 1.187966 1.000000
-100.842453 28.467461 0.860704 1.000000
-100.842453 28.467463 0.530967 1.000000
-100.842453 28.467463 0.198012 1.000000
-100.451035 27.957060 -0.000012 0.259236
-99.674713 26.944767 -0.000014 0.216511
nan nan nan 0.000000
-118.424263 51.842670 10.456102 0.417823
-118.079849 51.387016 9.020086 0.396704
-117.856255 51.091206 7.667976 0.408286
-117.858948 51.094769 6.396264 0.396246
-100.742844 28.450340 2.805969 1.000000
-100.742844 28.450340 2.482890 1.000000
-100.742844 28.450340 2.160848 1.000000
-100.742844 28.450340 1.839152 1.000000
-100.742844 28.450340 1.517110 1.000000
-100.742844 28.450340 1.194031 1.000000
-100.742844 28.450340 0.869213 1.000000
-100.742844 28.450340 0.541938 1.000000
-100.742844 28.450340 0.211470 1.000000
-100.399597 27.996222 -0.000012 0.220280
-99.630363 26.978535 -0.000014 0.225295
nan nan nan 0.000000
-118.337837 52.184189 10.503897 0.396841
-117.455948 51.000366 8.895678 0.406256
-119.147682 53.271309 8.041616 0.403540
-117.280220 50.764481 6.325913 0.408011
-100.644714 28.433475 2.800033 1.000000
-100.644714 28.433474 2.479333 1.000000
-100.644714 28.433475 2.159664 1.000000
-100.644714 28.433475 1.840336 1.000000
-100.644714 28.433474 1.520666 1.000000
-100.644714 28.433475 1.199966 1.000000
-100.644714 28.433475 0.877540 1.000000
-100.644714 28.433475 0.552677 1.000000
-100.644714 28.433475 0.224642 1.000000
-100.347885 28.035025 -0.000012 0.206936
-99.585777 27.011990 -0.000014 0.201934
nan nan nan 0.000000
-118.160034 52.406483 10.519665 0.373327
-117.280121 51.207939 8.907022 0.399420
-118.656281 53.082436 7.975749 0.399420
nan nan nan 0.000000
-100.548004 28.416851 2.794223 1.000000
-100.548004 28.416853 2.475852 1.000000
-100.548004 28.416853 2.158504 1.000000
-100.548004 28.416853 1.841496 1.000000
-100.548004 28.416853 1.524148 1.000000
-100.548004 28.416851 1.205777 1.000000
-100.548004 28.416853 0.885693 1.000000
-100.548004 28.416855 0.563188 1.000000
-100.548004 28.416855 0.237536 1.000000
-100.295906 28.073463 -0.000012 0.216187
-99.540955 27.045134 -0.000014 0.236066
nan nan nan 0.000000
-118.205727 52.939468 10.618507 0.402335
-117.429947 51.867157 9.020016 0.402106
-118.325851 53.105507 7.949645 0.396201
-116.692940 50.848431 6.293716 0.396841
-100.452690 28.400473 2.788534 1.000000
-100.452690 28.400471 2.472444 1.000000
-100.452690 28.400471 2.157369 1.000000
-100.452690 28.400471 1.842631 1.000000
-100.452690 28.400471 1.527556 1.000000
-100.452690 28.400471 1.211466 1.000000
-100.452690 28.400471 0.893674 1.000000
-100.452690 28.400473 0.573480 1.000000
-100.452690 28.400471 0.250160 1.000000
-100.243660 28.111540 -0.000012 0.246861
-99.495911 27.077965 -0.000014 0.261701
nan nan nan 0.000000
nan nan nan 0.000000
-117.509468 52.442703 9.113517 0.407843
-118.044479 53.193199 7.935865 0.402380
nan nan nan 0.000000
-100.358727 28.384323 2.782964 1.000000
-100.358727 28.384323 2.469107 1.000000
-100.358727 28.384321 2.156257 1.000000
-100.358727 28.384321 1.843743 1.000000
-100.358727 28.384321 1.530893 1.000000
-100.358727 28.384323 1.217036 1.000000
-100.358727 28.384323 0.901489 1.000000
-100.358727 28.384323 0.583556 1.000000
-100.358727 28.384323 0.262520 1.000000
-100.191147 28.149250 -0.000012 0.194394
-99.450630 27.110481 -0.000014 0.226815
nan nan nan 0.000000
nan nan nan 0.000000
-117.008911 52.204910 9.025587 0.396078
-117.896782 53.468956 7.956600 0.405539
nan nan nan 0.000000
-100.266083 28.368401 2.777510 1.000000
-100.266083 28.368401 2.465839 1.000000
-100.266075 28.368397 2.155169 1.000000
-100.266075 28.368397 1.844831 1.000000
-100.266083 28.368399 1.534161 1.000000
-100.266075 28.368399 1.222489 1.000000
-100.266075 28.368399 0.909141 1.000000
-100.266083 28.368401 0.593422 1.000000
-100.266083 28.368401 0.274623 1.000000
-100.138374 28.186592 -0.000012 0.224206
-99.405128 27.142679 -0.000014 0.221908
nan nan nan 0.000000
nan nan nan 0.000000
-117.526871 53.427078 9.261911 0.411154
-117.172585 52.915123 7.827769 0.402411
-116.970734 52.623436 6.478871 0.397192
-100.174706 28.352695 2.772169 1.000000
-100.174706 28.352694 2.462639 1.000000
-100.174706 28.352694 2.154103 1.000000
-100.174706 28.352694 1.845897 1.000000
-100.174706 28.352692 1.537361 1.000000
-100.174706 28.352695 1.227831 1.000000
-100.174706 28.352694 0.916635 1.000000
-100.174706 28.352694 0.603085 1.000000
-100.174706 28.352694 0.286476 1.000000
-100.085342 28.223566 -0.000012 0.240805
-99.359406 27.174561 -0.000014 0.196752
nan nan nan 0.000000
nan nan nan 0.000000
nan nan nan 0.000000
nan nan nan 0.000000
nan nan nan 0.000000
-100.084579 28.337204 2.766938 1.000000
-100.084579 28.337204 2.459505 1.000000
-100.084572 28.337202 2.153059 1.000000
-100.084572 28.337202 1.846941 1.000000
-100.084579 28.337204 1.540495 1.000000
-100.084579 28.337204 1.233062 1.000000
-100.084579 28.337204 0.923974 1.000000
-100.084579 28.337204 0.612549 1.000000
-100.084579 28.337204 0.298084 1.000000
-100.032059 28.260170 -0.000012 0.214620
-99.313454 27.206120 -0.000013 0.220520
nan nan nan 0.000000
nan nan nan 0.000000
nan nan nan 0.000000
nan nan nan 0.000000
-117.012909 53.661247 6.580254 0.424460
-99.995659 28.321920 2.761814 1.000000
-99.995659 28.321922 2.456435 1.000000
-99.995651 28.321920 2.152036 1.000000
-99.995651 28.321920 1.847964 1.000000
-99.995659 28.321922 1.543565 1.000000
-99.995651 28.321920 1.238186 1.000000
-99.995651 28.321920 0.931163 1.000000
-99.995659 28.321920 0.621819 1.000000
-99.995659 28.321922 0.309455 1.000000
-99.995659 28.321930 -0.006655 1.000000
-99.267288 27.237356 -0.000013 0.199971
nan nan nan 0.000000
nan nan nan 0.000000
nan nan nan 0.000000
nan nan nan 0.000000
-116.446396 53.308624 6.510352 0.397635
-99.907913 28.306841 2.756795 1.000000
-99.907913 28.306841 2.453428 1.000000
-99.907913 28.306839 2.151034 1.000000
-99.907913 28.306839 1.848965 1.000000
-99.907913 28.306841 1.546572 1.000000
-99.907913 28.306839 1.243205 1.000000
-99.907913 28.306839 0.938205 1.000000
-99.907913 28.306841 0.630899 1.000000
-99.907913 28.306841 0.320593 1.000000
-99.907913 28.306849 0.006567 1.000000
-99.220909 27.268272 -0.000013 0.225115
nan nan nan 0.000000
nan nan nan 0.000000
nan nan nan 0.000000
nan nan nan 0.000000
-116.145378 53.348015 6.495136 0.395712
-99.821312 28.291954 2.751878 1.000000
-99.821312 28.291954 2.450481 1.000000
-99.821312 28.291954 2.150053 1.000000
-99.821312 28.291954 1.849947 1.000000
-99.821312 28.291954 1.549519 1.000000
-99.821312 28.291954 1.248122 1.000000
-99.821312 28.291954 0.945104 1.000000
-99.821312 28.291954 0.639794 1.000000
-99.821312 28.291956 0.331505 1.000000
-99.821312 28.291964 0.019519 1.000000
-99.174309 27.298862 -0.000013 0.198607
nan nan nan 0.000000
nan nan nan 0.000000
nan nan nan 0.000000
nan nan nan 0.000000
nan nan nan 0.000000
-99.735825 28.277264 2.747060 1.000000
-99.735825 28.277262 2.447595 1.000000
-99.735825 28.277262 2.149092 1.000000
-99.735825 28.277262 1.850908 1.000000
-99.735825 28.277262 1.552405 1.000000
-99.735825 28.277264 1.252940 1.000000
-99.735825 28.277262 0.951863 1.000000
-99.735825 28.277264 0.648510 1.000000
-99.735825 28.277264 0.342196 1.000000
-99.735832 28.277273 0.032208 1.000000
-99.127495 27.329128 -0.000013 0.198702
nan nan nan 0.000000
nan nan nan 0.000000
nan nan nan 0.000000
nan nan nan 0.000000
nan nan nan 0.000000
-99.651421 28.262756 2.742340 1.000000
-99.651421 28.262756 2.444767 1.000000
-99.651421 28.262756 2.148150 1.000000
-99.651421 28.262756 1.851850 1.000000
-99.651421 28.262756 1.555233 1.000000
-99.651421 28.262754 1.257660 1.000000
-99.651421 28.262754 0.958486 1.000000
-99.651421 28.262756 0.657049 1.000000
-99.651421 28.262756 0.352670 1.000000
-99.651428 28.262764 0.044642 1.000000
-99.080475 27.359064 -0.000013 0.227521
nan nan nan 0.000000
nan nan nan 0.000000
nan nan nan 0.000000
nan nan nan 0.000000
nan nan nan 0.000000
-99.568069 28.248430 2.737714 1.000000
-99.568069 28.248430 2.441996 1.000000
-99.568069 28.248430 2.147227 1.000000
-99.568069 28.248430 1.852773 1.000000
-99.568069 28.248430 1.558004 1.000000
-99.568069 28.248430 1.262285 1.000000
-99.568069 28.248430 0.964975 1.000000
-99.568077 28.248432 0.665416 1.000000
-99.568077 28.248432 0.362934 1.000000
-99.568077 28.248440 0.056825 1.000000
-99.033249 27.388672 -0.000013 0.193413
nan nan nan 0.000000
nan nan nan 0.000000
nan nan nan 0.000000
nan nan nan 0.000000
nan nan nan 0.000000
-99.485756 28.234285 2.733182 1.000000
-99.485756 28.234283 2.439280 1.000000
-99.485756 28.234283 2.146322 1.000000
-99.485756 28.234283 1.853678 1.000000
-99.485756 28.234282 1.560720 1.000000
-99.485756 28.234283 1.266818 1.000000
-99.485756 28.234283 0.971334 1.000000
-99.485756 28.234283 0.673616 1.000000
-99.485756 28.234283 0.372992 1.000000
-99.485764 28.234291 0.068764 1.000000
-98.985809 27.417950 -0.000013 0.236509
nan nan nan 0.000000
nan nan nan 0.000000
nan nan nan 0.000000
nan nan nan 0.000000
nan nan nan 0.000000
-99.404442 28.220308 2.728740 1.000000
-99.404434 28.220306 2.436619 1.000000
-99.404434 28.220306 2.145436 1.000000
-99.404434 28.220306 1.854564 1.000000
-99.404434 28.220306 1.563381 1.000000
-99.404442 28.220306 1.271259 1.000000
-99.404434 28.220306 0.977566 1.000000
-99.404434 28.220306 0.681651 1.000000
-99.404442 28.220308 0.382849 1.000000
-99.404442 28.220316 0.080463 1.000000
-98.938179 27.446896 -0.000013 0.251540
nan nan nan 0.000000
nan nan nan 0.000000
nan nan nan 0.000000
nan nan nan 0.000000
nan nan nan 0.000000
-99.324097 28.206499 2.724387 1.000000
-99.324097 28.206497 2.434011 1.000000
-99.324097 28.206497 2.144567 1.000000
-99.324097 28.206497 1.855433 1.000000
-99.324097 28.206497 1.565989 1.000000
-99.324097 28.206497 1.275613 1.000000
-99.324097 28.206497 0.983673 1.000000
-99.324097 28.206499 0.689527 1.000000
-99.324097 28.206499 0.392509 1.000000
-99.324104 28.206509 0.091930 1.000000
-98.890335 27.475510 -0.000012 0.192132
nan nan nan 0.000000
nan nan nan 0.000000
nan nan nan 0.000000
nan nan nan 0.000000
nan nan nan 0.000000
-99.244705 28.192854 2.720121 1.000000
-99.244705 28.192854 2.431454 1.000000
-99.244705 28.192852 2.143715 1.000000
-99.244705 28.192852 1.856285 1.000000
-99.244705 28.192852 1.568545 1.000000
-99.244705 28.192852 1.279879 1.000000
-99.244705 28.192852 0.989660 1.000000
-99.244705 28.192854 0.697245 1.000000
-99.244705 28.192854 0.401977 1.000000
-99.244713 28.192862 0.103168 1.000000
-98.842300 27.503788 -0.000013 0.214165
nan nan nan 0.000000
nan nan nan 0.000000
nan nan nan 0.000000
nan nan nan 0.000000
nan nan nan 0.000000
-99.166237 28.179367 2.715939 1.000000
-99.166237 28.179367 2.428949 1.000000
-99.166237 28.179367 2.142881 1.000000
-99.166237 28.179367 1.857119 1.000000
-99.166237 28.179367 1.571051 1.000000
-99.166237 28.179367 1.284061 1.000000
-99.166237 28.179367 0.995527 1.000000
-99.166245 28.179369 0.704810 1.000000
-99.166245 28.179369 0.411257 1.000000
-99.166245 28.179377 0.114184 1.000000
-98.794067 27.531729 -0.000012 0.240602
nan nan nan 0.000000
nan nan nan 0.000000
nan nan nan 0.000000
nan nan nan 0.000000
nan nan nan 0.000000
-99.088676 28.166037 2.711839 1.000000
-99.088676 28.166037 2.426493 1.000000
-99.088676 28.166035 2.142063 1.000000
-99.088676 28.166035 1.857937 1.000000
-99.088676 28.166037 1.573507 1.000000
-99.088676 28.166037 1.288160 1.000000
-99.088676 28.166037 1.001278 1.000000
-99.088676 28.166037 0.712226 1.000000
-99.088676 28.166037 0.420354 1.000000
-99.088684 28.166046 0.124981 1.000000
-98.745636 27.559334 -0.000012 0.255921
nan nan nan 0.000000
nan nan nan 0.000000
nan nan nan 0.000000
nan nan nan 0.000000
nan nan nan 0.000000
-99.011993 28.152859 2.707821 1.000000
-99.011993 28.152859 2.424086 1.000000
-99.011993 28.152857 2.141261 1.000000
-99.011993 28.152857 1.858739 1.000000
-99.011993 28.152859 1.575914 1.000000
-99.011993 28.152857 1.292179 1.000000
-99.011993 28.152859 1.006915 1.000000
-99.011993 28.152859 0.719495 1.000000
-99.011993 28.152859 0.429270 1.000000
-99.012001 28.152866 0.135565 1.000000
-98.697021 27.586597 -0.000012 0.217037
nan nan nan 0.000000
nan nan nan 0.000000
nan nan nan 0.000000
nan nan nan 0.000000
nan nan nan 0.000000
-98.936165 28.139826 2.703882 1.000000
-98.936165 28.139824 2.421726 1.000000
-98.936165 28.139824 2.140475 1.000000
-98.936165 28.139824 1.859525 1.000000
-98.936165 28.139824 1.578274 1.000000
-98.936165 28.139826 1.296118 1.000000
-98.936165 28.139824 1.012442 1.000000
-98.936165 28.139826 0.726621 1.000000
-98.936165 28.139828 0.438011 1.000000
-98.936172 28.139833 0.145940 1.000000
-98.648216 27.613523 -0.000012 0.235168
nan nan nan 0.000000
nan nan nan 0.000000
nan nan nan 0.000000
nan nan nan 0.000000
-98.861176 28.126938 2.982141 1.000000
-98.861176 28.126936 2.700021 1.000000
-98.861176 28.126934 2.419412 1.000000
-98.861176 28.126936 2.139704 1.000000
-98.861176 28.126936 1.860296 1.000000
-98.861176 28.126934 1.580588 1.000000
-98.861176 28.126934 1.299979 1.000000
-98.861176 28.126936 1.017859 1.000000
-98.861176 28.126936 0.733607 1.000000
-98.861176 28.126938 0.446580 1.000000
-98.861183 28.126945 0.156112 1.000000
-98.599220 27.640106 -0.000012 0.188231
nan nan nan 0.000000
nan nan nan 0.000000
nan nan nan 0.000000
nan nan nan 0.000000
-98.787003 28.114185 2.976829 1.000000
-98.787003 28.114189 2.696235 1.000000
-98.787003 28.114187 2.417144 1.000000
-98.787003 28.114187 2.138948 1.000000
-98.787003 28.114187 1.861051 1.000000
-98.787003 28.114185 1.582856 1.000000
-98.787003 28.114187 1.303764 1.000000
-98.787003 28.114185 1.023171 1.000000
-98.787003 28.114187 0.740455 1.000000
-98.787003 28.114189 0.454981 1.000000
-98.787003 28.114197 0.166083 1.000000
-98.550041 27.666348 -0.000012 0.230429
nan nan nan 0.000000
nan nan nan 0.000000
nan nan nan 0.000000
nan nan nan 0.000000
-98.713615 28.101574 2.971622 1.000000
-98.713615 28.101574 2.692524 1.000000
-98.713615 28.101574 2.414920 1.000000
-98.713615 28.101574 2.138208 1.000000
-98.713615 28.101574 1.861792 1.000000
-98.713615 28.101574 1.585080 1.000000
-98.713615 28.101574 1.307476 1.000000
-98.713615 28.101574 1.028378 1.000000
-98.713623 28.101576 0.747169 1.000000
-98.713623 28.101576 0.463217 1.000000
-98.713623 28.101583 0.175859 1.000000
-98.500679 27.692245 -0.000012 0.216032
nan nan nan 0.000000
nan nan nan 0.000000
nan nan nan 0.000000
nan nan nan 0.000000
-98.641014 28.089096 2.966517 1.000000
-98.641014 28.089096 2.688886 1.000000
-98.641014 28.089096 2.412740 1.000000
-98.641014 28.089096 2.137482 1.000000
-98.641014 28.089096 1.862518 1.000000
-98.641014 28.089096 1.587260 1.000000
-98.641014 28.089096 1.311114 1.000000
-98.641014 28.089096 1.033483 1.000000
-98.641014 28.089096 0.753752 1.000000
-98.641014 28.089096 0.471291 1.000000
-98.641014 28.089104 0.185443 1.000000
-98.451141 27.717798 -0.000012 0.247400
nan nan nan 0.000000
nan nan nan 0.000000
nan nan nan 0.000000
nan nan nan 0.000000
-98.569160 28.076748 2.961513 1.000000
-98.569160 28.076746 2.685318 1.000000
-98.569160 28.076748 2.410603 1.000000
-98.569160 28.076746 2.136770 1.000000
-98.569160 28.076746 1.863230 1.000000
-98.569160 28.076748 1.589397 1.000000
-98.569160 28.076746 1.314682 1.000000
-98.569160 28.076746 1.038487 1.000000
-98.569160 28.076748 0.760205 1.000000
-98.569160 28.076748 0.479206 1.000000
-98.569160 28.076754 0.194839 1.000000
-98.401421 27.743004 -0.000011 0.195507
nan nan nan 0.000000
nan nan nan 0.000000
nan nan nan 0.000000
nan nan nan 0.000000
-98.498047 28.064526 2.956606 1.000000
-98.498047 28.064526 2.681821 1.000000
-98.498047 28.064526 2.408508 1.000000
-98.498047 28.064524 2.136072 1.000000
-98.498047 28.064524 1.863928 1.000000
-98.498047 28.064524 1.591492 1.000000
-98.498047 28.064524 1.318179 1.000000
-98.498047 28.064526 1.043394 1.000000
-98.498047 28.064526 0.766532 1.000000
-98.498047 28.064526 0.486968 1.000000
-98.498047 28.064533 0.204051 1.000000
-98.351524 27.767860 -0.000011 0.202616
nan nan nan 0.000000
nan nan nan 0.000000
nan nan nan 0.000000
nan nan nan 0.000000
-98.427650 28.052425 2.951795 1.000000
-98.427650 28.052425 2.678392 1.000000
-98.427650 28.052425 2.406453 1.000000
-98.427650 28.052425 2.135388 1.000000
-98.427650 28.052425 1.864612 1.000000
-98.427650 28.052423 1.593547 1.000000
-98.427650 28.052425 1.321608 1.000000
-98.427650 28.052425 1.048205 1.000000
-98.427650 28.052425 0.772735 1.000000
-98.427650 28.052425 0.494577 1.000000
-98.427650 28.052433 0.213083 1.000000
-98.301460 27.792370 -0.000011 0.224026
nan nan nan 0.000000
nan nan nan 0.000000
nan nan nan 0.000000
nan nan nan 0.000000
-98.357956 28.040447 2.947078 1.000000
-98.357956 28.040447 2.675030 1.000000
-98.357956 28.040447 2.404439 1.000000
-98.357956 28.040447 2.134717 1.000000
-98.357956 28.040447 1.865283 1.000000
-98.357956 28.040447 1.595561 1.000000
-98.357956 28.040447 1.324970 1.000000
-98.357956 28.040447 1.052922 1.000000
-98.357956 28.040447 0.778817 1.000000
-98.357956 28.040447 0.502037 1.000000
-98.357956 28.040455 0.221939 1.000000
-98.251228 27.816526 -0.000010 0.217671
nan nan nan 0.000000
nan nan nan 0.000000
nan nan nan 0.000000
-119.543320 73.434181 10.651895 0.398245
-98.288948 28.028585 2.942453 1.000000
-98.288948 28.028587 2.671734 1.000000
-98.288948 28.028587 2.402464 1.000000
-98.288940 28.028585 2.134059 1.000000
-98.288940 28.028585 1.865941 1.000000
-98.288948 28.028587 1.597536 1.000000
-98.288948 28.028587 1.328266 1.000000
-98.288940 28.028585 1.057547 1.000000
-98.288948 28.028587 0.784780 1.000000
-98.288948 28.028587 0.509352 1.000000
-98.288948 28.028595 0.230621 1.000000
-98.200821 27.840336 -0.000010 0.260828
nan nan nan 0.000000
nan nan nan 0.000000
nan nan nan 0.000000
nan nan nan 0.000000
-98.220604 28.016840 2.937919 1.000000
-98.220596 28.016838 2.668502 1.000000
-98.220596 28.016840 2.400527 1.000000
-98.220604 28.016840 2.133414 1.000000
-98.220604 28.016838 1.866586 1.000000
-98.220596 28.016838 1.599472 1.000000
-98.220596 28.016838 1.331498 1.000000
-98.220604 28.016840 1.062081 1.000000
-98.220604 28.016840 0.790627 1.000000
-98.220604 28.016840 0.516524 1.000000
-98.220604 28.016848 0.239134 1.000000
-98.150253 27.863791 -0.000010 0.224828
nan nan nan 0.000000
nan nan nan 0.000000
nan nan nan 0.000000
nan nan nan 0.000000
-98.152908 28.005207 2.933474 1.000000
-98.152908 28.005207 2.665334 1.000000
-98.152908 28.005205 2.398629 1.000000
-98.152908 28.005205 2.132782 1.000000
-98.152908 28.005205 1.867218 1.000000
-98.152908 28.005203 1.601371 1.000000
-98.152908 28.005205 1.334666 1.000000
-98.152908 28.005207 1.066526 1.000000
-98.152908 28.005207 0.796359 1.000000
-98.152908 28.005207 0.523555 1.000000
-98.152916 28.005213 0.247480 1.000000
-98.099525 27.886894 -0.000011 0.251002
nan nan nan 0.000000
nan nan nan 0.000000
nan nan nan 0.000000
nan nan nan 0.000000
-98.085854 27.993681 2.929115 1.000000
-98.085854 27.993681 2.662227 1.000000
-98.085854 27.993679 2.396768 1.000000
-98.085854 27.993679 2.132161 1.000000
-98.085854 27.993679 1.867839 1.000000
-98.085854 27.993679 1.603232 1.000000
-98.085854 27.993681 1.337773 1.000000
-98.085854 27.993681 1.070885 1.000000
-98.085854 27.993681 0.801979 1.000000
-98.085854 27.993683 0.530449 1.000000
-98.085854 27.993689 0.255663 1.000000
-98.048637 27.909641 -0.000010 0.236712
nan nan nan 0.000000
nan nan nan 0.000000
nan nan nan 0.000000
nan nan nan 0.000000
-98.019417 27.982262 2.924842 1.000000
-98.019417 27.982262 2.659181 1.000000
-98.019417 27.982262 2.394943 1.000000
-98.019417 27.982262 2.131554 1.000000
-98.019417 27.982262 1.868446 1.000000
-98.019417 27.982262 1.605057 1.000000
-98.019417 27.982262 1.340818 1.000000
-98.019417 27.982262 1.075158 1.000000
-98.019417 27.982262 0.807489 1.000000
-98.019417 27.982262 0.537208 1.000000
-98.019417 27.982267 0.263686 1.000000
-97.997589 27.932030 -0.000010 0.233732
nan nan nan 0.000000
nan nan nan 0.000000
nan nan nan 0.000000
nan nan nan 0.000000
-97.953583 27.970947 2.920653 1.000000
-97.953583 27.970947 2.656195 1.000000
-97.953583 27.970947 2.393154 1.000000
-97.953583 27.970947 2.130958 1.000000
-97.953583 27.970947 1.869042 1.000000
-97.953583 27.970947 1.606846 1.000000
-97.953583 27.970947 1.343804 1.000000
-97.953583 27.970947 1.079347 1.000000
-97.953583 27.970949 0.812891 1.000000
-97.953583 27.970949 0.543833 1.000000
-97.953583 27.970955 0.271551 1.000000
-97.953590 27.970955 -0.004609 1.000000
nan nan nan 0.000000
nan nan nan 0.000000
nan nan nan 0.000000
nan nan nan 0.000000
-97.888344 27.959734 2.916546 1.000000
-97.888344 27.959734 2.653268 1.000000
-97.888344 27.959734 2.391400 1.000000
-97.888344 27.959734 2.130374 1.000000
-97.888344 27.959734 1.869626 1.000000
-97.888344 27.959734 1.608600 1.000000
-97.888344 27.959734 1.346732 1.000000
-97.888344 27.959734 1.083454 1.000000
-97.888344 27.959736 0.818187 1.000000
-97.888344 27.959734 0.550330 1.000000
-97.888344 27.959742 0.279261 1.000000
-97.888344 27.959742 0.004334 1.000000
nan nan nan 0.000000
nan nan nan 0.000000
nan nan nan 0.000000
nan nan nan 0.000000
-97.823677 27.948622 2.912519 1.000000
-97.823677 27.948622 2.650398 1.000000
-97.823677 27.948622 2.389681 1.000000
-97.823677 27.948620 2.129801 1.000000
-97.823677 27.948620 1.870199 1.000000
-97.823677 27.948620 1.610319 1.000000
-97.823677 27.948620 1.349602 1.000000
-97.823677 27.948622 1.087481 1.000000
-97.823677 27.948620 0.823378 1.000000
-97.823677 27.948620 0.556698 1.000000
-97.823677 27.948627 0.286820 1.000000
-97.823685 27.948627 0.013101 1.000000
nan nan nan 0.000000
nan nan nan 0.000000
nan nan nan 0.000000
nan nan nan 0.000000
-97.759575 27.937603 2.908572 1.000000
-97.759575 27.937603 2.647585 1.000000
-97.759575 27.937603 2.387995 1.000000
-97.759575 27.937603 2.129239 1.000000
-97.759575 27.937603 1.870761 1.000000
-97.759575 27.937601 1.612005 1.000000
-97.759575 27.937603 1.352415 1.000000
-97.759575 27.937603 1.091428 1.000000
-97.759575 27.937603 0.828468 1.000000
-97.759575 27.937603 0.562941 1.000000
-97.759583 27.937611 0.294231 1.000000
-97.759575 27.937609 0.021695 1.000000
nan nan nan 0.000000
nan nan nan 0.000000
nan nan nan 0.000000
nan nan nan 0.000000
-97.696022 27.926682 2.904703 1.000000
-97.696022 27.926680 2.644827 1.000000
-97.696022 27.926682 2.386343 1.000000
-97.696022 27.926682 2.128689 1.000000
-97.696022 27.926682 1.871311 1.000000
-97.696022 27.926680 1.613657 1.000000
-97.696022 27.926680 1.355173 1.000000
-97.696022 27.926680 1.095297 1.000000
-97.696022 27.926682 0.833457 1.000000
