# This PCD file was generated using the MATLABÂ® pcwrite function
# from Computer Vision ToolboxÂ®.
# .PCD v.7 - Point Cloud Data file format
VERSION .7
FIELDS x y z intensity
SIZE 4 4 4 4
TYPE F F F F
COUNT 1 1 1 1
WIDTH 1157
HEIGHT 1
VIEWPOINT 0 0 0 1 0 0 0
POINTS 1157
DATA ascii
351.822388 -507.998413 -0.000009 0.333227
358.158539 -514.055908 6.195652 0.513512
358.144867 -514.043030 5.613594 0.600595
358.131409 -514.030334 5.040981 0.602152
358.118164 -514.017822 4.476392 0.549126
358.105072 -514.005493 3.918475 0.569131
358.092102 -513.993225 3.365931 0.570260
358.079224 -513.981079 2.817516 0.560693
358.066406 -513.968994 2.272022 0.641001
358.053619 -513.956909 1.728265 0.527031
358.040833 -513.944824 1.185077 0.556909
358.028076 -513.932800 0.641289 1.000000
358.015228 -513.920654 0.095738 1.000000
355.782776 -511.813385 -0.000015 0.338445
353.971100 -510.103302 -0.000008 0.335439
352.711945 -508.914764 -0.000011 0.327459
351.784241 -508.039063 -0.000009 0.332799
358.196747 -514.254395 6.236839 0.440925
358.182892 -514.241150 5.649023 0.522927
358.169281 -514.228088 5.070765 0.523339
358.155884 -514.215271 4.500623 0.595819
358.142609 -514.202576 3.937226 0.472663
358.129486 -514.190002 3.379267 0.529747
358.116425 -514.177551 2.825490 0.517800
358.103455 -514.165100 2.274673 0.479698
358.090515 -514.152710 1.725620 0.537713
358.077545 -514.140320 1.177153 0.517205
358.064636 -514.127930 0.628091 1.000000
358.051636 -514.115479 0.077262 1.000000
355.717926 -511.881622 -0.000015 0.336934
353.918243 -510.158936 -0.000008 0.337728
352.667419 -508.961609 -0.000012 0.332967
351.745850 -508.079468 -0.000010 0.343297
358.235779 -514.456848 6.279074 0.595438
358.221741 -514.443237 5.685352 0.625925
358.207916 -514.429810 5.101299 0.565530
358.194336 -514.416626 4.525457 0.761517
358.180878 -514.403564 3.956443 0.757992
358.167572 -514.390625 3.392935 0.721752
358.154388 -514.377808 2.833662 0.724971
358.141235 -514.365112 2.277389 0.673152
358.128143 -514.352356 1.722909 0.552392
358.115021 -514.339600 1.169033 0.535027
358.101929 -514.326904 0.614567 1.000000
358.088745 -514.314148 0.058329 1.000000
355.652588 -511.949402 -0.000015 0.340246
353.864990 -510.214172 -0.000008 0.334493
352.622559 -509.008148 -0.000011 0.337087
351.707153 -508.119598 -0.000010 0.342702
358.275604 -514.663391 6.322371 0.523095
358.261383 -514.649414 5.722600 0.654154
358.247375 -514.635620 5.132608 0.581918
358.233582 -514.622070 4.550924 0.409735
358.219971 -514.608643 3.976150 0.554284
358.206482 -514.595398 3.406950 0.568383
358.193115 -514.582214 2.842041 0.558236
358.179810 -514.569092 2.280174 0.557717
358.166504 -514.556030 1.720131 0.551034
358.153198 -514.542908 1.160710 0.544274
358.139954 -514.529846 0.600705 1.000000
358.126617 -514.516724 0.038922 1.000000
355.586792 -512.016724 -0.000015 0.340719
353.811340 -510.269043 -0.000008 0.341863
352.577362 -509.054382 -0.000011 0.339605
351.668213 -508.159485 -0.000009 0.338537
358.316254 -514.874146 6.366771 0.510643
358.301819 -514.859802 5.760794 0.639658
358.287628 -514.845642 5.164711 0.556954
358.273651 -514.831665 4.577037 0.363226
358.259857 -514.817871 3.996356 0.270420
358.246185 -514.804260 3.421320 0.295323
358.232635 -514.790710 2.850631 0.303136
358.219116 -514.777222 2.283029 0.317647
358.205658 -514.763794 1.717283 0.614023
358.192169 -514.750305 1.152177 0.591302
358.178741 -514.736938 0.586494 1.000000
358.165222 -514.723450 0.019027 1.000000
355.520538 -512.083557 -0.000014 0.341680
353.757324 -510.323547 -0.000008 0.337682
352.531860 -509.100311 -0.000011 0.337423
351.628967 -508.199066 -0.000009 0.340002
358.357727 -515.089355 6.412309 0.610681
358.343109 -515.074524 5.799968 0.586343
358.328735 -515.059998 5.197639 0.574350
358.314575 -515.045654 4.603818 0.364935
358.300598 -515.031494 4.017080 0.294560
358.286713 -515.017456 3.436057 0.180392
358.272949 -515.003540 2.859440 0.224079
358.259277 -514.989685 2.285956 0.273136
358.245605 -514.975830 1.714361 0.633677
358.231964 -514.962036 1.143425 0.593561
358.218353 -514.948242 0.571920 1.000000
358.204620 -514.934387 -0.001374 1.000000
355.453796 -512.149963 -0.000014 0.334325
353.702911 -510.377655 -0.000007 0.335286
352.486023 -509.145905 -0.000011 0.334676
351.589447 -508.238373 -0.000009 0.334783
358.400085 -515.309021 6.459024 0.547799
358.385284 -515.293823 5.840156 0.622431
358.370697 -515.278870 5.231418 0.606378
358.356354 -515.264160 4.631292 0.391455
358.342163 -515.249573 4.038338 0.600855
358.328094 -515.235168 3.451173 0.538689
358.314117 -515.220825 2.868476 0.437400
358.300232 -515.206543 2.288960 0.297459
358.286407 -515.192383 1.711365 0.605997
358.272552 -515.178162 1.134450 0.624002
358.258759 -515.164001 0.556973 1.000000
358.109467 -515.010742 0.000021 0.226001
355.386627 -512.215881 -0.000014 0.340963
353.648132 -510.431396 -0.000008 0.337499
352.439880 -509.191162 -0.000011 0.330327
351.549652 -508.277405 -0.000009 0.338750
358.443329 -515.533447 6.506957 0.541985
358.428314 -515.517822 5.881384 0.650141
358.413544 -515.502441 5.266069 0.675196
358.398956 -515.487244 4.659476 0.590219
358.384552 -515.472290 4.060143 0.579736
358.370331 -515.457458 3.466683 0.633906
358.356171 -515.442749 2.877748 0.742870
358.342102 -515.428101 2.292041 0.708965
358.328064 -515.413452 1.708290 0.560876
358.314026 -515.398865 1.125241 0.660639
358.300049 -515.384277 0.541636 1.000000
358.022247 -515.095154 0.000021 0.235563
355.318970 -512.281311 -0.000014 0.323568
353.592987 -510.484772 -0.000008 0.336522
352.393402 -509.236115 -0.000011 0.321080
351.509583 -508.316162 -0.000009 0.355154
358.487579 -515.762756 6.556166 0.610651
358.472321 -515.746704 5.923712 0.491585
358.457336 -515.730835 5.301643 0.698344
358.442535 -515.715271 4.688408 0.548333
358.427948 -515.699829 4.082529 0.506035
358.413483 -515.684570 3.482599 0.553582
358.399139 -515.669434 2.887262 0.525856
358.384857 -515.654358 2.295203 0.500923
358.370636 -515.639343 1.705135 0.578897
358.356384 -515.624329 1.115790 0.549233
358.342194 -515.609314 0.525899 1.000000
357.934418 -515.178894 0.000021 0.227401
355.250854 -512.346252 -0.000013 0.329671
353.537476 -510.537720 -0.000007 0.336507
352.346619 -509.280731 -0.000011 0.340185
351.469269 -508.354645 -0.000009 0.330175
358.532776 -515.997192 6.606696 0.555047
358.517303 -515.980652 5.967171 0.632166
358.502075 -515.964355 5.338166 0.469291
358.487091 -515.948303 4.718112 0.608301
358.472260 -515.932434 4.105513 0.461570
358.457611 -515.916687 3.498942 0.543877
358.443054 -515.901123 2.897031 0.516655
358.428558 -515.885620 2.298450 0.618814
358.414124 -515.870178 1.701896 0.659571
358.399689 -515.854736 1.106089 0.536202
358.385284 -515.839294 0.509745 1.000000
357.846039 -515.262085 0.000021 0.251481
355.182281 -512.410767 -0.000013 0.344228
353.481567 -510.590302 -0.000008 0.340734
352.267914 -509.291168 0.009999 1.000000
351.428650 -508.392853 -0.000009 0.330770
358.579010 -516.236877 6.658579 0.483452
358.563324 -516.219849 6.011804 0.644343
358.547882 -516.203064 5.375678 0.560800
358.532654 -516.186523 4.748617 0.566842
358.517609 -516.170166 4.129112 0.597162
358.502716 -516.154053 3.515723 0.672648
358.487915 -516.138000 2.907062 0.562509
358.473236 -516.122070 2.301783 0.598596
358.458588 -516.106140 1.698571 0.582910
358.443939 -516.090210 1.096128 0.517311
358.429291 -516.074341 0.493159 1.000000
357.757050 -515.344604 0.000021 0.229807
355.113281 -512.474792 -0.000013 0.338201
353.425323 -510.642487 -0.000008 0.339757
352.220734 -509.334900 0.010007 1.000000
351.387787 -508.430756 -0.000009 0.345800
358.626251 -516.481995 6.711874 0.532479
358.610321 -516.464417 6.057634 0.549630
358.594666 -516.447205 5.414197 0.594278
358.579193 -516.430176 4.779945 0.642939
358.563965 -516.413391 4.153354 0.660929
358.548859 -516.396729 3.532962 0.601297
358.533844 -516.380249 2.917365 0.596796
358.518921 -516.363831 2.305207 0.549950
358.504059 -516.347473 1.695155 0.603281
358.489166 -516.331055 1.085898 0.529366
358.474335 -516.314697 0.476125 1.000000
357.667480 -515.426514 0.000021 0.225654
355.043823 -512.538330 -0.000013 0.336522
353.368713 -510.694305 -0.000007 0.335378
352.173248 -509.378326 0.010006 1.000000
351.346649 -508.468384 -0.000009 0.341024
358.674652 -516.732849 6.766651 0.610941
358.658478 -516.714783 6.104746 0.555093
358.642548 -516.696960 5.453784 0.545190
358.626862 -516.679443 4.812138 0.664820
358.611359 -516.662170 4.178259 0.491905
358.596008 -516.645020 3.550670 0.525826
358.580811 -516.628052 2.927950 0.658701
358.565674 -516.611145 2.308724 0.689113
358.550568 -516.594299 1.691645 0.695583
358.535461 -516.577393 1.075388 0.597711
358.520386 -516.560608 0.458625 1.000000
357.577393 -515.507813 0.000021 0.216092
354.973938 -512.601379 -0.000013 0.338506
353.311707 -510.745697 -0.000008 0.335348
352.125488 -509.421417 0.010005 1.000000
351.305267 -508.505707 -0.000009 0.321233
358.724182 -516.989624 6.822957 0.488136
358.707764 -516.970947 6.153170 0.658839
358.691589 -516.952698 5.494478 0.548012
358.675659 -516.934631 4.845229 0.747356
358.659912 -516.916809 4.203860 0.318700
358.644318 -516.899170 3.568871 0.434974
358.628876 -516.881653 2.938829 0.480186
358.613495 -516.864258 2.312339 0.456794
358.598175 -516.846924 1.688039 0.592035
358.582825 -516.829529 1.064588 0.600412
358.567505 -516.812195 0.440642 1.000000
357.486694 -515.588501 0.000021 0.218784
354.903595 -512.663940 -0.000012 0.335760
353.254395 -510.796692 -0.000007 0.339513
352.108124 -509.498901 -0.000003 0.339773
351.263611 -508.542755 -0.000009 0.341009
358.774902 -517.252502 6.880847 0.466819
358.758209 -517.233337 6.202960 0.525673
358.741791 -517.214478 5.536316 0.565484
358.725586 -517.195862 4.879251 0.738537
358.709625 -517.177551 4.230179 0.355032
358.693787 -517.159363 3.587584 0.240482
358.678070 -517.141296 2.950014 0.225345
358.662445 -517.123352 2.316056 0.246189
358.646881 -517.105530 1.684332 0.639292
358.631287 -517.087585 1.053486 0.521859
358.615753 -517.069763 0.422157 1.000000
357.395447 -515.668518 0.000022 0.207164
354.832825 -512.726013 -0.000012 0.336858
353.196686 -510.847290 -0.000008 0.336110
352.059509 -509.541504 -0.000003 0.332448
351.221710 -508.579498 -0.000008 0.342596
358.826874 -517.521851 6.940388 0.575067
358.809906 -517.502075 6.254164 0.620356
358.793213 -517.482666 5.579347 0.524559
358.776764 -517.463501 4.914243 0.636881
358.760529 -517.444580 4.257247 0.554360
358.744446 -517.425842 3.606828 0.367300
358.728455 -517.407227 2.961514 0.264530
358.712585 -517.388733 2.319877 0.246143
358.696777 -517.370300 1.680520 0.672877
358.680939 -517.351868 1.042069 0.556909
358.665161 -517.333496 0.403150 1.000000
357.303650 -515.747925 0.000021 0.216702
354.761627 -512.787537 -0.000011 0.343297
353.138641 -510.897491 -0.000007 0.343130
352.010620 -509.583801 -0.000003 0.327108
351.179535 -508.615967 -0.000008 0.332250
358.880127 -517.797791 7.001646 0.522179
358.862854 -517.777466 6.306842 0.555795
358.845917 -517.757385 5.623610 0.594171
358.829193 -517.737671 4.950234 0.470603
358.812653 -517.718140 4.285089 0.584329
358.796326 -517.698853 3.626623 0.518441
358.780090 -517.679688 2.973345 0.482246
358.763977 -517.660645 2.323808 0.646586
358.747894 -517.641663 1.676599 0.587991
358.731812 -517.622620 1.030326 0.559045
358.715759 -517.603699 0.383600 1.000000
357.211365 -515.826782 0.000007 0.337743
354.690002 -512.848633 -0.000011 0.340398
353.080261 -510.947266 -0.000007 0.328573
351.961426 -509.625732 -0.000003 0.309224
351.137146 -508.652130 -0.000008 0.328618
358.934753 -518.080811 7.064707 0.605661
358.917175 -518.059753 6.361063 0.709682
358.899933 -518.039063 5.669168 0.602121
358.882935 -518.018738 4.987278 0.541939
358.866150 -517.998596 4.313743 0.597314
358.849518 -517.978699 3.646994 0.593378
358.833008 -517.958923 2.985519 0.546883
358.816620 -517.939270 2.327853 0.516167
358.800293 -517.919739 1.672564 0.534722
358.783936 -517.900146 1.018244 0.606592
358.767609 -517.880554 0.363485 1.000000
357.062744 -515.838135 0.010008 1.000000
354.617950 -512.909180 -0.000010 0.337224
353.021515 -510.996643 -0.000008 0.342321
351.911926 -509.667358 -0.000003 0.330220
351.094452 -508.688019 -0.000008 0.330892
358.990784 -518.371033 7.129646 0.591943
358.972931 -518.349365 6.416903 0.591287
358.955353 -518.328003 5.716078 0.566201
358.938049 -518.306946 5.025414 0.625895
358.920959 -518.286194 4.343243 0.673381
358.904053 -518.265686 3.667965 0.528069
358.887299 -518.245300 2.998051 0.523247
358.870605 -518.225037 2.332017 0.505119
358.854004 -518.204834 1.668411 0.625040
358.837372 -518.184631 1.005808 0.589181
358.820770 -518.164429 0.342781 1.000000
356.969727 -515.915100 0.010018 1.000000
354.545471 -512.969238 -0.000010 0.334234
352.962433 -511.045624 -0.000007 0.336202
351.862152 -509.708588 -0.000003 0.330694
351.051544 -508.723572 -0.000008 0.337392
359.048309 -518.668823 7.196525 0.568841
359.030151 -518.646484 6.474413 0.597559
359.012268 -518.624451 5.764398 0.602930
358.994659 -518.602722 5.064699 0.550958
358.977234 -518.581299 4.373626 0.517891
358.960022 -518.560059 3.689561 0.625498
358.942963 -518.539001 3.010956 0.602930
358.925995 -518.518127 2.336304 0.751812
358.909088 -518.497253 1.664135 0.620874
358.892181 -518.476440 0.993003 0.550347
358.875305 -518.455627 0.321464 1.000000
356.931030 -516.059082 0.000008 0.336934
354.472595 -513.028809 -0.000009 0.339483
352.903015 -511.094177 -0.000008 0.333349
351.812103 -509.749512 -0.000003 0.333623
351.008392 -508.758850 -0.000008 0.330159
359.107269 -518.974487 7.265406 0.507332
359.088806 -518.951355 6.533644 0.491279
359.070618 -518.928650 5.814169 0.619074
359.052734 -518.906250 5.105171 0.518898
359.035034 -518.884155 4.404930 0.757183
359.017517 -518.862244 3.711815 0.606836
359.000122 -518.840515 3.024252 0.548608
358.982849 -518.818909 2.340721 0.611795
358.965637 -518.797363 1.659730 0.633570
358.948456 -518.775879 0.979812 0.508461
358.931274 -518.754395 0.299508 1.000000
356.836487 -516.135254 0.000008 0.333013
354.399261 -513.087891 -0.000008 0.337301
352.843262 -511.142303 -0.000007 0.345220
351.761749 -509.790070 -0.000003 0.344793
350.964966 -508.793823 -0.000008 0.342626
359.167847 -519.288330 7.336418 0.628885
359.149048 -519.264465 6.594699 0.539391
359.130554 -519.241028 5.865463 0.669749
359.112335 -519.217896 5.146873 0.524315
359.094330 -519.195068 4.437185 0.489006
359.076477 -519.172424 3.734741 0.486198
359.058807 -519.150024 3.037953 0.530785
359.041199 -519.127686 2.345272 0.515892
359.023682 -519.105469 1.655191 0.518746
359.006195 -519.083252 0.966222 0.568551
358.988708 -519.061096 0.276885 1.000000
356.741455 -516.210693 0.000007 0.342535
354.325562 -513.146423 -0.000009 0.335729
352.783173 -511.190033 -0.000008 0.339544
351.711121 -509.830261 -0.000003 0.339025
350.921326 -508.828491 -0.000008 0.342794
359.230133 -519.610840 7.409647 0.575814
359.210968 -519.586182 6.657658 0.648859
359.192139 -519.561951 5.918352 0.605707
359.173584 -519.538086 5.189869 0.587564
359.155243 -519.514465 4.470438 0.361700
359.137085 -519.491089 3.758379 0.200183
359.119049 -519.467957 3.052076 0.204501
359.101135 -519.444885 2.349964 0.257694
359.083313 -519.421936 1.650512 0.501991
359.065491 -519.398987 0.952213 0.556146
359.047668 -519.376099 0.253567 1.000000
356.645874 -516.285522 0.000008 0.337789
354.251434 -513.204407 -0.000007 0.341482
352.722717 -511.237335 -0.000007 0.337301
351.660217 -509.870117 -0.000002 0.338460
350.877411 -508.862823 -0.000008 0.331960
330.643890 -482.540039 8.316370 0.521782
330.632782 -482.525513 7.450158 0.527306
330.621796 -482.511200 6.594880 0.495811
330.610962 -482.497040 5.748528 0.448493
330.600189 -482.482971 4.909177 0.592371
330.589478 -482.468994 4.074959 0.645670
330.578827 -482.455078 3.244056 0.543526
330.568176 -482.441193 2.414676 0.538964
330.558716 -482.428833 1.585069 0.530694
330.548065 -482.414917 0.753457 0.573663
331.145264 -483.194580 -0.000018 0.237251
335.405975 -488.756836 -0.000014 0.218114
337.778992 -491.854767 -0.000001 0.224960
339.293915 -493.832489 0.000002 0.195076
340.346863 -495.207062 0.000005 0.241272
341.122620 -496.219788 0.000006 0.232129
330.833221 -482.498657 8.295912 0.567483
330.822296 -482.484161 7.432491 0.503883
330.811493 -482.469849 6.579976 0.571679
330.800812 -482.455719 5.736361 0.472297
330.790222 -482.441681 4.899727 0.470115
330.779663 -482.427734 4.068214 0.559686
330.769165 -482.413818 3.240010 0.561105
330.758728 -482.399963 2.413326 0.520516
330.749298 -482.387482 1.586419 0.666712
330.738800 -482.373566 0.757513 0.557092
331.280823 -483.091492 -0.000019 0.242900
335.502563 -488.683350 -0.000015 0.237502
337.853912 -491.797791 -0.000001 0.253180
339.355011 -493.786041 0.000002 0.295175
340.398315 -495.167938 0.000005 0.193808
341.166992 -496.186066 0.000006 0.231650
331.021362 -482.457550 8.275885 0.430198
331.010590 -482.443085 7.415201 0.524407
330.999969 -482.428802 6.565387 0.527016
330.989441 -482.414642 5.724450 0.493904
330.979004 -482.400635 4.890478 0.656550
330.968628 -482.386688 4.061613 0.581125
330.958313 -482.372803 3.236049 0.487816
330.947998 -482.358948 2.412004 0.585489
330.938629 -482.346375 1.587739 0.570550
330.928314 -482.332489 0.761482 0.584802
331.417084 -482.989349 -0.000019 0.210084
335.599701 -488.610565 -0.000015 0.224840
337.929230 -491.741333 -0.000001 0.250523
339.416412 -493.740021 0.000002 0.248620
340.450043 -495.129150 0.000005 0.198774
341.211578 -496.152618 0.000006 0.201323
331.208313 -482.416718 8.256292 0.523629
331.197723 -482.402252 7.398281 0.568551
331.187256 -482.388000 6.551111 0.544182
331.176910 -482.373871 5.712796 0.460334
331.166626 -482.359863 4.881427 0.680568
331.156433 -482.345947 4.055152 0.712077
331.146240 -482.332062 3.232173 0.722133
331.136108 -482.318237 2.410712 0.486015
331.126801 -482.305542 1.589031 0.435721
331.116638 -482.291687 0.765367 0.584161
331.554047 -482.888184 -0.000019 0.230609
335.697327 -488.538452 -0.000014 0.228670
338.004944 -491.685394 -0.000001 0.221417
339.478119 -493.694397 0.000002 0.225115
340.502045 -495.090759 0.000004 0.225558
341.256409 -496.119507 0.000006 0.236760
331.394104 -482.376099 8.237122 0.572412
331.383667 -482.361694 7.381727 0.660136
331.373383 -482.347443 6.537146 0.610956
331.363190 -482.333313 5.701395 0.578607
331.353088 -482.319336 4.872572 0.640284
331.343018 -482.305420 4.048833 0.670436
331.333008 -482.291565 3.228381 0.588418
331.323029 -482.277771 2.409447 0.457084
331.313782 -482.264954 1.590295 0.560494
331.303772 -482.251129 0.769166 0.602136
331.691711 -482.787964 -0.000019 0.227605
335.795441 -488.467010 -0.000015 0.272939
338.081055 -491.630005 -0.000001 0.220233
339.540161 -493.649261 0.000002 0.229867
340.554321 -495.052704 0.000004 0.263401
341.301483 -496.086700 0.000006 0.237873
331.578796 -482.335785 8.218370 0.536538
331.568512 -482.321350 7.365535 0.657115
331.558380 -482.307129 6.523483 0.574868
331.548340 -482.293030 5.690242 0.545861
331.538391 -482.279053 4.863909 0.731563
331.528503 -482.265167 4.042650 0.595041
331.518646 -482.251343 3.224672 0.523293
331.508820 -482.237518 2.408210 0.590723
331.499634 -482.224640 1.591531 0.580774
331.489807 -482.210815 0.772883 0.598444
331.830078 -482.688721 -0.000019 0.249985
335.894073 -488.396271 -0.000015 0.221358
338.157532 -491.575134 -0.000001 0.210371
339.602509 -493.604523 0.000002 0.199744
340.606842 -495.015015 0.000005 0.195986
341.346771 -496.054199 0.000006 0.209569
331.762360 -482.295685 8.200031 0.630777
331.752258 -482.281281 7.349701 0.577783
331.742279 -482.267059 6.510125 0.590097
331.732422 -482.252991 5.679334 0.626642
331.722626 -482.239044 4.855438 0.651591
331.712891 -482.225159 4.036604 0.555261
331.703186 -482.211334 3.221044 0.556329
331.693512 -482.197540 2.407000 0.552422
331.684387 -482.184540 1.592740 0.555581
331.674683 -482.170715 0.776518 0.493645
331.969147 -482.590424 -0.000019 0.217624
335.993195 -488.326233 -0.000015 0.228802
338.234406 -491.520813 -0.000001 0.222925
339.665192 -493.560242 0.000002 0.231997
340.659637 -494.977722 0.000004 0.199420
341.392303 -496.022034 0.000006 0.199863
331.944885 -482.255829 8.182098 0.469596
331.934937 -482.241425 7.334217 0.467933
331.925110 -482.227234 6.497061 0.490227
331.915405 -482.213165 5.668670 0.684474
331.905762 -482.199249 4.847156 0.606897
331.896179 -482.185364 4.030693 0.585061
331.886627 -482.171570 3.217498 0.500145
331.877106 -482.157776 2.405817 0.627390
331.868042 -482.144684 1.593922 0.533501
331.858521 -482.130859 0.780072 0.592966
332.108887 -482.493103 -0.000019 0.230776
336.092773 -488.256866 -0.000015 0.220472
338.311646 -491.467010 -0.000002 0.220460
339.728149 -493.516388 0.000001 0.253946
340.712677 -494.940765 0.000004 0.246717
341.438049 -495.990173 0.000006 0.189212
332.126343 -482.216217 8.164562 0.509133
332.116547 -482.201813 7.319079 0.536110
332.106903 -482.187622 6.484290 0.573556
332.097321 -482.173584 5.658244 0.596307
332.087860 -482.159668 4.839060 0.573953
332.078430 -482.145813 4.024913 0.660212
332.069031 -482.132019 3.214030 0.571099
332.059662 -482.118256 2.404661 0.513954
332.050659 -482.105042 1.595078 0.626810
332.041260 -482.091248 0.783546 0.438300
332.249298 -482.396790 -0.000019 0.247268
336.192871 -488.188202 -0.000015 0.254951
338.389252 -491.413757 -0.000002 0.234714
339.791443 -493.472961 0.000001 0.302069
340.765991 -494.904205 0.000004 0.271120
341.484009 -495.958649 0.000006 0.256100
332.306824 -482.176819 8.147425 0.549157
332.297180 -482.162445 7.304282 0.469444
332.287659 -482.148254 6.471807 0.640162
332.278259 -482.134216 5.648055 0.563531
332.268921 -482.120300 4.831147 0.554788
332.259644 -482.106476 4.019265 0.508949
332.250397 -482.092712 3.210641 0.451072
332.241180 -482.078949 2.403530 0.474449
332.232239 -482.065643 1.596207 0.520088
332.222992 -482.051849 0.786941 0.541558
332.390381 -482.301422 -0.000020 0.233481
336.293427 -488.120239 -0.000016 0.241583
338.467255 -491.361053 -0.000002 0.222913
339.855011 -493.429993 0.000001 0.229328
340.819550 -494.867981 0.000004 0.225881
341.530182 -495.927429 0.000005 0.225905
332.485565 -482.136536 8.131014 0.587457
332.476166 -482.122345 7.290069 0.532250
332.466888 -482.108307 6.459785 0.501274
332.457733 -482.094421 5.638215 0.483284
332.448639 -482.080658 4.823484 0.573693
332.439606 -482.066986 4.013783 0.583001
332.430603 -482.053375 3.207344 0.571450
332.304596 -481.862671 2.405901 1.000000
332.412811 -482.026459 1.597311 0.498589
332.403717 -482.012665 0.790259 0.544854
332.532135 -482.207062 -0.000020 0.230142
336.394470 -488.052979 -0.000015 0.217013
338.545593 -491.308899 -0.000002 0.221070
339.918884 -493.387482 0.000001 0.230992
340.873383 -494.832153 0.000004 0.206386
341.576599 -495.896545 0.000005 0.222171
332.664001 -482.097443 8.114695 0.504555
332.654755 -482.083252 7.275981 0.670954
332.645630 -482.069244 6.447899 0.495933
332.636597 -482.055359 5.628511 0.531106
332.627655 -482.041626 4.815949 0.551904
332.618774 -482.027954 4.008405 0.549706
332.609894 -482.014343 3.204118 0.663890
332.601074 -482.000763 2.401351 0.599771
332.592224 -481.987183 1.598383 0.570382
332.583374 -481.973541 0.793491 0.597009
332.674530 -482.113678 -0.000020 0.231231
336.495972 -487.986420 -0.000015 0.232847
338.624329 -491.257294 -0.000002 0.204243
339.983063 -493.345398 0.000001 0.218761
340.927429 -494.796722 0.000003 0.201682
341.623199 -495.865967 0.000005 0.210192
332.841492 -482.058563 8.098759 0.516091
332.832397 -482.044373 7.262219 0.559274
332.823395 -482.030365 6.436292 0.547753
332.814545 -482.016510 5.619035 0.573999
332.805725 -482.002777 4.808590 0.581079
332.796967 -481.989136 4.003153 0.621744
332.788269 -481.975525 3.200967 0.577310
332.779572 -481.961945 2.400300 0.555947
332.770874 -481.948364 1.599436 0.582055
332.762146 -481.934753 0.796654 0.565744
332.817596 -482.021301 -0.000020 0.228419
336.597931 -487.920593 -0.000015 0.235994
338.703400 -491.206207 -0.000002 0.205979
340.047516 -493.303772 0.000000 0.211568
340.981750 -494.761658 0.000003 0.268607
341.670044 -495.835754 0.000005 0.274962
333.018066 -482.019897 8.083198 0.559976
333.009094 -482.005707 7.248787 0.508507
333.000275 -481.991699 6.424959 0.580728
332.991547 -481.977875 5.609783 0.617014
332.982880 -481.964142 4.801406 0.581323
332.974274 -481.950500 3.998026 0.662242
332.965698 -481.936890 3.197891 0.565057
332.957123 -481.923340 2.399274 0.565759
332.948578 -481.909760 1.600463 0.684825
332.939972 -481.896149 0.799742 0.570306
332.961304 -481.929932 -0.000021 0.224038
336.700348 -487.855469 -0.000016 0.238879
338.782806 -491.155701 -0.000003 0.262982
340.112274 -493.262604 0.000000 0.206805
341.036285 -494.726959 0.000003 0.256531
341.717072 -495.805817 0.000005 0.239022
333.193756 -481.981445 8.068008 0.568139
333.184937 -481.967255 7.235674 0.597452
333.176270 -481.953247 6.413897 0.605798
333.167664 -481.939423 5.600755 0.616327
333.159119 -481.925690 4.794394 0.612421
333.150665 -481.912048 3.993021 0.606073
333.142212 -481.898468 3.194888 0.577905
333.133789 -481.884918 2.398273 0.608362
333.125366 -481.871368 1.601466 0.611490
333.116943 -481.857758 0.802757 0.562539
333.105621 -481.839539 -0.000021 0.227796
336.803192 -487.791046 -0.000016 0.229807
338.862610 -491.105743 -0.000003 0.227006
340.177307 -493.221863 0.000001 0.282250
341.091095 -494.692657 0.000003 0.226803
341.764313 -495.776245 0.000005 0.199253
333.368591 -481.943146 8.053192 0.531151
333.359924 -481.928955 7.222880 0.648615
333.351379 -481.914978 6.403102 0.599008
333.342896 -481.901154 5.591944 0.586450
333.334534 -481.887451 4.787551 0.605951
333.326172 -481.873810 3.988138 0.688624
333.317871 -481.860229 3.191959 0.604486
333.309601 -481.846680 2.397295 0.569757
333.301300 -481.833130 1.602444 0.678447
333.292999 -481.819550 0.805698 0.550805
333.250580 -481.750183 -0.000021 0.213854
336.906525 -487.727356 -0.000016 0.224517
338.942719 -491.056366 -0.000003 0.210969
340.242645 -493.181610 0.000000 0.216989
341.146118 -494.658722 0.000003 0.241308
341.811768 -495.747009 0.000005 0.210563
333.542572 -481.905029 8.038740 0.547097
333.534058 -481.890869 7.210400 0.633844
333.525635 -481.876923 6.392575 0.445243
333.517303 -481.863098 5.583349 0.549874
333.509064 -481.849365 4.780877 0.539864
333.500854 -481.835754 3.983375 0.538659
333.492706 -481.822205 3.189101 0.533333
333.484528 -481.808655 2.396343 0.648554
333.476379 -481.795105 1.603398 0.564569
333.468201 -481.781525 0.808567 0.521859
333.396149 -481.661835 -0.000021 0.219335
337.010284 -487.664398 -0.000016 0.229101
339.023193 -491.007507 -0.000003 0.221405
340.308228 -493.141785 0.000000 0.215122
341.201385 -494.625183 0.000003 0.220879
341.859406 -495.718079 0.000004 0.216570
333.715759 -481.867126 8.024649 0.498589
333.707367 -481.852966 7.198233 0.674556
333.699097 -481.839020 6.382310 0.526116
333.690887 -481.825195 5.574969 0.560784
333.682770 -481.811493 4.774369 0.539284
333.674713 -481.797882 3.978730 0.479393
333.666687 -481.784332 3.186316 0.476616
333.658661 -481.770782 2.395413 0.558740
333.650635 -481.757263 1.604329 0.680247
333.642578 -481.743683 0.811364 0.573434
333.667053 -481.784943 0.020036 1.000000
337.114471 -487.602142 -0.000016 0.203095
339.104004 -490.959259 -0.000003 0.196584
340.374115 -493.102448 0.000000 0.202736
341.256897 -494.592041 0.000003 0.182941
341.907257 -495.689484 0.000004 0.200569
333.888123 -481.829407 8.010912 0.534295
333.879883 -481.815247 7.186372 0.597177
333.871735 -481.801300 6.372303 0.539284
333.863678 -481.787476 5.566802 0.535409
333.855682 -481.773804 4.768027 0.510033
333.847748 -481.760193 3.974204 0.555886
333.839844 -481.746643 3.183599 0.562875
333.831970 -481.733093 2.394508 0.555505
333.824066 -481.719574 1.605236 0.559274
333.816162 -481.705994 0.814090 0.553780
333.774017 -481.633759 0.013795 1.000000
337.219116 -487.540619 -0.000016 0.230872
339.185150 -490.911560 -0.000003 0.230776
340.440277 -493.063538 0.000000 0.199732
341.312622 -494.559265 0.000002 0.232871
341.955322 -495.661224 0.000004 0.249709
334.059723 -481.791840 7.997528 0.632136
334.051605 -481.777710 7.174814 0.574243
334.043610 -481.763763 6.362555 0.588357
334.035675 -481.749939 5.558844 0.630915
334.027832 -481.736267 4.761847 0.526101
334.020020 -481.722656 3.969793 0.488136
334.012268 -481.709106 3.180953 0.579492
334.004486 -481.695587 2.393625 0.552880
333.996735 -481.682068 1.606120 0.651453
333.988953 -481.668518 0.816746 0.554177
333.983246 -481.658569 0.024147 1.000000
337.324158 -487.479858 -0.000016 0.224565
339.266602 -490.864410 -0.000004 0.232344
340.506683 -493.025116 -0.000000 0.202293
341.368561 -494.526886 0.000003 0.193413
342.003571 -495.633331 0.000004 0.240159
334.230591 -481.754456 7.984494 0.600870
334.222595 -481.740326 7.163562 0.584298
334.214722 -481.726379 6.353061 0.498268
334.206940 -481.712585 5.551094 0.586191
334.199219 -481.698914 4.755828 0.568093
334.191528 -481.685303 3.965498 0.710140
334.183899 -481.671753 3.178377 0.566461
334.176270 -481.658234 2.392766 0.554253
334.168610 -481.644714 1.606980 0.594476
334.160980 -481.631165 0.819333 0.584039
334.153290 -481.617554 0.028122 0.561898
337.429626 -487.419800 -0.000016 0.217612
339.348419 -490.817841 -0.000004 0.198631
340.573364 -492.987152 -0.000000 0.223895
341.424744 -494.494904 0.000002 0.209545
342.052002 -495.605743 0.000004 0.238735
334.400726 -481.717224 7.971803 0.536477
334.392853 -481.703125 7.152606 0.663203
334.385132 -481.689178 6.343819 0.639994
334.377472 -481.675385 5.543549 0.702495
334.369873 -481.661713 4.749969 0.561700
334.362305 -481.648102 3.961317 0.715236
334.354797 -481.634552 3.175868 0.556573
334.347290 -481.621063 2.391929 0.528176
334.339783 -481.607544 1.607818 0.658549
334.332245 -481.593994 0.821852 0.565393
334.324677 -481.580383 0.032330 0.629145
337.535522 -487.360474 -0.000016 0.239644
339.430542 -490.771851 -0.000004 0.229448
340.640320 -492.949646 -0.000001 0.218042
341.481171 -494.463318 0.000002 0.262575
342.100647 -495.578491 0.000004 0.181373
334.570129 -481.680176 7.959456 0.586007
334.562408 -481.666046 7.141944 0.526513
334.554779 -481.652130 6.334825 0.557610
334.547241 -481.638336 5.536208 0.566583
334.539795 -481.624664 4.744268 0.600153
334.532349 -481.611084 3.957248 0.537148
334.524963 -481.597534 3.173427 0.551781
334.517578 -481.584015 2.391115 0.597116
334.510193 -481.570526 1.608633 0.658976
334.502808 -481.556976 0.824302 0.577234
334.495361 -481.543365 0.036426 0.703792
337.641846 -487.301910 -0.000016 0.220424
339.513000 -490.726410 -0.000005 0.207918
340.707520 -492.912628 -0.000001 0.231052
341.537781 -494.432129 0.000002 0.249314
342.149475 -495.551605 0.000004 0.262479
334.738861 -481.643280 7.947448 0.511070
334.731262 -481.629150 7.131577 0.594217
334.723785 -481.615234 6.326079 0.511360
334.716370 -481.601440 5.529068 0.575631
334.709015 -481.587769 4.738725 0.566949
334.701721 -481.574188 3.953291 0.616846
334.694458 -481.560638 3.171054 0.562585
334.687195 -481.547150 2.390323 0.567575
334.679932 -481.533630 1.609426 0.653391
334.672668 -481.520111 0.826685 0.581140
334.665344 -481.506500 0.040408 0.597360
337.748566 -487.244080 -0.000016 0.198918
339.595703 -490.681519 -0.000014 0.236042
340.774994 -492.876068 -0.000001 0.245054
341.594604 -494.401306 0.000001 0.260469
342.198486 -495.525055 0.000004 0.215924
334.906921 -481.606537 7.935775 0.572168
334.899445 -481.592407 7.121499 0.540276
334.892090 -481.578491 6.317577 0.441718
334.884796 -481.564697 5.522127 0.476478
334.877594 -481.551025 4.733335 0.508659
334.870422 -481.537445 3.949444 0.488731
334.863251 -481.523926 3.168746 0.535805
334.856140 -481.510406 2.389554 0.632883
334.848999 -481.496918 1.610196 0.585443
334.841827 -481.483368 0.829001 0.529656
334.834656 -481.469788 0.044279 0.531975
337.855652 -487.187012 -0.000017 0.236281
339.678772 -490.637238 -0.000014 0.270857
340.842712 -492.839966 -0.000001 0.240841
341.651672 -494.370911 0.000001 0.233086
342.247681 -495.498840 0.000003 0.209988
335.074310 -481.569916 7.924434 0.470344
335.066986 -481.555817 7.111706 0.612543
335.059753 -481.541870 6.309317 0.507866
335.052582 -481.528107 5.515385 0.522713
335.045502 -481.514435 4.728099 0.506767
335.038452 -481.500854 3.945708 0.472297
335.031403 -481.487335 3.166504 0.476432
335.024414 -481.473816 2.388806 0.545388
335.017395 -481.460327 1.610945 0.680827
335.010345 -481.446777 0.831251 0.564141
335.003296 -481.433197 0.048040 0.570901
337.963165 -487.130676 -0.000017 0.227665
339.762146 -490.593567 -0.000014 0.227832
340.910675 -492.804352 -0.000001 0.231363
341.708923 -494.340912 0.000001 0.232488
342.297058 -495.472961 0.000003 0.295068
335.241089 -481.533447 7.913423 0.517525
335.233887 -481.519348 7.102200 0.520150
335.226776 -481.505432 6.301297 0.552102
335.219757 -481.491638 5.508838 0.484611
335.212769 -481.477966 4.723016 0.533562
335.205841 -481.464417 3.942080 0.479728
335.198944 -481.450867 3.164328 0.537041
335.192047 -481.437378 2.388080 0.550958
335.185150 -481.423889 1.611672 0.583658
335.178223 -481.410339 0.833436 0.583246
335.171295 -481.396759 0.051691 0.473426
338.071075 -487.075104 -0.000017 0.237035
339.845856 -490.550446 -0.000014 0.228347
340.978912 -492.769226 -0.000002 0.219742
341.766418 -494.311310 0.000001 0.236425
342.346588 -495.447449 0.000003 0.275991
335.407288 -481.497131 7.902741 0.497688
335.400208 -481.483032 7.092973 0.523400
335.393219 -481.469116 6.293515 0.584634
335.386292 -481.455322 5.502486 0.577462
335.379425 -481.441650 4.718082 0.591073
335.372620 -481.428101 3.938559 0.460319
335.365845 -481.414551 3.162216 0.581094
335.359070 -481.401062 2.387376 0.555032
335.352295 -481.387573 1.612377 0.656703
335.345490 -481.374023 0.835556 0.526711
335.338684 -481.360443 0.055234 0.564828
338.179352 -487.020294 -0.000017 0.226288
339.929810 -490.507935 -0.000014 0.206876
341.047363 -492.734558 -0.000002 0.193616
341.824097 -494.282104 0.000001 0.185203
342.396332 -495.422272 0.000003 0.257632
335.572876 -481.460938 7.892381 0.494560
335.565918 -481.446838 7.084030 0.631647
335.559052 -481.432922 6.285970 0.567651
335.552246 -481.419128 5.496327 0.602060
335.545502 -481.405487 4.713299 0.565988
335.538818 -481.391907 3.935145 0.607202
335.532135 -481.378387 3.160168 0.542657
335.525482 -481.364868 2.386692 0.578943
335.518829 -481.351379 1.613061 0.602335
335.512146 -481.337860 0.837612 0.590509
335.505463 -481.324249 0.058670 0.532021
338.288025 -486.966217 -0.000017 0.265507
340.014099 -490.466003 -0.000014 0.236640
341.116058 -492.700378 -0.000002 0.260732
341.881958 -494.253296 0.000001 0.234414
342.446228 -495.397430 0.000003 0.201395
335.737885 -481.424896 7.882342 0.623468
335.731049 -481.410797 7.075362 0.603708
335.724304 -481.396851 6.278658 0.711940
335.717621 -481.383087 5.490356 0.580423
335.710999 -481.369415 4.708665 0.575311
335.704407 -481.355835 3.931839 0.620096
335.697876 -481.342316 3.158184 0.563638
335.691345 -481.328827 2.386031 0.529671
335.684784 -481.315338 1.613724 0.687419
335.678223 -481.301788 0.839604 0.601129
335.671661 -481.288208 0.061998 0.576532
338.397064 -486.912903 -0.000017 0.214261
340.098663 -490.424652 -0.000015 0.231638
341.184998 -492.666687 -0.000002 0.279390
341.940033 -494.224915 0.000001 0.216582
342.496307 -495.372955 0.000003 0.229783
335.902344 -481.388947 7.872625 0.205951
335.895630 -481.374847 7.066972 0.207843
335.889008 -481.360901 6.271580 0.208911
335.882446 -481.347137 5.484581 0.226200
335.875946 -481.333466 4.704178 0.189471
335.869476 -481.319885 3.928636 0.210407
335.863037 -481.306366 3.156263 0.212253
335.856628 -481.292877 2.385391 0.225422
335.850189 -481.279388 1.614365 0.232609
335.843750 -481.265839 0.841532 0.232547
335.837280 -481.252258 0.065220 0.232837
338.506470 -486.860352 -0.000017 0.232141
340.183502 -490.383911 -0.000014 0.258254
341.254181 -492.633453 -0.000002 0.229783
341.998322 -494.196930 0.000001 0.196297
342.546570 -495.348816 0.000003 0.218593
336.066254 -481.353119 7.863221 0.634104
336.059662 -481.339020 7.058853 0.642939
336.053162 -481.325104 6.264732 0.659297
336.046722 -481.311310 5.478990 0.703990
336.040344 -481.297638 4.699837 0.619928
336.033997 -481.284058 3.925539 0.553231
336.027679 -481.270538 3.154404 0.536156
336.021362 -481.257050 2.384771 0.559731
336.015045 -481.243561 1.614985 0.577905
336.008728 -481.230011 0.843397 0.586313
336.002380 -481.216431 0.068338 0.546792
338.616241 -486.808594 -0.000017 0.211664
340.268646 -490.343750 -0.000015 0.245557
341.323578 -492.600708 -0.000002 0.235958
342.056793 -494.169342 0.000000 0.254042
342.596985 -495.325043 0.000002 0.241499
336.229675 -481.317444 7.854129 0.606149
336.223206 -481.303314 7.051006 0.585122
336.216827 -481.289398 6.258110 0.571954
336.210510 -481.275604 5.473585 0.534691
336.204224 -481.261963 4.695640 0.567590
336.197998 -481.248352 3.922543 0.539147
336.191772 -481.234833 3.152608 0.618967
336.185577 -481.221344 2.384171 0.660822
336.179382 -481.207855 1.615586 0.610376
336.173187 -481.194305 0.845201 0.566735
336.166931 -481.180725 0.071353 0.569680
338.726379 -486.757568 -0.000017 0.227365
340.354065 -490.304199 -0.000015 0.222961
341.393219 -492.568481 -0.000002 0.229424
342.115448 -494.142181 0.000000 0.291741
342.647552 -495.301605 0.000002 0.200881
336.392609 -481.281860 7.845349 0.701457
336.386261 -481.267731 7.043425 0.604410
336.379974 -481.253815 6.251716 0.542321
336.373779 -481.240021 5.468366 0.647944
336.367615 -481.226349 4.691586 0.577035
336.361481 -481.212769 3.919652 0.516182
336.355408 -481.199249 3.150872 0.543343
336.349304 -481.185760 2.383593 0.527672
336.343231 -481.172241 1.616165 0.663920
336.337128 -481.158722 0.846943 0.494331
336.330994 -481.145111 0.074264 0.566613
338.836853 -486.707336 -0.000018 0.248189
340.439758 -490.265228 -0.000015 0.198140
341.463074 -492.536713 -0.000003 0.219514
342.174286 -494.115417 0.000000 0.268511
342.698303 -495.278534 0.000002 0.259774
336.555054 -481.246368 7.836880 0.572305
336.548828 -481.232269 7.036114 0.509041
336.542664 -481.218323 6.245548 0.549920
336.536560 -481.204559 5.463330 0.674449
336.530518 -481.190887 4.687676 0.639628
336.524506 -481.177277 3.916859 0.580819
336.518524 -481.163757 3.149198 0.528603
336.512543 -481.150269 2.383034 0.578317
336.506592 -481.136749 1.616724 0.627237
336.500610 -481.123199 0.848623 0.593668
336.494598 -481.109619 0.077072 0.486427
338.947693 -486.657867 -0.000018 0.232105
340.525696 -490.226868 -0.000015 0.251672
341.533142 -492.505432 -0.000003 0.260851
342.233337 -494.089050 -0.000000 0.230501
342.749207 -495.255829 0.000002 0.203107
336.717041 -481.211029 7.828716 0.584802
336.710907 -481.196899 7.029065 0.675624
336.704865 -481.182953 6.239602 0.533303
336.698883 -481.169159 5.458477 0.643503
336.692963 -481.155487 4.683908 0.569772
336.687042 -481.141907 3.914170 0.544732
336.681183 -481.128357 3.147584 0.571328
336.675323 -481.114868 2.382496 0.554467
336.669464 -481.101349 1.617263 0.612833
336.663605 -481.087830 0.850243 0.562524
336.657684 -481.074219 0.079779 0.548043
339.058868 -486.609161 -0.000018 0.224421
340.611908 -490.189117 -0.000015 0.255957
341.603424 -492.474640 -0.000003 0.209438
342.292542 -494.063141 -0.000000 0.237885
342.800262 -495.233459 0.000002 0.196919
336.878571 -481.175751 7.820858 0.538155
336.872559 -481.161621 7.022280 0.602991
336.866638 -481.147675 6.233878 0.471550
336.860779 -481.133881 5.453804 0.681331
336.854950 -481.120209 4.680279 0.617761
336.849152 -481.106628 3.911581 0.499901
336.843414 -481.093079 3.146031 0.546365
336.837646 -481.079590 2.381978 0.571374
336.831909 -481.066071 1.617782 0.604685
336.826141 -481.052521 0.851802 0.696422
336.820343 -481.038910 0.082385 0.742626
339.170380 -486.561249 -0.000018 0.230393
340.698395 -490.151947 -0.000015 0.249494
341.673920 -492.444336 -0.000003 0.205823
342.351959 -494.037598 -0.000001 0.233625
342.851471 -495.211456 0.000001 0.235157
337.039703 -481.140594 7.813303 0.624567
337.033813 -481.126465 7.015756 0.560708
337.027985 -481.112518 6.228375 0.754559
337.022217 -481.098694 5.449313 0.613809
337.016510 -481.085022 4.676791 0.684642
337.010834 -481.071442 3.909091 0.596551
337.005188 -481.057892 3.144538 0.520775
336.999542 -481.044373 2.381480 0.566018
336.993896 -481.030853 1.618281 0.642359
336.988251 -481.017303 0.853302 0.564675
336.982574 -481.003693 0.084890 0.522530
339.282227 -486.514099 -0.000019 0.227090
340.785156 -490.115387 -0.000015 0.254688
341.744659 -492.414551 -0.000004 0.218820
342.411530 -494.012512 -0.000001 0.202759
342.902832 -495.189789 0.000001 0.214979
337.200409 -481.105499 7.806048 0.517723
337.194611 -481.091370 7.009491 0.537285
337.188904 -481.077423 6.223092 0.572519
337.183258 -481.063629 5.444999 0.585702
337.177673 -481.049927 4.673442 0.574411
337.172089 -481.036346 3.906701 0.531395
337.166565 -481.022797 3.143104 0.484489
337.161041 -481.009277 2.381001 0.559609
337.155487 -480.995758 1.618759 0.568627
337.149963 -480.982208 0.854741 0.553994
337.144379 -480.968567 0.087295 0.537820
339.394409 -486.467773 -0.000018 0.213926
340.872131 -490.079437 -0.000015 0.202388
341.815552 -492.385223 -0.000004 0.212023
342.471252 -493.987793 -0.000001 0.231566
342.954346 -495.168518 0.000001 0.233074
337.360718 -481.070526 7.799092 0.556848
337.355042 -481.056396 7.003487 0.531853
337.349457 -481.042419 6.218025 0.535271
337.343903 -481.028625 5.440864 0.626810
337.338440 -481.014923 4.670230 0.576104
337.332977 -481.001343 3.904409 0.699489
337.327545 -480.987762 3.141729 0.637278
337.322113 -480.974243 2.380543 0.632670
337.316681 -480.960724 1.619218 0.606668
337.311249 -480.947174 0.856121 0.559731
337.305786 -480.933533 0.089601 0.547326
339.506897 -486.422180 -0.000018 0.248178
340.959381 -490.044098 -0.000015 0.208277
341.886688 -492.356415 -0.000004 0.237000
342.531189 -493.963531 -0.000001 0.244312
343.006012 -495.147583 0.000001 0.239106
337.520660 -481.035645 7.792433 0.505867
337.515106 -481.021484 6.997738 0.550637
337.509613 -481.007538 6.213176 0.500694
337.504181 -480.993713 5.436906 0.614527
337.498810 -480.980011 4.667157 0.600778
337.493469 -480.966400 3.902216 0.534936
337.488129 -480.952850 3.140413 0.538125
337.482819 -480.939331 2.380104 0.547875
337.477509 -480.925781 1.619658 0.673625
337.472168 -480.912201 0.857442 0.557229
337.466827 -480.898590 0.091809 0.570718
339.619690 -486.377411 -0.000019 0.228454
341.046875 -490.009369 -0.000015 0.246514
341.958008 -492.328094 -0.000004 0.221226
342.591278 -493.939667 -0.000001 0.207618
343.057831 -495.127014 0.000001 0.212250
337.680267 -481.000824 7.786069 0.589654
337.674805 -480.986664 6.992244 0.586786
337.669434 -480.972717 6.208540 0.558740
337.664124 -480.958893 5.433123 0.528099
337.658844 -480.945160 4.664219 0.527153
337.653595 -480.931549 3.900120 0.519890
337.648376 -480.917999 3.139155 0.537774
337.643158 -480.904449 2.379685 0.561471
337.637939 -480.890900 1.620078 0.616098
337.632721 -480.877350 0.858704 0.564874
337.627472 -480.863708 0.093919 0.661830
339.732819 -486.333405 -0.000019 0.234295
341.134583 -489.975250 -0.000015 0.246550
342.029541 -492.300293 -0.000004 0.225929
342.651520 -493.916260 -0.000001 0.229161
343.109772 -495.106812 0.000001 0.240051
337.839508 -480.966095 7.780000 0.464179
337.834167 -480.951935 6.987004 0.465675
337.828888 -480.937958 6.204122 0.430533
337.823669 -480.924133 5.429514 0.642954
337.818512 -480.910400 4.661417 0.533150
337.813385 -480.896790 3.898120 0.429053
337.808258 -480.883209 3.137956 0.473411
337.803162 -480.869659 2.379285 0.503868
337.798035 -480.856110 1.620478 0.660395
337.792938 -480.842529 0.859909 0.506722
337.787781 -480.828888 0.095931 0.603800
339.846252 -486.290222 -0.000019 0.233158
341.222565 -489.941742 -0.000015 0.222710
342.101227 -492.272980 -0.000004 0.195268
342.711945 -493.893250 -0.000002 0.260828
343.161865 -495.086975 0.000001 0.213112
337.998413 -480.931458 7.774223 0.540093
337.993195 -480.917267 6.982016 0.504082
337.988037 -480.903290 6.199914 0.558923
337.982941 -480.889435 5.426080 0.558068
337.977875 -480.875732 4.658751 0.585199
337.972839 -480.862091 3.896216 0.475288
337.967834 -480.848511 3.136815 0.574655
337.962830 -480.834961 2.378903 0.570367
337.957825 -480.821411 1.620860 0.559945
337.952820 -480.807831 0.861055 0.558495
337.947784 -480.794159 0.097846 0.509850
339.959961 -486.247803 -0.000019 0.214763
341.310760 -489.908844 -0.000015 0.211197
342.173126 -492.246155 -0.000005 0.209725
342.772522 -493.870636 -0.000002 0.226336
343.214111 -495.067474 0.000001 0.200510
338.157043 -480.896851 7.768738 0.658915
338.151917 -480.882690 6.977281 0.669383
338.146851 -480.868683 6.195919 0.476493
338.141876 -480.854828 5.422819 0.664591
338.136902 -480.841095 4.656218 0.496132
338.131989 -480.827454 3.894410 0.501945
338.127075 -480.813873 3.135730 0.551125
338.122192 -480.800323 2.378542 0.530144
338.117279 -480.786743 1.621222 0.622889
338.112366 -480.773163 0.862143 0.465293
338.107452 -480.759491 0.099665 0.530388
340.073975 -486.206177 -0.000019 0.234486
341.399170 -489.876587 -0.000016 0.200390
342.245209 -492.219849 -0.000005 0.214596
342.833252 -493.848480 -0.000002 0.248261
343.266449 -495.048370 0.000000 0.185298
338.315369 -480.862366 7.763540 0.513024
338.310364 -480.848175 6.972792 0.564935
338.305420 -480.834167 6.192132 0.496025
338.300507 -480.820313 5.419728 0.600748
338.283386 -480.771790 4.658061 1.000000
338.314270 -480.859253 3.886927 1.000000
338.286041 -480.779297 3.134704 0.589029
338.281250 -480.765747 2.378200 0.599725
338.276459 -480.752167 1.621565 0.582238
338.271637 -480.738556 0.863173 0.523735
338.266815 -480.724884 0.101387 0.597009
340.188263 -486.165375 -0.000019 0.225103
341.487823 -489.844910 -0.000016 0.259607
342.317474 -492.194031 -0.000005 0.239896
342.894104 -493.826721 -0.000002 0.210563
343.318939 -495.029633 -0.000000 0.268463
338.473419 -480.827911 7.758631 0.528771
338.468506 -480.813721 6.968554 0.547967
338.463654 -480.799683 6.188558 0.576425
338.458862 -480.785828 5.416812 0.515206
338.454132 -480.772064 4.651553 0.529244
338.449402 -480.758423 3.891080 0.634470
338.444702 -480.744812 3.133733 0.564630
338.440033 -480.731232 2.377876 0.529824
338.435333 -480.717651 1.621889 0.628260
338.430634 -480.704010 0.864147 0.561395
338.425903 -480.690338 0.103014 0.565789
340.302856 -486.125336 -0.000019 0.228323
341.576691 -489.813873 -0.000016 0.248537
342.389923 -492.168732 -0.000005 0.200761
342.955139 -493.805420 -0.000002 0.197589
343.371582 -495.011230 -0.000000 0.194035
338.631195 -480.793518 7.754010 0.526894
338.626404 -480.779327 6.964564 0.625666
338.621674 -480.765289 6.185192 0.598825
338.616974 -480.751404 5.414063 0.665782
338.612335 -480.737671 4.649419 0.594049
338.607727 -480.723969 3.889558 0.566629
338.603119 -480.710358 3.132820 0.527916
338.598541 -480.696777 2.377571 0.609430
338.593964 -480.683167 1.622193 0.546471
338.589355 -480.669556 0.865064 0.671153
338.584717 -480.655853 0.104547 0.667994
340.417725 -486.086121 -0.000019 0.226540
341.665771 -489.783478 -0.000016 0.218485
342.462555 -492.143951 -0.000005 0.216570
343.016327 -493.784515 -0.000003 0.248106
343.424316 -494.993225 0.000000 0.209797
338.788757 -480.759216 7.749677 0.628687
338.784058 -480.744995 6.960822 0.589990
338.779419 -480.730957 6.182034 0.585046
338.774841 -480.717041 5.411487 0.637858
338.770294 -480.703278 4.647419 0.468406
338.765778 -480.689606 3.888130 0.623026
338.761292 -480.675964 3.131963 0.533578
338.756805 -480.662354 2.377286 0.578637
338.752319 -480.648743 1.622479 0.564492
338.747833 -480.635132 0.865924 0.516472
338.743317 -480.621429 0.105983 0.593896
340.532867 -486.047729 -0.000019 0.216032
341.755066 -489.753662 -0.000016 0.202041
342.535339 -492.119659 -0.000005 0.258302
343.077667 -493.764069 -0.000002 0.208181
343.477203 -494.975586 -0.000000 0.235324
338.946075 -480.724945 7.745625 0.499153
338.941467 -480.710693 6.957326 0.579049
338.936951 -480.696655 6.179085 0.571786
338.932465 -480.682739 5.409081 0.553872
