# This PCD file was generated using the MATLAB® pcwrite function
# from Computer Vision Toolbox®.
# .PCD v.7 - Point Cloud Data file format
VERSION .7
FIELDS x y z intensity
SIZE 4 4 4 4
TYPE F F F F
COUNT 1 1 1 1
WIDTH 1158
HEIGHT 1
VIEWPOINT 0 0 0 1 0 0 0
POINTS 1158
DATA ascii
346.377136 -737.830322 6.520065 1.000000
346.377136 -737.830322 5.505497 1.000000
346.377136 -737.830322 4.498545 1.000000
346.377136 -737.830322 3.496984 1.000000
346.377136 -737.830322 2.498638 1.000000
346.377136 -737.830322 1.501362 1.000000
346.377136 -737.830322 0.503016 1.000000
345.721924 -731.785645 -0.000006 0.221190
344.966858 -724.820007 -0.000014 0.209617
344.546326 -720.940491 -0.000019 0.245341
344.277832 -718.463745 -0.000022 0.297533
344.091248 -716.742371 -0.000025 0.193329
343.953766 -715.474060 -0.000026 0.205644
346.097046 -737.176270 9.462524 1.000000
346.097046 -737.176270 8.434471 1.000000
346.097046 -737.176270 7.420851 1.000000
346.097046 -737.176270 6.419237 1.000000
346.097046 -737.176270 5.427301 1.000000
346.097046 -737.176270 4.442810 1.000000
346.097046 -737.176270 3.463590 1.000000
346.097046 -737.176270 2.487515 1.000000
346.097046 -737.176270 1.512485 1.000000
346.097046 -737.176270 0.536409 1.000000
345.552551 -731.803406 -0.000005 0.232655
344.846130 -724.832703 -0.000014 0.228586
344.452698 -720.950317 -0.000019 0.215003
344.201538 -718.471802 -0.000022 0.226396
344.026947 -716.749084 -0.000025 0.250128
343.898315 -715.479858 -0.000026 0.207774
345.829132 -736.550720 9.300035 1.000000
345.829132 -736.550720 8.294367 1.000000
345.829132 -736.550659 7.302817 1.000000
345.829132 -736.550720 6.323013 1.000000
345.829132 -736.550659 5.352675 1.000000
345.829132 -736.550720 4.389621 1.000000
345.829132 -736.550720 3.431722 1.000000
345.829132 -736.550659 2.476900 1.000000
345.829132 -736.550659 1.523100 1.000000
345.829132 -736.550720 0.568277 1.000000
345.383087 -731.820007 -0.000006 0.238639
344.725342 -724.844482 -0.000014 0.221884
344.359009 -720.959473 -0.000019 0.266847
344.125153 -718.479248 -0.000022 0.218904
343.962616 -716.755371 -0.000025 0.237634
343.842834 -715.485291 -0.000026 0.195770
345.572662 -735.951782 9.144819 1.000000
345.572662 -735.951782 8.160532 1.000000
345.572662 -735.951782 7.190065 1.000000
345.572662 -735.951782 6.231094 1.000000
345.572662 -735.951782 5.281389 1.000000
345.572662 -735.951782 4.338810 1.000000
345.572662 -735.951782 3.401279 1.000000
345.572662 -735.951782 2.466760 1.000000
345.572662 -735.951782 1.533240 1.000000
345.572662 -735.951782 0.598720 1.000000
345.213501 -731.835388 -0.000006 0.231470
344.604462 -724.855469 -0.000015 0.226791
344.265289 -720.968018 -0.000019 0.225008
344.048737 -718.486206 -0.000023 0.261665
343.898224 -716.761230 -0.000025 0.195064
343.787323 -715.490356 -0.000027 0.231949
345.326843 -735.377747 8.996393 1.000000
345.326843 -735.377747 8.032554 1.000000
345.326843 -735.377747 7.082247 1.000000
345.326843 -735.377747 6.143198 1.000000
345.326843 -735.377747 5.213221 1.000000
345.326843 -735.377747 4.290225 1.000000
345.326843 -735.377747 3.372170 1.000000
345.326843 -735.377747 2.457063 1.000000
345.326843 -735.377747 1.542937 1.000000
345.326843 -735.377747 0.627830 1.000000
345.043793 -731.849609 -0.000006 0.239561
344.483521 -724.865601 -0.000014 0.215936
344.171478 -720.975891 -0.000020 0.222183
343.972260 -718.492615 -0.000022 0.220927
343.833801 -716.766602 -0.000025 0.239908
343.731781 -715.494995 -0.000027 0.218078
345.091003 -734.827087 8.854342 1.000000
345.091003 -734.827026 7.910070 1.000000
345.091003 -734.827026 6.979060 1.000000
345.091003 -734.827026 6.059075 1.000000
345.091003 -734.827087 5.147983 1.000000
345.091003 -734.827026 4.243724 1.000000
345.091003 -734.827087 3.344310 1.000000
345.091003 -734.827026 2.447783 1.000000
345.091003 -734.827026 1.552217 1.000000
345.091003 -734.827087 0.655690 1.000000
344.874023 -731.862610 -0.000006 0.232212
344.362518 -724.874878 -0.000015 0.245078
344.077637 -720.983093 -0.000020 0.218222
343.895752 -718.498474 -0.000023 0.205368
343.769348 -716.771545 -0.000025 0.193460
343.676208 -715.499268 -0.000027 0.234965
344.864563 -734.298279 8.718263 1.000000
344.864563 -734.298279 7.792737 1.000000
344.864563 -734.298279 6.880211 1.000000
344.864563 -734.298279 5.978490 1.000000
344.864563 -734.298279 5.085485 1.000000
344.864563 -734.298279 4.199180 1.000000
344.864563 -734.298279 3.317621 1.000000
344.864563 -734.298279 2.438894 1.000000
344.864563 -734.298279 1.561107 1.000000
344.864563 -734.298279 0.682378 1.000000
344.704132 -731.874451 -0.000007 0.232188
344.241425 -724.883301 -0.000015 0.233457
343.983734 -720.989624 -0.000020 0.242361
343.819183 -718.503784 -0.000023 0.251289
343.704834 -716.776062 -0.000026 0.262647
343.620605 -715.503113 -0.000027 0.200916
344.646912 -733.790039 8.587795 1.000000
344.646912 -733.790039 7.680244 1.000000
344.646912 -733.790039 6.785438 1.000000
344.646912 -733.790039 5.901229 1.000000
344.646912 -733.790039 5.025565 1.000000
344.646912 -733.790039 4.156473 1.000000
344.646912 -733.790039 3.292033 1.000000
344.646912 -733.790039 2.430370 1.000000
344.646912 -733.790039 1.569630 1.000000
344.646912 -733.790039 0.707966 1.000000
344.534180 -731.885132 -0.000007 0.234307
344.120300 -724.890930 -0.000015 0.235851
343.889771 -720.995483 -0.000020 0.205404
343.742615 -718.508606 -0.000023 0.251564
343.640320 -716.780090 -0.000026 0.212573
343.564972 -715.506653 -0.000028 0.209414
344.437561 -733.301147 8.462606 1.000000
344.437561 -733.301147 7.572304 1.000000
344.437561 -733.301147 6.694500 1.000000
344.437561 -733.301147 5.827095 1.000000
344.437561 -733.301147 4.968071 1.000000
344.437561 -733.301147 4.115492 1.000000
344.437561 -733.301147 3.267481 1.000000
344.437561 -733.301147 2.422191 1.000000
344.437561 -733.301147 1.577808 1.000000
344.437561 -733.301147 0.732519 1.000000
344.364166 -731.894592 -0.000007 0.250751
343.999115 -724.897705 -0.000015 0.257070
343.795807 -721.000732 -0.000020 0.249901
343.665985 -718.512878 -0.000024 0.236916
343.575775 -716.783691 -0.000026 0.213088
343.509308 -715.509705 -0.000028 0.187967
344.235992 -732.830444 8.342392 1.000000
344.235992 -732.830444 7.468649 1.000000
344.235992 -732.830444 6.607176 1.000000
344.235992 -732.830444 5.755904 1.000000
344.235992 -732.830444 4.912861 1.000000
344.235992 -732.830444 4.076141 1.000000
344.235992 -732.830444 3.243903 1.000000
344.235992 -732.830444 2.414339 1.000000
344.235992 -732.830444 1.585661 1.000000
344.235992 -732.830444 0.756096 1.000000
344.194092 -731.902893 -0.000007 0.229388
343.877869 -724.903564 -0.000015 0.232871
343.701782 -721.005310 -0.000020 0.219287
343.589355 -718.516602 -0.000024 0.223320
343.511200 -716.786865 -0.000026 0.201060
343.453644 -715.512451 -0.000027 0.193580
344.041779 -732.376953 8.226865 1.000000
344.041779 -732.376953 7.369038 1.000000
344.041779 -732.376953 6.523255 1.000000
344.041779 -732.376953 5.687489 1.000000
344.041779 -732.376953 4.859801 1.000000
344.041779 -732.376953 4.038324 1.000000
344.041779 -732.376953 3.221246 1.000000
344.041779 -732.376953 2.406791 1.000000
344.041779 -732.376953 1.593209 1.000000
344.041779 -732.376953 0.778754 1.000000
344.023926 -731.909973 -0.000007 0.235168
343.756622 -724.908630 -0.000015 0.241978
343.607727 -721.009216 -0.000020 0.205632
343.512665 -718.519775 -0.000024 0.216917
343.446625 -716.789551 -0.000026 0.201623
343.397949 -715.514771 -0.000028 0.217253
343.854492 -731.939636 8.115767 1.000000
343.854492 -731.939636 7.273244 1.000000
343.854492 -731.939636 6.442552 1.000000
343.854492 -731.939636 5.621698 1.000000
343.854492 -731.939636 4.808778 1.000000
343.854492 -731.939636 4.001956 1.000000
343.854492 -731.939636 3.199456 1.000000
343.854492 -731.939636 2.399533 1.000000
343.854492 -731.939636 1.600467 1.000000
343.854492 -731.939636 0.800543 1.000000
343.854492 -731.939636 -0.001958 1.000000
343.635315 -724.912842 -0.000016 0.217851
343.513641 -721.012512 -0.000021 0.212047
343.435974 -718.522461 -0.000024 0.209306
343.381989 -716.791748 -0.000026 0.255801
343.342224 -715.516663 -0.000028 0.249099
343.673798 -731.517639 8.008848 1.000000
343.673798 -731.517639 7.181056 1.000000
343.673798 -731.517639 6.364886 1.000000
343.673798 -731.517639 5.558382 1.000000
343.673798 -731.517639 4.759674 1.000000
343.673798 -731.517639 3.966959 1.000000
343.673798 -731.517639 3.178487 1.000000
343.673798 -731.517639 2.392548 1.000000
343.673798 -731.517639 1.607452 1.000000
343.673798 -731.517639 0.821512 1.000000
343.673798 -731.517639 0.033041 1.000000
343.513977 -724.916199 -0.000016 0.228299
343.419556 -721.015137 -0.000021 0.203609
343.359283 -718.524597 -0.000024 0.229927
343.317383 -716.793579 -0.000026 0.189882
343.286499 -715.518250 -0.000028 0.200821
343.499268 -731.110168 7.905888 1.000000
343.499268 -731.110168 7.092278 1.000000
343.499268 -731.110168 6.290096 1.000000
343.499268 -731.110107 5.497410 1.000000
343.499268 -731.110168 4.712387 1.000000
343.499268 -731.110107 3.933254 1.000000
343.499268 -731.110168 3.158294 1.000000
343.499268 -731.110107 2.385822 1.000000
343.499268 -731.110107 1.614178 1.000000
343.499268 -731.110168 0.841706 1.000000
343.499268 -731.110107 0.066745 1.000000
343.392639 -724.918701 -0.000015 0.216475
343.325439 -721.017029 -0.000021 0.252797
343.282562 -718.526184 -0.000024 0.204495
343.252747 -716.794922 -0.000026 0.190169
343.230774 -715.519409 -0.000028 0.222626
343.330627 -730.716370 7.806674 1.000000
343.330627 -730.716309 7.006734 1.000000
343.330627 -730.716370 6.218026 1.000000
343.330627 -730.716370 5.438658 1.000000
343.330627 -730.716370 4.666822 1.000000
343.330627 -730.716370 3.900779 1.000000
343.330627 -730.716370 3.138836 1.000000
343.330627 -730.716309 2.379341 1.000000
343.330627 -730.716309 1.620659 1.000000
343.330627 -730.716370 0.861163 1.000000
343.330627 -730.716370 0.099221 1.000000
343.271271 -724.920410 -0.000016 0.258051
343.231323 -721.018372 -0.000020 0.233948
343.205841 -718.527222 -0.000024 0.214165
343.188110 -716.795776 -0.000026 0.228107
343.175049 -715.520142 -0.000028 0.246382
343.167542 -730.335510 7.711014 1.000000
343.167542 -730.335510 6.924251 1.000000
343.167542 -730.335510 6.148534 1.000000
343.167542 -730.335510 5.382008 1.000000
343.167542 -730.335510 4.622887 1.000000
343.167542 -730.335510 3.869463 1.000000
343.167542 -730.335510 3.120074 1.000000
343.167542 -730.335510 2.373092 1.000000
343.167542 -730.335510 1.626908 1.000000
343.167542 -730.335510 0.879925 1.000000
343.167542 -730.335510 0.130536 1.000000
343.149902 -724.921204 -0.000016 0.234331
343.137207 -721.018982 -0.000021 0.242062
343.129089 -718.527771 -0.000024 0.235779
343.123444 -716.796204 -0.000027 0.260756
343.119293 -715.520508 -0.000029 0.202903
343.009766 -729.967041 7.618721 1.000000
343.009766 -729.967041 6.844673 1.000000
343.009735 -729.967041 6.081494 1.000000
343.009735 -729.967041 5.327354 1.000000
343.009766 -729.967041 4.580501 1.000000
343.009735 -729.967041 3.839253 1.000000
343.009735 -729.967041 3.101974 1.000000
343.009735 -729.967041 2.367062 1.000000
343.009735 -729.967041 1.632938 1.000000
343.009735 -729.967041 0.898026 1.000000
343.009735 -729.967041 0.160746 1.000000
343.028534 -724.921204 -0.000016 0.234594
343.043091 -721.018982 -0.000021 0.219263
343.052368 -718.527710 -0.000025 0.224421
343.058807 -716.796204 -0.000026 0.234845
343.063568 -715.520508 -0.000029 0.196141
342.856964 -729.610291 7.529631 1.000000
342.856964 -729.610291 6.767857 1.000000
342.856964 -729.610291 6.016778 1.000000
342.856964 -729.610291 5.274596 1.000000
342.856964 -729.610291 4.539584 1.000000
342.856964 -729.610291 3.810089 1.000000
342.856964 -729.610291 3.084501 1.000000
342.856964 -729.610291 2.361242 1.000000
342.856964 -729.610291 1.638758 1.000000
342.856964 -729.610291 0.915499 1.000000
342.856964 -729.610291 0.189910 1.000000
342.907166 -724.920288 -0.000016 0.214751
342.948944 -721.018311 -0.000021 0.194825
342.975616 -718.527161 -0.000024 0.226755
342.994171 -716.795776 -0.000027 0.200139
343.007813 -715.520142 -0.000029 0.194238
342.708954 -729.264648 7.443586 1.000000
342.708954 -729.264648 6.693665 1.000000
342.708954 -729.264648 5.954273 1.000000
342.708954 -729.264648 5.223639 1.000000
342.708954 -729.264648 4.500067 1.000000
342.708954 -729.264648 3.781923 1.000000
342.708954 -729.264648 3.067625 1.000000
342.708954 -729.264648 2.355621 1.000000
342.708954 -729.264648 1.644379 1.000000
342.708954 -729.264648 0.932375 1.000000
342.708954 -729.264648 0.218076 1.000000
342.785828 -724.918579 -0.000016 0.254197
342.854828 -721.016968 -0.000021 0.246705
342.898895 -718.526062 -0.000024 0.243402
342.929504 -716.794861 -0.000027 0.198487
342.952087 -715.519348 -0.000028 0.182594
342.565430 -728.929565 7.360431 1.000000
342.565430 -728.929565 6.621966 1.000000
342.565430 -728.929565 5.893869 1.000000
342.565430 -728.929565 5.174397 1.000000
342.565430 -728.929565 4.461877 1.000000
342.565430 -728.929565 3.754703 1.000000
342.565430 -728.929565 3.051316 1.000000
342.565430 -728.929565 2.350188 1.000000
342.565430 -728.929565 1.649811 1.000000
342.565430 -728.929565 0.948684 1.000000
342.565430 -728.929565 0.245297 1.000000
342.664459 -724.916016 -0.000016 0.219802
342.760712 -721.014954 -0.000021 0.210084
342.822174 -718.524475 -0.000024 0.257429
342.864868 -716.793457 -0.000027 0.281281
342.896332 -715.518127 -0.000029 0.214057
342.426270 -728.604492 7.280031 1.000000
342.426270 -728.604553 6.552643 1.000000
342.426270 -728.604492 5.835466 1.000000
342.426270 -728.604492 5.126784 1.000000
342.426270 -728.604553 4.424952 1.000000
342.426270 -728.604553 3.728384 1.000000
342.426270 -728.604553 3.035548 1.000000
342.426270 -728.604492 2.344936 1.000000
342.426270 -728.604492 1.655064 1.000000
342.426270 -728.604553 0.964451 1.000000
342.426270 -728.604553 0.271615 1.000000
342.543152 -724.912598 -0.000016 0.247471
342.666626 -721.012329 -0.000021 0.221154
342.745453 -718.522278 -0.000025 0.259056
342.800262 -716.791626 -0.000027 0.244982
342.840637 -715.516602 -0.000028 0.239680
342.291168 -728.289124 7.202259 1.000000
342.291168 -728.289124 6.485584 1.000000
342.291168 -728.289124 5.778972 1.000000
342.291168 -728.289124 5.080729 1.000000
342.291168 -728.289124 4.389233 1.000000
342.291168 -728.289124 3.702926 1.000000
342.291168 -728.289124 3.020295 1.000000
342.291168 -728.289124 2.339855 1.000000
342.291168 -728.289124 1.660145 1.000000
342.291168 -728.289124 0.979705 1.000000
342.291168 -728.289124 0.297073 1.000000
342.421844 -724.908325 -0.000016 0.210048
342.572571 -721.008972 -0.000021 0.198966
342.668762 -718.519592 -0.000024 0.225714
342.735657 -716.789368 -0.000027 0.199361
342.784912 -715.514587 -0.000029 0.215445
342.160034 -727.982849 7.126992 1.000000
342.160034 -727.982849 6.420687 1.000000
342.160034 -727.982849 5.724298 1.000000
342.160034 -727.982849 5.036157 1.000000
342.160034 -727.982849 4.354666 1.000000
342.160034 -727.982849 3.678288 1.000000
342.160034 -727.982849 3.005533 1.000000
342.160034 -727.982849 2.334938 1.000000
342.160034 -727.982849 1.665061 1.000000
342.160034 -727.982849 0.994466 1.000000
342.160034 -727.982849 0.321711 1.000000
342.300598 -724.903198 -0.000016 0.240865
342.478516 -721.005005 -0.000021 0.225175
342.592102 -718.516357 -0.000024 0.228718
342.671051 -716.786621 -0.000027 0.238926
342.729218 -715.512268 -0.000029 0.259391
342.032593 -727.685242 7.054113 1.000000
342.032593 -727.685242 6.357847 1.000000
342.032593 -727.685242 5.671356 1.000000
342.032593 -727.685242 4.992998 1.000000
342.032593 -727.685242 4.321195 1.000000
342.032593 -727.685242 3.654432 1.000000
342.032593 -727.685242 2.991240 1.000000
342.032593 -727.685242 2.330177 1.000000
342.032593 -727.685242 1.669823 1.000000
342.032593 -727.685242 1.008760 1.000000
342.032593 -727.685242 0.345568 1.000000
342.179352 -724.897278 -0.000017 0.231554
342.384491 -721.000427 -0.000021 0.208396
342.515472 -718.512634 -0.000025 0.209138
342.606476 -716.783508 -0.000027 0.222327
342.673553 -715.509521 -0.000029 0.235085
341.908722 -727.396057 6.983519 1.000000
341.908722 -727.396057 6.296978 1.000000
341.908722 -727.396057 5.620077 1.000000
341.908722 -727.396057 4.951192 1.000000
341.908722 -727.396057 4.288773 1.000000
341.908722 -727.396057 3.631323 1.000000
341.908722 -727.396057 2.977395 1.000000
341.908722 -727.396057 2.325565 1.000000
341.908722 -727.396057 1.674435 1.000000
341.908722 -727.396057 1.022606 1.000000
341.908722 -727.396057 0.368676 1.000000
342.058167 -724.890442 -0.000016 0.230573
342.290527 -720.995117 -0.000021 0.257764
342.438843 -718.508301 -0.000025 0.207511
342.541931 -716.779846 -0.000027 0.243761
342.617889 -715.506409 -0.000028 0.195746
341.788269 -727.114746 6.915103 1.000000
341.788269 -727.114746 6.237988 1.000000
341.788269 -727.114746 5.570379 1.000000
341.788269 -727.114746 4.910677 1.000000
341.788269 -727.114746 4.257351 1.000000
341.788269 -727.114746 3.608928 1.000000
341.788269 -727.114746 2.963976 1.000000
341.788269 -727.114746 2.321096 1.000000
341.788269 -727.114746 1.678904 1.000000
341.788269 -727.114746 1.036024 1.000000
341.788269 -727.114746 0.391072 1.000000
341.937042 -724.882813 -0.000016 0.218832
342.196564 -720.989197 -0.000021 0.246562
342.362274 -718.503479 -0.000024 0.232344
342.477417 -716.775757 -0.000027 0.226743
342.562256 -715.502869 -0.000029 0.200426
341.671082 -726.841064 6.848773 1.000000
341.671082 -726.841064 6.180796 1.000000
341.671082 -726.841064 5.522196 1.000000
341.671082 -726.841064 4.871397 1.000000
341.671082 -726.841064 4.226889 1.000000
341.671082 -726.841064 3.587215 1.000000
341.671082 -726.841064 2.950967 1.000000
341.671082 -726.841064 2.316762 1.000000
341.671082 -726.841064 1.683237 1.000000
341.671082 -726.841064 1.049032 1.000000
341.671082 -726.841064 0.412784 1.000000
341.815979 -724.874329 -0.000017 0.218210
342.102661 -720.982605 -0.000021 0.209019
342.285706 -718.498108 -0.000025 0.262946
342.412933 -716.771240 -0.000027 0.234702
342.506653 -715.499023 -0.000029 0.186184
341.557007 -726.574707 6.784443 1.000000
341.557007 -726.574707 6.125327 1.000000
341.557007 -726.574707 5.475466 1.000000
341.557007 -726.574707 4.833301 1.000000
341.557007 -726.574707 4.197344 1.000000
341.557007 -726.574707 3.566157 1.000000
341.557007 -726.574707 2.938350 1.000000
341.557007 -726.574707 2.312560 1.000000
341.557007 -726.574707 1.687440 1.000000
341.557007 -726.574707 1.061650 1.000000
341.557007 -726.574707 0.433842 1.000000
341.694946 -724.864990 -0.000017 0.238855
342.008820 -720.975403 -0.000021 0.203609
342.209198 -718.492188 -0.000024 0.198511
342.348480 -716.766296 -0.000027 0.270103
342.451080 -715.494690 -0.000029 0.197793
341.445892 -726.315247 6.722022 1.000000
341.445892 -726.315247 6.071506 1.000000
341.445892 -726.315247 5.430123 1.000000
341.445892 -726.315247 4.796336 1.000000
341.445892 -726.315247 4.168675 1.000000
341.445892 -726.315247 3.545724 1.000000
341.445892 -726.315247 2.926108 1.000000
341.445892 -726.315247 2.308482 1.000000
341.445892 -726.315247 1.691518 1.000000
341.445892 -726.315247 1.073892 1.000000
341.445892 -726.315247 0.454275 1.000000
341.574005 -724.854797 -0.000016 0.227593
341.915039 -720.967468 -0.000021 0.201862
342.132721 -718.485779 -0.000024 0.240542
342.284058 -716.760864 -0.000027 0.226420
342.395538 -715.490051 -0.000028 0.204028
341.337646 -726.062500 6.661434 1.000000
341.337646 -726.062500 6.019265 1.000000
341.337646 -726.062500 5.386110 1.000000
341.337646 -726.062500 4.760457 1.000000
341.337646 -726.062500 4.140849 1.000000
341.337646 -726.062500 3.525891 1.000000
341.337646 -726.062500 2.914225 1.000000
341.337646 -726.062500 2.304524 1.000000
341.337646 -726.062500 1.695476 1.000000
341.337646 -726.062500 1.085774 1.000000
341.337646 -726.062500 0.474109 1.000000
341.453156 -724.843750 -0.000016 0.212872
341.821289 -720.958923 -0.000021 0.210898
342.056305 -718.478760 -0.000024 0.187716
342.219666 -716.755005 -0.000027 0.217073
342.340027 -715.484985 -0.000029 0.209318
341.232147 -725.816101 6.602601 1.000000
341.232147 -725.816101 5.968536 1.000000
341.232147 -725.816101 5.343374 1.000000
341.232147 -725.816101 4.725616 1.000000
341.232147 -725.816101 4.113829 1.000000
341.232147 -725.816101 3.506633 1.000000
341.232147 -725.816101 2.902687 1.000000
341.232147 -725.816101 2.300681 1.000000
341.232147 -725.816101 1.699319 1.000000
341.232147 -725.816101 1.097313 1.000000
341.232147 -725.816101 0.493367 1.000000
341.332367 -724.831909 -0.000016 0.230848
341.727600 -720.949707 -0.000021 0.202101
341.979950 -718.471252 -0.000024 0.237885
342.155334 -716.748657 -0.000027 0.207080
342.284546 -715.479492 -0.000028 0.273537
341.129272 -725.575867 6.545455 1.000000
341.129272 -725.575867 5.919263 1.000000
341.129272 -725.575867 5.301862 1.000000
341.129272 -725.575867 4.691774 1.000000
341.129272 -725.575867 4.087584 1.000000
341.129272 -725.575867 3.487926 1.000000
341.129272 -725.575867 2.891479 1.000000
341.129272 -725.575867 2.296947 1.000000
341.129272 -725.575867 1.703053 1.000000
341.129272 -725.575867 1.108521 1.000000
341.129272 -725.575867 0.512074 1.000000
341.211639 -724.819153 -0.000017 0.224768
341.634003 -720.939880 -0.000021 0.242421
341.903625 -718.463257 -0.000024 0.204483
342.091034 -716.741882 -0.000027 0.219646
342.229095 -715.473694 -0.000029 0.197362
341.028900 -725.341553 6.489928 1.000000
341.028900 -725.341553 5.871384 1.000000
341.028900 -725.341553 5.261526 1.000000
341.028900 -725.341553 4.658892 1.000000
341.028900 -725.341553 4.062081 1.000000
341.028900 -725.341553 3.469748 1.000000
341.028900 -725.341553 2.880588 1.000000
341.028900 -725.341553 2.293320 1.000000
341.028900 -725.341553 1.706680 1.000000
341.028900 -725.341553 1.119412 1.000000
341.028900 -725.341553 0.530251 1.000000
341.091034 -724.805603 -0.000016 0.224996
341.540466 -720.929321 -0.000021 0.235707
341.827362 -718.454651 -0.000024 0.214727
342.026794 -716.734680 -0.000026 0.246550
342.173706 -715.467468 -0.000028 0.251241
340.930969 -725.112793 6.435953 1.000000
340.930969 -725.112793 5.824845 1.000000
340.930969 -725.112793 5.222319 1.000000
340.930969 -725.112793 4.626928 1.000000
340.930969 -725.112793 4.037292 1.000000
340.930969 -725.112793 3.452080 1.000000
340.930969 -725.112793 2.870003 1.000000
340.930969 -725.112793 2.289794 1.000000
340.930969 -725.112793 1.710206 1.000000
340.930969 -725.112793 1.129997 1.000000
340.930969 -725.112793 0.547919 1.000000
340.970520 -724.791199 -0.000016 0.209509
341.446991 -720.918152 -0.000021 0.204411
341.751190 -718.445557 -0.000024 0.250787
341.962616 -716.726990 -0.000027 0.208253
342.118378 -715.460815 -0.000029 0.236090
340.835327 -724.889526 6.383471 1.000000
340.835327 -724.889526 5.779594 1.000000
340.835327 -724.889526 5.184195 1.000000
340.835327 -724.889526 4.595849 1.000000
340.835327 -724.889526 4.013189 1.000000
340.835327 -724.889526 3.434902 1.000000
340.835327 -724.889526 2.859710 1.000000
340.835327 -724.889526 2.286365 1.000000
340.835327 -724.889526 1.713635 1.000000
340.835327 -724.889526 1.140290 1.000000
340.835327 -724.889526 0.565099 1.000000
340.835327 -724.889526 -0.013190 1.000000
341.353607 -720.906372 -0.000021 0.251050
341.675049 -718.435913 -0.000024 0.193867
341.898468 -716.718872 -0.000026 0.185921
342.063080 -715.453857 -0.000029 0.177783
340.741943 -724.671448 6.332425 1.000000
340.741943 -724.671448 5.735580 1.000000
340.741943 -724.671448 5.147116 1.000000
340.741943 -724.671448 4.565621 1.000000
340.741943 -724.671448 3.989746 1.000000
340.741943 -724.671448 3.418192 1.000000
340.741943 -724.671448 2.849699 1.000000
340.741943 -724.671448 2.283031 1.000000
340.741943 -724.671448 1.716969 1.000000
340.741943 -724.671448 1.150301 1.000000
340.741943 -724.671448 0.581808 1.000000
340.741943 -724.671448 0.010254 1.000000
341.260315 -720.893860 -0.000021 0.237718
341.598999 -718.425781 -0.000024 0.234379
341.834381 -716.710327 -0.000026 0.238400
342.007813 -715.446472 -0.000028 0.215122
340.650696 -724.458374 6.282762 1.000000
340.650696 -724.458374 5.692760 1.000000
340.650696 -724.458374 5.111040 1.000000
340.650696 -724.458374 4.536210 1.000000
340.650696 -724.458374 3.966937 1.000000
340.650696 -724.458374 3.401935 1.000000
340.650696 -724.458374 2.839958 1.000000
340.650696 -724.458374 2.279786 1.000000
340.650696 -724.458374 1.720214 1.000000
340.650696 -724.458374 1.160041 1.000000
340.650696 -724.458374 0.598065 1.000000
340.650696 -724.458374 0.033063 1.000000
341.167114 -720.880737 -0.000021 0.255681
341.523010 -718.415039 -0.000024 0.238208
341.770355 -716.701294 -0.000026 0.231351
341.952606 -715.438660 -0.000029 0.242170
345.088715 -694.362610 5.337404 0.400031
345.089813 -694.355347 4.879220 0.396384
345.370148 -692.504883 4.766209 0.387732
345.371704 -692.494446 4.256661 0.352972
345.369019 -692.512146 3.748073 0.382605
345.361176 -692.563904 3.241648 0.358312
345.358765 -692.580017 2.743122 0.395682
345.358307 -692.583008 2.247481 0.365240
345.364166 -692.544128 1.751876 0.343542
345.355988 -692.598267 1.257784 0.379812
345.345062 -692.670471 0.767189 0.379660
345.340057 -692.703369 0.274179 0.412131
345.112579 -694.205200 0.000003 0.213902
344.739471 -696.668335 0.000000 0.204112
344.480164 -698.380310 -0.000000 0.260157
344.289093 -699.641602 -0.000002 0.252558
345.175812 -694.407288 5.329689 0.394034
345.215118 -694.159485 4.925179 0.376257
345.488617 -692.435303 4.782024 0.386191
345.434570 -692.776123 4.216795 0.397543
345.475525 -692.517944 3.749293 0.382910
345.465454 -692.581360 3.241543 0.360983
345.466492 -692.574829 2.744185 0.329854
345.465790 -692.579163 2.247812 0.380514
345.471802 -692.541443 1.751562 0.375204
345.463196 -692.595642 1.256850 0.386877
345.451843 -692.667114 0.765575 0.351049
345.446320 -692.702026 0.272149 0.339162
345.205597 -694.219604 0.000003 0.187812
344.815308 -696.680054 0.000000 0.277618
344.544037 -698.390198 -0.000001 0.229137
344.344177 -699.650146 -0.000002 0.254114
345.262451 -694.452209 5.322061 0.396384
345.267975 -694.418884 4.871693 0.395132
345.326599 -694.065247 4.484544 0.398627
345.867126 -690.804932 4.515697 0.399756
345.845093 -690.937805 3.935536 0.395972
345.588684 -692.484375 3.251012 0.372473
348.305084 -676.099792 3.565444 0.527413
348.308777 -676.077454 2.521811 0.640787
348.312469 -676.055115 1.477817 0.610315
345.602356 -692.401978 1.246363 0.407660
345.567657 -692.611206 0.759533 0.371557
345.567902 -692.609680 0.259423 0.388754
345.298492 -694.234680 0.000003 0.231363
344.891052 -696.692383 0.000001 0.208971
344.607849 -698.400574 -0.000001 0.265495
344.399200 -699.659058 -0.000002 0.200821
nan nan nan 0.000000
345.985504 -690.815247 5.664968 0.405219
345.522583 -693.491516 4.593432 0.391165
348.457794 -676.522095 6.668795 0.486381
348.461609 -676.500000 5.623426 0.566781
348.465424 -676.477966 4.584427 0.678843
348.469208 -676.456055 3.549531 0.566354
348.472992 -676.434204 2.516505 0.584314
348.476776 -676.412354 1.483133 0.486763
348.480530 -676.390564 0.447202 0.494316
347.250580 -683.501404 0.000013 0.232667
346.056396 -690.405273 0.000006 0.243271
345.391296 -694.250427 0.000003 0.207415
344.966705 -696.705200 0.000000 0.222806
344.671600 -698.411377 -0.000001 0.212992
344.454163 -699.668396 -0.000002 0.269432
nan nan nan 0.000000
345.733856 -692.880005 5.216364 0.402838
345.587952 -693.689758 4.559971 0.408576
348.618408 -676.869812 6.622141 0.481361
346.071259 -691.007385 3.932078 0.396902
346.083801 -690.937622 3.382903 0.403021
348.630066 -676.805176 3.534016 0.491905
348.633911 -676.783813 2.511329 0.616175
348.637756 -676.762451 1.488316 0.494118
348.641602 -676.741089 0.462784 0.549432
347.418274 -683.531006 0.000012 0.213866
346.175934 -690.426392 0.000006 0.226492
345.484009 -694.266785 0.000003 0.244108
345.042267 -696.718506 0.000001 0.245892
344.735260 -698.422607 -0.000001 0.213878
344.509064 -699.678101 -0.000002 0.225355
nan nan nan 0.000000
345.832245 -692.919373 5.211842 0.396612
346.174011 -691.095581 5.043504 0.399222
346.187469 -691.023743 4.491997 0.402335
346.333832 -690.242615 4.024071 0.405753
348.783783 -677.168457 4.533338 0.450980
348.787720 -677.147461 3.518878 0.634287
348.791626 -677.126526 2.506279 0.618204
348.795563 -677.105591 1.493372 0.474845
348.799469 -677.084656 0.477983 0.490684
347.585754 -683.561829 0.000012 0.223859
346.295288 -690.448303 0.000006 0.251552
345.576569 -694.283813 0.000003 0.240614
345.117737 -696.732422 0.000000 0.239249
344.798828 -698.434265 -0.000001 0.292447
344.563873 -699.688171 -0.000002 0.219191
348.888580 -677.759033 9.598692 1.000000
345.927032 -692.975769 5.203712 0.396399
346.415588 -690.465637 5.164343 0.394598
348.930237 -677.544983 6.532224 0.643961
346.445831 -690.310242 4.018847 0.354177
346.367767 -690.711243 3.405435 0.397971
348.942291 -677.483032 3.504109 0.612558
348.946259 -677.462524 2.501353 0.615976
348.950256 -677.442017 1.498305 0.271870
348.954254 -677.421509 0.492812 0.645075
347.752991 -683.593750 0.000013 0.231494
346.414520 -690.471130 0.000006 0.216726
345.669037 -694.301453 0.000003 0.236557
345.193115 -696.746765 0.000000 0.254520
344.862335 -698.446411 -0.000001 0.264645
344.618622 -699.698608 -0.000002 0.261378
349.049042 -678.034302 9.538868 0.605035
346.104614 -692.619507 5.286646 0.406653
346.452850 -690.894531 5.089108 0.398428
349.081665 -677.872803 6.488887 0.579187
346.661011 -689.863464 4.074078 0.394644
349.089813 -677.832336 4.484698 0.240131
349.093903 -677.812195 3.489697 0.516869
349.097931 -677.792114 2.496546 0.546868
349.101990 -677.772034 1.503119 0.201862
349.106049 -677.751892 0.507283 0.633188
347.920044 -683.626892 0.000013 0.222506
346.533569 -690.494690 0.000006 0.236700
345.761383 -694.319763 0.000002 0.244599
345.268402 -696.761719 0.000000 0.206039
344.925751 -698.458984 -0.000001 0.197326
344.673309 -699.709473 -0.000002 0.306246
349.207214 -678.304504 9.480557 0.609735
346.096893 -693.175293 5.168734 0.389303
346.544464 -691.035461 5.067343 0.395041
349.230225 -678.194458 6.446587 0.518669
349.234375 -678.174561 5.450853 0.645380
349.238495 -678.154785 4.461250 0.331609
349.242645 -678.135071 3.475629 0.548074
349.246735 -678.115417 2.491854 0.642939
349.250854 -678.095703 1.507817 0.291249
349.254974 -678.076050 0.521407 0.631083
348.086823 -683.661133 0.000013 0.227772
346.652466 -690.519165 0.000006 0.216259
345.853577 -694.338684 0.000002 0.255550
345.343567 -696.777161 0.000000 0.252977
344.989075 -698.471985 -0.000001 0.256208
344.727905 -699.720642 -0.000002 0.180128
346.567291 -691.486267 6.113351 0.397299
346.293457 -692.751404 5.267115 0.399512
346.710083 -690.826660 5.110776 0.403677
349.376007 -678.510132 6.405289 0.659449
346.894348 -689.975342 4.066973 0.396384
346.619446 -691.245300 3.366697 0.396475
349.388611 -678.451965 3.461894 0.652689
349.392761 -678.432739 2.487272 0.546715
349.396942 -678.413391 1.512404 0.650675
349.401123 -678.394104 0.535195 0.595880
348.253387 -683.696594 0.000013 0.221597
346.771179 -690.544373 0.000005 0.227641
345.945648 -694.358276 0.000002 0.208181
345.418610 -696.793152 0.000000 0.210586
345.052307 -698.485474 -0.000001 0.220257
344.782440 -699.732300 -0.000003 0.227282
349.506012 -678.878662 9.355825 0.616815
346.434235 -692.605835 5.304350 0.403021
346.868591 -690.664734 5.145749 0.396078
349.519135 -678.820007 6.364960 0.554879
346.400146 -692.758301 3.742085 0.397665
349.527649 -678.781921 4.416008 0.558145
349.531860 -678.763000 3.448484 0.693172
349.536102 -678.744141 2.482800 0.678386
349.540344 -678.725220 1.516883 0.697078
349.544586 -678.706238 0.548658 0.620356
348.419678 -683.733215 0.000012 0.226276
346.889709 -690.570496 0.000006 0.226947
346.037567 -694.378540 0.000003 0.239836
345.493561 -696.809631 0.000000 0.212968
345.115448 -698.499329 -0.000001 0.191079
344.836853 -699.744263 -0.000002 0.201275
346.862244 -691.228333 6.192536 0.389166
346.411591 -693.178223 5.182733 0.399878
346.232178 -693.954529 4.536380 0.398108
349.659637 -679.124329 6.325563 0.528634
346.538605 -692.628601 3.760163 0.414847
346.452911 -692.999451 3.223348 0.401343
349.672577 -679.068420 3.435388 0.661921
349.676849 -679.049866 2.478431 0.531762
349.681122 -679.031372 1.521257 0.648112
349.685425 -679.012817 0.561808 0.538094
348.585724 -683.770996 0.000013 0.226276
347.008057 -690.597412 0.000006 0.226552
346.129364 -694.399414 0.000003 0.211735
345.568390 -696.826660 0.000000 0.259727
345.178467 -698.513672 -0.000001 0.246334
344.891235 -699.756592 -0.000003 0.177400
346.824768 -691.889221 6.029234 0.397070
346.390137 -693.711670 5.069500 0.403265
346.298859 -694.094360 4.514382 0.389197
349.797638 -679.423218 6.287078 0.516579
346.852783 -691.771667 3.864401 0.403983
346.536560 -693.097595 3.217082 0.396689
349.810730 -679.368286 3.422596 0.584848
349.815063 -679.350159 2.474165 0.574487
349.819397 -679.332031 1.525529 0.568170
349.823730 -679.313782 0.574651 0.561090
348.751495 -683.809875 0.000013 0.227353
347.126190 -690.625122 0.000006 0.246646
346.220978 -694.420898 0.000002 0.229005
345.643097 -696.844177 -0.000000 0.193401
345.241425 -698.528442 -0.000002 0.255322
344.945496 -699.769348 -0.000003 0.228347
346.824036 -692.362427 5.913987 0.388235
346.638519 -693.116943 5.206966 0.400580
347.227325 -690.722168 5.150502 0.398932
346.786652 -692.514526 4.294590 0.395666
346.816254 -692.394104 3.793817 0.398459
346.991943 -691.679565 3.338879 0.403372
349.946472 -679.662964 3.410097 0.547173
349.950836 -679.645142 2.469997 0.559167
349.955231 -679.627319 1.529703 0.531777
349.959625 -679.609497 0.587198 0.544610
348.917023 -683.849976 0.000013 0.225032
347.244171 -690.653748 0.000006 0.222231
346.312469 -694.443054 0.000002 0.255669
345.717651 -696.862244 0.000000 0.231877
345.304260 -698.543701 -0.000002 0.238376
344.999664 -699.782471 -0.000002 0.206685
346.943451 -692.335266 5.927818 0.397299
346.911285 -692.462280 5.358422 0.393439
347.346924 -690.742310 5.152211 0.406332
346.878632 -692.591187 4.286860 0.413916
347.039978 -691.954163 3.849154 0.399496
346.715332 -693.235901 3.209567 0.400076
350.079834 -679.952515 3.397882 0.616434
350.084290 -679.934998 2.465923 0.642512
350.088715 -679.917542 1.533782 0.694789
350.093140 -679.900085 0.599460 0.703288
349.082214 -683.891235 0.000013 0.224278
347.361908 -690.683105 0.000006 0.211245
346.403809 -694.465881 0.000003 0.208229
345.792114 -696.880859 0.000000 0.223476
345.366974 -698.559326 -0.000001 0.214165
345.053741 -699.795959 -0.000002 0.194526
346.743225 -693.537109 5.623766 0.402609
346.808563 -693.286499 5.180482 0.406470
346.976135 -692.643738 4.800327 0.383749
350.197418 -680.289001 6.176833 0.564965
346.625397 -693.989075 3.610553 0.399664
346.806641 -693.293884 3.206828 0.399161
350.210938 -680.237122 3.385943 0.530144
350.215393 -680.219971 2.461941 0.551202
350.219879 -680.202759 1.537768 0.561090
350.224365 -680.185669 0.611444 0.573449
349.247162 -683.933594 0.000013 0.228885
347.479462 -690.713318 0.000006 0.236964
346.494965 -694.489319 0.000003 0.249207
345.866425 -696.899902 0.000000 0.228371
345.429596 -698.575439 -0.000001 0.219167
345.107727 -699.809875 -0.000002 0.256555
346.819153 -693.643860 5.602777 0.396719
346.662109 -694.229492 4.975505 0.395987
346.759369 -693.866760 4.575102 0.395956
350.326141 -680.567810 6.141731 0.611597
346.989655 -693.008118 3.730364 0.396078
346.961884 -693.111755 3.224522 0.401205
350.339813 -680.516907 3.374274 0.627054
350.344330 -680.500061 2.458050 0.614008
350.348846 -680.483215 1.541665 0.560021
350.353363 -680.466370 0.623157 0.558587
349.411774 -683.977112 0.000013 0.217731
347.596802 -690.744324 0.000006 0.220173
346.585968 -694.513367 0.000002 0.207391
345.940613 -696.919556 0.000000 0.201587
345.492096 -698.591919 -0.000001 0.203753
345.161621 -699.824097 -0.000003 0.205668
347.294373 -692.297974 5.959335 0.401801
347.503876 -691.538086 5.584133 0.399390
347.191650 -692.670593 4.805764 0.402335
350.452759 -680.841980 6.107411 0.520241
346.838654 -693.950989 3.621135 0.397482
347.035278 -693.237732 3.216131 0.402380
350.466553 -680.791992 3.362869 0.570214
350.471100 -680.775452 2.454245 0.632502
350.475647 -680.758911 1.545474 0.731594
350.480194 -680.742432 0.634607 0.652750
349.576080 -684.021790 0.000013 0.228179
347.713928 -690.776184 0.000006 0.214859
346.676788 -694.538086 0.000003 0.231782
346.014679 -696.939697 -0.000000 0.209880
345.554474 -698.608887 -0.000002 0.258231
345.215424 -699.838745 -0.000003 0.202329
347.164429 -693.161682 5.742205 0.396704
347.351807 -692.500122 5.375183 0.394751
350.572571 -681.128296 6.994050 0.574716
350.577271 -681.111694 6.073852 0.556085
347.413269 -692.283081 3.823728 0.400519
347.443756 -692.175476 3.309031 0.402045
350.591187 -681.062561 3.351712 0.575814
350.595795 -681.046387 2.450525 0.621775
350.600372 -681.030151 1.549200 0.544610
350.604980 -681.013916 0.645804 0.652842
349.740082 -684.067627 0.000013 0.221968
347.830811 -690.808899 0.000006 0.228825
346.767456 -694.563416 0.000003 0.202269
346.088562 -696.960327 0.000000 0.214368
345.616730 -698.626343 -0.000001 0.294685
345.269104 -699.853760 -0.000003 0.231399
347.119995 -693.688110 5.612396 0.400534
347.102264 -693.749023 5.101030 0.366018
347.151978 -693.578064 4.644928 0.396490
350.699799 -681.377075 6.041033 0.565118
346.980957 -694.166260 3.601770 0.395636
350.709167 -681.344788 4.236505 0.436332
350.713837 -681.328796 3.340803 0.653468
350.718445 -681.312927 2.446887 0.657710
350.723083 -681.296997 1.552843 0.443824
350.727722 -681.281067 0.656753 0.622583
349.903778 -684.114624 0.000013 0.215816
347.947479 -690.842346 0.000007 0.214057
346.857910 -694.589355 0.000003 0.225977
346.162323 -696.981506 0.000000 0.219706
345.678864 -698.644165 -0.000001 0.272436
345.322662 -699.869080 -0.000003 0.191043
347.751282 -691.924438 6.080853 0.392767
347.261292 -693.566711 5.148517 0.398581
347.287323 -693.479431 4.669105 0.402686
350.820374 -681.638184 6.008933 0.549996
347.060608 -694.239197 3.596310 0.404257
350.829803 -681.606506 4.218716 0.311345
350.834503 -681.590820 3.330132 0.582803
350.839172 -681.575195 2.443327 0.583734
350.843811 -681.559509 1.556405 0.294408
350.848480 -681.543884 0.667463 0.572015
350.067108 -684.162720 0.000013 0.221968
348.063904 -690.876648 0.000006 0.241942
346.948212 -694.615967 0.000003 0.237191
346.235931 -697.003174 -0.000000 0.237478
345.740875 -698.662415 -0.000001 0.225546
345.376160 -699.884827 -0.000003 0.213399
350.924469 -681.942810 8.704157 0.710063
347.360565 -693.590027 5.149893 0.412039
347.351746 -693.618896 4.648195 0.396078
347.417328 -693.404541 4.192145 0.402808
347.251953 -693.945068 3.635071 0.400854
347.635406 -692.691833 3.272855 0.402655
350.953278 -681.848633 3.319693 0.533852
350.957977 -681.833313 2.439847 0.522469
350.962677 -681.817932 1.559891 0.250904
350.967377 -681.802551 0.677940 0.562539
350.230133 -684.211975 0.000013 0.220532
348.180084 -690.911743 0.000006 0.231363
347.038330 -694.643188 0.000003 0.248860
346.309387 -697.025391 0.000000 0.243151
345.802765 -698.681091 -0.000001 0.257800
345.429504 -699.901001 -0.000003 0.249255
351.041168 -682.195007 8.652466 0.345754
347.713715 -692.804321 5.334564 0.406332
351.051025 -682.163635 6.838397 0.505913
351.055847 -682.148193 5.946804 0.601724
351.060669 -682.132935 5.062755 0.206775
351.065430 -682.117676 4.184287 0.509941
351.070190 -682.102539 3.309479 0.452110
351.074921 -682.087402 2.436440 0.484810
351.079651 -682.072327 1.563301 0.202716
351.084381 -682.057251 0.688189 0.587915
350.392761 -684.262390 0.000013 0.223751
348.296021 -690.947693 0.000007 0.243953
347.128235 -694.671021 0.000002 0.243714
346.382690 -697.048096 -0.000000 0.220711
345.864532 -698.700256 -0.000001 0.242421
345.482758 -699.917480 -0.000003 0.221370
347.766754 -692.991577 5.826646 0.405539
347.810242 -692.856262 5.330177 0.407568
351.166016 -682.412537 6.801563 0.584772
347.414215 -694.088684 4.095165 0.404517
351.175720 -682.382385 5.039409 0.583749
351.180542 -682.367432 4.167626 0.637949
351.185303 -682.352539 3.299486 0.543191
351.190094 -682.337646 2.433108 0.556573
351.194855 -682.322815 1.566638 0.514992
351.199615 -682.307983 0.698217 0.513054
350.555084 -684.313904 0.000013 0.237466
348.411713 -690.984375 0.000007 0.207235
347.217957 -694.699524 0.000002 0.215266
346.455841 -697.071289 0.000000 0.242146
345.926147 -698.719788 -0.000002 0.267924
345.535889 -699.934326 -0.000003 0.257883
351.269318 -682.687988 8.552378 0.787015
351.274353 -682.672791 7.653174 0.532830
351.279297 -682.657715 6.765516 0.537102
347.705505 -693.518921 4.188909 0.388815
351.289063 -682.628052 5.016563 0.721782
351.293884 -682.613403 4.151322 0.656535
351.298706 -682.598755 3.289705 0.615595
351.303528 -682.584106 2.429846 0.486992
351.308319 -682.569519 1.569903 0.665599
351.313110 -682.554932 0.708030 0.536309
350.717010 -684.366577 0.000013 0.226647
348.527130 -691.021912 0.000006 0.241212
347.307465 -694.728638 0.000003 0.228359
346.528809 -697.095032 0.000000 0.223727
345.987610 -698.739807 -0.000002 0.246813
345.588898 -699.951599 -0.000003 0.204100
347.966614 -693.066406 5.824484 0.396078
351.385895 -682.914063 7.611343 0.652445
351.390900 -682.899231 6.730233 0.496498
347.612823 -694.116882 4.100408 0.398886
351.400726 -682.870056 4.994204 0.601663
351.405579 -682.855652 4.135365 0.564706
351.410431 -682.841248 3.280134 0.430274
351.415253 -682.826904 2.426654 0.530129
351.420074 -682.812561 1.573098 0.598520
351.424927 -682.798218 0.717635 0.590921
350.878571 -684.420349 0.000014 0.224685
348.642273 -691.060242 0.000006 0.249075
347.396759 -694.758362 0.000002 0.205871
346.601624 -697.119263 0.000000 0.226683
346.048950 -698.760193 -0.000002 0.252055
345.641785 -699.969177 -0.000002 0.214153
348.010132 -693.267273 5.780383 0.438148
351.495819 -683.151794 7.570398 0.542275
351.500854 -683.137207 6.695693 0.566888
351.505798 -683.122803 5.830326 0.532250
351.510742 -683.108521 4.972316 0.502113
351.515625 -683.094360 4.119747 0.593378
351.520477 -683.080261 3.270764 0.650858
351.525360 -683.066101 2.423530 0.518395
351.530212 -683.052002 1.576226 0.567926
351.535065 -683.037903 0.727035 0.664225
351.039764 -684.475281 0.000014 0.226240
348.757172 -691.099426 0.000007 0.222327
347.485870 -694.788696 0.000003 0.215050
346.674255 -697.144043 0.000000 0.281376
346.110138 -698.781067 -0.000002 0.194729
345.694550 -699.987183 -0.000003 0.259703
351.599060 -683.400574 8.410055 0.578302
351.604156 -683.386047 7.530312 0.618158
351.609222 -683.371765 6.661882 0.556374
351.614197 -683.357605 5.802728 0.616754
351.619141 -683.343567 4.950886 0.500038
351.624054 -683.329651 4.104457 0.497566
351.628937 -683.315796 3.261591 0.541176
351.633850 -683.301880 2.420471 0.577035
351.638733 -683.288025 1.579288 0.566155
351.643616 -683.274109 0.736239 0.594247
351.200562 -684.531311 0.000014 0.228311
348.871765 -691.139343 0.000007 0.211161
347.574768 -694.819702 0.000003 0.236664
346.746704 -697.169312 -0.000000 0.203741
346.171204 -698.802368 -0.000002 0.227353
345.747192 -700.005493 -0.000003 0.193628
351.705811 -683.631348 8.364587 0.603571
351.710968 -683.617065 7.491060 0.605478
351.716034 -683.602966 6.628782 0.625147
351.721039 -683.589050 5.775709 0.629801
351.726013 -683.575256 4.929906 0.584726
351.730957 -683.561584 4.089487 0.605951
351.735870 -683.547913 3.252612 0.597848
351.740784 -683.534241 2.417476 0.606592
351.745697 -683.520630 1.582286 0.586892
351.750610 -683.506958 0.745250 0.534310
351.360962 -684.588501 0.000014 0.232930
348.986115 -691.180115 0.000007 0.244743
347.663422 -694.851318 0.000003 0.248800
346.819000 -697.195068 0.000000 0.287863
346.232086 -698.824036 -0.000001 0.196967
345.799683 -700.024231 -0.000003 0.243283
351.811096 -683.858826 8.320066 0.527733
351.816254 -683.844788 7.452624 0.481178
351.821350 -683.830933 6.596362 0.582788
351.826385 -683.817261 5.749254 0.663172
351.831390 -683.803711 4.909363 0.521706
351.836334 -683.790222 4.074828 0.617456
351.841278 -683.776794 3.243820 0.567483
351.846222 -683.763367 2.414544 0.656092
351.851166 -683.749939 1.585222 0.682017
351.856110 -683.736511 0.754073 0.525612
351.520966 -684.646790 0.000014 0.233577
349.100159 -691.221619 0.000007 0.218677
347.751862 -694.883484 0.000003 0.227820
346.891113 -697.221313 0.000000 0.197182
346.292847 -698.846191 -0.000002 0.176382
345.852051 -700.043274 -0.000003 0.222375
351.914886 -684.083191 8.276466 0.548547
351.920074 -684.069397 7.414985 0.619623
351.925201 -684.055786 6.564612 0.634318
351.930267 -684.042297 5.723343 0.581628
351.935303 -684.028931 4.889249 0.533364
351.940277 -684.015686 4.060472 0.627832
351.945251 -684.002502 3.235210 0.566262
351.950195 -683.989319 2.411673 0.668833
351.955170 -683.976074 1.588096 0.663447
351.960144 -683.962891 0.762712 0.597940
351.680542 -684.706177 0.000014 0.230441
349.213898 -691.263977 0.000007 0.211412
347.840088 -694.916321 0.000003 0.248704
346.963013 -697.248047 0.000000 0.209916
346.353424 -698.868713 -0.000001 0.237095
345.904297 -700.062744 -0.000003 0.233672
352.017273 -684.304504 8.233762 0.634943
352.022491 -684.290894 7.378121 0.597894
352.027618 -684.277527 6.533520 0.631113
352.032715 -684.264282 5.697966 0.587320
352.037781 -684.251099 4.869548 0.636423
352.042786 -684.238037 4.046415 0.553353
352.047760 -684.225098 3.226776 0.547250
352.052734 -684.212097 2.408861 0.592065
352.057739 -684.199158 1.590911 0.653300
352.062714 -684.186157 0.771174 0.546777
351.839722 -684.766663 0.000014 0.223201
349.327332 -691.307068 0.000007 0.220149
347.928070 -694.949768 0.000003 0.195974
347.034760 -697.275330 0.000000 0.227330
346.413849 -698.891663 -0.000002 0.217444
345.956421 -700.082520 -0.000003 0.217001
352.118286 -684.522827 8.191935 0.627573
352.123505 -684.509460 7.342016 0.539773
352.128662 -684.496277 6.503064 0.581491
352.133789 -684.483215 5.673109 0.639948
352.138855 -684.470276 4.850249 0.571481
352.143921 -684.457397 4.032648 0.525246
352.148926 -684.444702 3.218518 0.601984
352.153900 -684.431946 2.406107 0.603754
352.158905 -684.419189 1.593669 0.663676
352.163940 -684.406372 0.779460 0.655558
351.998474 -684.828308 0.000014 0.223129
349.440491 -691.351013 0.000007 0.231363
348.015808 -694.983826 0.000003 0.200845
347.106293 -697.303101 0.000000 0.220065
346.474121 -698.915100 -0.000001 0.222028
346.008362 -700.102722 -0.000003 0.211352
352.217926 -684.738220 8.150961 0.675029
352.223175 -684.725098 7.306646 0.593744
352.228363 -684.712158 6.473232 0.551644
352.233521 -684.699280 5.648761 0.456382
352.238617 -684.686584 4.831345 0.521431
352.243683 -684.673889 4.019160 0.530617
352.248718 -684.661316 3.210430 0.633631
352.253723 -684.648804 2.403409 0.584207
352.258759 -684.636230 1.596370 0.662806
352.263794 -684.623657 0.787578 0.568948
352.156769 -684.890991 0.000015 0.230369
349.553314 -691.395691 0.000007 0.237658
348.103333 -695.018494 0.000003 0.223799
347.177612 -697.331360 0.000000 0.257955
346.534210 -698.938904 -0.000001 0.215924
346.060181 -700.123230 -0.000002 0.212585
352.316284 -684.950867 8.110822 0.557321
352.321564 -684.937927 7.271996 0.550698
352.326782 -684.925171 6.444008 0.659556
352.331940 -684.912537 5.624908 0.550637
352.337036 -684.900024 4.812825 0.665843
352.342133 -684.887512 4.005945 0.605951
352.347198 -684.875122 3.202504 0.637415
352.352234 -684.862793 2.400767 0.572152
352.357269 -684.850464 1.599015 0.587472
352.362335 -684.838074 0.795529 0.602243
352.314667 -684.954834 0.000015 0.228837
349.665833 -691.441223 0.000007 0.233122
348.190582 -695.053772 0.000003 0.245030
347.248779 -697.360107 0.000001 0.229292
346.594147 -698.963135 -0.000001 0.267554
346.111877 -700.144165 -0.000002 0.287396
352.413361 -685.160706 8.071495 0.674800
352.418671 -685.147949 7.238052 0.572564
352.423889 -685.135437 6.415377 0.633371
352.429077 -685.122986 5.601541 0.668788
352.434204 -685.110657 4.794684 0.712428
352.439331 -685.098389 3.993003 0.615045
352.444397 -685.086182 3.194740 0.541726
352.449463 -685.074036 2.398178 0.566384
352.454529 -685.061890 1.601607 0.720073
