# This PCD file was generated using the MATLAB® pcwrite function
# from Computer Vision Toolbox®.
# .PCD v.7 - Point Cloud Data file format
VERSION .7
FIELDS x y z intensity
SIZE 4 4 4 4
TYPE F F F F
COUNT 1 1 1 1
WIDTH 1243
HEIGHT 1
VIEWPOINT 0 0 0 1 0 0 0
POINTS 1243
DATA ascii
345.098785 -526.408325 10.651853 0.591592
345.097229 -526.399719 8.710881 0.593957
345.095673 -526.391174 6.783891 0.595300
345.094147 -526.382690 4.866654 0.594827
345.092621 -526.374207 2.955009 0.594980
345.091095 -526.365784 1.044849 0.590890
348.226501 -543.743713 0.000009 0.229915
351.124054 -559.803528 -0.000002 0.337697
352.368103 -566.698669 -0.000002 0.337316
353.060974 -570.538879 -0.000006 0.335271
353.503326 -572.990601 -0.000001 0.341955
353.810760 -574.694580 -0.000003 0.340368
354.037262 -575.950012 -0.000008 0.333349
nan nan nan 0.000000
nan nan nan 0.000000
nan nan nan 0.000000
345.500549 -526.342102 10.651152 0.600458
345.499054 -526.333435 8.710337 0.299794
345.497589 -526.324951 6.783504 0.569360
345.496124 -526.316406 4.866424 0.341512
345.494659 -526.307922 2.954933 0.573632
345.493164 -526.299500 1.044927 0.570352
348.506378 -543.694275 0.000009 0.226396
351.291748 -559.773865 -0.000002 0.337667
352.487610 -566.677551 -0.000002 0.335958
353.153656 -570.522522 -0.000007 0.337591
353.578888 -572.977234 -0.000001 0.336645
353.874420 -574.683350 -0.000002 0.336324
354.092163 -575.940308 -0.000009 0.332723
nan nan nan 0.000000
nan nan nan 0.000000
nan nan nan 0.000000
345.902283 -526.275818 10.650873 0.614984
345.900848 -526.267212 8.710117 0.572717
345.899445 -526.258667 6.783348 0.573754
345.898041 -526.250122 4.866330 0.604883
345.896606 -526.241699 2.954902 0.568139
345.895203 -526.233215 1.044958 0.568185
348.786591 -543.646729 0.000009 0.231997
351.459625 -559.745422 -0.000002 0.336629
352.607300 -566.657288 -0.000002 0.334386
353.246460 -570.506775 -0.000006 0.332128
353.654541 -572.964417 -0.000001 0.341024
353.938141 -574.672546 -0.000002 0.344320
354.147095 -575.930969 -0.000008 0.342275
nan nan nan 0.000000
nan nan nan 0.000000
nan nan nan 0.000000
346.304016 -526.209595 10.651021 0.559838
346.302643 -526.200989 8.710228 0.546029
346.301300 -526.192383 6.783429 0.558328
346.299927 -526.183899 4.866377 0.563989
346.298584 -526.175415 2.954917 0.546120
346.297241 -526.166931 1.044943 0.555230
349.067108 -543.601135 0.000009 0.230824
351.627716 -559.718079 -0.000002 0.337728
352.727081 -566.637817 -0.000002 0.339590
353.339386 -570.491699 -0.000006 0.336049
353.730286 -572.952087 -0.000000 0.340063
354.001953 -574.662170 -0.000002 0.340093
354.202118 -575.922058 -0.000008 0.343999
nan nan nan 0.000000
nan nan nan 0.000000
nan nan nan 0.000000
346.705780 -526.143311 10.651585 0.597925
346.704468 -526.134705 8.710665 0.553887
346.703156 -526.126160 6.783740 0.536767
346.701874 -526.117615 4.866562 0.593408
346.700592 -526.109131 2.954979 0.561486
346.699280 -526.100647 1.044881 0.538582
349.347961 -543.557556 0.000010 0.225068
351.795990 -559.691956 -0.000002 0.337285
352.847015 -566.619202 -0.000002 0.337774
353.432373 -570.477234 -0.000006 0.337575
353.806091 -572.940308 -0.000000 0.334310
354.065857 -574.652222 -0.000002 0.341955
354.257202 -575.913513 -0.000007 0.330159
nan nan nan 0.000000
nan nan nan 0.000000
nan nan nan 0.000000
347.107605 -526.077087 10.652568 0.565255
347.106354 -526.068481 8.711428 0.545663
347.105133 -526.059875 6.784284 0.553582
347.103882 -526.051392 4.866888 0.571481
347.102661 -526.042847 2.955087 0.571542
347.101440 -526.034363 1.044771 0.562448
349.629120 -543.515869 0.000010 0.231399
351.964417 -559.666992 -0.000002 0.337575
352.967072 -566.601379 -0.000003 0.337682
353.525513 -570.463440 -0.000006 0.336019
353.882019 -572.929077 -0.000000 0.334295
354.129791 -574.642761 -0.000002 0.332753
354.312347 -575.905334 -0.000008 0.339086
nan nan nan 0.000000
nan nan nan 0.000000
nan nan nan 0.000000
347.509552 -526.010864 10.653974 0.616739
347.508362 -526.002197 8.712521 0.592599
347.507172 -525.993652 6.785059 0.591272
347.506012 -525.985107 4.867353 0.611826
347.504852 -525.976563 2.955242 0.594736
347.503662 -525.968018 1.044616 0.589319
349.910553 -543.476196 0.000009 0.223093
352.133057 -559.643250 0.000001 0.336828
353.087250 -566.584412 -0.000002 0.337545
353.618713 -570.450317 -0.000007 0.338857
353.958008 -572.918396 0.000000 0.335531
354.193817 -574.633728 -0.000001 0.333440
354.367554 -575.897522 -0.000008 0.328145
nan nan nan 0.000000
nan nan nan 0.000000
nan nan nan 0.000000
347.911652 -525.944580 10.655800 0.590982
347.910522 -525.935913 8.713936 0.312673
347.909393 -525.927307 6.786072 0.599054
347.908295 -525.918762 4.867960 0.589883
347.907166 -525.910217 2.955445 0.591775
347.906067 -525.901672 1.044414 0.597757
350.192230 -543.438477 0.000010 0.230621
352.301819 -559.620667 0.000001 0.337728
353.207550 -566.568298 -0.000002 0.339406
353.712006 -570.437805 -0.000006 0.334722
354.034058 -572.908203 0.000000 0.335348
354.257874 -574.625183 -0.000002 0.338827
354.422791 -575.890137 -0.000008 0.339590
nan nan nan 0.000000
nan nan nan 0.000000
nan nan nan 0.000000
348.313934 -525.878235 10.658051 0.596139
348.312866 -525.869568 8.715686 0.591867
348.311798 -525.860962 6.787317 0.592401
348.310730 -525.852417 4.868706 0.597940
348.309692 -525.843872 2.955693 0.585428
348.308624 -525.835327 1.044165 0.586862
350.474182 -543.402710 0.000010 0.228179
352.470764 -559.599243 0.000002 0.336568
353.327972 -566.553040 -0.000002 0.335775
353.805389 -570.425964 -0.000006 0.340841
354.110168 -572.898560 0.000001 0.335851
354.322021 -574.617004 -0.000001 0.341329
354.478088 -575.883118 -0.000008 0.334508
nan nan nan 0.000000
nan nan nan 0.000000
nan nan nan 0.000000
348.716431 -525.811890 10.660723 0.602472
348.715424 -525.803223 8.717760 0.251926
348.714447 -525.794617 6.788794 0.579126
348.713440 -525.786011 4.869595 0.606226
348.712433 -525.777466 2.955989 0.572427
348.711456 -525.768860 1.043869 0.578653
350.756378 -543.368958 0.000010 0.230465
352.639832 -559.578979 0.000001 0.337545
353.448486 -566.538635 -0.000002 0.337865
353.898834 -570.414795 -0.000006 0.334234
354.186371 -572.889404 0.000001 0.340032
354.386200 -574.609375 -0.000001 0.337072
354.533447 -575.876526 -0.000007 0.338811
nan nan nan 0.000000
nan nan nan 0.000000
nan nan nan 0.000000
349.119232 -525.745544 10.663821 0.587396
349.118286 -525.736816 8.720161 0.558770
349.117340 -525.728149 6.790510 0.576699
349.116394 -525.719604 4.870620 0.580697
349.115448 -525.710999 2.956333 0.555413
349.114532 -525.702454 1.043527 0.572702
351.061005 -543.540466 0.010058 1.000000
352.809052 -559.559937 0.000002 0.337881
353.569092 -566.525024 -0.000002 0.334234
353.992371 -570.404236 -0.000006 0.336736
354.262634 -572.880798 0.000001 0.335515
354.450439 -574.602112 -0.000001 0.333028
354.588837 -575.870239 -0.000007 0.339422
nan nan nan 0.000000
nan nan nan 0.000000
nan nan nan 0.000000
349.522308 -525.679077 10.667345 0.570596
349.521423 -525.670349 8.722897 0.553262
349.520538 -525.661682 6.792459 0.576455
349.519653 -525.653076 4.871790 0.565515
349.518768 -525.644470 2.956720 0.549935
349.517914 -525.635925 1.043139 0.571694
351.321411 -543.306702 -0.000018 0.337758
352.978394 -559.542053 0.000002 0.338125
353.689789 -566.512268 -0.000002 0.337011
354.085999 -570.394348 -0.000007 0.333410
354.338928 -572.872742 0.000001 0.345708
354.514740 -574.595337 -0.000000 0.334295
354.644257 -575.864380 -0.000007 0.338277
nan nan nan 0.000000
nan nan nan 0.000000
nan nan nan 0.000000
nan nan nan 0.000000
nan nan nan 0.000000
nan nan nan 0.000000
nan nan nan 0.000000
nan nan nan 0.000000
nan nan nan 0.000000
351.604279 -543.279236 0.000002 0.339055
353.147858 -559.525391 0.000002 0.339269
353.810577 -566.500366 -0.000002 0.337621
354.179657 -570.385132 -0.000007 0.334203
354.415314 -572.865234 0.000001 0.333120
354.579071 -574.588989 -0.000000 0.337362
354.699738 -575.858948 -0.000007 0.335866
nan nan nan 0.000000
nan nan nan 0.000000
nan nan nan 0.000000
nan nan nan 0.000000
nan nan nan 0.000000
nan nan nan 0.000000
nan nan nan 0.000000
nan nan nan 0.000000
nan nan nan 0.000000
351.887360 -543.253784 0.000023 0.337881
353.317444 -559.509827 0.000002 0.338552
353.931427 -566.489319 -0.000002 0.335851
354.273407 -570.376526 -0.000007 0.338659
354.491730 -572.858276 0.000001 0.340414
354.643463 -574.583069 0.000000 0.332998
354.755249 -575.853882 -0.000007 0.339879
nan nan nan 0.000000
nan nan nan 0.000000
nan nan nan 0.000000
nan nan nan 0.000000
nan nan nan 0.000000
nan nan nan 0.000000
nan nan nan 0.000000
nan nan nan 0.000000
nan nan nan 0.000000
352.170593 -543.230103 0.000033 0.338323
353.487122 -559.495544 0.000002 0.337987
354.052368 -566.479126 -0.000003 0.335668
354.367188 -570.368591 -0.000006 0.338430
354.568176 -572.851807 0.000002 0.336553
354.707886 -574.577637 0.000000 0.336324
354.810791 -575.849182 -0.000007 0.341085
nan nan nan 0.000000
nan nan nan 0.000000
nan nan nan 0.000000
nan nan nan 0.000000
nan nan nan 0.000000
nan nan nan 0.000000
nan nan nan 0.000000
nan nan nan 0.000000
nan nan nan 0.000000
352.453949 -543.208252 0.000041 0.338415
353.656891 -559.482361 0.000002 0.338857
354.173401 -566.469727 -0.000003 0.340108
354.461029 -570.361328 -0.000007 0.336110
354.644684 -572.845886 0.000002 0.337423
354.772339 -574.572693 0.000000 0.332235
354.866364 -575.844849 -0.000006 0.340429
nan nan nan 0.000000
nan nan nan 0.000000
nan nan nan 0.000000
nan nan nan 0.000000
nan nan nan 0.000000
nan nan nan 0.000000
nan nan nan 0.000000
nan nan nan 0.000000
nan nan nan 0.000000
352.737488 -543.188477 0.000048 0.338674
353.826752 -559.470398 0.000002 0.337224
354.294464 -566.461243 -0.000003 0.338216
354.554932 -570.354736 -0.000007 0.335561
354.721252 -572.840454 0.000001 0.329259
354.836823 -574.568115 0.000000 0.334234
354.921967 -575.840942 -0.000006 0.338354
nan nan nan 0.000000
nan nan nan 0.000000
nan nan nan 0.000000
nan nan nan 0.000000
nan nan nan 0.000000
nan nan nan 0.000000
nan nan nan 0.000000
nan nan nan 0.000000
nan nan nan 0.000000
353.021118 -543.170654 0.000055 0.337911
353.996704 -559.459656 0.000005 0.338842
354.415588 -566.453552 -0.000003 0.338521
354.648865 -570.348755 -0.000007 0.333089
354.797821 -572.835632 0.000002 0.338888
354.901337 -574.564026 0.000000 0.336538
354.977600 -575.837402 -0.000006 0.337835
nan nan nan 0.000000
nan nan nan 0.000000
nan nan nan 0.000000
nan nan nan 0.000000
nan nan nan 0.000000
nan nan nan 0.000000
nan nan nan 0.000000
nan nan nan 0.000000
nan nan nan 0.000000
353.304871 -543.154541 0.000052 0.338704
354.166718 -559.450073 0.000005 0.337636
354.536774 -566.446716 -0.000003 0.336278
354.742859 -570.343506 -0.000007 0.337301
354.877350 -572.886169 0.009995 1.000000
354.965881 -574.560425 0.000001 0.332021
355.033264 -575.834290 -0.000006 0.333303
nan nan nan 0.000000
nan nan nan 0.000000
nan nan nan 0.000000
nan nan nan 0.000000
nan nan nan 0.000000
nan nan nan 0.000000
nan nan nan 0.000000
nan nan nan 0.000000
nan nan nan 0.000000
353.588715 -543.140259 0.000039 0.339025
354.336792 -559.441711 0.000005 0.337942
354.657990 -566.440735 -0.000002 0.337392
354.836884 -570.338867 -0.000007 0.336690
354.953583 -572.882324 0.009988 1.000000
355.030457 -574.557190 0.000000 0.342000
355.088928 -575.831543 -0.000006 0.335134
nan nan nan 0.000000
nan nan nan 0.000000
nan nan nan 0.000000
nan nan nan 0.000000
nan nan nan 0.000000
nan nan nan 0.000000
nan nan nan 0.000000
nan nan nan 0.000000
nan nan nan 0.000000
353.872681 -543.128540 0.000054 0.337835
354.506927 -559.434509 0.000005 0.335836
354.779236 -566.435608 -0.000003 0.337316
354.930908 -570.334839 -0.000007 0.338201
355.029877 -572.879150 0.009996 1.000000
355.095032 -574.554443 0.000001 0.342351
355.144623 -575.829163 -0.000006 0.335058
nan nan nan 0.000000
nan nan nan 0.000000
nan nan nan 0.000000
nan nan nan 0.000000
nan nan nan 0.000000
nan nan nan 0.000000
nan nan nan 0.000000
nan nan nan 0.000000
nan nan nan 0.000000
354.156708 -543.118469 0.000052 0.338170
354.677124 -559.428467 0.000005 0.337072
354.900543 -566.431274 -0.000003 0.340093
355.024994 -570.331543 -0.000007 0.340581
355.104431 -572.821533 0.000002 0.335683
355.159637 -574.552185 0.000001 0.331441
355.200317 -575.827209 -0.000006 0.334112
nan nan nan 0.000000
nan nan nan 0.000000
nan nan nan 0.000000
nan nan nan 0.000000
nan nan nan 0.000000
nan nan nan 0.000000
nan nan nan 0.000000
nan nan nan 0.000000
nan nan nan 0.000000
354.440796 -543.110107 0.000039 0.338720
354.847321 -559.423645 0.000006 0.338354
355.021881 -566.427856 -0.000003 0.339559
355.119080 -570.328857 -0.000007 0.340719
355.181152 -572.819397 0.000002 0.339651
355.224274 -574.550354 0.000001 0.339422
355.256042 -575.825623 -0.000006 0.339269
nan nan nan 0.000000
nan nan nan 0.000000
nan nan nan 0.000000
nan nan nan 0.000000
nan nan nan 0.000000
nan nan nan 0.000000
nan nan nan 0.000000
nan nan nan 0.000000
nan nan nan 0.000000
354.724945 -543.103760 0.000026 0.339071
355.017578 -559.419983 0.000006 0.336645
355.143219 -566.425232 -0.000003 0.338323
355.213196 -570.326843 -0.000007 0.332494
355.257843 -572.817749 0.000002 0.336126
355.288910 -574.548950 0.000001 0.336187
355.311768 -575.824402 -0.000006 0.331350
nan nan nan 0.000000
nan nan nan 0.000000
nan nan nan 0.000000
nan nan nan 0.000000
nan nan nan 0.000000
nan nan nan 0.000000
nan nan nan 0.000000
nan nan nan 0.000000
nan nan nan 0.000000
355.009125 -543.099487 0.000017 0.338155
355.187836 -559.417542 0.000009 0.338827
355.264557 -566.423462 -0.000003 0.335393
355.307312 -570.325439 -0.000008 0.335653
355.334595 -572.816650 0.000002 0.334813
355.353546 -574.548035 0.000002 0.336233
355.367523 -575.823608 -0.000006 0.328573
nan nan nan 0.000000
nan nan nan 0.000000
nan nan nan 0.000000
nan nan nan 0.000000
nan nan nan 0.000000
nan nan nan 0.000000
nan nan nan 0.000000
nan nan nan 0.000000
nan nan nan 0.000000
355.293335 -543.097107 0.000006 0.338369
355.358124 -559.416321 0.000009 0.339773
355.385925 -566.422607 -0.000004 0.334844
355.401428 -570.324768 -0.000007 0.341680
355.411316 -572.816040 0.000003 0.333745
355.418182 -574.547546 0.000001 0.338918
355.423248 -575.823181 -0.000005 0.341894
nan nan nan 0.000000
nan nan nan 0.000000
nan nan nan 0.000000
nan nan nan 0.000000
nan nan nan 0.000000
nan nan nan 0.000000
nan nan nan 0.000000
nan nan nan 0.000000
nan nan nan 0.000000
355.577545 -543.096863 -0.000001 0.338552
355.528412 -559.416199 0.000009 0.338247
355.507294 -566.422546 -0.000003 0.337972
355.495544 -570.324707 -0.000007 0.337652
355.488068 -572.816040 0.000002 0.333150
355.482849 -574.547546 0.000002 0.335393
355.479004 -575.823181 -0.000005 0.341680
nan nan nan 0.000000
nan nan nan 0.000000
nan nan nan 0.000000
nan nan nan 0.000000
nan nan nan 0.000000
nan nan nan 0.000000
nan nan nan 0.000000
nan nan nan 0.000000
nan nan nan 0.000000
355.861755 -543.098572 -0.000008 0.338064
355.698669 -559.417297 0.000010 0.338170
355.628662 -566.423279 -0.000003 0.335103
355.589691 -570.325317 -0.000008 0.339681
355.564789 -572.816528 0.000002 0.338094
355.547485 -574.547913 0.000002 0.340154
355.534729 -575.823547 -0.000005 0.333013
nan nan nan 0.000000
nan nan nan 0.000000
nan nan nan 0.000000
nan nan nan 0.000000
nan nan nan 0.000000
nan nan nan 0.000000
nan nan nan 0.000000
nan nan nan 0.000000
356.755768 -507.179504 0.745883 0.559319
356.145966 -543.102234 -0.000015 0.338491
355.868958 -559.419617 0.000009 0.338704
355.750031 -566.424927 -0.000003 0.335866
355.683807 -570.326599 -0.000008 0.335531
355.641510 -572.817566 0.000002 0.334630
355.612122 -574.548828 0.000002 0.340566
355.590485 -575.824280 -0.000005 0.351354
nan nan nan 0.000000
357.268951 -508.097198 18.356577 0.573266
357.263275 -508.334900 15.736665 0.577676
357.257660 -508.568359 13.163894 0.572885
357.252167 -508.798523 10.631578 0.253147
357.246735 -509.025116 8.133574 0.589746
357.241364 -509.249451 5.663858 0.594079
357.236023 -509.471710 3.216774 0.592096
357.230743 -509.692017 0.786830 0.563043
356.430115 -543.107971 -0.000018 0.338445
356.039215 -559.423096 0.000010 0.338048
355.871368 -566.427429 -0.000004 0.336858
355.777924 -570.328552 -0.000008 0.338308
355.718231 -572.819153 0.000002 0.341985
355.676758 -574.550110 0.000002 0.339864
355.646210 -575.825439 -0.000005 0.338003
357.721130 -510.578705 20.351667 0.614206
357.721954 -510.551636 17.829353 0.331868
357.715057 -510.774628 15.295164 0.597086
357.708282 -510.993744 12.806087 0.590600
357.701630 -511.208954 10.355803 0.579095
357.695038 -511.421326 7.938178 0.571725
357.688538 -511.631256 5.547493 0.572320
357.682129 -511.839294 3.178248 0.582803
357.675720 -512.046265 0.825141 0.575875
356.714203 -543.116028 -0.000007 0.338506
356.209412 -559.427795 0.000013 0.339696
355.992706 -566.430725 -0.000004 0.337911
355.872009 -570.331116 -0.000008 0.335103
355.794952 -572.821228 0.000003 0.337133
355.741394 -574.551941 0.000003 0.337667
355.701935 -575.826965 -0.000005 0.332326
358.154755 -512.640076 19.839367 0.585153
358.146667 -512.853333 17.335678 0.255314
358.138733 -513.062561 14.881757 0.551598
358.130951 -513.267822 12.471117 0.565270
358.123291 -513.469910 10.097519 0.585794
358.115723 -513.669434 7.755140 0.593576
358.108215 -513.866882 5.438437 0.595468
358.100800 -514.062561 3.142124 0.592676
358.093445 -514.256470 0.861053 0.558724
356.998260 -543.125549 -0.000019 0.337865
356.379608 -559.433655 0.000012 0.338323
356.114014 -566.434937 -0.000004 0.338109
355.966064 -570.334351 -0.000008 0.338033
355.871643 -572.823853 0.000002 0.342824
355.806000 -574.554138 0.000002 0.343801
355.757629 -575.828857 -0.000005 0.332036
358.554749 -514.815125 19.299158 0.585641
358.545746 -515.015320 16.872698 0.246815
358.536926 -515.211914 14.494002 0.594064
358.528229 -515.405212 12.156770 0.595193
358.519714 -515.594971 9.855151 0.582696
358.511261 -515.782654 7.583353 0.575341
358.502930 -515.968384 5.336089 0.569696
358.494659 -516.152527 3.108220 0.580102
358.486420 -516.335693 0.894781 0.573236
357.282257 -543.137207 -0.000027 0.338720
356.549744 -559.440735 0.000013 0.338323
356.235260 -566.439941 -0.000005 0.339834
356.060120 -570.338257 -0.000008 0.332937
355.948303 -572.827026 0.000002 0.334401
355.870575 -574.556824 0.000003 0.337789
355.813324 -575.831177 -0.000005 0.342153
358.931213 -516.862244 18.791529 0.595483
358.921417 -517.051270 16.437418 0.423804
358.911804 -517.236206 14.129394 0.582849
358.902344 -517.418213 11.861208 0.578027
358.893036 -517.597473 9.627127 0.463981
358.883881 -517.774292 7.421719 0.584390
358.874756 -517.949463 5.239763 0.590082
358.865753 -518.123047 3.076306 0.584772
358.856812 -518.295349 0.926519 0.596551
357.566132 -543.150818 -0.000032 0.339178
356.713531 -559.570374 0.009981 1.000000
356.356506 -566.445801 -0.000005 0.338781
356.154144 -570.342773 -0.000008 0.338857
356.024963 -572.830750 0.000002 0.334951
355.935150 -574.559937 0.000003 0.327855
355.869019 -575.833862 -0.000005 0.327794
359.286285 -518.792664 18.313656 0.568627
359.275757 -518.971191 16.027618 0.578897
359.265442 -519.146118 13.785968 0.566506
359.255341 -519.317871 11.582743 0.484230
359.245392 -519.486572 9.412378 0.295399
359.235535 -519.653503 7.269461 0.595376
359.225800 -519.818909 5.149014 0.598550
359.216125 -519.983093 3.046231 0.611261
359.206543 -520.145752 0.956435 0.577203
357.849915 -543.166809 -0.000018 0.338750
356.889862 -559.458374 0.000013 0.335180
356.477692 -566.452515 -0.000005 0.338277
356.248138 -570.348022 -0.000008 0.335821
356.101563 -572.835022 0.000003 0.341039
355.999695 -574.563538 0.000003 0.336599
355.924652 -575.836975 -0.000005 0.330617
359.621674 -520.616577 17.862906 0.250980
359.610596 -520.784729 15.641200 0.603098
359.599670 -520.950012 13.462162 0.592004
359.588959 -521.112610 11.320124 0.595987
359.578400 -521.272583 9.209696 0.580819
359.567993 -521.430542 7.125735 0.595666
359.557678 -521.586853 5.063349 0.582315
359.547455 -521.742004 3.017843 0.280720
359.537323 -521.895691 0.984679 0.540627
358.133545 -543.184937 0.000001 0.338109
357.059814 -559.468628 -0.000018 0.235420
356.598816 -566.460083 -0.000005 0.338903
356.342072 -570.353882 -0.000008 0.332113
356.178162 -572.839783 0.000003 0.335515
356.064240 -574.567566 0.000004 0.328344
355.980286 -575.840454 -0.000004 0.338872
359.939087 -522.341919 17.437267 0.591196
359.927460 -522.501404 15.276066 0.586923
359.916046 -522.657776 13.156161 0.598108
359.904816 -522.811523 11.071957 0.597742
359.893768 -522.963074 9.018206 0.588830
359.882843 -523.112671 6.989925 0.568032
359.872040 -523.260803 4.982379 0.545922
359.861328 -523.407715 2.991005 0.538262
359.850677 -523.553894 1.011392 0.558831
358.417053 -543.204956 0.000019 0.337346
357.229706 -559.480408 -0.000019 0.226947
356.719910 -566.468506 -0.000006 0.338018
356.435974 -570.360413 -0.000008 0.332448
356.254700 -572.845093 0.000003 0.336950
356.128723 -574.572021 0.000004 0.338445
356.035919 -575.844299 -0.000005 0.339879
360.239899 -523.977600 17.034494 0.315206
360.227814 -524.128723 14.930566 0.596094
360.215973 -524.276978 12.866554 0.596155
360.204285 -524.422852 10.837029 0.576028
360.192780 -524.566833 8.836864 0.607919
360.181427 -524.708679 6.861306 0.541787
360.170197 -524.849121 4.905694 0.532708
360.159058 -524.988403 2.965586 0.549462
360.147949 -525.127136 1.036692 0.568643
358.684296 -543.428650 0.009973 1.000000
357.399506 -559.493408 -0.000019 0.218533
356.840912 -566.477783 -0.000006 0.340078
356.529846 -570.367554 -0.000008 0.337789
356.331207 -572.850952 0.000003 0.330144
356.193176 -574.576965 0.000003 0.345205
356.091492 -575.848572 -0.000005 0.330220
360.525421 -525.530151 16.652885 0.589319
360.512939 -525.673706 14.603149 0.594156
360.500671 -525.814575 12.592054 0.592508
360.488647 -525.952942 10.614348 0.593820
360.476776 -526.089294 8.665041 0.571084
360.465057 -526.224060 6.739419 0.551797
360.453430 -526.357544 4.833000 0.535561
360.441925 -526.489868 2.941487 0.239597
360.430420 -526.621948 1.060683 0.570031
358.983673 -543.250183 0.000015 0.224457
357.569183 -559.507568 -0.000019 0.229017
356.961884 -566.487854 -0.000006 0.331762
356.623627 -570.375427 -0.000008 0.341878
356.407684 -572.857361 0.000003 0.336660
356.257599 -574.582336 0.000003 0.332815
356.147034 -575.853210 -0.000005 0.327565
360.796844 -527.005798 16.290892 0.593103
360.784027 -527.142090 14.292582 0.590341
360.771454 -527.275879 12.331687 0.592432
360.759064 -527.407410 10.403093 0.596704
360.746857 -527.537170 8.501961 0.579217
360.734802 -527.665527 6.623702 0.564889
360.722839 -527.792664 4.763980 0.537850
360.710999 -527.918579 2.918600 0.538415
360.699188 -528.044067 1.083464 0.566400
359.266724 -543.275818 0.000015 0.230477
357.738800 -559.522888 -0.000019 0.219838
357.082764 -566.498779 -0.000007 0.337545
356.717377 -570.383911 -0.000008 0.340093
356.484100 -572.864258 0.000003 0.337667
356.321991 -574.588196 0.000004 0.340215
356.202545 -575.858215 -0.000005 0.336660
361.055237 -528.409790 15.947148 0.505486
361.042114 -528.539612 13.997586 0.597086
361.029236 -528.667053 12.084303 0.590143
361.016541 -528.792603 10.202305 0.229160
361.004028 -528.916199 8.346933 0.598886
360.991669 -529.038452 6.513705 0.578836
361.011322 -528.844238 4.713939 0.709743
360.999115 -528.964844 2.902017 0.682643
360.987000 -529.084778 1.099956 0.652689
359.549591 -543.303406 0.000015 0.231662
357.908264 -559.539429 -0.000020 0.215134
357.203552 -566.510559 -0.000007 0.340230
356.811066 -570.393005 -0.000008 0.344335
356.560486 -572.871704 0.000003 0.336370
356.386322 -574.594421 0.000003 0.337469
356.258026 -575.863647 -0.000005 0.335653
361.301453 -529.748413 15.620090 0.604532
361.288055 -529.872131 13.716881 0.590661
361.274933 -529.993530 11.848898 0.601556
361.261993 -530.113220 10.011256 0.593668
361.249268 -530.230896 8.199446 0.590280
361.270020 -530.039124 6.434473 0.459174
361.257477 -530.155029 4.651153 0.705516
361.245026 -530.270142 2.881193 0.687526
361.232635 -530.384644 1.120693 0.659251
359.832275 -543.333008 0.000015 0.232224
358.077637 -559.557129 -0.000020 0.223356
357.324249 -566.523193 -0.000006 0.333532
356.904694 -570.402832 -0.000008 0.328130
356.636810 -572.879700 0.000003 0.335729
356.450623 -574.601196 0.000003 0.343435
356.313477 -575.869446 -0.000004 0.344472
361.536438 -531.025330 15.308739 0.570169
361.522827 -531.143311 13.449653 0.591363
361.509460 -531.259338 11.624737 0.367651
361.496338 -531.373413 9.829332 0.424063
361.483368 -531.485901 8.058949 0.597650
361.470581 -531.596924 6.309355 0.603479
361.457886 -531.706970 4.576473 0.590723
361.445313 -531.816162 2.856412 0.594064
361.432800 -531.924866 1.145378 0.595956
360.114716 -543.364563 0.000016 0.230633
358.246887 -559.576050 -0.000021 0.236198
357.434906 -566.623230 0.010020 1.000000
356.998230 -570.413269 -0.000008 0.341833
356.713074 -572.888245 0.000003 0.336049
356.514893 -574.608337 0.000004 0.336583
356.368866 -575.875610 -0.000004 0.338857
361.760895 -532.245422 15.011893 0.523842
361.747101 -532.358215 13.194802 0.538354
361.733582 -532.468933 11.410984 0.555886
361.720245 -532.577942 9.655825 0.570474
361.707092 -532.685364 7.924959 0.581750
361.694122 -532.791565 6.214242 0.573831
361.681244 -532.896729 4.519725 0.596170
361.668488 -533.001099 2.837588 0.511116
361.655792 -533.104858 1.164123 0.595666
360.396973 -543.398071 0.000016 0.223416
358.415985 -559.596130 -0.000021 0.222459
357.554840 -566.637451 0.010012 1.000000
357.091705 -570.424377 -0.000008 0.340688
356.789276 -572.897278 0.000004 0.335180
356.579071 -574.615967 0.000004 0.338125
356.424225 -575.882202 -0.000005 0.336034
361.975555 -533.412537 14.728539 0.597635
361.961609 -533.520325 12.951550 0.574014
361.947937 -533.626160 11.206938 0.374456
361.934448 -533.730408 9.490175 0.419715
361.921143 -533.833130 7.797022 0.600702
361.908020 -533.934692 6.123436 0.564538
361.894989 -534.035217 4.465542 0.542947
361.882080 -534.135071 2.819612 0.544717
361.869232 -534.234314 1.182024 0.576135
360.678955 -543.433594 0.000016 0.229639
358.584930 -559.617371 -0.000021 0.221549
357.685822 -566.566162 -0.000007 0.334157
357.185089 -570.436096 -0.000008 0.336187
356.865417 -572.906860 0.000003 0.335790
356.643219 -574.624023 0.000003 0.329686
356.479523 -575.889160 -0.000004 0.336141
362.181152 -534.529419 14.457999 0.576181
362.167084 -534.632629 12.719257 0.596475
362.153229 -534.734009 11.012043 0.588266
362.139618 -534.833740 9.331951 0.603784
362.126190 -534.932068 7.674810 0.591226
362.112915 -535.029358 6.036674 0.610590
362.099762 -535.125732 4.413762 0.583185
362.086700 -535.221497 2.802432 0.625910
362.073730 -535.316406 1.199136 0.542657
360.960693 -543.471069 0.000017 0.222865
358.753723 -559.639832 -0.000022 0.218617
357.806152 -566.581970 -0.000023 0.235348
357.278412 -570.448547 -0.000008 0.338689
356.941467 -572.916931 0.000003 0.334371
356.707306 -574.632568 0.000004 0.339986
356.534790 -575.896484 -0.000004 0.329320
362.378174 -535.600159 14.199227 0.551965
362.363953 -535.699036 12.497059 0.566430
362.350037 -535.796082 10.825623 0.213336
362.336304 -535.891541 9.180597 0.340948
362.322784 -535.985840 7.557898 0.578790
362.309387 -536.079041 5.953673 0.602823
362.296143 -536.171387 4.364228 0.860304
362.282959 -536.263123 2.785995 0.606790
362.269867 -536.354248 1.215510 0.605447
361.242157 -543.510437 0.000017 0.229879
358.922363 -559.663452 -0.000022 0.217109
357.926361 -566.598816 -0.000024 0.218019
357.371613 -570.461609 -0.000009 0.339055
357.017456 -572.927612 0.000004 0.340169
356.771332 -574.641541 0.000004 0.336461
356.589996 -575.904236 -0.000004 0.332265
362.567230 -536.627014 13.951653 0.588968
362.552917 -536.721802 12.284456 0.565957
362.538879 -536.814941 10.647208 0.579522
362.525055 -536.906616 9.035706 0.523201
362.511414 -536.997070 7.445959 0.545327
362.497955 -537.086487 5.874193 0.559091
362.484589 -537.175049 4.316793 0.555810
362.471344 -537.263000 2.770257 0.547890
362.458160 -537.350586 1.231192 0.571725
361.523315 -543.551880 0.000017 0.231135
359.090851 -559.688232 -0.000023 0.228945
358.046448 -566.616516 -0.000023 0.251517
357.464752 -570.475281 -0.000009 0.337438
357.093384 -572.938782 0.000004 0.335683
356.835297 -574.650940 0.000003 0.328923
356.645142 -575.912354 -0.000004 0.336080
362.748718 -537.613342 13.714415 0.597269
362.734344 -537.704346 12.080703 0.594919
362.720215 -537.793701 10.476237 0.483894
362.706329 -537.881653 8.896864 0.564752
362.692627 -537.968506 7.338694 0.601785
362.679077 -538.054321 5.798034 0.615747
362.665649 -538.139343 4.271332 0.324529
362.652313 -538.223877 2.755169 0.249775
362.639038 -538.307800 1.246221 0.546487
361.804199 -543.595215 0.000017 0.233505
359.259125 -559.714172 -0.000023 0.224984
358.166382 -566.635010 -0.000024 0.248501
357.557770 -570.489624 -0.000009 0.342794
357.169220 -572.950500 0.000004 0.335622
356.899170 -574.660828 0.000004 0.334585
356.700226 -575.920837 -0.000004 0.342672
362.923187 -538.561157 13.486989 0.577005
362.908752 -538.648560 11.885382 0.568963
362.894562 -538.734436 10.312307 0.566491
362.880615 -538.818970 8.763729 0.569436
362.866882 -538.902283 7.235837 0.576913
362.853271 -538.984741 5.724990 0.590219
362.839752 -539.066528 4.227728 0.602029
362.826385 -539.147522 2.740703 0.264210
362.813049 -539.228271 1.260637 0.225116
362.084808 -543.640503 0.000018 0.231291
359.427246 -559.741333 -0.000023 0.226516
358.286224 -566.654358 -0.000025 0.244180
357.650696 -570.504639 -0.000009 0.336675
357.244965 -572.962708 0.000004 0.343923
356.962982 -574.671082 0.000004 0.339330
356.755249 -575.929749 -0.000004 0.334722
363.091003 -539.472900 13.268785 0.589258
363.076538 -539.556946 11.697947 0.610178
363.062317 -539.639526 10.154995 0.604898
363.048309 -539.720764 8.635962 0.577981
363.034485 -539.801025 7.137092 0.500389
363.020844 -539.880249 5.654873 0.596857
363.007324 -539.958740 4.185874 0.521920
362.993896 -540.036743 2.726810 0.507317
362.980530 -540.114380 1.274480 0.575952
362.365051 -543.687744 0.000017 0.223775
359.595184 -559.769653 -0.000024 0.228861
358.405884 -566.674500 -0.000025 0.208696
357.743530 -570.520325 -0.000009 0.339162
357.320648 -572.975464 0.000004 0.336065
357.026733 -574.681885 0.000004 0.330877
356.810211 -575.939026 -0.000005 0.336507
363.252563 -540.350830 13.059209 0.594644
363.238068 -540.431580 11.517950 0.358953
363.223816 -540.510986 10.003903 0.231174
363.209778 -540.589233 8.513227 0.598657
363.195953 -540.666382 7.042264 0.584405
363.182251 -540.742615 5.587520 0.586069
363.168701 -540.818176 4.145664 0.819348
363.155243 -540.893127 2.713464 0.610803
363.141815 -540.967957 1.287780 0.600610
362.644958 -543.737000 0.000017 0.230657
359.762878 -559.799133 -0.000024 0.227940
358.525421 -566.695557 -0.000025 0.248788
357.836212 -570.536621 -0.000009 0.338827
357.396210 -572.988770 0.000004 0.342199
357.090424 -574.693054 0.000004 0.343343
356.865112 -575.948669 -0.000004 0.336233
363.408264 -541.196533 12.857850 0.597101
363.393738 -541.274353 11.344950 0.547723
363.379456 -541.350830 9.858690 0.611063
363.365417 -541.426025 8.395280 0.573999
363.351563 -541.500366 6.951113 0.528557
363.337860 -541.573792 5.522779 0.540337
363.324249 -541.646606 4.107007 0.537774
363.310760 -541.718872 2.700630 0.551629
363.297333 -541.790833 1.300567 0.581308
362.924530 -543.788147 0.000017 0.225510
359.930389 -559.829773 -0.000024 0.225295
358.644836 -566.717407 -0.000026 0.229388
357.928802 -570.553528 -0.000009 0.341726
357.471710 -573.002563 0.000004 0.335393
357.153992 -574.704712 0.000004 0.332753
356.919952 -575.958679 -0.000004 0.338552
363.558380 -542.012085 12.664186 0.562783
363.543854 -542.087036 11.178579 0.587732
363.529602 -542.160645 9.719040 0.637751
363.515533 -542.233154 8.281834 0.575845
363.501648 -542.304688 6.863438 0.607797
363.487946 -542.375488 5.460505 0.600122
363.474335 -542.445557 4.069826 0.377844
363.460815 -542.515320 2.688287 0.320012
363.447357 -542.584717 1.312870 0.604608
363.203735 -543.841309 0.000018 0.229867
360.097687 -559.861633 -0.000025 0.225965
358.764069 -566.740051 -0.000026 0.230441
358.008423 -570.637390 0.010003 1.000000
357.547089 -573.016907 0.000005 0.337453
357.217499 -574.716797 0.000004 0.327672
356.974701 -575.969116 -0.000004 0.337682
363.703278 -542.799011 12.477843 0.582437
363.688751 -542.871277 11.018475 0.265003
363.674500 -542.942200 9.584639 0.366445
363.660431 -543.012085 8.172644 0.549676
363.646545 -543.081177 6.779035 0.542977
363.632782 -543.149536 5.400541 0.591134
363.619171 -543.217102 4.034018 0.582559
363.605682 -543.284302 2.676401 0.553445
363.592224 -543.351196 1.324716 0.569589
363.482574 -543.896362 0.000018 0.227653
360.264740 -559.894592 -0.000025 0.236030
358.883118 -566.763611 -0.000026 0.227461
358.100311 -570.655518 0.010001 1.000000
357.622375 -573.031799 0.000005 0.336797
357.280945 -574.729309 0.000004 0.343679
357.029388 -575.979919 -0.000004 0.341802
363.843231 -543.558777 12.298430 0.601175
363.828705 -543.628418 10.864328 0.618723
363.814453 -543.696960 9.455196 0.609247
363.800385 -543.764465 8.067469 0.576333
363.786499 -543.831055 6.697749 0.597940
363.772766 -543.896851 5.342809 0.601602
363.759186 -543.962158 3.999541 0.614374
363.745636 -544.027039 2.664952 0.608820
363.732178 -544.091736 1.336128 0.601297
363.760986 -543.953369 0.000018 0.230513
360.431549 -559.928772 -0.000025 0.214560
359.002045 -566.787964 -0.000026 0.235432
358.192078 -570.674316 0.009999 1.000000
357.697540 -573.047180 0.000005 0.340642
357.344269 -574.742249 0.000004 0.328984
357.084015 -575.991089 -0.000004 0.325017
363.978485 -544.293091 12.125527 0.533181
363.963959 -544.360413 10.715734 0.591363
363.949677 -544.426575 9.330431 0.547707
363.935608 -544.491821 7.966083 0.606775
363.921722 -544.556091 6.619379 0.546136
363.908020 -544.619751 5.287127 0.579187
363.894409 -544.682739 3.966289 0.538033
363.880920 -544.745300 2.653914 0.512016
363.867462 -544.807678 1.347130 0.588708
364.039032 -544.012329 0.000018 0.224421
360.598145 -559.964050 -0.000026 0.230932
359.120758 -566.813110 -0.000027 0.227701
358.297913 -570.627808 -0.000009 0.331975
357.772614 -573.063110 0.000005 0.339681
357.407501 -574.755676 0.000004 0.337560
357.138519 -576.002686 -0.000004 0.340093
364.109253 -545.003235 11.958798 0.607202
364.094727 -545.068237 10.572458 0.237537
364.080475 -545.132202 9.210117 0.276295
364.066437 -545.195129 7.868336 0.604761
364.052582 -545.257202 6.543820 0.582300
364.038879 -545.318665 5.233447 0.596887
364.025299 -545.379578 3.934227 0.472282
364.011780 -545.440125 2.643266 0.517723
363.998383 -545.500366 1.357743 0.602045
364.316650 -544.073242 0.000018 0.232284
360.764496 -560.000549 -0.000026 0.233074
359.239319 -566.839111 -0.000027 0.222925
358.389893 -570.647827 -0.000027 0.224182
357.847565 -573.079529 0.000005 0.338598
357.470673 -574.769531 0.000004 0.328298
357.192963 -576.014587 -0.000004 0.338674
364.235748 -545.690430 11.797927 0.585061
364.221283 -545.753235 10.434223 0.575631
364.207062 -545.815002 9.094051 0.479271
364.193054 -545.875793 7.774018 0.618540
364.179230 -545.935852 6.470903 0.589685
364.165527 -545.995239 5.181640 0.540536
364.151978 -546.054138 3.903286 0.599313
364.138489 -546.112671 2.632993 0.553307
364.125092 -546.170837 1.367985 0.577478
364.593811 -544.136108 0.000019 0.229711
360.930542 -560.038208 -0.000026 0.212286
359.357697 -566.865967 -0.000027 0.229256
358.481689 -570.668640 -0.000027 0.234331
357.922394 -573.096497 0.000005 0.341787
357.533691 -574.783813 0.000004 0.340215
357.247345 -576.026917 -0.000005 0.339559
364.358307 -546.355652 11.642668 0.618341
364.343872 -546.416382 10.300792 0.610651
364.329681 -546.476074 8.982007 0.561517
364.315704 -546.534912 7.682969 0.588968
364.301880 -546.592957 6.400512 0.597803
364.288239 -546.650391 5.131625 0.598657
364.274689 -546.707397 3.873411 0.606744
364.261230 -546.764038 2.623072 0.598398
364.247833 -546.820374 1.377876 0.618906
364.195984 -547.038513 0.143308 1.000000
361.096375 -560.077026 -0.000027 0.225020
359.475861 -566.893616 -0.000028 0.223452
358.573334 -570.690063 -0.000028 0.213866
357.997131 -573.114014 0.000005 0.333593
357.596649 -574.798584 0.000004 0.334630
357.301605 -576.039612 -0.000004 0.340398
364.476990 -547.000244 11.492686 0.512657
364.462616 -547.059021 10.171895 0.512215
364.448456 -547.116699 8.873762 0.635233
364.434509 -547.173584 7.595010 0.602823
364.420746 -547.229736 6.332511 0.561273
364.407135 -547.285339 5.083306 0.644038
364.393585 -547.340515 3.844546 0.234668
364.380157 -547.395386 2.613485 0.331441
364.366791 -547.449890 1.387433 0.561685
364.407990 -547.281738 0.152481 1.000000
361.261902 -560.116943 -0.000027 0.232260
359.593872 -566.922058 -0.000028 0.243737
358.664856 -570.712158 -0.000028 0.244491
358.071716 -573.132019 0.000005 0.342077
357.659485 -574.813721 0.000004 0.344335
357.355804 -576.052734 -0.000004 0.340673
364.592102 -547.625000 11.347790 0.421073
364.577728 -547.681885 10.047349 0.451987
364.563629 -547.737793 8.769160 0.564858
364.549713 -547.792847 7.509995 0.601007
364.536011 -547.847168 6.266782 0.570291
364.522400 -547.901001 5.036600 0.610224
364.508911 -547.954468 3.816646 0.564996
364.495483 -548.007568 2.604220 0.572976
364.482147 -548.060425 1.396672 0.580743
364.468872 -548.113037 0.191388 1.000000
361.427155 -560.158081 -0.000027 0.224828
359.711639 -566.951416 -0.000028 0.233134
358.756195 -570.734924 -0.000028 0.209174
358.146179 -573.150513 0.000005 0.337942
357.722229 -574.829346 0.000004 0.339971
357.409882 -576.066162 -0.000004 0.333013
364.703766 -548.230957 11.207701 0.567056
364.689453 -548.286072 9.926928 0.558053
364.675354 -548.340271 8.668017 0.575189
364.661469 -548.393616 7.427782 0.597467
364.647797 -548.446289 6.203207 0.598077
364.634216 -548.498474 4.991420 0.582116
364.620789 -548.550171 3.789663 0.612253
364.607422 -548.601563 2.595259 0.589532
364.594116 -548.652771 1.405607 0.614145
364.580841 -548.703796 0.218136 1.000000
361.592102 -560.200378 -0.000027 0.231602
359.829224 -566.981506 -0.000028 0.233529
358.847382 -570.758301 -0.000028 0.239453
358.220520 -573.169617 0.000006 0.338979
357.784851 -574.845398 0.000004 0.335119
357.463898 -576.080017 -0.000004 0.336919
364.812103 -548.819153 11.072152 0.474525
364.797821 -548.872559 9.810418 0.609674
364.783783 -548.924988 8.570165 0.574273
364.769958 -548.976685 7.348252 0.578088
364.756317 -549.027771 6.141714 0.557885
364.742828 -549.078247 4.947721 0.711635
364.729401 -549.128418 3.763553 0.653910
364.716064 -549.178223 2.586587 0.514717
364.702820 -549.227844 1.414253 0.619440
364.689575 -549.277344 0.244021 1.000000
361.756775 -560.243774 -0.000027 0.229220
359.946564 -567.012451 -0.000029 0.217300
358.938385 -570.782288 -0.000029 0.232559
358.294708 -573.189148 0.000006 0.339239
357.847351 -574.861877 0.000004 0.338354
357.517792 -576.094238 -0.000004 0.338628
364.917328 -549.390259 10.940983 0.527352
364.903107 -549.441956 9.697668 0.428946
364.889130 -549.492859 8.475455 0.612619
364.875336 -549.542969 7.271273 0.623178
364.861725 -549.592468 6.082188 0.619974
364.848267 -549.641479 4.905413 0.358129
364.834900 -549.690063 3.738278 0.229480
364.821625 -549.738403 2.578193 0.329686
364.808350 -549.786621 1.422626 0.621332
364.795197 -549.834534 0.269081 1.000000
361.921112 -560.288330 -0.000028 0.227736
360.063721 -567.044250 -0.000029 0.232667
359.029236 -570.806885 -0.000029 0.256423
358.368774 -573.209229 0.000006 0.334386
357.909760 -574.878784 0.000004 0.338170
357.571594 -576.108826 -0.000004 0.336965
365.019562 -549.945068 10.813985 0.387381
365.005371 -549.995300 9.588482 0.460899
364.991425 -550.044617 8.383740 0.623682
364.977722 -550.093262 7.196721 0.559121
364.964142 -550.141235 6.024537 0.612055
364.950714 -550.188782 4.864435 0.615625
364.937408 -550.235962 3.713798 0.569299
364.924164 -550.282776 2.570060 0.594858
364.910950 -550.329529 1.430734 0.553140
364.897827 -550.376038 0.293355 1.000000
362.085144 -560.334045 -0.000028 0.225331
360.180634 -567.076782 -0.000029 0.250416
359.119934 -570.832153 -0.000029 0.217145
358.442688 -573.229858 0.000006 0.341833
357.972046 -574.896118 0.000004 0.337301
357.625275 -576.123779 -0.000004 0.336278
365.118958 -550.484314 10.690979 0.533486
365.104828 -550.533081 9.482729 0.539452
365.090912 -550.580994 8.294899 0.499519
365.077240 -550.628174 7.124495 0.538949
365.063721 -550.674805 5.968674 0.556863
365.050323 -550.720947 4.824737 0.536095
365.037048 -550.766663 3.690078 0.615000
365.023865 -550.812134 2.562183 0.566140
365.010712 -550.857483 1.438591 0.578943
364.997650 -550.902588 0.316875 1.000000
362.248871 -560.380920 -0.000028 0.225474
360.297333 -567.110168 -0.000030 0.240745
359.210419 -570.858093 -0.000029 0.226061
358.501160 -573.303711 0.009997 1.000000
358.034180 -574.913940 0.000004 0.340581
357.678864 -576.139099 -0.000004 0.337697
365.215607 -551.008728 10.571776 0.584772
365.201538 -551.055969 9.380253 0.608209
365.187714 -551.102478 8.208818 0.610895
365.174072 -551.148315 7.054521 0.580972
365.160583 -551.193604 5.914555 0.596521
365.147247 -551.238403 4.786264 0.587472
365.134033 -551.282898 3.667089 0.539437
365.120880 -551.327087 2.554545 0.590173
365.107788 -551.371033 1.446206 0.604181
365.094727 -551.414917 0.339676 1.000000
362.412262 -560.428894 -0.000029 0.216175
360.413788 -567.144409 -0.000030 0.222889
359.300720 -570.884583 -0.000030 0.207822
358.574402 -573.325256 0.010003 1.000000
358.096222 -574.932129 0.000004 0.337118
357.732361 -576.154846 -0.000004 0.334997
365.309662 -551.518982 10.456195 0.537545
365.295654 -551.564880 9.280886 0.480735
365.281860 -551.610046 8.125334 0.619135
365.268280 -551.654541 6.986652 0.572427
365.254852 -551.698486 5.862069 0.541131
365.241577 -551.742004 4.748960 0.388922
365.228394 -551.785278 3.644797 0.308431
365.215271 -551.828186 2.547139 0.311650
365.202240 -551.870911 1.453591 0.561532
365.189240 -551.913513 0.361790 1.000000
362.575287 -560.478027 -0.000029 0.228287
360.529968 -567.179443 -0.000029 0.245006
359.390839 -570.911743 -0.000030 0.224385
358.647522 -573.347290 0.010008 1.000000
358.158112 -574.950806 0.000004 0.335210
357.785736 -576.170898 -0.000004 0.330449
365.401245 -552.015625 10.344108 0.243915
365.387268 -552.060242 9.184506 0.288487
365.373535 -552.104126 8.044363 0.572915
365.359985 -552.147400 6.920817 0.562005
365.346619 -552.190125 5.811149 0.575814
365.333405 -552.232422 4.712763 0.368933
365.320251 -552.274414 3.623169 0.488121
365.307220 -552.316101 2.539955 0.478065
365.294220 -552.357666 1.460758 0.581903
365.281281 -552.399048 0.383245 1.000000
362.738007 -560.528320 -0.000029 0.231758
360.645935 -567.215271 -0.000030 0.244192
359.480774 -570.939575 -0.000030 0.247124
358.736877 -573.317383 0.000007 0.331441
358.219879 -574.969910 0.000004 0.339879
357.838989 -576.187378 -0.000004 0.342336
365.490387 -552.499329 10.235349 0.678721
365.476501 -552.542664 9.090988 0.538827
365.462830 -552.585388 7.965794 0.632242
365.449341 -552.627441 6.856940 0.658946
365.436035 -552.668945 5.761742 0.570275
365.422852 -552.710083 4.677641 0.594385
365.409760 -552.750854 3.602183 0.581674
365.396759 -552.791382 2.532983 0.565148
365.383820 -552.831787 1.467712 0.617960
365.370911 -552.872070 0.404069 1.000000
362.900330 -560.579712 -0.000029 0.216630
360.761658 -567.251892 -0.000030 0.223500
359.570526 -570.967957 -0.000030 0.233278
358.810028 -573.340576 0.000007 0.343862
358.281494 -574.989441 0.000004 0.342092
357.892120 -576.204224 -0.000004 0.337346
365.577240 -552.970703 10.129751 0.603387
365.563416 -553.012878 9.000188 0.586099
365.549774 -553.054382 7.889503 0.631586
365.536377 -553.095154 6.794926 0.343404
365.523132 -553.135498 5.713777 0.268589
365.510010 -553.175476 4.643547 0.214176
365.497009 -553.215149 3.581809 0.214221
365.484070 -553.254578 2.526215 0.229755
365.471161 -553.293884 1.474462 0.295125
365.458313 -553.333069 0.424287 1.000000
363.062317 -560.632263 -0.000029 0.231590
360.877106 -567.289368 -0.000030 0.240686
359.660065 -570.997009 -0.000031 0.238089
358.883087 -573.364075 -0.000030 0.233206
358.342987 -575.009338 0.000004 0.329000
357.945160 -576.221375 -0.000005 0.342733
365.661957 -553.429932 10.027259 0.623407
365.648163 -553.470947 8.912056 0.508568
365.634613 -553.511353 7.815459 0.534524
365.621246 -553.551086 6.734711 0.559808
365.608063 -553.590332 5.667200 0.526772
365.595001 -553.629211 4.610434 0.559197
365.582031 -553.667786 3.562021 0.581964
365.569153 -553.706177 2.519640 0.536797
365.556305 -553.744385 1.481019 0.642313
365.543488 -553.782532 0.443924 1.000000
363.223938 -560.685913 -0.000030 0.220053
360.992279 -567.327637 -0.000030 0.225702
359.749390 -571.026672 -0.000031 0.204626
358.955902 -573.388245 -0.000030 0.206517
358.404358 -575.029724 0.000004 0.331106
357.998047 -576.238953 -0.000004 0.332937
365.744537 -553.877869 9.927685 0.574304
365.730835 -553.917786 8.826431 0.592691
365.717316 -553.957031 7.743515 0.606912
365.704010 -553.995728 6.676212 0.570047
365.690887 -554.033936 5.621948 0.591073
365.677887 -554.071777 4.578262 0.560601
365.664978 -554.109314 3.542796 0.561395
365.652130 -554.146667 2.513252 0.674922
365.639343 -554.183838 1.487392 0.616175
365.626587 -554.221008 0.463004 1.000000
363.385162 -560.740723 -0.000030 0.228383
361.107208 -567.366699 -0.000031 0.224242
359.838501 -571.057007 -0.000031 0.229161
359.028564 -573.412903 -0.000030 0.225546
358.465546 -575.050537 0.000004 0.325505
358.050812 -576.256897 -0.000004 0.339467
365.825134 -554.314819 9.830936 0.558633
365.811462 -554.353699 8.743231 0.575479
365.798035 -554.391907 7.673602 0.592645
365.784790 -554.429565 6.619364 0.568231
365.771698 -554.466736 5.577972 0.577585
365.758728 -554.503601 4.546999 0.585962
365.745880 -554.540161 3.524111 0.601343
365.733124 -554.576477 2.507044 0.646967
365.720398 -554.612671 1.493584 0.658595
365.707672 -554.648804 0.481548 1.000000
363.545990 -560.796631 -0.000030 0.232631
361.221863 -567.406555 -0.000031 0.234474
359.927429 -571.087891 -0.000031 0.209342
359.101044 -573.438110 -0.000031 0.246550
358.526611 -575.071777 0.000004 0.332998
358.103485 -576.275208 -0.000004 0.334951
365.903748 -554.741211 9.736893 0.578454
365.890167 -554.779053 8.662357 0.593622
365.876770 -554.816284 7.605642 0.581231
365.863586 -554.852966 6.564103 0.588296
365.850586 -554.889221 5.535222 0.585199
365.837677 -554.925049 4.516604 0.593515
365.824890 -554.960632 3.505946 0.554788
365.812164 -554.996033 2.501008 0.541894
365.799500 -555.031311 1.499605 0.541650
365.786835 -555.066467 0.499579 1.000000
363.706451 -560.853699 -0.000030 0.226121
361.336212 -567.447205 -0.000031 0.246993
360.016113 -571.119446 -0.000031 0.246047
359.173340 -573.463806 -0.000031 0.207176
358.587524 -575.093445 0.000004 0.332906
358.156006 -576.293884 -0.000004 0.336019
365.980560 -555.157532 9.645462 0.574197
365.967010 -555.194397 8.583721 0.584314
365.953674 -555.230652 7.539563 0.651057
365.940552 -555.266357 6.510366 0.535348
365.927582 -555.301636 5.493652 0.614084
365.914764 -555.336609 4.487048 0.539712
365.902008 -555.371277 3.488280 0.593332
365.889343 -555.405762 2.495139 0.594797
365.876740 -555.440063 1.505460 0.621683
365.864136 -555.474365 0.517114 1.000000
363.866486 -560.911865 -0.000030 0.233361
361.450287 -567.488647 -0.000031 0.207714
360.104584 -571.151611 -0.000031 0.272101
359.245453 -573.490051 -0.000031 0.231686
358.648285 -575.115540 0.000004 0.336599
358.208374 -576.312927 -0.000004 0.328542
366.055542 -555.564087 9.556524 0.593698
366.042053 -555.600037 8.507237 0.624140
366.028809 -555.635376 7.475286 0.579370
366.015747 -555.670166 6.458096 0.642924
366.002838 -555.704529 5.453216 0.611215
365.990051 -555.738647 4.458297 0.690974
365.977356 -555.772400 3.471096 0.632700
365.964752 -555.806030 2.489428 0.568505
365.952209 -555.839417 1.511156 0.631815
365.939667 -555.872864 0.534175 1.000000
364.026123 -560.971130 -0.000030 0.224852
361.564056 -567.530884 -0.000031 0.227377
360.192841 -571.184326 -0.000031 0.250559
359.317413 -573.516785 -0.000031 0.246993
