# This PCD file was generated using the MATLAB® pcwrite function
# from Computer Vision Toolbox®.
# .PCD v.7 - Point Cloud Data file format
VERSION .7
FIELDS x y z intensity
SIZE 4 4 4 4
TYPE F F F F
COUNT 1 1 1 1
WIDTH 1198
HEIGHT 1
VIEWPOINT 0 0 0 1 0 0 0
POINTS 1198
DATA ascii
341.158508 -627.418762 11.142207 0.667216
352.715668 -584.902283 2.917427 1.000000
352.715668 -584.902283 2.711503 1.000000
352.715668 -584.902283 2.507123 1.000000
352.715668 -584.902283 2.303839 1.000000
352.715668 -584.902283 2.101207 1.000000
352.715668 -584.902283 1.898793 1.000000
352.715668 -584.902283 1.696161 1.000000
352.715668 -584.902283 1.492876 1.000000
352.715668 -584.902283 1.288497 1.000000
352.715668 -584.902283 1.082573 1.000000
352.715668 -584.902283 0.874640 1.000000
352.715668 -584.902283 0.664214 1.000000
352.715668 -584.902283 0.450791 1.000000
nan nan nan 0.000000
nan nan nan 0.000000
340.814331 -627.347107 11.146277 0.671382
352.692810 -584.823608 2.907077 1.000000
352.692810 -584.823608 2.703476 1.000000
352.692810 -584.823608 2.501403 1.000000
352.692810 -584.823608 2.300411 1.000000
352.692810 -584.823608 2.100066 1.000000
352.692810 -584.823608 1.899934 1.000000
352.692810 -584.823608 1.699588 1.000000
352.692810 -584.823608 1.498597 1.000000
352.692810 -584.823608 1.296524 1.000000
352.692810 -584.823608 1.092923 1.000000
352.692810 -584.823608 0.887335 1.000000
352.692810 -584.823608 0.679283 1.000000
352.692810 -584.823608 0.468269 1.000000
nan nan nan 0.000000
nan nan nan 0.000000
340.469360 -627.276978 11.151103 0.668437
352.670441 -584.746704 2.897001 1.000000
352.670441 -584.746704 2.695662 1.000000
352.670441 -584.746704 2.495833 1.000000
352.670441 -584.746704 2.297075 1.000000
352.670441 -584.746704 2.098954 1.000000
352.670441 -584.746704 1.901046 1.000000
352.670441 -584.746704 1.702926 1.000000
352.670441 -584.746704 1.504167 1.000000
352.670441 -584.746704 1.304338 1.000000
352.670441 -584.746704 1.102999 1.000000
352.670441 -584.746704 0.899695 1.000000
352.670441 -584.746704 0.693954 1.000000
352.670441 -584.746704 0.485283 1.000000
nan nan nan 0.000000
nan nan nan 0.000000
340.123505 -627.208496 11.156707 0.663813
352.648590 -584.671448 2.887189 1.000000
352.648590 -584.671448 2.688052 1.000000
352.648590 -584.671448 2.490409 1.000000
352.648590 -584.671448 2.293825 1.000000
352.648590 -584.671448 2.097872 1.000000
352.648590 -584.671448 1.902128 1.000000
352.648590 -584.671448 1.706175 1.000000
352.648590 -584.671448 1.509590 1.000000
352.648590 -584.671448 1.311948 1.000000
352.648590 -584.671448 1.112811 1.000000
352.648590 -584.671448 0.911730 1.000000
352.648590 -584.671448 0.708240 1.000000
352.648590 -584.671448 0.501852 1.000000
nan nan nan 0.000000
nan nan nan 0.000000
339.776642 -627.141846 11.163114 0.669154
352.627228 -584.597839 2.877632 1.000000
352.627228 -584.597839 2.680640 1.000000
352.627228 -584.597839 2.485126 1.000000
352.627228 -584.597839 2.290659 1.000000
352.627228 -584.597839 2.096817 1.000000
352.627228 -584.597839 1.903183 1.000000
352.627228 -584.597839 1.709340 1.000000
352.627228 -584.597839 1.514873 1.000000
352.627228 -584.597839 1.319360 1.000000
352.627228 -584.597839 1.122368 1.000000
352.627228 -584.597839 0.923454 1.000000
352.627228 -584.597839 0.722155 1.000000
352.627228 -584.597839 0.517990 1.000000
nan nan nan 0.000000
nan nan nan 0.000000
339.428711 -627.076904 11.170331 0.668421
352.606293 -584.525818 2.868320 1.000000
352.606293 -584.525818 2.673419 1.000000
352.606293 -584.525818 2.479979 1.000000
352.606293 -584.525818 2.287576 1.000000
352.606293 -584.525818 2.095790 1.000000
352.606293 -584.525818 1.904210 1.000000
352.606293 -584.525818 1.712424 1.000000
352.606293 -584.525818 1.520021 1.000000
352.606293 -584.525818 1.326582 1.000000
352.606293 -584.525818 1.131680 1.000000
352.606293 -584.525818 0.934876 1.000000
352.606293 -584.525818 0.735713 1.000000
352.606293 -584.525818 0.533715 1.000000
nan nan nan 0.000000
nan nan nan 0.000000
339.079651 -627.013672 11.178355 0.668635
352.585785 -584.455261 2.859246 1.000000
352.585785 -584.455261 2.666381 1.000000
352.585785 -584.455261 2.474963 1.000000
352.585785 -584.455261 2.284570 1.000000
352.585785 -584.455261 2.094789 1.000000
352.585785 -584.455261 1.905211 1.000000
352.585785 -584.455261 1.715430 1.000000
352.585785 -584.455261 1.525037 1.000000
352.585785 -584.455261 1.333619 1.000000
352.585785 -584.455261 1.140754 1.000000
352.585785 -584.455261 0.946007 1.000000
352.585785 -584.455261 0.748926 1.000000
352.585785 -584.455261 0.549039 1.000000
nan nan nan 0.000000
nan nan nan 0.000000
338.729340 -626.952148 11.187191 0.662181
352.565735 -584.386230 2.850400 1.000000
352.565735 -584.386230 2.659521 1.000000
352.565735 -584.386230 2.470073 1.000000
352.565735 -584.386230 2.281641 1.000000
352.565735 -584.386230 2.093813 1.000000
352.565735 -584.386230 1.906187 1.000000
352.565735 -584.386230 1.718359 1.000000
352.565735 -584.386230 1.529927 1.000000
352.565735 -584.386230 1.340480 1.000000
352.565735 -584.386230 1.149600 1.000000
352.565735 -584.386230 0.956858 1.000000
352.565735 -584.386230 0.761806 1.000000
352.565735 -584.386230 0.563976 1.000000
nan nan nan 0.000000
nan nan nan 0.000000
338.377747 -626.892334 11.196846 0.665263
352.546082 -584.318542 2.841775 1.000000
352.546082 -584.318542 2.652832 1.000000
352.546082 -584.318542 2.465306 1.000000
352.546082 -584.318542 2.278784 1.000000
352.546082 -584.318542 2.092862 1.000000
352.546082 -584.318542 1.907138 1.000000
352.546082 -584.318542 1.721216 1.000000
352.546082 -584.318542 1.534694 1.000000
352.546082 -584.318542 1.347168 1.000000
352.546082 -584.318542 1.158225 1.000000
352.546082 -584.318542 0.967438 1.000000
352.546082 -584.318542 0.774364 1.000000
352.546082 -584.318542 0.578540 1.000000
nan nan nan 0.000000
nan nan nan 0.000000
338.024750 -626.834290 11.207323 0.673487
352.526794 -584.252197 2.833364 1.000000
352.526794 -584.252197 2.646308 1.000000
352.526794 -584.252197 2.460656 1.000000
352.526794 -584.252197 2.275998 1.000000
352.526794 -584.252197 2.091934 1.000000
352.526794 -584.252197 1.908066 1.000000
352.526794 -584.252197 1.724001 1.000000
352.526794 -584.252197 1.539344 1.000000
352.526794 -584.252197 1.353692 1.000000
352.526794 -584.252197 1.166637 1.000000
352.526794 -584.252197 0.977756 1.000000
352.526794 -584.252197 0.786611 1.000000
352.526794 -584.252197 0.592745 1.000000
nan nan nan 0.000000
nan nan nan 0.000000
nan nan nan 0.000000
352.507935 -584.187195 2.825158 1.000000
352.507935 -584.187195 2.639945 1.000000
352.507935 -584.187195 2.456121 1.000000
352.507935 -584.187195 2.273281 1.000000
352.507935 -584.187195 2.091029 1.000000
352.507935 -584.187195 1.908971 1.000000
352.507935 -584.187195 1.726719 1.000000
352.507935 -584.187195 1.543879 1.000000
352.507935 -584.187195 1.360056 1.000000
352.507935 -584.187195 1.174842 1.000000
352.507935 -584.187195 0.987821 1.000000
352.507935 -584.187195 0.798558 1.000000
352.507935 -584.187195 0.606600 1.000000
nan nan nan 0.000000
nan nan nan 0.000000
nan nan nan 0.000000
352.489410 -584.123474 2.817153 1.000000
352.489410 -584.123474 2.633735 1.000000
352.489410 -584.123474 2.451695 1.000000
352.489410 -584.123474 2.270630 1.000000
352.489410 -584.123474 2.090145 1.000000
352.489410 -584.123474 1.909855 1.000000
352.489410 -584.123474 1.729370 1.000000
352.489410 -584.123474 1.548305 1.000000
352.489410 -584.123474 1.366265 1.000000
352.489410 -584.123474 1.182848 1.000000
352.489410 -584.123474 0.997641 1.000000
352.489410 -584.123474 0.810215 1.000000
352.489410 -584.123474 0.620120 1.000000
nan nan nan 0.000000
nan nan nan 0.000000
nan nan nan 0.000000
352.471252 -584.060913 2.809340 1.000000
352.471252 -584.060913 2.627676 1.000000
352.471252 -584.060913 2.447376 1.000000
352.471252 -584.060913 2.268042 1.000000
352.471252 -584.060913 2.089283 1.000000
352.471252 -584.060913 1.910716 1.000000
352.471252 -584.060913 1.731958 1.000000
352.471252 -584.060913 1.552624 1.000000
352.471252 -584.060913 1.372324 1.000000
352.471252 -584.060913 1.190661 1.000000
352.471252 -584.060913 1.007225 1.000000
352.471252 -584.060913 0.821591 1.000000
352.471252 -584.060913 0.633313 1.000000
nan nan nan 0.000000
nan nan nan 0.000000
352.453430 -583.999573 2.983421 1.000000
352.453430 -583.999573 2.801713 1.000000
352.453430 -583.999573 2.621762 1.000000
352.453430 -583.999573 2.443161 1.000000
352.453430 -583.999573 2.265516 1.000000
352.453430 -583.999573 2.088442 1.000000
352.453430 -583.999573 1.911558 1.000000
352.453430 -583.999573 1.734483 1.000000
352.453430 -583.999573 1.556839 1.000000
352.453430 -583.999573 1.378238 1.000000
352.453430 -583.999573 1.198287 1.000000
352.453430 -583.999573 1.016580 1.000000
352.453430 -583.999573 0.832694 1.000000
352.453430 -583.999573 0.646190 1.000000
nan nan nan 0.000000
nan nan nan 0.000000
352.435944 -583.939392 2.974288 1.000000
352.435944 -583.939392 2.794268 1.000000
352.435944 -583.939392 2.615988 1.000000
352.435944 -583.939392 2.439045 1.000000
352.435944 -583.939392 2.263051 1.000000
352.435944 -583.939392 2.087621 1.000000
352.435944 -583.939392 1.912379 1.000000
352.435944 -583.939392 1.736949 1.000000
352.435944 -583.939392 1.560955 1.000000
352.435944 -583.939392 1.384013 1.000000
352.435944 -583.939392 1.205733 1.000000
352.435944 -583.939392 1.025713 1.000000
352.435944 -583.939392 0.843535 1.000000
352.435944 -583.939392 0.658763 1.000000
nan nan nan 0.000000
nan nan nan 0.000000
352.418762 -583.880310 2.965369 1.000000
352.418762 -583.880310 2.786997 1.000000
352.418762 -583.880310 2.610349 1.000000
352.418762 -583.880310 2.435026 1.000000
352.418762 -583.880310 2.260643 1.000000
352.418762 -583.880310 2.086819 1.000000
352.418762 -583.880310 1.913181 1.000000
352.418762 -583.880310 1.739357 1.000000
352.418762 -583.880310 1.564974 1.000000
352.418762 -583.880310 1.389651 1.000000
352.418762 -583.880310 1.213003 1.000000
352.418762 -583.880310 1.034631 1.000000
352.418762 -583.880310 0.854121 1.000000
352.418762 -583.880310 0.671041 1.000000
nan nan nan 0.000000
nan nan nan 0.000000
352.401917 -583.822266 2.956659 1.000000
352.401917 -583.822266 2.779896 1.000000
352.401917 -583.822266 2.604842 1.000000
352.401917 -583.822266 2.431101 1.000000
352.401917 -583.822266 2.258291 1.000000
352.401917 -583.822266 2.086035 1.000000
352.401917 -583.822266 1.913965 1.000000
352.401917 -583.822266 1.741709 1.000000
352.401917 -583.822266 1.568899 1.000000
352.401917 -583.822266 1.395158 1.000000
352.401917 -583.822266 1.220104 1.000000
352.401917 -583.822266 1.043341 1.000000
352.401917 -583.822266 0.864460 1.000000
352.401917 -583.822266 0.683032 1.000000
nan nan nan 0.000000
nan nan nan 0.000000
352.385345 -583.765259 2.948150 1.000000
352.385345 -583.765259 2.772959 1.000000
352.385345 -583.765259 2.599462 1.000000
352.385345 -583.765259 2.427267 1.000000
352.385345 -583.765259 2.255993 1.000000
352.385345 -583.765259 2.085270 1.000000
352.385345 -583.765259 1.914730 1.000000
352.385345 -583.765259 1.744006 1.000000
352.385345 -583.765259 1.572733 1.000000
352.385345 -583.765259 1.400538 1.000000
352.385345 -583.765259 1.227041 1.000000
352.385345 -583.765259 1.051850 1.000000
352.385345 -583.765259 0.874560 1.000000
352.385345 -583.765259 0.694745 1.000000
nan nan nan 0.000000
nan nan nan 0.000000
352.369080 -583.709290 2.939837 1.000000
352.369080 -583.709290 2.766182 1.000000
352.369080 -583.709290 2.594206 1.000000
352.369080 -583.709290 2.423521 1.000000
352.369080 -583.709290 2.253749 1.000000
352.369080 -583.709290 2.084522 1.000000
352.369080 -583.709290 1.915477 1.000000
352.369080 -583.709290 1.746251 1.000000
352.369080 -583.709290 1.576479 1.000000
352.369080 -583.709290 1.405794 1.000000
352.369080 -583.709290 1.233818 1.000000
352.369080 -583.709290 1.060163 1.000000
352.369080 -583.709290 0.884428 1.000000
352.369080 -583.709290 0.706190 1.000000
nan nan nan 0.000000
nan nan nan 0.000000
352.353119 -583.654297 2.931713 1.000000
352.353119 -583.654297 2.759560 1.000000
352.353119 -583.654297 2.589070 1.000000
352.353119 -583.654236 2.419860 1.000000
352.353119 -583.654297 2.251556 1.000000
352.353119 -583.654297 2.083792 1.000000
352.353119 -583.654297 1.916208 1.000000
352.353119 -583.654297 1.748444 1.000000
352.353119 -583.654236 1.580140 1.000000
352.353119 -583.654297 1.410930 1.000000
352.353119 -583.654236 1.240441 1.000000
352.353119 -583.654236 1.068287 1.000000
352.353119 -583.654297 0.894071 1.000000
352.353119 -583.654297 0.717373 1.000000
nan nan nan 0.000000
nan nan nan 0.000000
352.337402 -583.600159 2.923773 1.000000
352.337402 -583.600159 2.753087 1.000000
352.337402 -583.600159 2.584050 1.000000
352.337402 -583.600159 2.416282 1.000000
352.337402 -583.600159 2.249412 1.000000
352.337402 -583.600159 2.083078 1.000000
352.337402 -583.600159 1.916922 1.000000
352.337402 -583.600159 1.750588 1.000000
352.337402 -583.600159 1.583718 1.000000
352.337402 -583.600159 1.415950 1.000000
352.337402 -583.600159 1.246913 1.000000
352.337402 -583.600159 1.076227 1.000000
352.337402 -583.600159 0.903496 1.000000
352.337402 -583.600159 0.728303 1.000000
nan nan nan 0.000000
nan nan nan 0.000000
352.321960 -583.546997 2.916011 1.000000
352.321960 -583.546997 2.746759 1.000000
352.321960 -583.546997 2.579143 1.000000
352.321960 -583.546997 2.412784 1.000000
352.321960 -583.546997 2.247316 1.000000
352.321960 -583.546997 2.082380 1.000000
352.321960 -583.546997 1.917620 1.000000
352.321960 -583.546997 1.752684 1.000000
352.321960 -583.546997 1.587216 1.000000
352.321960 -583.546997 1.420857 1.000000
352.321960 -583.546997 1.253241 1.000000
352.321960 -583.546997 1.083989 1.000000
352.321960 -583.546997 0.912708 1.000000
352.321960 -583.546997 0.738988 1.000000
nan nan nan 0.000000
nan nan nan 0.000000
352.306763 -583.494751 2.908423 1.000000
352.306763 -583.494751 2.740573 1.000000
352.306763 -583.494751 2.574345 1.000000
352.306763 -583.494751 2.409365 1.000000
352.306763 -583.494751 2.245268 1.000000
352.306763 -583.494751 2.081697 1.000000
352.306763 -583.494751 1.918303 1.000000
352.306763 -583.494751 1.754732 1.000000
352.306763 -583.494751 1.590635 1.000000
352.306763 -583.494751 1.425655 1.000000
352.306763 -583.494751 1.259427 1.000000
352.306763 -583.494751 1.091577 1.000000
352.306763 -583.494751 0.921715 1.000000
352.306763 -583.494751 0.749435 1.000000
nan nan nan 0.000000
nan nan nan 0.000000
352.291840 -583.443298 2.901003 1.000000
352.291840 -583.443298 2.734524 1.000000
352.291840 -583.443298 2.569654 1.000000
352.291840 -583.443298 2.406021 1.000000
352.291840 -583.443298 2.243264 1.000000
352.291840 -583.443298 2.081030 1.000000
352.291840 -583.443298 1.918970 1.000000
352.291840 -583.443298 1.756736 1.000000
352.291840 -583.443298 1.593979 1.000000
352.291840 -583.443298 1.430346 1.000000
352.291840 -583.443298 1.265476 1.000000
352.291840 -583.443298 1.098997 1.000000
352.291840 -583.443298 0.930523 1.000000
352.291840 -583.443298 0.759649 1.000000
nan nan nan 0.000000
nan nan nan 0.000000
352.277130 -583.392700 2.893747 1.000000
352.277130 -583.392700 2.728608 1.000000
352.277130 -583.392700 2.565066 1.000000
352.277130 -583.392700 2.402751 1.000000
352.277130 -583.392700 2.241305 1.000000
352.277130 -583.392700 2.080378 1.000000
352.277130 -583.392700 1.919622 1.000000
352.277130 -583.392700 1.758695 1.000000
352.277130 -583.392700 1.597249 1.000000
352.277130 -583.392700 1.434934 1.000000
352.277130 -583.392700 1.271392 1.000000
352.277130 -583.392700 1.106254 1.000000
352.277130 -583.392700 0.939136 1.000000
352.277130 -583.392700 0.769639 1.000000
nan nan nan 0.000000
nan nan nan 0.000000
352.262665 -583.342957 2.886649 1.000000
352.262665 -583.342957 2.722822 1.000000
352.262665 -583.342957 2.560579 1.000000
352.262665 -583.342957 2.399553 1.000000
352.262665 -583.342957 2.239389 1.000000
352.262665 -583.342957 2.079739 1.000000
352.262665 -583.342957 1.920261 1.000000
352.262665 -583.342957 1.760611 1.000000
352.262665 -583.342957 1.600447 1.000000
352.262665 -583.342957 1.439421 1.000000
352.262665 -583.342957 1.277178 1.000000
352.262665 -583.342957 1.113351 1.000000
352.262665 -583.342957 0.947561 1.000000
352.262665 -583.342957 0.779410 1.000000
nan nan nan 0.000000
nan nan nan 0.000000
352.248444 -583.293945 2.879706 1.000000
352.248444 -583.293945 2.717162 1.000000
352.248444 -583.293945 2.556189 1.000000
352.248444 -583.293945 2.396424 1.000000
352.248444 -583.293945 2.237514 1.000000
352.248444 -583.293945 2.079115 1.000000
352.248444 -583.293945 1.920885 1.000000
352.248444 -583.293945 1.762486 1.000000
352.248444 -583.293945 1.603576 1.000000
352.248444 -583.293945 1.443811 1.000000
352.248444 -583.293945 1.282838 1.000000
352.248444 -583.293945 1.120295 1.000000
352.248444 -583.293945 0.955803 1.000000
352.248444 -583.293945 0.788968 1.000000
nan nan nan 0.000000
nan nan nan 0.000000
352.234406 -583.245667 2.872912 1.000000
352.234406 -583.245667 2.711623 1.000000
352.234406 -583.245667 2.551894 1.000000
352.234406 -583.245667 2.393362 1.000000
352.234406 -583.245667 2.235680 1.000000
352.234406 -583.245667 2.078504 1.000000
352.234406 -583.245667 1.921496 1.000000
352.234406 -583.245667 1.764320 1.000000
352.234406 -583.245667 1.606638 1.000000
352.234406 -583.245667 1.448107 1.000000
352.234406 -583.245667 1.288377 1.000000
352.234406 -583.245667 1.127088 1.000000
352.234406 -583.245667 0.963866 1.000000
352.234406 -583.245667 0.798320 1.000000
nan nan nan 0.000000
nan nan nan 0.000000
352.220612 -583.198181 2.866265 1.000000
352.220612 -583.198181 2.706204 1.000000
352.220612 -583.198181 2.547691 1.000000
352.220612 -583.198181 2.390367 1.000000
352.220612 -583.198181 2.233885 1.000000
352.220612 -583.198181 2.077906 1.000000
352.220612 -583.198181 1.922094 1.000000
352.220612 -583.198181 1.766115 1.000000
352.220612 -583.198181 1.609633 1.000000
352.220612 -583.198181 1.452309 1.000000
352.220612 -583.198181 1.293796 1.000000
352.220612 -583.198181 1.133735 1.000000
352.220612 -583.198181 0.971756 1.000000
352.220612 -583.198181 0.807471 1.000000
nan nan nan 0.000000
nan nan nan 0.000000
352.207031 -583.151367 2.859760 1.000000
352.207031 -583.151367 2.700902 1.000000
352.207031 -583.151367 2.543578 1.000000
352.207031 -583.151367 2.387435 1.000000
352.207031 -583.151367 2.232129 1.000000
352.207031 -583.151367 2.077321 1.000000
352.207031 -583.151367 1.922679 1.000000
352.207031 -583.151367 1.767871 1.000000
352.207031 -583.151367 1.612564 1.000000
352.207031 -583.151367 1.456422 1.000000
352.207031 -583.151367 1.299099 1.000000
352.207031 -583.151367 1.140240 1.000000
352.207031 -583.151367 0.979478 1.000000
352.207031 -583.151367 0.816426 1.000000
nan nan nan 0.000000
nan nan nan 0.000000
352.193634 -583.105286 2.853393 1.000000
352.193634 -583.105286 2.695711 1.000000
352.193634 -583.105286 2.539553 1.000000
352.193634 -583.105286 2.384566 1.000000
352.193634 -583.105286 2.230410 1.000000
352.193634 -583.105286 2.076748 1.000000
352.193634 -583.105286 1.923252 1.000000
352.193634 -583.105286 1.769590 1.000000
352.193634 -583.105286 1.615434 1.000000
352.193634 -583.105286 1.460447 1.000000
352.193634 -583.105286 1.304289 1.000000
352.193634 -583.105286 1.146607 1.000000
352.193634 -583.105286 0.987035 1.000000
352.193634 -583.105286 0.825191 1.000000
nan nan nan 0.000000
nan nan nan 0.000000
352.180420 -583.059814 2.847161 1.000000
352.180420 -583.059814 2.690630 1.000000
352.180420 -583.059814 2.535612 1.000000
352.180420 -583.059814 2.381758 1.000000
352.180420 -583.059814 2.228727 1.000000
352.180420 -583.059814 2.076188 1.000000
352.180420 -583.059814 1.923812 1.000000
352.180420 -583.059814 1.771273 1.000000
352.180420 -583.059814 1.618242 1.000000
352.180420 -583.059814 1.464388 1.000000
352.180420 -583.059814 1.309370 1.000000
352.180420 -583.059814 1.152839 1.000000
352.180420 -583.059814 0.994433 1.000000
352.180420 -583.059814 0.833771 1.000000
nan nan nan 0.000000
nan nan nan 0.000000
352.167419 -583.015076 2.841059 1.000000
352.167419 -583.015076 2.685656 1.000000
352.167419 -583.015076 2.531755 1.000000
352.167419 -583.015076 2.379009 1.000000
352.167419 -583.015076 2.227080 1.000000
352.167419 -583.015076 2.075639 1.000000
352.167419 -583.015076 1.924361 1.000000
352.167419 -583.015076 1.772920 1.000000
352.167419 -583.015076 1.620991 1.000000
352.167419 -583.015076 1.468245 1.000000
352.167419 -583.015076 1.314344 1.000000
352.167419 -583.015076 1.158941 1.000000
352.167419 -583.015076 1.001675 1.000000
352.167419 -583.015076 0.842170 1.000000
nan nan nan 0.000000
nan nan nan 0.000000
352.154602 -582.970947 2.835086 1.000000
352.154602 -582.970947 2.680786 1.000000
352.154602 -582.970947 2.527978 1.000000
352.154602 -582.970947 2.376317 1.000000
352.154602 -582.970947 2.225467 1.000000
352.154602 -582.970947 2.075102 1.000000
352.154602 -582.970947 1.924898 1.000000
352.154602 -582.970947 1.774533 1.000000
352.154602 -582.970947 1.623683 1.000000
352.154602 -582.970947 1.472022 1.000000
352.154602 -582.970947 1.319214 1.000000
352.154602 -582.970947 1.164914 1.000000
352.154602 -582.970947 1.008766 1.000000
352.154602 -582.970947 0.850393 1.000000
nan nan nan 0.000000
352.141968 -582.927429 2.984292 1.000000
352.141968 -582.927429 2.829237 1.000000
352.141968 -582.927429 2.676018 1.000000
352.141968 -582.927429 2.524280 1.000000
352.141968 -582.927429 2.373681 1.000000
352.141968 -582.927429 2.223888 1.000000
352.141968 -582.927429 2.074576 1.000000
352.141968 -582.927429 1.925424 1.000000
352.141968 -582.927429 1.776112 1.000000
352.141968 -582.927429 1.626319 1.000000
352.141968 -582.927429 1.475720 1.000000
352.141968 -582.927429 1.323982 1.000000
352.141968 -582.927429 1.170763 1.000000
352.141968 -582.927429 1.015708 1.000000
352.141968 -582.927429 0.858445 1.000000
nan nan nan 0.000000
352.129517 -582.884521 2.977493 1.000000
352.129517 -582.884521 2.823509 1.000000
352.129517 -582.884521 2.671348 1.000000
352.129517 -582.884521 2.520658 1.000000
352.129517 -582.884521 2.371099 1.000000
352.129517 -582.884521 2.222341 1.000000
352.129517 -582.884521 2.074061 1.000000
352.129517 -582.884521 1.925939 1.000000
352.129517 -582.884521 1.777659 1.000000
352.129517 -582.884521 1.628900 1.000000
352.129517 -582.884521 1.479342 1.000000
352.129517 -582.884521 1.328652 1.000000
352.129517 -582.884521 1.176491 1.000000
352.129517 -582.884521 1.022507 1.000000
352.129517 -582.884521 0.866331 1.000000
nan nan nan 0.000000
352.117218 -582.842224 2.970834 1.000000
352.117218 -582.842224 2.817899 1.000000
352.117218 -582.842224 2.666775 1.000000
352.117218 -582.842224 2.517112 1.000000
352.117218 -582.842224 2.368572 1.000000
352.117218 -582.842224 2.220827 1.000000
352.117218 -582.842224 2.073556 1.000000
352.117218 -582.842224 1.926444 1.000000
352.117218 -582.842224 1.779173 1.000000
352.117218 -582.842224 1.631428 1.000000
352.117218 -582.842224 1.482888 1.000000
352.117218 -582.842224 1.333225 1.000000
352.117218 -582.842224 1.182101 1.000000
352.117218 -582.842224 1.029166 1.000000
352.117218 -582.842224 0.874053 1.000000
nan nan nan 0.000000
352.105072 -582.800476 2.964312 1.000000
352.105072 -582.800476 2.812404 1.000000
352.105072 -582.800476 2.662296 1.000000
352.105072 -582.800476 2.513638 1.000000
352.105072 -582.800476 2.366096 1.000000
352.105072 -582.800476 2.219343 1.000000
352.105072 -582.800476 2.073062 1.000000
352.105072 -582.800476 1.926938 1.000000
352.105072 -582.800476 1.780657 1.000000
352.105072 -582.800476 1.633904 1.000000
352.105072 -582.800476 1.486362 1.000000
352.105072 -582.800476 1.337704 1.000000
352.105072 -582.800476 1.187596 1.000000
352.105072 -582.800476 1.035688 1.000000
352.105072 -582.800476 0.881617 1.000000
nan nan nan 0.000000
352.093109 -582.759277 2.957923 1.000000
352.093109 -582.759277 2.807022 1.000000
352.093109 -582.759277 2.657908 1.000000
352.093109 -582.759277 2.510235 1.000000
352.093109 -582.759277 2.363670 1.000000
352.093109 -582.759277 2.217890 1.000000
352.093109 -582.759277 2.072578 1.000000
352.093109 -582.759277 1.927422 1.000000
352.093109 -582.759277 1.782110 1.000000
352.093109 -582.759277 1.636330 1.000000
352.093109 -582.759277 1.489765 1.000000
352.093109 -582.759277 1.342092 1.000000
352.093109 -582.759277 1.192978 1.000000
352.093109 -582.759277 1.042077 1.000000
352.093109 -582.759277 0.889027 1.000000
nan nan nan 0.000000
352.081299 -582.718628 2.951665 1.000000
352.081299 -582.718628 2.801749 1.000000
352.081299 -582.718628 2.653610 1.000000
352.081299 -582.718628 2.506902 1.000000
352.081299 -582.718628 2.361294 1.000000
352.081299 -582.718628 2.216466 1.000000
352.081299 -582.718628 2.072104 1.000000
352.081299 -582.718628 1.927896 1.000000
352.081299 -582.718628 1.783533 1.000000
352.081299 -582.718628 1.638706 1.000000
352.081299 -582.718628 1.493099 1.000000
352.081299 -582.718628 1.346390 1.000000
352.081299 -582.718628 1.198251 1.000000
352.081299 -582.718628 1.048335 1.000000
352.081299 -582.718628 0.896285 1.000000
nan nan nan 0.000000
352.069641 -582.678467 2.945534 1.000000
352.069641 -582.678467 2.796584 1.000000
352.069641 -582.678467 2.649398 1.000000
352.069641 -582.678467 2.503636 1.000000
352.069641 -582.678467 2.358966 1.000000
352.069641 -582.678467 2.215072 1.000000
352.069641 -582.678467 2.071639 1.000000
352.069641 -582.678467 1.928361 1.000000
352.069641 -582.678467 1.784928 1.000000
352.069641 -582.678467 1.641034 1.000000
352.069641 -582.678467 1.496364 1.000000
352.069641 -582.678467 1.350601 1.000000
352.069641 -582.678467 1.203416 1.000000
352.069641 -582.678467 1.054466 1.000000
352.069641 -582.678467 0.903396 1.000000
nan nan nan 0.000000
352.058136 -582.638855 2.939526 1.000000
352.058136 -582.638855 2.791523 1.000000
352.058136 -582.638855 2.645273 1.000000
352.058136 -582.638855 2.500436 1.000000
352.058136 -582.638855 2.356686 1.000000
352.058136 -582.638855 2.213706 1.000000
352.058136 -582.638855 2.071184 1.000000
352.058136 -582.638855 1.928816 1.000000
352.058136 -582.638855 1.786294 1.000000
352.058136 -582.638855 1.643314 1.000000
352.058136 -582.638855 1.499564 1.000000
352.058136 -582.638855 1.354728 1.000000
352.058136 -582.638855 1.208477 1.000000
352.058136 -582.638855 1.060474 1.000000
352.058136 -582.638855 0.910363 1.000000
nan nan nan 0.000000
352.046783 -582.599731 2.933640 1.000000
352.046783 -582.599731 2.786564 1.000000
352.046783 -582.599731 2.641230 1.000000
352.046783 -582.599731 2.497301 1.000000
352.046783 -582.599731 2.354451 1.000000
352.046783 -582.599731 2.212367 1.000000
352.046783 -582.599731 2.070738 1.000000
352.046783 -582.599731 1.929262 1.000000
352.046783 -582.599731 1.787633 1.000000
352.046783 -582.599731 1.645549 1.000000
352.046783 -582.599731 1.502699 1.000000
352.046783 -582.599731 1.358770 1.000000
352.046783 -582.599731 1.213436 1.000000
352.046783 -582.599731 1.066360 1.000000
352.046783 -582.599731 0.917190 1.000000
nan nan nan 0.000000
352.035553 -582.561096 2.927872 1.000000
352.035553 -582.561096 2.781705 1.000000
352.035553 -582.561096 2.637269 1.000000
352.035553 -582.561096 2.494228 1.000000
352.035553 -582.561096 2.352261 1.000000
352.035553 -582.561096 2.211055 1.000000
352.035553 -582.561096 2.070301 1.000000
352.035553 -582.561096 1.929699 1.000000
352.035553 -582.561096 1.788945 1.000000
352.035553 -582.561096 1.647739 1.000000
352.035553 -582.561096 1.505772 1.000000
352.035553 -582.561096 1.362732 1.000000
352.035553 -582.561096 1.218295 1.000000
352.035553 -582.561096 1.072128 1.000000
352.035553 -582.561096 0.923879 1.000000
366.778137 -559.636047 7.751240 0.511879
366.765930 -559.654968 6.954066 0.570306
366.753906 -559.673645 6.169616 0.567666
366.742035 -559.692017 5.395946 0.498756
366.730316 -559.710205 4.631208 0.579141
366.718689 -559.728210 3.873637 0.568673
366.707153 -559.746094 3.121529 0.506752
366.695709 -559.763916 2.373230 0.687266
366.684265 -559.781677 1.627116 0.721798
366.672791 -559.799438 0.881587 1.000000
367.553772 -558.432800 -0.000015 0.224840
363.757538 -564.321777 -0.000012 0.242122
361.643219 -567.601624 -0.000011 0.245473
360.293427 -569.695557 -0.000010 0.250176
359.355286 -571.150879 -0.000010 0.221884
358.664093 -572.223145 -0.000010 0.205464
366.819336 -559.865723 7.708607 0.538277
366.807159 -559.884338 6.917377 0.659388
366.795197 -559.902649 6.138765 0.602274
366.783386 -559.920715 5.370843 0.759197
366.771698 -559.938538 4.611777 0.732464
366.760162 -559.956177 3.859814 0.741009
366.748688 -559.973694 3.113264 0.642405
366.737244 -559.991150 2.370482 0.474388
366.725861 -560.008545 1.629859 0.570153
366.714447 -560.026001 0.889806 1.000000
367.696594 -558.525574 -0.000015 0.239249
363.859314 -564.387939 -0.000012 0.230393
361.722168 -567.652954 -0.000011 0.225905
360.357788 -569.737366 -0.000010 0.243007
359.409485 -571.186096 -0.000010 0.217253
358.710815 -572.253479 -0.000009 0.251636
366.859985 -560.092041 7.666886 0.501274
366.847839 -560.110291 6.881474 0.479210
366.835938 -560.128235 6.108576 0.495689
366.824158 -560.145935 5.346277 0.577996
366.812531 -560.163452 4.592760 0.563500
366.800995 -560.180786 3.846285 0.513512
366.789581 -560.197998 3.105172 0.448234
366.778198 -560.215088 2.367791 0.472831
366.766876 -560.232178 1.632544 0.618570
366.755493 -560.249268 0.897852 1.000000
367.838745 -558.619324 -0.000015 0.238567
363.960632 -564.454712 -0.000012 0.237155
361.800751 -567.704773 -0.000011 0.279462
360.421844 -569.779602 -0.000010 0.218569
359.463440 -571.221741 -0.000010 0.194645
358.757355 -572.284180 -0.000009 0.189475
366.900024 -560.315125 7.626047 0.489693
366.887939 -560.333008 6.846328 0.551461
366.876068 -560.350586 6.079022 0.565850
366.864349 -560.367981 5.322229 0.395300
366.852753 -560.385132 4.574144 0.278553
366.841278 -560.402161 3.833039 0.214023
366.829895 -560.419006 3.097251 0.234806
366.818573 -560.435852 2.365158 0.356878
366.807281 -560.452576 1.635173 0.609186
366.795959 -560.469299 0.905730 1.000000
367.980225 -558.714050 -0.000015 0.221705
364.061493 -564.522278 -0.000012 0.227102
361.878967 -567.757141 -0.000011 0.247854
360.485596 -569.822327 -0.000010 0.205991
359.517181 -571.257690 -0.000010 0.241595
358.803680 -572.315186 -0.000010 0.264538
366.939484 -560.534973 7.586061 0.608194
366.927490 -560.552490 6.811919 0.523461
366.915649 -560.569763 6.050089 0.563668
366.903961 -560.586853 5.298686 0.324773
366.892426 -560.603699 4.555918 0.266072
366.880981 -560.620361 3.820072 0.176471
366.869629 -560.636963 3.089495 0.250446
366.858337 -560.653442 2.362579 0.431891
366.847107 -560.669800 1.637747 0.579995
366.835846 -560.686279 0.913442 1.000000
368.121063 -558.809814 -0.000015 0.228778
364.161865 -564.590515 -0.000013 0.238125
361.956818 -567.810059 -0.000011 0.207475
360.549072 -569.865417 -0.000010 0.231614
359.570648 -571.294006 -0.000010 0.237454
358.849762 -572.346558 -0.000010 0.190337
366.978424 -560.751709 7.546912 0.722179
366.966461 -560.768921 6.778227 0.583688
366.954651 -560.785889 6.021758 0.583612
366.943024 -560.802612 5.275633 0.384207
366.931549 -560.819153 4.538072 0.610605
366.920135 -560.835510 3.807375 0.459693
366.908844 -560.851807 3.081901 0.509148
366.897583 -560.867981 2.360054 0.474556
366.886414 -560.884094 1.640267 0.655634
366.875183 -560.900208 0.920995 1.000000
366.850769 -560.935303 0.202590 1.000000
364.261749 -564.659424 -0.000013 0.212274
362.034271 -567.863525 -0.000011 0.256938
360.612213 -569.908997 -0.000011 0.247627
359.623840 -571.330750 -0.000010 0.212537
358.895660 -572.378174 -0.000010 0.209210
367.016815 -560.965454 7.508574 0.676600
367.004883 -560.982361 6.745234 0.590143
366.993134 -560.998962 5.994014 0.583413
366.981567 -561.015381 5.253057 0.585229
366.970123 -561.031616 4.520597 0.689845
366.958771 -561.047729 3.794941 0.709331
366.947510 -561.063660 3.074465 0.569833
366.936279 -561.079590 2.357581 0.588800
366.925140 -561.095337 1.642735 0.565728
366.913971 -561.111206 0.928392 1.000000
366.902740 -561.127075 0.213024 1.000000
364.361176 -564.729065 -0.000013 0.230333
362.111389 -567.917480 -0.000011 0.242517
360.675079 -569.953064 -0.000010 0.214656
359.676788 -571.367798 -0.000010 0.271407
358.941315 -572.410156 -0.000010 0.200210
367.054688 -561.176270 7.471030 0.602731
367.042786 -561.192871 6.712922 0.590280
367.031097 -561.209167 5.966843 0.743526
367.019562 -561.225281 5.230947 0.536934
367.008179 -561.241211 4.503482 0.666835
366.996857 -561.257019 3.782765 0.681147
366.985657 -561.272644 3.067183 0.585016
366.974487 -561.288269 2.355160 0.531502
366.963379 -561.303772 1.645153 0.614969
366.952209 -561.319336 0.935637 1.000000
366.941071 -561.334900 0.225094 1.000000
364.460114 -564.799377 -0.000013 0.217420
362.188110 -567.972046 -0.000012 0.244096
360.737640 -569.997498 -0.000011 0.239094
359.729492 -571.405273 -0.000010 0.235683
358.986755 -572.442444 -0.000010 0.271192
367.092041 -561.384216 7.434259 0.529519
367.080200 -561.400513 6.681275 0.510002
367.068542 -561.416565 5.940230 0.559197
367.057068 -561.432373 5.209292 0.630228
367.045715 -561.447998 4.486718 0.584283
367.034454 -561.463440 3.770838 0.582498
367.023285 -561.478882 3.060050 0.585153
367.012146 -561.494141 2.352788 0.594446
367.001068 -561.509399 1.647521 0.496651
366.989960 -561.524658 0.942734 1.000000
366.978851 -561.539978 0.236917 1.000000
364.558533 -564.870361 -0.000013 0.243211
362.264435 -568.027100 -0.000012 0.230477
360.799866 -570.042419 -0.000011 0.255945
359.781921 -571.443115 -0.000010 0.279366
359.031952 -572.475098 -0.000010 0.227282
367.128906 -561.589417 7.398248 0.469932
367.117126 -561.605408 6.650280 0.563821
367.105530 -561.621155 5.914164 0.511727
367.094055 -561.636658 5.188080 0.618662
367.082764 -561.651978 4.470295 0.474403
367.071533 -561.667236 3.759155 0.554681
367.060394 -561.682312 3.053062 0.466377
367.049316 -561.697327 2.350464 0.560632
367.038269 -561.712341 1.649840 0.563348
367.027222 -561.727295 0.949685 1.000000
367.016144 -561.742371 0.248500 1.000000
364.656464 -564.942078 -0.000014 0.232045
362.340393 -568.082703 -0.000012 0.214416
360.861786 -570.087708 -0.000011 0.231506
359.834076 -571.481323 -0.000010 0.195591
359.076935 -572.507996 -0.000010 0.229244
367.165314 -561.791870 7.362973 0.586450
367.153564 -561.807556 6.619921 0.504051
367.141998 -561.823059 5.888633 0.653361
367.130585 -561.838257 5.167303 0.593240
367.119324 -561.853333 4.454209 0.605081
367.108154 -561.868286 3.747709 0.596216
367.097046 -561.883118 3.046216 0.526116
367.085999 -561.897888 2.348188 0.664088
367.074982 -561.912598 1.652112 0.553445
367.063965 -561.927307 0.956495 1.000000
367.052948 -561.942078 0.259846 1.000000
364.753906 -565.014465 -0.000013 0.245640
362.415955 -568.138855 -0.000012 0.213016
360.923370 -570.133484 -0.000011 0.217073
359.885986 -571.519836 -0.000010 0.212394
359.121674 -572.541260 -0.000010 0.222818
367.201202 -561.991760 7.328396 0.526970
367.189514 -562.007202 6.590166 0.723842
367.178009 -562.022339 5.863612 0.545464
367.166626 -562.037354 5.146942 0.509941
367.155396 -562.052124 4.438448 0.694118
367.144287 -562.066772 3.736496 0.554543
367.133240 -562.081360 3.039510 0.517250
367.122223 -562.095825 2.345958 0.621042
367.111237 -562.110291 1.654339 0.552682
367.100250 -562.124756 0.963168 1.000000
367.089264 -562.139221 0.270964 1.000000
364.850830 -565.087524 -0.000013 0.217205
362.491119 -568.195496 -0.000012 0.210730
360.984650 -570.179688 -0.000011 0.271419
359.937592 -571.558777 -0.000010 0.198894
359.166199 -572.574829 -0.000010 0.238065
367.236664 -562.189087 7.294529 0.494285
367.225006 -562.204224 6.561016 0.636805
367.213531 -562.219116 5.839098 0.623362
367.202209 -562.233826 5.126994 0.652201
367.191040 -562.248352 4.423004 0.510460
367.179932 -562.262756 3.725508 0.485740
367.168945 -562.277039 3.032938 0.474418
367.157990 -562.291260 2.343773 0.508812
367.147034 -562.305481 1.656521 0.516350
367.136078 -562.319702 0.969706 1.000000
367.125122 -562.333923 0.281857 1.000000
364.947235 -565.161255 -0.000013 0.216331
362.565887 -568.252686 -0.000012 0.216977
361.045624 -570.226318 -0.000011 0.212908
359.988953 -571.598022 -0.000011 0.202412
359.210480 -572.608643 -0.000010 0.252881
367.271698 -562.383911 7.261357 0.524971
367.260101 -562.398804 6.532463 0.489830
367.248657 -562.413452 5.815085 0.596094
367.237366 -562.427856 5.107451 0.453956
367.226227 -562.442139 4.407876 0.507942
367.215179 -562.456238 3.714743 0.472175
367.204193 -562.470276 3.026500 0.476341
367.193268 -562.484253 2.341632 0.573541
367.182373 -562.498230 1.658658 0.598428
367.171478 -562.512207 0.976112 1.000000
367.160553 -562.526184 0.292531 1.000000
365.043121 -565.235657 -0.000014 0.231075
362.640259 -568.310364 -0.000012 0.209390
361.106232 -570.273315 -0.000011 0.205931
360.040039 -571.637634 -0.000011 0.241966
359.254517 -572.642822 -0.000010 0.229125
367.306305 -562.576294 7.228847 0.526467
367.294739 -562.590942 6.504485 0.611933
367.283325 -562.605286 5.791555 0.586191
367.272095 -562.619446 5.088304 0.354681
367.260986 -562.633484 4.393051 0.236728
367.249969 -562.647339 3.704195 0.230213
367.239044 -562.661194 3.020189 0.218677
367.228149 -562.674927 2.339533 0.621149
367.217285 -562.688599 1.660753 0.744503
367.206421 -562.702332 0.982390 1.000000
367.195526 -562.716064 0.302992 1.000000
365.138489 -565.310730 -0.000014 0.221214
362.714233 -568.368591 -0.000012 0.256028
361.166534 -570.320801 -0.000011 0.229173
360.090820 -571.677673 -0.000010 0.210706
359.298309 -572.677307 -0.000010 0.279007
367.340485 -562.766357 7.196993 0.657252
367.328949 -562.780701 6.477066 0.554009
367.317596 -562.794800 5.768497 0.533623
367.306396 -562.808716 5.069539 0.357168
367.295319 -562.822510 4.378522 0.200793
367.284332 -562.836182 3.693856 0.205493
367.273438 -562.849731 3.014006 0.245121
367.262573 -562.863220 2.337477 0.668635
367.251770 -562.876648 1.662805 0.575662
367.240936 -562.890137 0.988542 1.000000
367.230072 -562.903625 0.313243 1.000000
365.233337 -565.386414 -0.000014 0.226444
362.787781 -568.427307 -0.000012 0.225259
361.226501 -570.368652 -0.000011 0.240542
360.141357 -571.717957 -0.000011 0.195746
359.341858 -572.712097 -0.000010 0.228478
367.374268 -562.954102 7.165775 0.648692
367.362762 -562.968201 6.450197 0.670954
367.351440 -562.982056 5.745900 0.484123
367.340302 -562.995728 5.051148 0.349783
367.329254 -563.009277 4.364283 0.608499
367.318298 -563.022705 3.683723 0.499718
367.307434 -563.036011 3.007945 0.466148
367.296600 -563.049255 2.335462 0.694804
367.285828 -563.062500 1.664817 0.498558
367.275055 -563.075684 0.994572 1.000000
367.264221 -563.088989 0.323290 1.000000
365.327667 -565.462830 -0.000014 0.234929
362.860931 -568.486572 -0.000012 0.252701
361.286133 -570.416992 -0.000011 0.216654
360.191589 -571.758667 -0.000011 0.241296
359.385193 -572.747192 -0.000010 0.209916
367.407623 -563.139587 7.135178 0.497017
367.396179 -563.153442 6.423862 0.569924
367.384888 -563.167053 5.723754 0.514656
367.373779 -563.180542 5.033123 0.897154
367.362762 -563.193848 4.350327 0.803891
367.351837 -563.207031 3.673793 0.723598
367.341034 -563.220093 3.002005 0.611048
367.330231 -563.233093 2.333486 0.472129
367.319489 -563.246094 1.666789 0.554177
367.308746 -563.259094 1.000482 1.000000
367.297974 -563.272156 0.333137 1.000000
365.421448 -565.539856 -0.000014 0.215637
362.933655 -568.546326 -0.000012 0.215254
361.345428 -570.465698 -0.000011 0.217336
360.241547 -571.799683 -0.000011 0.203238
359.428253 -572.782532 -0.000010 0.203166
367.440613 -563.322937 7.105188 0.545068
367.429199 -563.336548 6.398049 0.629648
367.417969 -563.349915 5.702045 0.584802
367.406860 -563.363159 5.015456 0.618585
367.395905 -563.376221 4.336649 0.669017
367.385010 -563.389160 3.664060 0.557260
367.374237 -563.402039 2.996183 0.625620
367.363464 -563.414795 2.331551 0.605936
367.352783 -563.427551 1.668722 0.568185
367.342041 -563.440369 1.006275 1.000000
367.331299 -563.453186 0.342790 1.000000
365.514679 -565.617615 -0.000014 0.231099
363.005951 -568.606567 -0.000012 0.206529
361.404358 -570.514832 -0.000011 0.200665
360.291199 -571.841125 -0.000010 0.217420
359.471069 -572.818237 -0.000010 0.207595
367.473206 -563.504150 7.075792 0.583764
367.461823 -563.517517 6.372746 0.499855
367.450623 -563.530640 5.680765 0.613138
367.439575 -563.543640 4.998138 0.631113
367.428650 -563.556519 4.323241 0.558404
367.417816 -563.569214 3.654520 0.597833
367.407043 -563.581848 2.990477 0.620066
367.396332 -563.594421 2.329653 0.640589
367.385651 -563.606995 1.670617 0.516503
367.374969 -563.619507 1.011953 1.000000
367.364258 -563.632141 0.352252 1.000000
365.607361 -565.695923 -0.000014 0.222973
363.077850 -568.667358 -0.000012 0.222842
361.462982 -570.564331 -0.000011 0.225630
360.340576 -571.882813 -0.000010 0.216965
359.513641 -572.854248 -0.000010 0.220137
367.505432 -563.683289 7.046982 0.670222
367.494110 -563.696411 6.347948 0.568490
367.482910 -563.709351 5.659906 0.567819
367.471924 -563.722107 4.981163 0.536492
367.461029 -563.734741 4.310098 0.465156
367.450226 -563.747253 3.645169 0.640925
367.439484 -563.759644 2.984883 0.551781
367.428833 -563.772034 2.327792 0.615152
367.418182 -563.784363 1.672474 0.525689
367.407532 -563.796692 1.017519 1.000000
367.396851 -563.809021 0.361527 1.000000
365.699524 -565.774963 -0.000014 0.238400
363.149323 -568.728638 -0.000012 0.245461
361.521240 -570.614319 -0.000012 0.245928
360.389648 -571.924927 -0.000011 0.242768
359.555969 -572.890503 -0.000010 0.235192
367.537323 -563.860352 7.018744 0.631724
367.526001 -563.873291 6.323641 0.526757
367.514862 -563.886047 5.639462 0.547295
367.503876 -563.898560 4.964521 0.550835
367.493042 -563.910950 4.297215 0.592813
367.482269 -563.923279 3.636002 0.638041
367.471588 -563.935486 2.979400 0.704402
367.460938 -563.947632 2.325969 0.596399
367.450348 -563.959717 1.674294 0.551125
367.439728 -563.971863 1.022976 1.000000
367.429077 -563.984009 0.370619 1.000000
365.791107 -565.854553 -0.000014 0.224888
363.220337 -568.790405 -0.000012 0.210718
361.579132 -570.664673 -0.000012 0.236724
360.438446 -571.967346 -0.000011 0.212489
359.598022 -572.927063 -0.000010 0.217827
367.568848 -564.035522 6.991062 0.567269
367.557587 -564.048218 6.299814 0.631205
367.546478 -564.060730 5.619423 0.611414
367.535522 -564.073059 4.948214 0.745724
367.524689 -564.085266 4.284585 0.778515
367.513977 -564.097351 3.627015 0.631708
367.503326 -564.109314 2.974025 0.583612
367.492706 -564.121277 2.324182 0.598291
367.482147 -564.133179 1.676079 0.535302
367.471558 -564.145081 1.028325 1.000000
367.460938 -564.157043 0.379533 1.000000
365.882141 -565.934875 -0.000014 0.255071
363.290955 -568.852661 -0.000012 0.180415
361.636688 -570.715393 -0.000012 0.208313
360.486938 -572.010071 -0.000011 0.243702
359.639832 -572.963928 -0.000010 0.208432
367.600067 -564.208740 6.963933 0.573175
367.588806 -564.221252 6.276460 0.620737
367.577759 -564.233521 5.599781 0.486824
367.566833 -564.245667 4.932225 0.564889
367.556030 -564.257629 4.272206 0.673136
367.545319 -564.269531 3.618205 0.544717
367.534698 -564.281311 2.968755 0.546288
367.524139 -564.293030 2.322429 0.561181
367.513580 -564.304749 1.677829 0.522972
367.503052 -564.316467 1.033569 1.000000
367.492462 -564.328186 0.388271 1.000000
365.972595 -566.015747 -0.000014 0.220639
363.361115 -568.915405 -0.000012 0.219802
361.693909 -570.766541 -0.000011 0.274483
360.535126 -572.053162 -0.000011 0.230740
359.681396 -573.001099 -0.000010 0.224481
367.630951 -564.380066 6.937336 0.573526
367.619720 -564.392334 6.253568 0.604562
367.608704 -564.404419 5.580528 0.480171
367.597809 -564.416382 4.916554 0.767697
367.587036 -564.428162 4.260073 0.741329
367.576355 -564.439819 3.609569 0.726574
367.565765 -564.451416 2.963589 0.705318
367.555206 -564.463013 2.320711 0.570260
367.544708 -564.474487 1.679544 0.451530
367.534180 -564.486023 1.038711 1.000000
367.523651 -564.497559 0.396839 1.000000
366.062500 -566.097290 -0.000014 0.226025
363.430847 -568.978638 -0.000012 0.216175
361.750732 -570.818115 -0.000011 0.232799
360.583008 -572.096619 -0.000011 0.204243
359.722687 -573.038574 -0.000010 0.234474
367.661469 -564.549622 6.911250 0.598520
367.650269 -564.561707 6.231116 0.454246
367.639282 -564.573547 5.561646 0.573144
367.628418 -564.585266 4.901187 0.482231
367.617676 -564.596863 4.248174 0.553201
367.607056 -564.608398 3.601102 0.562783
367.596497 -564.619751 2.958524 0.545754
367.585968 -564.631104 2.319026 0.565698
367.575470 -564.642456 1.681226 0.595346
367.565002 -564.653748 1.043751 1.000000
367.554504 -564.665100 0.405239 1.000000
366.151855 -566.179443 -0.000014 0.225702
363.500122 -569.042358 -0.000013 0.212789
361.807220 -570.870056 -0.000012 0.228802
360.630585 -572.140381 -0.000011 0.259260
359.763702 -573.076294 -0.000010 0.189607
367.691681 -564.717407 6.885684 0.614694
367.680542 -564.729248 6.209107 0.621424
367.669556 -564.740906 5.543134 0.493065
367.658722 -564.752441 4.886120 0.340978
367.648041 -564.763855 4.236507 0.297673
367.637421 -564.775146 3.592801 0.331960
367.626892 -564.786377 2.953559 0.303304
367.616425 -564.797485 2.317376 0.596765
367.605957 -564.808655 1.682875 0.593484
367.595520 -564.819763 1.048693 1.000000
367.585022 -564.830933 0.413475 1.000000
366.240601 -566.262268 -0.000014 0.212992
363.568939 -569.106567 -0.000013 0.205201
361.863342 -570.922424 -0.000012 0.233278
360.677856 -572.184448 -0.000011 0.223260
359.804474 -573.114319 -0.000011 0.192695
367.721588 -564.883423 6.860618 0.704997
367.710480 -564.895081 6.187531 0.685725
367.699524 -564.906555 5.524986 0.439902
367.688751 -564.917908 4.871349 0.363195
367.678070 -564.929138 4.225070 0.243626
367.667480 -564.940186 3.584663 0.234546
367.657013 -564.951233 2.948691 0.219730
367.646545 -564.962158 2.315757 0.643854
367.636108 -564.973145 1.684491 0.549691
367.625702 -564.984070 1.053539 1.000000
367.615234 -564.995056 0.421548 1.000000
366.328766 -566.345642 -0.000014 0.239034
363.637329 -569.171265 -0.000012 0.241847
361.919067 -570.975159 -0.000012 0.208971
360.724823 -572.228882 -0.000011 0.202436
359.844971 -573.152649 -0.000010 0.230704
367.751190 -565.047791 6.836044 0.542382
367.740112 -565.059204 6.166378 0.596857
367.729218 -565.070496 5.507195 0.604471
367.718445 -565.081665 4.856869 0.360220
367.707794 -565.092712 4.213858 0.186435
367.697266 -565.103577 3.576684 0.221393
367.686798 -565.114441 2.943918 0.239750
367.676392 -565.125183 2.314169 0.685802
367.665985 -565.135986 1.686076 0.556863
367.655579 -565.146729 1.058289 1.000000
367.645142 -565.157532 0.429465 1.000000
366.416351 -566.429688 -0.000014 0.219646
363.705261 -569.236389 -0.000013 0.192994
361.974457 -571.028259 -0.000012 0.215781
360.771484 -572.273682 -0.000011 0.213183
359.885193 -573.191223 -0.000011 0.227605
367.780518 -565.210449 6.811954 0.526024
367.769470 -565.221741 6.145638 0.544106
367.758575 -565.232849 5.489750 0.664271
367.747833 -565.243774 4.842670 0.446967
367.737244 -565.254639 4.202867 0.569970
367.726746 -565.265320 3.568862 0.501366
367.716309 -565.276001 2.939239 0.467796
367.705933 -565.286621 2.312613 0.711498
367.695557 -565.297180 1.687629 0.522347
367.685181 -565.307800 1.062947 1.000000
367.674774 -565.318420 0.437227 1.000000
366.503357 -566.514282 -0.000014 0.219646
363.772736 -569.302002 -0.000013 0.218246
362.029480 -571.081726 -0.000012 0.217480
360.817841 -572.318726 -0.000011 0.185562
359.925140 -573.230103 -0.000011 0.250332
367.809540 -565.371521 6.788338 0.561181
367.798523 -565.382629 6.125307 0.578042
367.787659 -565.393555 5.472648 0.781460
367.776978 -565.404297 4.828753 0.941054
367.766388 -565.414978 4.192090 0.760678
367.755920 -565.425476 3.561193 0.714534
367.745514 -565.435974 2.934651 0.720333
367.735168 -565.446411 2.311088 0.731395
367.724792 -565.456848 1.689153 0.526940
367.714447 -565.467224 1.067513 1.000000
367.704102 -565.477661 0.444837 1.000000
366.589783 -566.599548 -0.000014 0.210180
363.839752 -569.368103 -0.000012 0.216714
362.084106 -571.135620 -0.000011 0.235145
360.863861 -572.364136 -0.000011 0.254700
359.964844 -573.269226 -0.000010 0.195519
