# This PCD file was generated using the MATLABÂ® pcwrite function
# from Computer Vision ToolboxÂ®.
# .PCD v.7 - Point Cloud Data file format
VERSION .7
FIELDS x y z intensity
SIZE 4 4 4 4
TYPE F F F F
COUNT 1 1 1 1
WIDTH 1170
HEIGHT 1
VIEWPOINT 0 0 0 1 0 0 0
POINTS 1170
DATA ascii
358.187988 -262.050507 4.883610 0.396078
381.886230 -263.709290 4.894760 0.409934
nan nan nan 0.000000
nan nan nan 0.000000
363.719391 -262.437683 -0.000097 0.234438
347.439117 -261.298096 -0.000095 0.227521
340.449402 -260.808838 -0.000094 0.228586
336.556488 -260.536346 -0.000093 0.218461
334.070709 -260.362366 -0.000003 0.331182
332.343384 -260.241455 0.000003 0.340826
331.070801 -260.152374 0.000006 0.335546
340.135132 -260.906372 6.278243 0.396689
340.041626 -260.899170 5.668607 0.396948
340.649048 -260.945953 5.201542 0.400763
338.674225 -260.793854 4.316186 0.397345
339.660187 -260.869812 3.910060 0.399390
339.629181 -260.867401 3.358847 0.396078
356.594238 -262.173981 3.650049 0.399161
nan nan nan 0.000000
nan nan nan 0.000000
363.698547 -262.721130 -0.000097 0.226516
347.426636 -261.467926 -0.000095 0.236664
340.440491 -260.929901 -0.000094 0.225486
336.549591 -260.630219 -0.000093 0.230441
334.065094 -260.438873 -0.000003 0.321218
332.338654 -260.305908 0.000003 0.335714
331.066711 -260.207977 0.000006 0.338613
nan nan nan 0.000000
338.435211 -260.883179 5.322494 0.401282
340.545349 -261.060516 5.184407 0.401038
341.167297 -261.112793 4.688607 0.401511
340.672729 -261.071228 4.028029 0.401953
371.465454 -263.659119 5.979238 0.408713
355.897095 -262.350708 3.616609 0.410224
nan nan nan 0.000000
nan nan nan 0.000000
363.675751 -263.004456 -0.000097 0.225905
347.412964 -261.637695 -0.000095 0.222291
340.430756 -261.050873 -0.000094 0.212406
336.542023 -260.724060 -0.000093 0.216427
334.059418 -260.515411 -0.000091 0.208923
332.333466 -260.370361 0.000003 0.337728
331.062256 -260.263519 0.000006 0.339208
338.341370 -260.982452 5.832089 0.370672
337.731049 -260.926880 5.171811 0.391730
341.158447 -261.239044 5.298376 0.410559
340.505188 -261.179535 4.591628 0.403098
339.391785 -261.078125 3.881298 0.401358
340.819000 -261.208130 3.458406 0.396857
355.659332 -262.559753 3.605868 0.395727
372.733398 -264.114807 2.815461 0.376196
372.574310 -264.100311 1.187151 0.377279
363.650940 -263.287598 -0.000097 0.228670
347.398102 -261.807343 -0.000096 0.230429
340.420166 -261.171783 -0.000094 0.230549
336.533813 -260.817841 -0.000093 0.234977
334.052704 -260.591858 -0.000092 0.253515
332.327820 -260.434753 0.000004 0.342306
331.057373 -260.319061 0.000006 0.341268
339.091248 -261.163361 6.023358 0.395361
338.989899 -261.153412 5.447100 0.395438
341.082275 -261.358704 5.286625 0.398108
340.804504 -261.331451 4.637951 0.406027
338.985840 -261.153015 3.835616 0.394430
342.227631 -261.471100 3.575424 0.394247
355.653229 -262.788452 3.606628 0.399359
nan nan nan 0.000000
372.611664 -264.452423 1.186000 0.388418
363.624176 -263.570557 -0.000097 0.224158
347.382080 -261.976868 -0.000096 0.225211
340.408722 -261.292633 -0.000094 0.222758
336.524963 -260.911560 -0.000093 0.248046
334.045502 -260.668274 -0.000091 0.234139
332.321747 -260.499115 0.000004 0.348226
331.052124 -260.374542 0.000006 0.339345
nan nan nan 0.000000
339.161316 -261.283478 5.486772 0.406760
340.257538 -261.398773 5.138064 0.396078
356.810730 -263.139771 7.027223 0.407370
338.752197 -261.240448 3.809892 0.405676
341.428253 -261.521912 3.510637 0.398489
357.645081 -263.227509 3.706162 0.404562
nan nan nan 0.000000
nan nan nan 0.000000
363.595428 -263.853333 -0.000097 0.228000
347.364868 -262.146271 -0.000095 0.232284
340.396454 -261.413391 -0.000094 0.232129
336.515442 -261.005188 -0.000093 0.237694
334.037720 -260.744598 -0.000092 0.232799
332.315186 -260.563446 0.000003 0.341955
331.046478 -260.429993 0.000006 0.333211
357.440796 -263.448547 10.654455 0.407218
340.125854 -261.505157 5.699047 0.404257
338.865784 -261.363708 4.885618 0.397452
338.205139 -261.289581 4.253830 0.391470
338.875122 -261.364777 3.825498 0.389075
341.313049 -261.638397 3.502279 0.396185
358.588989 -263.577423 3.754120 0.401404
389.789795 -267.079376 3.098063 0.365255
389.556152 -267.053131 0.905786 0.387793
363.564728 -264.135895 -0.000098 0.234486
347.346436 -262.315582 -0.000095 0.222722
340.383331 -261.534058 -0.000094 0.212382
336.505249 -261.098785 -0.000093 0.222626
334.029449 -260.820892 -0.000092 0.232751
332.262238 -260.622559 0.009996 1.000000
331.040466 -260.485413 0.000006 0.335378
357.003448 -263.639282 10.551126 0.395407
341.039703 -261.734589 5.900813 0.410742
338.644745 -261.448853 4.847448 0.405890
338.583527 -261.441559 4.312179 0.400748
338.613464 -261.445129 3.796658 0.397024
340.889862 -261.716736 3.468547 0.403296
358.489197 -263.816559 3.750599 0.400305
391.382446 -267.741180 3.125196 0.405554
357.100403 -263.650848 1.439771 0.386175
363.532043 -264.418243 -0.000098 0.232188
347.326874 -262.484741 -0.000095 0.225331
340.369385 -261.654633 -0.000094 0.215721
336.494446 -261.192291 -0.000093 0.237921
334.020599 -260.897125 -0.000092 0.268331
332.254822 -260.686432 0.009999 1.000000
331.034058 -260.540802 0.000007 0.336294
338.385742 -261.526245 5.857863 0.400214
338.232941 -261.506927 5.293134 0.400168
339.898468 -261.717438 5.079828 0.369390
337.479309 -261.411652 4.149066 0.424964
338.551758 -261.547211 3.791044 0.397589
341.375671 -261.904144 3.509959 0.402426
357.053375 -263.885834 3.681005 0.371618
356.989899 -263.877808 2.558887 0.395056
356.969513 -263.875214 1.441449 0.376181
357.003967 -263.879578 0.321442 0.377691
347.306091 -262.653778 -0.000095 0.249685
340.354584 -261.775085 -0.000094 0.246550
336.482971 -261.285706 -0.000093 0.202903
334.011261 -260.973297 -0.000092 0.227976
332.246948 -260.750275 0.010004 1.000000
331.027252 -260.596130 0.000006 0.348119
341.432495 -262.041443 6.631311 0.400931
338.276764 -261.620148 5.305667 0.397177
338.399475 -261.636536 4.807453 0.394659
337.614777 -261.531769 4.171288 0.392050
338.491333 -261.648804 3.785657 0.395911
341.683807 -262.075012 3.536819 0.396994
358.647980 -264.339722 3.761562 0.414939
nan nan nan 0.000000
nan nan nan 0.000000
357.063568 -264.128174 0.316964 0.370306
347.284149 -262.822632 -0.000095 0.224852
340.338928 -261.895447 -0.000094 0.224134
336.470825 -261.379059 -0.000093 0.245485
334.001373 -261.049408 -0.000091 0.198272
332.238678 -260.814087 0.010002 1.000000
331.020081 -260.651398 0.000006 0.315969
341.350555 -262.160278 6.615012 0.400854
341.434387 -262.172058 5.997521 0.399847
338.486572 -261.757568 4.826147 0.408865
337.547302 -261.625488 4.163258 0.405432
341.342773 -262.159180 4.118626 0.399283
341.564911 -262.190399 3.528445 0.396246
359.001617 -264.642212 3.780793 0.390265
nan nan nan 0.000000
nan nan nan 0.000000
363.422150 -265.263794 -0.000097 0.226731
347.261047 -262.991364 -0.000096 0.221633
340.322479 -262.015717 -0.000094 0.225738
336.458038 -261.472321 -0.000093 0.213064
333.990936 -261.125427 -0.000091 0.203142
332.275787 -260.884247 0.000004 0.346944
331.012512 -260.706604 0.000007 0.326284
341.246796 -262.274963 6.593387 0.394308
341.740479 -262.347900 6.068378 0.396078
338.209381 -261.826233 4.778006 0.389090
338.320770 -261.842682 4.281415 0.408759
355.837891 -264.430634 5.806391 0.404303
341.927399 -262.375519 3.560029 0.392844
355.648041 -264.402588 3.616046 0.417197
nan nan nan 0.000000
nan nan nan 0.000000
363.381592 -265.545135 -0.000097 0.223608
347.236725 -263.159912 -0.000095 0.239585
340.305145 -262.135834 -0.000093 0.219981
336.444611 -261.565491 -0.000092 0.220412
333.979980 -261.201385 -0.000091 0.205955
332.266571 -260.948242 0.000004 0.330083
331.004547 -260.761780 0.000007 0.333272
356.817444 -264.816101 10.544991 0.416052
355.819763 -264.661560 9.149761 0.396078
338.180481 -261.929596 4.775620 0.400473
337.330139 -261.797913 4.135128 0.400534
358.551971 -265.084717 6.126363 0.397848
356.030823 -264.694244 4.731880 0.403708
359.049469 -265.161774 3.786849 0.398352
nan nan nan 0.000000
nan nan nan 0.000000
363.339050 -265.826141 -0.000096 0.227617
347.211243 -263.328278 -0.000095 0.226372
340.286987 -262.255859 -0.000093 0.224338
336.430511 -261.658569 -0.000092 0.201048
333.968506 -261.277252 -0.000091 0.205440
332.257324 -261.012238 -0.000089 0.203849
330.996216 -260.816895 0.000007 0.329747
342.568146 -262.748444 6.938630 0.392035
341.632568 -262.596832 6.053573 0.404562
338.151550 -262.032806 4.773361 0.414694
337.438507 -261.917267 4.153776 0.395483
355.562469 -264.854004 5.782530 0.410056
357.998901 -265.248779 4.898381 0.407980
364.770935 -266.346100 4.073570 0.400259
nan nan nan 0.000000
nan nan nan 0.000000
363.294586 -266.106873 -0.000097 0.233888
347.184601 -263.496490 -0.000095 0.224110
340.267975 -262.375732 -0.000094 0.247783
336.415802 -261.751526 -0.000092 0.248201
333.956512 -261.353058 -0.000091 0.195016
332.247192 -261.076080 -0.000089 0.198858
330.987488 -260.871948 0.000007 0.345586
341.829620 -262.763092 6.756725 0.403738
356.197174 -265.194214 9.248635 0.404532
340.971954 -262.617950 5.297054 0.399161
337.376160 -262.009521 4.146887 0.397848
355.589447 -265.091370 5.790056 0.395651
356.431244 -265.233795 4.771367 0.405066
nan nan nan 0.000000
nan nan nan 0.000000
340.162048 -262.480927 1.716926 0.365560
363.248138 -266.387299 -0.000097 0.232643
347.156769 -263.664490 -0.000095 0.238759
340.248138 -262.495483 -0.000093 0.228598
336.400421 -261.844421 -0.000092 0.206841
333.943970 -261.428741 -0.000091 0.213794
332.236633 -261.139862 -0.000090 0.249937
330.978363 -260.926941 0.000007 0.334051
339.017334 -262.401611 6.047151 0.376135
356.784882 -265.535797 9.386276 0.408759
338.611115 -262.329956 4.864832 0.405249
337.524689 -262.138306 4.171853 0.397024
340.080750 -262.589203 3.982954 0.358999
340.063904 -262.586243 3.411949 0.384253
340.019318 -262.578369 2.843732 0.384421
339.967773 -262.569275 2.280187 0.347738
339.934753 -262.563446 1.720362 0.371603
339.974976 -262.570526 1.158480 0.384024
340.064697 -262.586365 0.587986 0.383185
339.976105 -262.570740 0.029273 0.388937
336.384369 -261.937164 -0.000092 0.209749
333.930908 -261.504364 -0.000091 0.209150
332.225616 -261.203552 -0.000089 0.215290
330.968872 -260.981873 0.000007 0.334691
339.735535 -262.648163 6.235147 0.407553
340.008209 -262.698242 5.711581 0.389807
340.011047 -262.698761 5.127421 0.392111
337.568207 -262.250244 4.181149 0.400519
340.031616 -262.702515 3.979699 0.383215
340.005341 -262.697693 3.408841 0.371252
339.959595 -262.689301 2.841811 0.378820
339.908051 -262.679840 2.279545 0.379583
339.884033 -262.675415 1.720854 0.364401
339.913940 -262.680908 1.160469 0.356222
339.968628 -262.690948 0.594220 0.361852
339.891052 -262.676727 0.036741 0.398749
336.367706 -262.029816 -0.000092 0.217013
333.917297 -261.579895 -0.000091 0.233828
332.214172 -261.267181 -0.000089 0.260062
330.919800 -261.029541 0.009996 1.000000
338.762665 -262.582672 5.992598 0.397848
nan nan nan 0.000000
338.237335 -262.482422 4.802952 0.396399
338.716797 -262.573914 4.357449 0.396658
nan nan nan 0.000000
340.075745 -262.833252 3.416561 0.389013
340.009857 -262.820679 2.845425 0.369406
339.950623 -262.809387 2.280620 0.360082
339.970551 -262.813171 1.719048 0.374136
339.951447 -262.809540 1.157495 0.374014
339.926086 -262.804688 0.595933 0.401877
339.839203 -262.788116 0.040248 0.413565
336.350372 -262.122345 -0.000092 0.194705
333.903168 -261.655334 -0.000090 0.197984
332.202271 -261.330750 -0.000089 0.185981
330.909576 -261.084045 0.009997 1.000000
341.698486 -263.277649 6.747692 0.399390
nan nan nan 0.000000
338.499725 -262.644043 4.855428 0.396078
356.905579 -266.289825 7.111124 0.396170
363.959808 -267.687103 6.791181 0.395743
341.535522 -263.245361 3.540505 0.402075
365.380310 -267.968475 4.117159 0.398566
392.219879 -273.284821 3.152948 0.601434
392.230133 -273.286835 0.846879 0.604334
363.042816 -267.505463 -0.000096 0.231805
340.005402 -262.942261 0.587395 0.401907
339.915100 -262.924377 0.028682 0.394598
336.332397 -262.214722 -0.000092 0.243247
333.888519 -261.730652 -0.000090 0.216032
332.189941 -261.394196 -0.000089 0.236270
330.898987 -261.138489 0.009997 1.000000
341.709412 -263.414978 6.757178 0.396078
339.277527 -262.915588 5.565619 0.377218
340.992706 -263.267792 5.322530 0.402243
342.064270 -263.487823 4.870893 0.398795
365.428558 -268.285522 6.970425 0.407843
341.577545 -263.387878 3.546195 0.402014
362.612793 -267.707336 3.981347 0.389899
390.364258 -273.405914 3.123576 1.000000
390.929077 -273.521881 0.866989 0.637430
362.986603 -267.784088 -0.000095 0.229508
347.000061 -264.501373 -0.000093 0.220077
340.136475 -263.091980 -0.000093 0.222435
336.313782 -262.307007 -0.000091 0.219538
333.873352 -261.805878 -0.000090 0.247459
332.177155 -261.457581 -0.000089 0.210586
330.888031 -261.192871 0.009998 1.000000
337.892303 -262.738892 5.786610 0.403845
nan nan nan 0.000000
339.167419 -263.010010 4.987834 0.400610
342.263550 -263.668335 4.905302 0.396078
341.583313 -263.523712 4.173181 0.394980
342.066254 -263.626404 3.589419 0.401160
389.108612 -273.628998 5.314995 1.000000
389.118225 -273.631042 3.104371 1.000000
364.180237 -268.328461 1.312836 0.375784
362.928467 -268.062317 -0.000095 0.229448
346.965240 -264.668060 -0.000093 0.233996
340.111633 -263.210785 -0.000092 0.231063
336.294525 -262.399139 -0.000091 0.218497
333.857666 -261.881012 -0.000090 0.218425
332.163910 -261.520874 -0.000088 0.223392
330.915680 -261.255463 0.000008 0.323674
nan nan nan 0.000000
341.597107 -263.661774 6.089180 0.412863
363.805389 -268.546204 9.582525 0.404669
338.268890 -262.929779 4.302983 0.407584
338.708557 -263.026459 3.837847 0.394232
341.546204 -263.650574 3.548160 0.397116
364.169373 -268.626251 4.065536 0.365103
364.023071 -268.594086 2.685568 0.373922
363.982819 -268.585236 1.315105 0.366217
362.868378 -268.340118 -0.000094 0.226252
346.929230 -264.834503 -0.000093 0.221429
340.085968 -263.329407 -0.000091 0.242505
336.274628 -262.491150 -0.000090 0.230513
333.841431 -261.955994 -0.000089 0.282011
332.150238 -261.584045 -0.000088 0.213961
330.903900 -261.309937 0.000008 0.343038
337.957367 -262.970123 5.814973 0.400031
nan nan nan 0.000000
339.320526 -263.279907 5.025592 0.395117
339.455078 -263.310486 4.487018 0.404120
338.730774 -263.145874 3.843338 0.401083
365.619324 -269.256805 5.574796 0.396170
363.243500 -268.716858 4.022117 0.406668
387.009827 -274.118164 3.072385 1.000000
387.283844 -274.180450 0.923016 0.618219
362.806335 -268.617493 -0.000094 0.228263
346.892090 -265.000702 -0.000093 0.216654
340.059479 -263.447876 -0.000091 0.219945
336.254089 -262.583008 -0.000090 0.226312
333.824677 -262.030884 -0.000089 0.241727
332.136139 -261.647156 -0.000088 0.271156
330.891754 -261.364319 0.000008 0.331487
339.069519 -263.340271 6.107271 0.394888
341.513641 -263.913696 6.083656 0.394018
340.674500 -263.716827 5.283525 0.405585
339.235992 -263.379333 4.457651 0.400900
350.609192 -266.047729 5.249923 0.406302
364.902649 -269.401276 5.520204 0.404013
362.920227 -268.936157 4.009068 0.407034
385.878326 -274.322632 3.055098 1.000000
386.147400 -274.385742 0.940381 0.606683
362.742371 -268.894440 -0.000093 0.231052
346.853760 -265.166626 -0.000092 0.236461
340.032166 -263.566132 -0.000091 0.224433
336.232910 -262.674744 -0.000089 0.221190
333.807404 -262.105652 -0.000088 0.214799
332.121582 -261.710144 -0.000087 0.231794
330.879547 -261.418732 -0.000086 0.210598
338.137146 -263.232422 5.873824 0.398764
341.052917 -263.938019 5.988076 0.396078
338.984985 -263.437592 4.972706 0.399466
338.870117 -263.409790 4.405907 0.399481
338.776489 -263.387146 3.854798 0.395712
342.076630 -264.185760 3.600413 0.396078
365.591766 -269.876404 4.147445 0.395392
385.038666 -274.582550 3.042718 0.598459
385.046967 -274.584564 0.957143 0.645258
362.676483 -269.170929 -0.000093 0.232320
346.814270 -265.332275 -0.000092 0.226097
340.004028 -263.684204 -0.000090 0.247412
336.211090 -262.766296 -0.000089 0.203537
333.789612 -262.180298 -0.000088 0.254736
332.106598 -261.773010 -0.000087 0.201635
330.866638 -261.472961 -0.000085 0.268236
339.195374 -263.607605 6.153663 0.397345
338.300751 -263.384491 5.382305 0.394675
350.729187 -266.484161 7.180192 0.407202
338.934967 -263.542664 4.419948 0.403113
350.067810 -266.319214 5.196734 0.393179
341.950134 -264.294647 3.592470 0.410117
384.667053 -274.948334 5.116946 0.685130
384.666962 -274.948334 3.038239 0.647684
384.666870 -274.948303 0.961764 0.628397
362.608643 -269.446930 -0.000093 0.228215
346.773621 -265.497650 -0.000091 0.226947
339.975067 -263.802063 -0.000090 0.219167
336.188629 -262.857727 -0.000089 0.251505
333.771301 -262.254822 -0.000087 0.257680
332.091187 -261.835815 -0.000086 0.249051
330.853333 -261.527100 -0.000085 0.247866
338.810730 -263.628326 6.061533 0.400900
338.431152 -263.530853 5.417369 0.396841
338.789734 -263.622955 4.946396 0.394797
339.018585 -263.681732 4.437035 0.400153
349.907166 -266.478241 5.183307 0.406577
341.823578 -264.402130 3.584575 0.417472
384.759094 -275.429291 5.127128 0.662272
384.759064 -275.429291 3.041631 0.560281
384.758972 -275.429260 0.958372 0.650202
362.538910 -269.722473 -0.000093 0.227760
346.731842 -265.662720 -0.000091 0.233373
339.945282 -263.919739 -0.000090 0.231853
336.165527 -262.948975 -0.000088 0.214584
333.752472 -262.329224 -0.000087 0.246897
332.075317 -261.898468 -0.000086 0.229939
330.839661 -261.581116 -0.000084 0.213722
349.365417 -266.534882 8.803511 0.396262
338.157318 -263.572754 5.362416 0.397864
339.619110 -263.959076 5.107852 0.411154
339.449463 -263.914246 4.507580 0.397620
350.441406 -266.819244 5.252671 0.404242
341.754089 -264.523315 3.581567 0.395056
350.818359 -266.918884 3.408170 0.398764
384.851685 -275.913422 3.045095 0.642100
384.851654 -275.913391 0.954906 0.625925
362.467224 -269.997498 -0.000092 0.230142
346.688904 -265.827515 -0.000090 0.223057
339.914673 -264.037170 -0.000089 0.208875
336.141785 -263.040070 -0.000088 0.226384
333.733124 -262.403473 -0.000087 0.215433
332.059021 -261.961029 -0.000085 0.207595
330.825592 -261.635071 -0.000084 0.235863
338.507660 -263.780579 5.997885 0.399771
339.634888 -264.086914 5.699412 0.394965
339.502319 -264.050903 5.091652 0.396078
338.595184 -263.804352 4.380961 0.397467
349.598572 -266.794739 5.158287 0.396078
349.919220 -266.881897 4.278315 0.405219
350.520020 -267.045166 3.395619 0.406561
384.103241 -276.172058 3.034360 0.672526
384.110931 -276.174133 0.965508 0.657267
362.393646 -270.272064 -0.000092 0.229891
346.644806 -265.992004 -0.000090 0.224278
339.883240 -264.154419 -0.000089 0.226504
336.117401 -263.130981 -0.000088 0.258099
333.713257 -262.477600 -0.000087 0.231099
332.042267 -262.023499 -0.000085 0.205716
330.811157 -261.688904 -0.000084 0.270893
338.417999 -263.871216 5.982260 0.396658
338.133850 -263.791870 5.369939 0.404608
338.577393 -263.915741 4.922866 0.399542
339.768250 -264.248322 4.566213 0.396490
349.440521 -266.949585 5.145488 0.404837
347.755310 -266.478943 4.098481 0.399863
351.502563 -267.525482 3.448423 0.403265
382.872040 -276.286377 3.015435 1.000000
383.114655 -276.354126 0.980444 0.611978
362.318115 -270.546051 -0.000091 0.230142
346.599548 -266.156189 -0.000090 0.239429
339.851013 -264.271423 -0.000088 0.256878
336.092407 -263.221741 -0.000087 0.237909
333.692871 -262.551575 -0.000085 0.217552
332.025085 -262.085815 -0.000085 0.260492
330.796356 -261.742645 -0.000083 0.215146
337.881592 -263.832825 5.850355 0.398535
338.591522 -264.036469 5.479434 0.402258
339.143372 -264.194733 5.035785 0.397711
338.507355 -264.012329 4.376710 0.396597
349.200989 -267.079468 5.123045 0.373892
348.301392 -266.821442 4.149213 0.396368
350.967285 -267.586090 3.423932 0.403388
381.908142 -276.460571 3.001034 1.000000
382.146698 -276.528992 0.994906 0.596658
362.240723 -270.819550 -0.000090 0.229747
346.553162 -266.320038 -0.000089 0.228802
339.817932 -264.388214 -0.000088 0.225546
336.066772 -263.312317 -0.000087 0.258985
333.671967 -262.625427 -0.000086 0.250870
332.007477 -262.148010 -0.000084 0.246598
330.781189 -261.796295 -0.000083 0.182606
338.262390 -264.056793 5.957607 0.396292
338.130615 -264.018005 5.382735 0.411841
339.344543 -264.375397 5.080105 0.396399
339.031403 -264.283203 4.462571 0.399664
348.124756 -266.960205 5.000322 0.417151
348.036316 -266.934174 4.130921 0.399374
351.020691 -267.812744 3.429558 0.416815
381.187897 -276.693726 2.990779 1.000000
381.205780 -276.699005 1.008915 0.669856
362.161377 -271.092468 -0.000090 0.228024
346.505646 -266.483551 -0.000088 0.224433
339.784058 -264.504791 -0.000087 0.216319
336.040497 -263.402710 -0.000086 0.272915
333.650543 -262.699127 -0.000085 0.269995
331.989441 -262.210114 -0.000083 0.193460
330.765625 -261.849823 -0.000082 0.207714
338.126587 -264.131012 5.930322 0.395270
338.410278 -264.216675 5.452875 0.409140
339.199554 -264.455048 5.058968 0.396078
339.165192 -264.444672 4.488434 0.405295
347.317352 -266.906555 4.909547 0.396628
347.932220 -267.092255 4.126446 0.397665
380.277008 -276.860199 4.933918 0.643839
380.283844 -276.862244 2.977391 0.666529
380.290680 -276.864319 1.022492 0.623087
362.080139 -271.364838 -0.000090 0.228287
346.456970 -266.646759 -0.000088 0.227306
339.749390 -264.621094 -0.000087 0.243594
336.013580 -263.492920 -0.000086 0.238555
333.628601 -262.772644 -0.000084 0.198236
331.970978 -262.272064 -0.000083 0.210072
330.749695 -261.903229 -0.000082 0.231363
338.840759 -264.466827 6.125994 0.404013
349.270294 -267.696106 7.915655 0.403357
338.197205 -264.267548 4.874580 0.410010
339.381287 -264.634186 4.527307 0.401099
351.426575 -268.363739 5.410635 0.396704
348.069702 -267.324371 4.142792 0.407919
379.386963 -277.021088 4.894415 0.639521
379.172760 -276.954742 2.960447 1.000000
379.400238 -277.025177 1.035656 0.621210
361.997009 -271.636658 -0.000089 0.230310
346.407166 -266.809601 -0.000087 0.235444
339.713867 -264.737152 -0.000087 0.228191
335.986053 -263.582916 -0.000085 0.222255
333.606171 -262.846039 -0.000084 0.222614
331.952057 -262.333893 -0.000082 0.258003
330.733368 -261.956543 -0.000081 0.236820
348.262543 -267.576935 8.611012 0.404761
338.026855 -264.329224 5.380959 0.396460
338.213196 -264.388336 4.883926 0.393835
339.654694 -264.845703 4.575392 0.397772
348.010376 -267.496948 5.005796 0.403510
347.533844 -267.345734 4.101389 0.396704
351.395844 -268.571136 3.458079 0.401450
378.309601 -277.110748 2.947734 1.000000
349.369537 -267.928192 1.549108 0.388327
361.911987 -271.907867 -0.000088 0.228586
346.356232 -266.972076 -0.000087 0.237311
339.677551 -264.852966 -0.000086 0.245892
335.957886 -263.672729 -0.000084 0.262742
333.583221 -262.919250 -0.000083 0.247926
331.932709 -262.395569 -0.000082 0.227437
330.716705 -262.009735 -0.000080 0.213172
339.344482 -264.872345 6.276983 0.403662
349.387268 -268.136230 7.968490 0.384802
338.209229 -264.503387 4.889644 0.392584
339.673462 -264.979279 4.584103 0.398581
347.882874 -267.647308 4.997118 0.399710
348.324310 -267.790771 4.174258 0.401114
349.328644 -268.117157 3.354568 0.411582
349.248505 -268.091125 2.449822 0.379263
349.211304 -268.079041 1.550818 0.373495
349.289032 -268.104309 0.647477 0.381415
346.304169 -267.134216 -0.000086 0.225738
339.640442 -264.968536 -0.000085 0.230836
335.929108 -263.762360 -0.000084 0.214931
333.559753 -262.992340 -0.000083 0.226839
331.912933 -262.457123 -0.000081 0.218545
330.699646 -262.062805 -0.000080 0.220472
338.543854 -264.731567 6.075458 0.398047
nan nan nan 0.000000
338.121094 -264.590912 4.879382 0.404578
339.578308 -265.075775 4.575163 0.396078
347.813751 -267.815979 4.995628 0.396078
376.848450 -277.476807 6.644171 0.662440
350.637421 -268.755524 3.425445 0.400839
376.860657 -277.480865 2.927053 0.634546
376.866730 -277.482880 1.072841 0.641688
349.283051 -268.304871 0.644677 0.386923
346.250946 -267.295990 -0.000086 0.219550
339.602539 -265.083832 -0.000084 0.216726
335.899719 -263.851776 -0.000083 0.203202
333.535767 -263.065216 -0.000082 0.214668
331.892761 -262.518524 -0.000081 0.213722
330.682251 -262.115753 -0.000079 0.236784
347.681213 -267.962891 8.502884 0.408438
348.616241 -268.281281 7.820368 0.399115
339.397034 -265.142090 5.131412 0.396078
339.433075 -265.154358 4.558464 0.413520
350.217499 -268.826508 5.294795 0.396246
346.755829 -267.647797 4.048522 0.411490
351.077789 -269.119446 3.451652 0.405295
375.647888 -277.485718 2.908271 1.000000
376.064972 -277.627716 1.084519 0.599664
361.645599 -272.717834 -0.000087 0.229735
346.196625 -267.457397 -0.000085 0.234726
339.563812 -265.198883 -0.000083 0.234486
335.869659 -263.941010 -0.000082 0.240614
333.511292 -263.137939 -0.000082 0.208719
331.872131 -262.579803 -0.000080 0.234091
330.664459 -262.168579 -0.000079 0.230070
347.547241 -268.108154 8.483001 0.400809
348.916138 -268.584961 7.902963 0.411872
346.971527 -267.907623 6.598391 0.399298
350.568054 -269.160339 6.313671 0.399207
350.094696 -268.995453 5.287767 0.402075
350.739075 -269.219910 4.399306 0.397086
375.271606 -277.764954 4.713749 0.658061
374.872314 -277.625885 2.897019 1.000000
375.283142 -277.768982 1.095864 0.626780
361.553009 -272.986572 -0.000086 0.226743
346.141144 -267.618378 -0.000084 0.242134
339.524261 -265.313629 -0.000083 0.218390
335.839020 -264.029999 -0.000082 0.236964
333.486298 -263.210510 -0.000081 0.199313
331.851074 -262.640930 -0.000079 0.223272
330.646301 -262.221283 -0.000078 0.197613
348.898163 -268.781097 8.858179 0.418830
347.028717 -268.115265 7.484773 0.396078
nan nan nan 0.000000
347.217163 -268.182404 5.796652 0.396445
349.979248 -269.166138 5.281764 0.399298
347.731354 -268.365540 4.143420 0.396078
374.509155 -277.902771 4.680669 0.616114
374.024902 -277.730316 2.884506 1.000000
374.520355 -277.906769 1.106888 0.597452
361.458588 -273.254669 -0.000086 0.232045
346.084564 -267.778992 -0.000083 0.230896
339.483948 -265.428101 -0.000082 0.220867
335.807739 -264.118774 -0.000081 0.255502
333.460785 -263.282898 -0.000080 0.209138
331.829590 -262.701904 -0.000079 0.221525
330.627777 -262.273865 -0.000077 0.203095
348.523315 -268.848053 8.775517 0.402350
346.722992 -268.192657 7.428307 0.402258
nan nan nan 0.000000
347.267029 -268.390717 5.814078 0.397726
339.503326 -265.564331 4.007490 0.409613
348.611267 -268.880066 4.225598 0.397406
373.765045 -278.037292 4.648513 0.658915
373.770508 -278.039276 2.882302 0.652155
373.775970 -278.041260 1.117602 0.615824
361.362274 -273.522064 -0.000085 0.230022
346.026855 -267.939240 -0.000083 0.228143
339.442810 -265.542297 -0.000082 0.213710
335.775848 -264.207336 -0.000080 0.201742
333.434784 -263.355103 -0.000079 0.229735
331.807678 -262.762726 -0.000078 0.267709
330.608887 -262.326324 -0.000077 0.249530
348.956390 -269.210632 8.908688 0.396002
346.997589 -268.481995 7.505551 0.404807
nan nan nan 0.000000
347.589844 -268.702301 5.874979 0.399725
339.444031 -265.672241 4.005375 0.419730
348.536469 -269.054413 4.224777 0.403571
373.038513 -278.168610 4.617245 0.593378
373.043854 -278.170593 2.871884 0.617258
373.049164 -278.172577 1.128022 0.615564
361.264099 -273.788818 -0.000084 0.233182
345.968048 -268.099030 -0.000082 0.233349
339.400879 -265.656219 -0.000080 0.229185
335.743317 -264.295685 -0.000080 0.234414
333.408295 -263.427094 -0.000079 0.210455
331.785339 -262.823395 -0.000077 0.233038
330.589630 -262.378632 -0.000076 0.222710
348.798492 -269.356628 8.884537 0.395148
346.983246 -268.666931 7.516705 0.396719
339.876099 -265.966614 5.264276 0.398535
347.909180 -269.018738 5.935840 0.393866
338.399384 -265.405518 3.882087 0.400427
371.941498 -278.149658 6.283579 1.000000
372.328918 -278.296875 4.586832 0.663249
371.951965 -278.153656 2.855063 1.000000
372.339294 -278.300812 1.138157 0.631373
361.164063 -274.054840 -0.000083 0.228754
345.908112 -268.258423 -0.000081 0.225977
339.358154 -265.769806 -0.000080 0.238160
335.710205 -264.383789 -0.000079 0.245066
333.381287 -263.498932 -0.000078 0.221441
331.762604 -262.883911 -0.000077 0.228036
330.570007 -262.430817 -0.000075 0.211975
348.659241 -269.508392 8.865595 0.404929
338.938721 -265.737274 5.667888 0.403204
349.907745 -269.992767 7.230909 0.406790
347.809753 -269.178833 5.930584 0.400717
339.446686 -265.934357 4.016371 0.396201
347.758484 -269.158966 4.168189 0.399145
371.635620 -278.422211 4.557242 0.613733
371.263885 -278.277985 2.845281 1.000000
371.645721 -278.426117 1.148017 0.620066
361.062164 -274.320190 -0.000082 0.231123
345.847046 -268.417419 -0.000081 0.237610
339.314636 -265.883118 -0.000079 0.227042
335.676453 -264.471680 -0.000078 0.239764
333.353760 -263.570557 -0.000077 0.203549
331.739410 -262.944275 -0.000076 0.258422
330.550018 -262.482849 -0.000074 0.239441
348.840942 -269.786163 8.933370 0.398108
338.218231 -265.579498 5.510576 0.405249
339.629425 -266.138336 5.233729 0.412955
347.964661 -269.439148 5.966070 0.399619
348.011688 -269.457764 5.081669 0.409476
347.690125 -269.330444 4.168102 0.397452
370.957947 -278.544708 4.528442 0.622080
370.528748 -278.374725 2.834657 1.000000
370.967773 -278.548584 1.157614 0.649042
360.958435 -274.584808 -0.000081 0.230884
345.784912 -268.575958 -0.000080 0.220556
339.270355 -265.996124 -0.000078 0.218892
335.642090 -264.559296 -0.000077 0.223847
333.325745 -263.642029 -0.000076 0.231327
331.715820 -263.004456 -0.000075 0.230477
330.529694 -262.534760 -0.000074 0.234343
338.434357 -265.789215 6.141245 0.369223
338.448212 -265.794800 5.573962 0.399313
339.756592 -266.323517 5.267731 0.406668
347.519653 -269.460632 5.905961 0.394308
348.402191 -269.817291 5.138740 0.408560
348.473877 -269.846252 4.243479 0.396933
370.295319 -278.664459 4.500405 0.670146
370.300140 -278.666412 2.832957 0.596124
370.304932 -278.668335 1.166958 0.601343
360.852844 -274.848694 -0.000081 0.227054
345.721649 -268.734039 -0.000079 0.228730
339.225250 -266.108826 -0.000078 0.239573
335.607117 -264.646698 -0.000077 0.273095
333.297241 -263.713257 -0.000075 0.218413
331.691803 -263.064484 -0.000074 0.231734
330.508972 -262.586517 -0.000073 0.233517
336.723572 -265.208771 5.689546 0.399542
338.070526 -265.764069 5.495932 0.426169
346.740204 -269.338165 6.651513 0.397177
348.259186 -269.964355 6.035763 0.401572
338.221344 -265.826233 3.880864 0.406729
369.642517 -278.779663 6.127320 0.672099
369.647217 -278.781616 4.473101 0.665537
369.651917 -278.783539 2.823861 0.650767
369.656586 -278.785461 1.176056 0.663569
360.745422 -275.111816 -0.000079 0.228885
345.657288 -268.891724 -0.000078 0.228359
339.179382 -266.221191 -0.000077 0.226779
335.571533 -264.733856 -0.000076 0.225738
333.268250 -263.784302 -0.000074 0.193472
331.667358 -263.124359 -0.000074 0.256878
330.487915 -262.638123 -0.000073 0.245209
nan nan nan 0.000000
337.997772 -265.856049 5.489063 0.405402
339.389587 -266.441223 5.214156 0.402670
348.104950 -270.105560 6.022691 0.405341
338.224976 -265.951569 3.886791 0.405402
369.008484 -278.894318 6.082937 0.617151
369.013062 -278.896240 4.446505 0.634989
369.017639 -278.898163 2.815001 0.645258
369.022217 -278.900085 1.184919 0.604212
360.636169 -275.374207 -0.000079 0.229472
345.591827 -269.048920 -0.000077 0.228945
339.132721 -266.333252 -0.000076 0.231135
335.535370 -264.820740 -0.000075 0.228143
333.238739 -263.855164 -0.000074 0.247017
331.642517 -263.184021 -0.000073 0.235767
330.466492 -262.689575 -0.000072 0.217408
337.089813 -265.589539 5.811086 0.397101
337.873322 -265.925415 5.470178 0.395163
338.478485 -266.184845 5.043323 0.396078
368.378876 -279.002625 9.306669 0.625605
338.017242 -265.987091 3.866392 0.398322
368.036255 -278.855774 6.008325 1.000000
368.392395 -279.008423 4.420591 0.665202
368.045197 -278.859589 2.800105 1.000000
368.401306 -279.012268 1.193553 0.635782
360.525055 -275.635834 -0.000077 0.229986
345.525269 -269.205658 -0.000076 0.222925
339.085297 -266.444946 -0.000075 0.227820
335.498566 -264.907379 -0.000074 0.214081
333.208740 -263.925781 -0.000073 0.235731
331.617249 -263.243530 -0.000072 0.185274
330.444702 -262.740875 -0.000071 0.267410
nan nan nan 0.000000
338.115234 -266.153534 5.537696 0.404135
337.691193 -265.968231 4.896200 0.395956
338.400909 -266.278381 4.475959 0.398657
338.813873 -266.458801 3.972053 0.397436
338.766754 -266.438232 3.401366 0.391241
367.784698 -279.118286 4.395336 0.637064
367.442078 -278.968567 2.791757 1.000000
367.793396 -279.122070 1.201970 0.650706
360.412140 -275.896667 -0.000077 0.226887
345.457611 -269.361938 -0.000075 0.221764
339.037079 -266.556335 -0.000074 0.207104
335.461182 -264.993774 -0.000073 0.225247
333.178253 -263.996216 -0.000072 0.201036
331.591553 -263.302856 -0.000071 0.212585
330.422546 -262.792023 -0.000070 0.206697
339.803680 -267.030579 6.578548 0.390661
337.724152 -266.104553 5.456147 0.401892
338.953369 -266.651947 5.156536 0.407477
338.362823 -266.388977 4.477411 0.405859
338.106995 -266.275024 3.889117 0.395819
338.626373 -266.506317 3.393087 0.400854
367.189514 -279.225861 4.370718 0.609812
366.793823 -279.049652 2.782586 1.000000
367.198029 -279.229645 1.210173 0.622766
360.297424 -276.156708 -0.000076 0.225881
345.388855 -269.517731 -0.000074 0.217300
338.988068 -266.667389 -0.000073 0.243211
335.423187 -265.079895 -0.000072 0.224242
333.147278 -264.066406 -0.000071 0.217145
331.565460 -263.362000 -0.000070 0.229567
330.400055 -262.843048 -0.000069 0.184628
340.139648 -267.323151 6.685354 0.388647
338.310364 -266.493195 5.606041 0.407538
338.231628 -266.457458 5.022249 0.407614
366.593872 -279.325531 9.083733 0.644175
338.587830 -266.619080 3.955796 0.386786
339.259460 -266.923828 3.454471 0.407675
366.606445 -279.331238 4.346713 0.667613
366.326324 -279.204163 2.776646 1.000000
366.614746 -279.335022 1.218172 0.673167
360.180847 -276.415924 -0.000075 0.231399
345.319031 -269.673065 -0.000073 0.240015
338.938293 -266.778107 -0.000072 0.208696
335.384583 -265.165741 -0.000071 0.206230
333.115814 -264.136414 -0.000070 0.276709
331.538940 -263.420990 -0.000069 0.249626
330.377197 -262.893890 -0.000068 0.221310
336.860138 -265.951385 5.795399 0.403021
337.684906 -266.332550 5.468774 0.374929
337.547638 -266.269104 4.894823 0.396078
338.185944 -266.564117 4.464250 0.396307
337.101563 -266.062958 3.773704 0.415610
366.030945 -279.432648 5.877347 0.644648
366.035004 -279.434540 4.323300 0.620050
366.039063 -279.436401 2.773953 0.623163
366.043121 -279.438293 1.225973 0.625650
360.062500 -276.674347 -0.000074 0.230345
345.248138 -269.827881 -0.000073 0.223847
338.887756 -266.888458 -0.000071 0.228036
335.345367 -265.251343 -0.000070 0.250332
333.083862 -264.206177 -0.000070 0.242050
331.512024 -263.479767 -0.000068 0.230369
330.353973 -262.944550 -0.000067 0.300525
336.355682 -265.830872 5.668121 0.399344
337.625732 -266.428619 5.465961 0.382544
337.503418 -266.371063 4.895370 0.396292
365.462830 -279.530151 8.944164 0.632685
338.175354 -266.687317 3.916016 0.396078
338.927185 -267.041138 3.433774 0.392599
365.474854 -279.535797 4.300465 0.618433
365.478790 -279.537659 2.766346 0.624506
365.482758 -279.539520 1.233583 0.636301
359.942352 -276.931946 -0.000074 0.227641
345.176147 -269.982208 -0.000072 0.240542
338.836456 -266.998444 -0.000071 0.223967
335.305573 -265.336639 -0.000069 0.225570
333.051422 -264.275726 -0.000068 0.232751
331.484711 -263.538330 -0.000067 0.207056
330.330414 -262.995087 -0.000066 0.214656
335.986206 -265.767181 5.577679 0.396109
337.832458 -266.651917 5.526982 0.408850
338.483612 -266.963959 5.102761 0.405173
364.913818 -279.629456 8.876921 0.650813
337.021881 -266.263489 3.775234 0.397040
339.126190 -267.271881 3.456629 0.404746
364.925537 -279.635071 4.278181 0.665202
364.710876 -279.532196 2.754956 1.000000
364.933289 -279.638794 1.241008 0.653574
359.820435 -277.188660 -0.000073 0.229998
345.103058 -270.136047 -0.000071 0.237586
338.784363 -267.108093 -0.000069 0.219874
335.265198 -265.421661 -0.000069 0.240075
333.018494 -264.345032 -0.000067 0.218234
331.456970 -263.596741 -0.000067 0.238926
330.306488 -263.045441 -0.000065 0.233864
336.165161 -265.965424 5.639647 0.416754
337.452057 -266.593201 5.447492 0.375982
338.416565 -267.063690 5.099676 0.402441
336.440887 -266.099945 4.200875 0.405341
337.155975 -266.448761 3.798398 0.406470
339.365814 -267.526764 3.483417 0.393378
364.386780 -279.732452 4.256433 0.609339
364.174774 -279.629059 2.747749 1.000000
364.394348 -279.736176 1.248255 0.603616
359.696686 -277.444550 -0.000072 0.230980
345.028931 -270.289337 -0.000070 0.233517
338.731537 -267.217346 -0.000069 0.214237
335.224213 -265.506409 -0.000068 0.224433
332.985107 -264.414124 -0.000066 0.245545
331.428833 -263.654938 -0.000066 0.229436
330.282227 -263.095612 -0.000064 0.253048
335.728088 -265.861664 5.529942 0.396338
336.134796 -266.063599 5.141720 0.397955
338.348083 -267.162476 5.096436 0.411109
363.634003 -279.716736 8.711969 1.000000
337.125641 -266.555542 3.800693 0.393378
339.266724 -267.618561 3.479449 0.400168
363.858154 -279.828003 4.235206 0.636057
363.648804 -279.724060 2.740712 1.000000
363.865570 -279.831696 1.255328 0.649561
359.571136 -277.699554 -0.000071 0.229340
344.953735 -270.442139 -0.000069 0.226252
338.677917 -267.326233 -0.000067 0.211951
335.182648 -265.590881 -0.000067 0.212669
332.951202 -264.482971 -0.000066 0.251995
331.400269 -263.712952 -0.000065 0.211352
330.257599 -263.145630 -0.000064 0.202041
339.088379 -267.669586 6.485338 0.384375
338.527130 -267.386047 5.731620 0.400229
338.738251 -267.492706 5.186821 0.407080
336.866211 -266.546906 4.286869 0.398459
336.774200 -266.500427 3.761704 0.409125
339.167999 -267.709839 3.475564 0.397223
363.339355 -279.921783 4.214480 0.611383
363.132629 -279.817322 2.733844 1.000000
363.346619 -279.925446 1.262234 0.659617
359.443848 -277.953674 -0.000069 0.226683
344.877441 -270.594391 -0.000067 0.224888
338.623566 -267.434753 -0.000067 0.243965
335.140472 -265.675018 -0.000066 0.215134
332.916840 -264.551575 -0.000064 0.218856
331.371307 -263.770752 -0.000063 0.256160
330.232635 -263.195465 -0.000063 0.211688
335.752838 -266.095612 5.561902 0.399741
338.424866 -267.469086 5.720086 0.396933
340.384766 -268.476532 5.535035 0.402045
335.865051 -266.153320 4.128042 0.396811
336.647156 -266.555328 3.751547 0.396658
362.726074 -279.960388 5.652721 1.000000
362.830078 -280.013824 4.194242 0.624262
362.741669 -279.968384 2.729266 1.000000
362.837189 -280.017487 1.268978 0.583307
359.314758 -278.206909 -0.000069 0.229173
344.800110 -270.746094 -0.000067 0.231758
338.568451 -267.542908 -0.000066 0.217420
335.097748 -265.758881 -0.000064 0.195459
332.881989 -264.619965 -0.000064 0.212561
331.341949 -263.828339 -0.000063 0.218737
330.207336 -263.245117 -0.000062 0.217564
nan nan nan 0.000000
336.910736 -266.813080 5.364552 0.396750
339.734985 -268.289825 5.414429 0.405142
336.283600 -266.485168 4.205816 0.403525
336.499329 -266.597961 3.738709 0.396048
339.590363 -268.214203 3.525272 0.395560
362.330017 -280.104218 4.174476 0.614359
362.333496 -280.106049 2.724372 0.658610
362.336945 -280.107849 1.275564 0.644709
359.183929 -278.459229 -0.000067 0.230896
344.721741 -270.897278 -0.000065 0.241619
338.512573 -267.650665 -0.000065 0.223476
335.054413 -265.842468 -0.000063 0.231135
332.846649 -264.688080 -0.000062 0.259104
331.312195 -263.885742 -0.000062 0.199612
330.181671 -263.294617 -0.000060 0.246442
335.710815 -266.298157 5.576077 0.395987
336.814880 -266.885284 5.353507 0.409659
337.592651 -267.298920 4.985520 0.378424
336.235840 -266.577362 4.205931 0.402625
336.353119 -266.639709 3.726070 0.395331
361.835419 -280.191193 5.596771 0.667170
361.838837 -280.192993 4.155167 0.618006
361.842224 -280.194824 2.717938 0.649821
361.845642 -280.196625 1.281998 0.660792
359.051331 -278.710632 -0.000066 0.227425
344.642303 -271.047913 -0.000065 0.225582
338.455963 -267.758026 -0.000064 0.232823
335.010498 -265.925720 -0.000062 0.239656
332.810852 -264.755951 -0.000061 0.245126
331.282043 -263.942932 -0.000060 0.271635
330.155670 -263.343933 -0.000059 0.243714
344.673645 -271.258453 8.141829 0.415671
nan nan nan 0.000000
336.324982 -266.743591 4.734488 0.397070
336.296448 -266.728149 4.224426 0.400443
336.807495 -267.004517 3.791972 0.405081
339.781097 -268.612610 3.554420 0.396078
361.356293 -280.280212 4.136301 0.598886
361.359619 -280.282043 2.711654 0.634455
361.362946 -280.283813 1.288285 0.578027
358.916992 -278.961090 -0.000065 0.227569
344.561798 -271.197968 -0.000063 0.230429
338.398590 -267.864960 -0.000062 0.222159
334.966003 -266.008667 -0.000061 0.203430
332.774597 -264.823578 -0.000060 0.248465
331.251465 -263.999908 -0.000059 0.213698
330.129303 -263.393036 -0.000058 0.240255
339.929169 -268.845062 6.809028 0.400320
336.623505 -267.027466 5.331758 0.396750
336.235840 -266.814301 4.726412 0.392264
336.809692 -267.129822 4.319791 0.395239
345.177765 -271.730988 4.897690 0.411292
339.238861 -268.465515 3.509610 0.396002
360.882080 -280.365936 4.117863 0.604623
360.737274 -280.286316 2.702746 1.000000
360.888580 -280.369507 1.294428 0.644434
358.780884 -279.210602 -0.000064 0.230238
344.480255 -271.347473 -0.000062 0.234893
338.340454 -267.971527 -0.000061 0.229879
334.920929 -266.091309 -0.000060 0.231040
332.737854 -264.890961 -0.000059 0.251971
331.220520 -264.056641 -0.000058 0.210395
330.102631 -263.441986 -0.000057 0.212789
339.758453 -268.903198 6.778687 0.400916
335.803680 -266.692566 5.141829 0.423163
336.152130 -266.887360 4.719533 0.398306
338.267242 -268.069641 4.576477 0.373648
336.348114 -266.996918 3.745240 0.396902
339.245453 -268.616425 3.516082 0.407874
360.415985 -280.450195 4.099843 0.661738
360.272919 -280.370239 2.696767 1.000000
360.422363 -280.453766 1.300433 0.638834
358.643066 -279.459167 -0.000063 0.230262
344.397675 -271.496399 -0.000061 0.219084
338.281616 -268.077667 -0.000060 0.227437
334.875275 -266.173645 -0.000059 0.233672
332.700623 -264.958069 -0.000058 0.213890
331.189178 -264.113190 -0.000057 0.242529
330.075592 -263.490723 -0.000056 0.232380
337.220764 -267.614532 6.066426 0.398077
346.571716 -272.927460 7.829059 0.385092
336.055054 -266.952209 4.709937 0.411719
336.409637 -267.153687 4.269716 0.397696
336.583008 -267.252167 3.783198 0.400061
337.863800 -267.979889 3.391760 0.388800
359.957703 -280.533020 4.082228 0.604013
359.816406 -280.452728 2.690921 1.000000
337.761139 -267.921570 1.724176 0.400732
337.819550 -267.954742 1.168638 0.390066
344.314056 -271.644745 -0.000060 0.231387
338.222015 -268.183411 -0.000059 0.253144
334.829071 -266.255646 -0.000058 0.246442
332.662964 -265.024902 -0.000057 0.229627
331.157410 -264.169525 -0.000056 0.233050
330.048218 -263.539307 -0.000055 0.206888
339.976379 -269.336639 6.879785 0.395727
336.220062 -267.167572 5.270703 0.397360
336.331909 -267.232147 4.778970 0.402441
335.755859 -266.899506 4.166826 0.396078
337.738129 -268.044159 3.943791 0.374395
337.726563 -268.037476 3.384343 0.383597
337.686615 -268.014404 2.827153 0.399588
337.645050 -267.990387 2.274735 0.360754
337.618683 -267.975189 1.725763 0.366873
337.649963 -267.993225 1.174927 0.392935
337.696808 -268.020294 0.618472 0.399405
337.672546 -268.006287 0.064917 0.357855
334.782257 -266.337311 -0.000057 0.226432
332.624817 -265.091492 -0.000056 0.212836
331.125275 -264.225616 -0.000055 0.234020
330.020508 -263.587677 -0.000054 0.242708
337.747223 -268.186249 6.252244 0.379553
337.685120 -268.149811 5.650896 0.372961
336.069458 -267.201752 4.734913 0.401221
335.985077 -267.152252 4.215071 0.396078
337.724518 -268.172943 3.949894 0.378256
337.668274 -268.139954 3.384441 0.385748
337.628632 -268.116669 2.827219 0.370489
337.588043 -268.092865 2.274772 0.369207
337.558990 -268.075806 1.725779 0.366751
337.591339 -268.094788 1.174906 0.371221
337.638947 -268.122711 0.618348 0.392020
337.581390 -268.088959 0.069196 0.397421
334.734894 -266.418640 -0.000055 0.246191
332.586182 -265.157806 -0.000055 0.243678
331.092743 -264.281494 -0.000054 0.212023
329.992462 -263.635834 -0.000053 0.236377
337.046753 -267.906616 6.065562 0.404898
338.659973 -268.868439 5.911129 0.403693
339.412750 -269.317230 5.454482 0.407156
335.288483 -266.858307 4.103935 0.397269
337.327850 -268.074219 3.904835 0.375341
342.982910 -271.445831 3.897520 0.352941
337.629791 -268.254211 2.830708 0.371832
337.633575 -268.256470 2.276777 0.380941
337.577179 -268.222839 1.724298 0.364904
337.631500 -268.255219 1.169196 0.382605
337.596466 -268.234344 0.616686 0.368566
337.522583 -268.190308 0.069085 0.391882
334.686981 -266.499664 -0.000055 0.216499
332.547119 -265.223846 -0.000054 0.203274
331.059845 -264.337128 -0.000053 0.221705
329.964081 -263.683807 -0.000052 0.255969
336.507843 -267.712646 5.924836 0.408835
339.150513 -269.313354 6.051439 0.396078
335.795044 -267.280884 4.699401 0.395499
335.235840 -266.942169 4.103650 0.392401
344.164917 -272.350677 4.832421 0.392325
339.713745 -269.654541 3.592102 0.390646
358.198425 -280.851013 4.015585 0.633478
358.201294 -280.852753 2.671437 0.556970
358.204193 -280.854492 1.328508 0.668757
358.207062 -280.856232 -0.016082 0.615732
343.969299 -272.232178 -0.000055 0.235396
337.582367 -268.363525 0.052924 0.383871
334.638489 -266.580353 -0.000053 0.222207
332.507599 -265.289642 -0.000052 0.195196
331.026520 -264.392517 -0.000051 0.261139
329.935364 -263.731598 -0.000050 0.240434
336.395874 -267.772217 5.908671 0.401892
343.769379 -272.309113 7.240040 0.376150
338.428711 -269.023010 5.273592 0.414786
336.303833 -267.715576 4.298648 0.403113
339.183075 -269.487152 4.171602 0.395239
342.951019 -271.805573 3.910565 0.395834
357.775940 -280.927368 3.999825 0.655726
357.778778 -280.929108 2.666187 0.639109
357.781586 -280.930847 1.333759 0.651804
357.784424 -280.932587 -0.000315 0.669902
343.880524 -272.377502 -0.000053 0.228550
337.913025 -268.705688 -0.000053 0.218330
334.589417 -266.660675 -0.000052 0.245413
332.467590 -265.355133 -0.000051 0.227186
330.992828 -264.447723 -0.000051 0.215828
329.906311 -263.779175 -0.000050 0.229723
336.612213 -268.035858 5.989525 0.401938
338.733887 -269.361847 5.980292 0.396078
338.357971 -269.126923 5.272619 0.400839
336.447021 -267.932617 4.333665 0.401099
344.982361 -273.266937 4.967756 0.369177
343.115906 -272.100433 3.934796 0.404318
345.320557 -273.478271 3.286937 0.432212
357.362793 -281.004272 2.661050 0.612085
357.365540 -281.006012 1.338897 0.680247
357.368317 -281.007751 0.015113 0.659190
343.790771 -272.522217 -0.000052 0.223165
337.849030 -268.808838 -0.000051 0.208097
334.539795 -266.740692 -0.000051 0.230286
332.427155 -265.420349 -0.000050 0.228359
330.958771 -264.502655 -0.000049 0.204938
329.876923 -263.826538 -0.000048 0.198295
336.186249 -267.897186 5.880728 0.397604
339.312988 -269.881775 6.145967 0.416770
342.541504 -271.931000 6.188649 0.402533
336.390350 -268.026733 4.333991 0.396078
336.658478 -268.196930 3.846643 0.398535
343.121887 -272.299377 3.943906 0.353353
344.873566 -273.411194 3.266600 0.426337
356.953156 -281.078308 2.656023 0.586542
356.955872 -281.080017 1.343924 0.619638
356.958557 -281.081757 0.030207 0.544106
343.700012 -272.666321 -0.000051 0.228849
337.784363 -268.911530 -0.000050 0.247184
334.489624 -266.820313 -0.000050 0.223081
332.386230 -265.485260 -0.000049 0.244934
330.924316 -264.557343 -0.000048 0.210934
329.847229 -263.873688 -0.000047 0.231303
338.568695 -269.561493 6.608092 0.397498
341.910461 -271.715424 6.831959 0.448676
335.984863 -267.896088 4.788025 0.396078
337.414948 -268.817841 4.525258 0.380911
336.573334 -268.275391 3.843254 0.397543
343.084076 -272.471893 3.948915 0.392294
344.177277 -273.176514 3.231572 0.393713
356.837830 -281.336945 2.656714 0.627024
356.837769 -281.336914 1.343287 0.628550
356.837708 -281.336853 0.028457 0.655665
343.608246 -272.809753 -0.000050 0.231530
337.718933 -269.013763 -0.000049 0.230298
334.438904 -266.899628 -0.000048 0.218713
332.344879 -265.549896 -0.000047 0.217384
330.889465 -264.611816 -0.000047 0.217492
329.817169 -263.920654 -0.000046 0.226743
337.997375 -269.341064 6.458006 0.396078
341.966553 -271.938812 6.868401 0.406134
337.034790 -268.711090 5.029014 0.396338
335.125397 -267.461426 4.130842 0.400992
342.227966 -272.109924 4.629083 0.358404
342.426392 -272.239777 3.893324 0.401343
343.241608 -272.773315 3.182233 0.397421
