# This PCD file was generated using the MATLABÂ® pcwrite function
# from Computer Vision ToolboxÂ®.
# .PCD v.7 - Point Cloud Data file format
VERSION .7
FIELDS x y z intensity
SIZE 4 4 4 4
TYPE F F F F
COUNT 1 1 1 1
WIDTH 1220
HEIGHT 1
VIEWPOINT 0 0 0 1 0 0 0
POINTS 1220
DATA ascii
nan nan nan 0.000000
510.532043 -848.354126 8.245594 1.000000
510.532013 -848.354126 5.741996 1.000000
510.532013 -848.354126 3.246442 1.000000
510.532013 -848.354126 0.753559 1.000000
482.363098 -826.818054 -0.000042 0.229137
469.398224 -816.905945 -0.000027 0.228993
463.831970 -812.650391 -0.000020 0.227964
460.731903 -810.280273 -0.000016 0.215745
458.752747 -808.767151 -0.000014 0.191534
457.377197 -807.715515 -0.000012 0.201826
456.363739 -806.940674 -0.000011 0.282322
nan nan nan 0.000000
nan nan nan 0.000000
nan nan nan 0.000000
nan nan nan 0.000000
nan nan nan 0.000000
510.330597 -848.870850 8.258358 1.000000
510.330566 -848.870850 5.749643 1.000000
510.330566 -848.870850 3.248987 1.000000
510.330566 -848.870850 0.751011 1.000000
482.189697 -827.043213 -0.000042 0.231004
469.294312 -817.040894 -0.000026 0.225702
463.757935 -812.746582 -0.000020 0.214093
460.674469 -810.354858 -0.000016 0.263329
458.705933 -808.827942 -0.000014 0.204662
457.337738 -807.766724 -0.000012 0.229567
456.329712 -806.984863 -0.000010 0.217432
nan nan nan 0.000000
nan nan nan 0.000000
nan nan nan 0.000000
nan nan nan 0.000000
nan nan nan 0.000000
510.128326 -849.389709 8.271479 1.000000
510.128296 -849.389709 5.757505 1.000000
510.128296 -849.389709 3.251607 1.000000
510.128296 -849.389709 0.748393 1.000000
482.014709 -827.267212 -0.000042 0.231949
469.189484 -817.175049 -0.000026 0.231913
463.683197 -812.842224 -0.000020 0.224792
460.616516 -810.429016 -0.000016 0.240506
458.658691 -808.888428 -0.000014 0.232895
457.297943 -807.817688 -0.000012 0.242924
456.295410 -807.028748 -0.000010 0.250547
nan nan nan 0.000000
nan nan nan 0.000000
nan nan nan 0.000000
nan nan nan 0.000000
nan nan nan 0.000000
509.925201 -849.910767 8.284965 1.000000
509.925171 -849.910767 5.765585 1.000000
509.925171 -849.910767 3.254300 1.000000
509.925171 -849.910767 0.745702 1.000000
481.838165 -827.489929 -0.000042 0.231710
469.083710 -817.308533 -0.000027 0.234295
463.607819 -812.937317 -0.000020 0.231853
460.558044 -810.502808 -0.000016 0.230944
458.611023 -808.948547 -0.000014 0.234726
457.257782 -807.868347 -0.000012 0.232942
456.260773 -807.072449 -0.000011 0.216630
nan nan nan 0.000000
nan nan nan 0.000000
nan nan nan 0.000000
nan nan nan 0.000000
nan nan nan 0.000000
509.721161 -850.434143 8.298816 1.000000
509.721130 -850.434143 5.773883 1.000000
509.721130 -850.434143 3.257063 1.000000
509.721130 -850.434082 0.742937 1.000000
481.660065 -827.711426 -0.000042 0.231063
468.977020 -817.441223 -0.000027 0.225618
463.531769 -813.031921 -0.000020 0.223703
460.499054 -810.576172 -0.000016 0.239214
458.562958 -809.008362 -0.000014 0.220675
457.217285 -807.918701 -0.000012 0.201323
456.225861 -807.115906 -0.000011 0.261175
nan nan nan 0.000000
nan nan nan 0.000000
nan nan nan 0.000000
nan nan nan 0.000000
nan nan nan 0.000000
509.516235 -850.959839 8.313036 1.000000
509.516235 -850.959839 5.782405 1.000000
509.516205 -850.959778 3.259902 1.000000
509.516205 -850.959778 0.740099 1.000000
481.480438 -827.931702 -0.000042 0.227952
468.869385 -817.573181 -0.000027 0.233912
463.455048 -813.125977 -0.000020 0.221250
460.439575 -810.649109 -0.000017 0.234008
458.514465 -809.067871 -0.000014 0.231841
457.176422 -807.968811 -0.000012 0.227796
456.190613 -807.159119 -0.000011 0.264956
nan nan nan 0.000000
nan nan nan 0.000000
nan nan nan 0.000000
nan nan nan 0.000000
nan nan nan 0.000000
509.310364 -851.487915 8.327628 1.000000
509.310333 -851.487915 5.791147 1.000000
509.310333 -851.487915 3.262813 1.000000
509.310333 -851.487915 0.737187 1.000000
481.299255 -828.150696 -0.000042 0.228778
468.760834 -817.704407 -0.000027 0.234127
463.377686 -813.219482 -0.000020 0.230525
460.379578 -810.721619 -0.000016 0.213543
458.465546 -809.126953 -0.000014 0.221226
457.135223 -808.018616 -0.000012 0.257572
456.155090 -807.202026 -0.000011 0.256459
nan nan nan 0.000000
nan nan nan 0.000000
nan nan nan 0.000000
nan nan nan 0.000000
nan nan nan 0.000000
509.103516 -852.018494 8.342600 1.000000
509.103516 -852.018494 5.800120 1.000000
509.103485 -852.018433 3.265802 1.000000
509.103485 -852.018433 0.734200 1.000000
481.116577 -828.368408 -0.000042 0.231602
468.651367 -817.834839 -0.000026 0.228179
463.299683 -813.312439 -0.000020 0.238077
460.319061 -810.793762 -0.000016 0.207092
458.416229 -809.185730 -0.000014 0.195040
457.093658 -808.068115 -0.000012 0.193891
456.119263 -807.244751 -0.000010 0.219096
nan nan nan 0.000000
nan nan nan 0.000000
nan nan nan 0.000000
nan nan nan 0.000000
nan nan nan 0.000000
508.895691 -852.551575 8.357953 1.000000
508.895691 -852.551575 5.809318 1.000000
508.895660 -852.551575 3.268864 1.000000
508.895660 -852.551575 0.731135 1.000000
480.932373 -828.584900 -0.000042 0.229113
468.541016 -817.964539 -0.000027 0.224385
463.221008 -813.404907 -0.000020 0.253503
460.258057 -810.865417 -0.000016 0.235970
458.366486 -809.244202 -0.000014 0.220747
457.051758 -808.117371 -0.000012 0.200091
456.083130 -807.287170 -0.000010 0.186100
nan nan nan 0.000000
nan nan nan 0.000000
nan nan nan 0.000000
nan nan nan 0.000000
nan nan nan 0.000000
508.686859 -853.087341 8.373692 1.000000
508.686829 -853.087341 5.818748 1.000000
508.686829 -853.087280 3.272007 1.000000
508.686829 -853.087280 0.727995 1.000000
480.746643 -828.800049 -0.000042 0.227246
468.429749 -818.093445 -0.000026 0.231171
463.141693 -813.496765 -0.000020 0.223500
460.196564 -810.936707 -0.000016 0.223248
458.316345 -809.302307 -0.000014 0.214213
457.009521 -808.166321 -0.000012 0.256998
456.046722 -807.329407 -0.000010 0.220544
nan nan nan 0.000000
nan nan nan 0.000000
nan nan nan 0.000000
nan nan nan 0.000000
nan nan nan 0.000000
508.476959 -853.625732 8.389823 1.000000
508.476959 -853.625732 5.828409 1.000000
508.476929 -853.625671 3.275226 1.000000
508.476929 -853.625671 0.724776 1.000000
480.559448 -829.013916 -0.000041 0.226947
468.317596 -818.221558 -0.000027 0.233337
463.061768 -813.588074 -0.000020 0.251648
460.134552 -811.007507 -0.000016 0.228251
458.265808 -809.360046 -0.000014 0.242062
456.966949 -808.214966 -0.000012 0.194861
456.010010 -807.371338 -0.000011 0.250475
nan nan nan 0.000000
nan nan nan 0.000000
nan nan nan 0.000000
nan nan nan 0.000000
nan nan nan 0.000000
508.265991 -854.166870 8.406346 1.000000
508.265991 -854.166870 5.838309 1.000000
508.265961 -854.166870 3.278523 1.000000
508.265961 -854.166870 0.721478 1.000000
480.370728 -829.226440 -0.000042 0.230070
468.204529 -818.348938 -0.000026 0.225762
462.981171 -813.678894 -0.000020 0.234941
460.072052 -811.077881 -0.000016 0.222842
458.214844 -809.417419 -0.000014 0.218270
456.924011 -808.263306 -0.000012 0.198391
455.972992 -807.413025 -0.000011 0.225163
nan nan nan 0.000000
nan nan nan 0.000000
nan nan nan 0.000000
nan nan nan 0.000000
nan nan nan 0.000000
508.053925 -854.710876 8.423270 1.000000
508.053894 -854.710876 5.848450 1.000000
508.053894 -854.710815 3.281900 1.000000
508.053894 -854.710815 0.718100 1.000000
480.180573 -829.437683 -0.000042 0.229723
468.090576 -818.475464 -0.000026 0.235731
462.899963 -813.769043 -0.000020 0.230489
460.009094 -811.147827 -0.000016 0.221142
458.163513 -809.474426 -0.000014 0.213327
456.880768 -808.311340 -0.000012 0.256675
455.935699 -807.454468 -0.000011 0.205213
nan nan nan 0.000000
nan nan nan 0.000000
nan nan nan 0.000000
nan nan nan 0.000000
nan nan nan 0.000000
507.840729 -855.257813 8.440598 1.000000
507.840698 -855.257751 5.858831 1.000000
507.840668 -855.257751 3.285359 1.000000
507.840668 -855.257751 0.714642 1.000000
479.988922 -829.647522 -0.000042 0.230345
467.975769 -818.601257 -0.000027 0.228167
462.818115 -813.858704 -0.000020 0.223979
459.945618 -811.217346 -0.000016 0.213231
458.111755 -809.531128 -0.000014 0.221202
456.837158 -808.359070 -0.000012 0.235384
455.898102 -807.495605 -0.000011 0.196967
nan nan nan 0.000000
nan nan nan 0.000000
nan nan nan 0.000000
nan nan nan 0.000000
nan nan nan 0.000000
507.626343 -855.807678 8.458334 1.000000
507.626343 -855.807678 5.869460 1.000000
507.626312 -855.807617 3.288898 1.000000
507.626312 -855.807617 0.711102 1.000000
479.795807 -829.856079 -0.000042 0.227102
467.860077 -818.726196 -0.000026 0.227258
462.735657 -813.947754 -0.000020 0.229615
459.881653 -811.286438 -0.000016 0.221621
458.059631 -809.587402 -0.000014 0.223835
456.793243 -808.406494 -0.000012 0.219467
455.860229 -807.536499 -0.000011 0.220711
nan nan nan 0.000000
nan nan nan 0.000000
nan nan nan 0.000000
nan nan nan 0.000000
nan nan nan 0.000000
507.410767 -856.360596 8.476484 1.000000
507.410767 -856.360596 5.880335 1.000000
507.410736 -856.360596 3.292521 1.000000
507.410736 -856.360596 0.707480 1.000000
479.601257 -830.063293 -0.000042 0.227581
467.743500 -818.850342 -0.000026 0.226887
462.652588 -814.036194 -0.000020 0.240195
459.817230 -811.355042 -0.000015 0.215577
458.007080 -809.643372 -0.000014 0.222339
456.748993 -808.453674 -0.000012 0.234929
455.822083 -807.577148 -0.000011 0.239369
nan nan nan 0.000000
nan nan nan 0.000000
nan nan nan 0.000000
nan nan nan 0.000000
nan nan nan 0.000000
507.193970 -856.916687 8.495058 1.000000
507.193970 -856.916687 5.891459 1.000000
507.193939 -856.916687 3.296225 1.000000
507.193939 -856.916687 0.703773 1.000000
479.405243 -830.269104 -0.000042 0.230561
467.626068 -818.973633 -0.000026 0.235528
462.568878 -814.124146 -0.000020 0.239848
459.752319 -811.423218 -0.000015 0.283638
457.954163 -809.698914 -0.000014 0.244264
456.704407 -808.500488 -0.000012 0.265399
455.783630 -807.617493 -0.000011 0.282645
nan nan nan 0.000000
nan nan nan 0.000000
nan nan nan 0.000000
nan nan nan 0.000000
nan nan nan 0.000000
506.975952 -857.476013 8.514055 1.000000
506.975952 -857.476013 5.902842 1.000000
506.975891 -857.476013 3.300018 1.000000
506.975891 -857.476013 0.699982 1.000000
479.207794 -830.473511 -0.000041 0.229520
467.507782 -819.096130 -0.000026 0.228383
462.484558 -814.211426 -0.000020 0.222219
459.686920 -811.490906 -0.000016 0.248249
457.900879 -809.754089 -0.000014 0.218820
456.659485 -808.546997 -0.000012 0.292339
455.744904 -807.657593 -0.000011 0.200797
nan nan nan 0.000000
nan nan nan 0.000000
nan nan nan 0.000000
nan nan nan 0.000000
nan nan nan 0.000000
506.756592 -858.038696 8.533483 1.000000
506.756592 -858.038635 5.914484 1.000000
506.756592 -858.038696 3.303895 1.000000
506.756561 -858.038635 0.696105 1.000000
479.008942 -830.676636 -0.000040 0.232212
467.388641 -819.217773 -0.000026 0.222483
462.399658 -814.298157 -0.000020 0.219874
459.621063 -811.558167 -0.000016 0.236377
457.847168 -809.808960 -0.000014 0.204232
456.614258 -808.593140 -0.000012 0.205021
455.705902 -807.697449 -0.000010 0.206458
nan nan nan 0.000000
nan nan nan 0.000000
nan nan nan 0.000000
nan nan nan 0.000000
nan nan nan 0.000000
506.535950 -858.604675 8.553346 1.000000
506.535950 -858.604675 5.926386 1.000000
506.535950 -858.604675 3.307860 1.000000
506.535889 -858.604675 0.692141 1.000000
478.808685 -830.878296 -0.000041 0.227808
467.268646 -819.338623 -0.000026 0.224673
462.314117 -814.384277 -0.000019 0.224302
459.554749 -811.624939 -0.000016 0.225115
457.793121 -809.863403 -0.000014 0.214763
456.568726 -808.639038 -0.000012 0.200342
455.666626 -807.737000 -0.000011 0.205596
nan nan nan 0.000000
nan nan nan 0.000000
nan nan nan 0.000000
nan nan nan 0.000000
nan nan nan 0.000000
506.313934 -859.174194 8.573652 1.000000
506.313934 -859.174194 5.938552 1.000000
506.313904 -859.174194 3.311911 1.000000
506.313873 -859.174133 0.688088 1.000000
478.606995 -831.078552 -0.000040 0.227018
467.147827 -819.458618 -0.000026 0.228969
462.227997 -814.469788 -0.000019 0.218234
459.487946 -811.691284 -0.000016 0.248668
457.738647 -809.917480 -0.000014 0.237239
456.522858 -808.684570 -0.000012 0.247998
455.627075 -807.776245 -0.000010 0.205716
nan nan nan 0.000000
nan nan nan 0.000000
nan nan nan 0.000000
nan nan nan 0.000000
nan nan nan 0.000000
506.090515 -859.747253 8.594406 1.000000
506.090515 -859.747253 5.950986 1.000000
506.090515 -859.747253 3.316056 1.000000
506.090454 -859.747253 0.683946 1.000000
478.403931 -831.277466 -0.000041 0.229232
467.026154 -819.577759 -0.000026 0.234989
462.141296 -814.554688 -0.000020 0.222806
459.420715 -811.757141 -0.000016 0.212824
457.683838 -809.971130 -0.000014 0.268367
456.476654 -808.729797 -0.000012 0.253910
455.587250 -807.815247 -0.000011 0.246933
nan nan nan 0.000000
nan nan nan 0.000000
nan nan nan 0.000000
nan nan nan 0.000000
nan nan nan 0.000000
505.865692 -860.324036 8.615621 1.000000
505.865692 -860.324036 5.963696 1.000000
505.865692 -860.324036 3.320288 1.000000
505.865631 -860.323975 0.679713 1.000000
478.199493 -831.474854 -0.000041 0.229185
466.903656 -819.696045 -0.000026 0.218533
462.053986 -814.639038 -0.000020 0.240602
459.352997 -811.822571 -0.000016 0.196369
457.628632 -810.024475 -0.000013 0.208708
456.430145 -808.774719 -0.000012 0.195866
455.547150 -807.854004 -0.000011 0.227712
nan nan nan 0.000000
nan nan nan 0.000000
nan nan nan 0.000000
nan nan nan 0.000000
469.904572 -823.117188 5.329157 0.415930
505.639404 -860.904480 8.637290 1.000000
505.639404 -860.904480 5.976681 1.000000
505.639374 -860.904480 3.324612 1.000000
505.639343 -860.904419 0.675389 1.000000
477.993683 -831.670898 -0.000041 0.232595
466.780334 -819.813477 -0.000026 0.219227
461.966095 -814.722717 -0.000019 0.229855
459.284821 -811.887451 -0.000016 0.225534
457.573059 -810.077393 -0.000013 0.210311
456.383331 -808.819336 -0.000012 0.220388
455.506805 -807.892456 -0.000011 0.295546
nan nan nan 0.000000
nan nan nan 0.000000
469.957153 -823.469788 7.318938 0.396994
470.731384 -824.300049 6.504550 0.404700
nan nan nan 0.000000
505.411591 -861.488831 8.659430 1.000000
505.411591 -861.488831 5.989944 1.000000
505.411591 -861.488831 3.329031 1.000000
505.411560 -861.488770 0.670969 1.000000
477.786499 -831.865479 -0.000041 0.230357
466.656219 -819.930054 -0.000026 0.227724
461.877625 -814.805847 -0.000020 0.246490
459.216217 -811.951904 -0.000016 0.235312
457.517120 -810.129883 -0.000014 0.229197
456.336212 -808.863586 -0.000012 0.235827
455.466156 -807.930603 -0.000011 0.186651
nan nan nan 0.000000
nan nan nan 0.000000
nan nan nan 0.000000
470.512634 -824.375366 6.490696 0.390219
469.671234 -823.460327 5.339723 0.405509
505.182281 -862.077087 8.682045 1.000000
470.390747 -824.242798 3.478411 0.393973
505.182251 -862.077087 3.333546 1.000000
505.182220 -862.077026 0.666455 1.000000
477.577942 -832.058533 -0.000041 0.226085
466.531250 -820.045776 -0.000026 0.221884
461.788574 -814.888306 -0.000020 0.238831
459.147156 -812.015869 -0.000016 0.224517
457.460815 -810.182068 -0.000014 0.237490
456.288788 -808.907471 -0.000012 0.243390
455.425262 -807.968445 -0.000011 0.198607
nan nan nan 0.000000
469.725800 -823.822266 8.335714 0.395605
nan nan nan 0.000000
nan nan nan 0.000000
469.050873 -823.077942 5.259110 0.394064
504.951355 -862.669373 8.705141 1.000000
504.951355 -862.669373 6.017331 1.000000
504.951355 -862.669373 3.338154 1.000000
504.951324 -862.669312 0.661847 1.000000
477.368042 -832.250183 -0.000041 0.229232
466.405518 -820.160583 -0.000026 0.215326
461.698944 -814.970093 -0.000019 0.227234
459.077637 -812.079346 -0.000016 0.226480
457.404175 -810.233826 -0.000014 0.194621
456.241028 -808.951111 -0.000012 0.240793
455.384094 -808.006042 -0.000011 0.202999
468.900635 -823.206604 9.095087 0.398230
nan nan nan 0.000000
469.157715 -823.494141 7.224118 0.399222
469.971588 -824.404358 6.439977 0.405570
469.107269 -823.437744 5.294211 0.405264
504.718842 -863.265869 8.728727 1.000000
469.720184 -824.123230 3.451930 0.393393
504.718842 -863.265808 3.342860 1.000000
504.718781 -863.265747 0.657139 1.000000
477.156860 -832.440430 -0.000041 0.230513
466.278961 -820.274536 -0.000026 0.224756
461.608734 -815.051331 -0.000019 0.227820
459.007690 -812.142334 -0.000016 0.216630
457.347137 -810.285156 -0.000014 0.256866
456.192993 -808.994324 -0.000012 0.256352
455.342682 -808.043335 -0.000010 0.208636
468.619202 -823.186401 9.044497 0.398550
468.971344 -823.585876 8.189039 0.393500
470.213379 -824.994629 7.555810 0.391592
469.867584 -824.602417 6.451700 0.413062
468.931183 -823.540283 5.289586 0.397818
504.484680 -863.866516 8.752812 1.000000
469.323883 -823.985718 3.433952 0.405661
504.484680 -863.866516 3.347667 1.000000
504.484619 -863.866455 0.652333 1.000000
476.944305 -832.629089 -0.000040 0.232595
466.151642 -820.387573 -0.000026 0.230968
461.517975 -815.131897 -0.000020 0.221417
458.937286 -812.204773 -0.000016 0.207559
457.289764 -810.336121 -0.000014 0.197290
456.144653 -809.037292 -0.000012 0.248932
455.300995 -808.080383 -0.000010 0.232883
468.541077 -823.395813 9.071070 0.402579
468.867798 -823.771667 8.204499 0.396536
469.319916 -824.291748 7.352499 0.398123
469.309296 -824.279541 6.361113 0.396811
468.499451 -823.347900 5.240217 0.396078
504.248810 -864.471558 8.777397 1.000000
469.743591 -824.779114 3.476862 0.388388
504.248779 -864.471558 3.352573 1.000000
504.248749 -864.471497 0.647428 1.000000
476.730469 -832.816345 -0.000040 0.233110
466.023499 -820.499756 -0.000025 0.225845
461.426666 -815.211853 -0.000020 0.222135
458.866455 -812.266785 -0.000015 0.254999
457.232025 -810.386658 -0.000013 0.226348
456.096008 -809.079834 -0.000012 0.193712
455.259064 -808.117065 -0.000010 0.272317
468.641846 -823.816223 9.167272 0.400992
468.803772 -824.005127 8.233635 0.402670
469.089508 -824.338501 7.331541 0.396048
467.938721 -822.995911 6.084129 0.411124
468.222290 -823.326721 5.217535 0.388952
504.011200 -865.081055 8.802498 1.000000
468.573425 -823.736389 3.400519 0.396338
504.011200 -865.081055 3.357585 1.000000
504.011200 -865.081055 0.642417 1.000000
476.515289 -833.002014 -0.000040 0.225379
465.894592 -820.611023 -0.000026 0.231913
461.334778 -815.291199 -0.000019 0.224553
458.795227 -812.328308 -0.000015 0.191222
457.173920 -810.436768 -0.000013 0.231710
456.047058 -809.122070 -0.000012 0.204447
455.216858 -808.153503 -0.000011 0.194191
468.192078 -823.593506 9.051774 0.406973
468.806122 -824.320068 8.285769 0.398962
nan nan nan 0.000000
467.644836 -822.945923 6.050228 0.405951
468.065674 -823.443909 5.216126 0.399084
503.771820 -865.695068 8.828119 1.000000
469.929901 -825.649841 3.515298 0.400153
503.771820 -865.695068 3.362697 1.000000
503.771820 -865.695068 0.637303 1.000000
476.298859 -833.186279 -0.000040 0.229340
465.764923 -820.721436 -0.000026 0.225020
461.242340 -815.369873 -0.000019 0.248848
458.723541 -812.389343 -0.000016 0.196919
457.115479 -810.486511 -0.000014 0.195998
455.997833 -809.164001 -0.000012 0.263389
455.174408 -808.189636 -0.000011 0.215493
467.886841 -823.534180 8.991238 0.395621
468.406738 -824.158142 8.203524 0.408469
468.689667 -824.497742 7.306712 0.410269
467.851196 -823.491394 6.131889 0.407706
468.188477 -823.896179 5.265066 0.396292
468.014099 -823.686890 4.304840 0.396262
469.907532 -825.959412 3.526239 0.405570
nan nan nan 0.000000
nan nan nan 0.000000
476.081116 -833.368958 -0.000039 0.228610
465.634460 -820.830872 -0.000025 0.231841
461.149384 -815.447876 -0.000019 0.232667
458.651428 -812.449829 -0.000016 0.215027
457.056702 -810.535828 -0.000013 0.214153
455.948303 -809.205566 -0.000012 0.199803
455.131714 -808.225464 -0.000010 0.217145
468.643768 -824.762634 9.349196 0.400168
468.153046 -824.165161 8.169771 0.399527
468.434753 -824.508118 7.278606 0.400534
nan nan nan 0.000000
467.947174 -823.914551 5.249000 0.407767
nan nan nan 0.000000
469.217804 -825.461426 3.485790 0.404425
nan nan nan 0.000000
nan nan nan 0.000000
475.862122 -833.550110 -0.000039 0.231506
465.503265 -820.939392 -0.000025 0.220089
461.055847 -815.525208 -0.000019 0.206470
458.578918 -812.509827 -0.000015 0.220257
456.997589 -810.584778 -0.000013 0.231123
455.898499 -809.246765 -0.000011 0.218126
455.088745 -808.260986 -0.000010 0.206685
468.088318 -824.402161 9.191294 0.384451
467.187775 -823.290100 7.891542 0.397757
468.318512 -824.686401 7.290374 0.402152
466.707703 -822.697266 5.933194 0.408209
469.768768 -826.477295 5.609916 0.398917
479.780945 -838.840881 5.877446 0.591821
469.203156 -825.778809 3.497421 0.405051
479.781799 -838.841919 2.773850 0.584878
479.782227 -838.842468 1.226140 0.552544
475.641876 -833.729736 -0.000039 0.233182
465.371307 -821.047058 -0.000025 0.238759
460.961792 -815.601929 -0.000019 0.218976
458.505951 -812.569336 -0.000015 0.238041
456.938110 -810.633240 -0.000013 0.223608
455.848419 -809.287598 -0.000012 0.273885
455.045563 -808.296204 -0.000010 0.213016
467.865326 -824.444092 9.164471 0.407446
466.901428 -823.236694 7.843795 0.396811
467.572052 -824.076721 7.118812 0.406668
466.795654 -823.104187 5.988411 0.397955
469.270874 -826.204712 5.549586 0.403861
469.077362 -825.962341 4.504535 0.397162
479.162720 -838.595642 4.294719 0.578592
479.163116 -838.596130 2.764370 0.550317
479.163513 -838.596619 1.235619 0.544778
475.420380 -833.907837 -0.000039 0.228419
465.238586 -821.153748 -0.000025 0.225546
460.867218 -815.677979 -0.000019 0.230872
458.432617 -812.628296 -0.000016 0.231171
456.878326 -810.681335 -0.000013 0.227449
455.798035 -809.328125 -0.000011 0.206051
455.002106 -808.331177 -0.000010 0.207547
nan nan nan 0.000000
466.686371 -823.268799 7.820384 0.397482
467.288361 -824.033813 7.080624 0.396719
466.586670 -823.142151 5.973566 0.395209
468.386353 -825.429077 5.416451 0.396490
468.156982 -825.137634 4.404664 0.380331
468.222626 -825.221008 3.445948 0.381186
478.559387 -838.356262 2.755158 0.571130
478.559784 -838.356750 1.244831 0.358434
475.197632 -834.084351 -0.000039 0.229723
465.105133 -821.259521 -0.000025 0.225415
460.772095 -815.753357 -0.000019 0.221645
458.358826 -812.686768 -0.000015 0.253886
456.818176 -810.729004 -0.000013 0.192671
455.747375 -809.368286 -0.000012 0.236772
454.958435 -808.365784 -0.000011 0.210694
467.384735 -824.476074 9.096317 0.395758
467.909790 -825.152954 8.303730 0.373297
467.433563 -824.539063 7.169336 0.413077
467.403381 -824.500122 6.206884 0.397986
467.041626 -824.033752 5.194715 0.387182
467.855591 -825.083069 4.385923 0.376608
467.843567 -825.067627 3.428546 0.373892
467.820068 -825.037292 2.475214 0.374212
467.783234 -824.989807 1.525769 0.384924
467.853363 -825.080200 0.570669 0.366705
464.970947 -821.364380 -0.000025 0.227784
460.676453 -815.828125 -0.000019 0.224697
458.284668 -812.744751 -0.000015 0.224780
456.757721 -810.776245 -0.000013 0.184341
455.696411 -809.408081 -0.000011 0.260433
454.914520 -808.400085 -0.000011 0.256854
466.966888 -824.255249 8.988628 0.396155
466.629303 -823.813660 7.905813 0.371069
468.854370 -826.723816 7.642037 0.398993
467.290558 -824.678528 6.217644 0.396933
466.886536 -824.150085 5.194432 0.407248
477.393646 -837.892395 5.695260 0.537774
477.394012 -837.892883 4.214015 0.608911
467.685181 -825.194702 2.475909 0.377890
467.658508 -825.159790 1.524811 0.382300
467.714050 -825.232422 0.568922 0.395819
464.836029 -821.468262 -0.000025 0.234259
460.580292 -815.902161 -0.000019 0.236102
458.210083 -812.802185 -0.000015 0.226264
456.696899 -810.823059 -0.000013 0.197087
455.645203 -809.447510 -0.000012 0.220173
454.870361 -808.434082 -0.000011 0.222447
467.145966 -824.816467 9.127733 0.407843
466.295227 -823.687561 7.840498 0.394781
467.169678 -824.847961 7.184820 0.402472
467.179016 -824.860352 6.229119 0.396536
466.278320 -823.665100 5.107689 0.401709
465.979767 -823.268982 4.174332 0.403983
476.831726 -837.669495 4.188572 0.281529
476.832092 -837.669983 2.729014 0.558679
476.832458 -837.670471 1.270978 0.235294
474.522095 -834.604614 -0.000039 0.233696
464.700409 -821.571228 -0.000025 0.229986
460.483612 -815.975525 -0.000019 0.234498
458.135101 -812.859070 -0.000015 0.226384
456.635773 -810.869446 -0.000013 0.219969
455.593689 -809.486633 -0.000012 0.214213
454.825958 -808.467834 -0.000010 0.194322
467.305573 -825.364563 9.261606 0.396750
466.661194 -824.496948 8.027816 0.393927
467.434875 -825.538696 7.314366 0.411246
476.281067 -837.449707 8.533241 0.604059
466.379425 -824.117554 5.156333 0.396078
466.464172 -824.231689 4.261332 0.396078
476.282166 -837.451172 4.163809 0.595346
476.282532 -837.451660 2.720764 0.584131
476.282867 -837.452148 1.279225 0.795483
474.294495 -834.774902 -0.000038 0.227689
464.564056 -821.673218 -0.000025 0.227042
460.386444 -816.048279 -0.000019 0.217659
458.059723 -812.915466 -0.000015 0.224182
456.574341 -810.915405 -0.000013 0.238472
455.541931 -809.525330 -0.000012 0.239249
454.781311 -808.501221 -0.000010 0.212609
466.898865 -825.151550 9.158211 0.401465
466.260071 -824.278809 7.938479 0.400977
466.431854 -824.513489 7.055919 0.397223
466.252686 -824.268738 6.076736 0.402579
466.133972 -824.106506 5.138555 0.396078
465.929047 -823.826538 4.208557 0.397604
475.744843 -837.237671 4.139702 0.603937
475.703796 -837.181580 2.711588 0.631800
475.692261 -837.165833 1.288732 0.596643
474.065735 -834.943542 -0.000038 0.226264
464.426971 -821.774292 -0.000024 0.222925
460.288727 -816.120300 -0.000019 0.271323
457.983978 -812.971313 -0.000015 0.245580
456.512573 -810.960999 -0.000013 0.223811
455.489899 -809.563721 -0.000012 0.212358
454.736450 -808.534302 -0.000010 0.225534
467.186218 -825.891052 9.350368 0.402853
467.364990 -826.138916 8.403769 0.394507
468.075226 -827.123657 7.615907 0.403159
466.591339 -825.066223 6.201971 0.402930
465.722046 -823.860962 5.087847 0.395163
465.864410 -824.058350 4.220819 0.396078
475.219360 -837.028870 4.116230 0.292912
475.219727 -837.029358 2.704917 0.377371
475.220032 -837.029846 1.295075 0.503685
473.835815 -835.110596 -0.000038 0.229747
464.289215 -821.874390 -0.000024 0.232847
460.190552 -816.191650 -0.000019 0.236186
457.907806 -813.026611 -0.000015 0.214416
456.450500 -811.006104 -0.000013 0.193939
455.437592 -809.601685 -0.000011 0.248884
454.691345 -808.567017 -0.000010 0.211400
467.237640 -826.317017 9.444626 0.397681
466.411102 -825.153992 8.110880 0.402853
465.736969 -824.205444 6.936491 0.388556
466.205383 -824.864502 6.144312 0.397864
467.586395 -826.807739 5.488340 0.407202
466.963928 -825.931885 4.398211 0.381537
474.705231 -836.824585 4.093368 0.598505
474.662628 -836.764648 2.696088 0.629938
474.651459 -836.748962 1.304228 0.598856
473.604706 -835.276062 -0.000038 0.230310
464.150757 -821.973511 -0.000024 0.230118
460.091858 -816.262268 -0.000018 0.216822
457.831299 -813.081421 -0.000015 0.225295
456.388092 -811.050720 -0.000013 0.210574
455.385040 -809.639343 -0.000011 0.212669
454.646027 -808.599487 -0.000010 0.244276
466.845337 -826.118469 9.347343 0.400031
467.203156 -826.629517 8.469892 0.396628
467.204315 -826.631165 7.451066 0.404578
465.712982 -824.501404 6.058192 0.396078
472.250122 -833.837097 6.458404 0.609903
465.288605 -823.895386 4.182573 0.404807
472.244537 -833.829102 3.903432 0.598047
472.241730 -833.825073 2.633945 0.586755
472.238953 -833.821106 1.366135 0.610956
473.372467 -835.439880 -0.000037 0.227689
464.011597 -822.071655 -0.000025 0.229436
459.992676 -816.332214 -0.000018 0.223643
457.754364 -813.135681 -0.000015 0.222459
456.325409 -811.094971 -0.000013 0.217253
455.332214 -809.676636 -0.000011 0.281328
454.600464 -808.631653 -0.000010 0.285541
nan nan nan 0.000000
466.209259 -825.557129 8.157194 0.396078
465.929504 -825.151550 7.097608 0.407477
466.642700 -826.185364 6.342020 0.411627
466.871399 -826.516907 5.413754 0.408881
465.289825 -824.224365 4.204782 0.398245
471.787170 -833.642456 3.883080 0.534920
471.784454 -833.638550 2.627167 0.600351
471.781738 -833.634644 1.372911 0.602670
473.139069 -835.602112 -0.000037 0.227258
463.871765 -822.168823 -0.000024 0.220568
459.893005 -816.401489 -0.000018 0.229460
457.677063 -813.189392 -0.000015 0.226492
456.262390 -811.138794 -0.000013 0.199301
455.279114 -809.713501 -0.000011 0.226049
454.554718 -808.663452 -0.000010 0.255155
466.390381 -826.177673 9.294841 0.397711
466.052307 -825.680237 8.159982 0.399619
465.567749 -824.967224 7.032743 0.396582
465.914551 -825.477539 6.194362 0.393378
471.344696 -833.467468 6.364254 0.608621
465.169128 -824.380737 4.209769 0.402014
471.339478 -833.459778 3.863249 0.569589
471.336823 -833.455933 2.620563 0.599771
471.334198 -833.452087 1.379514 0.538338
472.904541 -835.762695 -0.000037 0.226923
463.731262 -822.265076 -0.000024 0.212382
459.792877 -816.470093 -0.000018 0.262563
457.599396 -813.242615 -0.000015 0.197565
456.199066 -811.182129 -0.000013 0.218689
455.225800 -809.750061 -0.000011 0.185622
454.508728 -808.694946 -0.000010 0.218270
nan nan nan 0.000000
466.595642 -826.849792 8.435014 0.396216
465.624146 -825.398621 7.103552 0.408331
466.170990 -826.215454 6.306379 0.378485
465.985321 -825.938110 5.301377 0.396536
466.269196 -826.362122 4.394897 0.407843
470.901062 -833.280945 3.843920 0.570047
470.898529 -833.277100 2.614125 0.594278
470.895966 -833.273315 1.385949 0.499031
472.668915 -835.921631 -0.000036 0.229220
463.590088 -822.360291 -0.000023 0.237825
459.692261 -816.537964 -0.000018 0.223572
457.521362 -813.295227 -0.000015 0.232380
456.135468 -811.225037 -0.000013 0.220915
455.172180 -809.786194 -0.000011 0.244946
454.462494 -808.726074 -0.000010 0.195854
nan nan nan 0.000000
470.484131 -833.124634 10.028585 0.604791
465.489380 -825.549927 7.112914 0.407172
466.106384 -826.485657 6.334455 0.399741
465.865112 -826.119751 5.311130 0.395117
466.424255 -826.967712 4.443292 0.397543
470.471649 -833.105713 3.825075 0.586328
470.469208 -833.101990 2.607851 0.537041
470.466736 -833.098206 1.392222 0.241978
472.432190 -836.078857 -0.000036 0.227605
463.448273 -822.454529 -0.000024 0.227701
459.591156 -816.605103 -0.000018 0.239345
457.442963 -813.347351 -0.000014 0.209438
456.071533 -811.267517 -0.000013 0.208480
455.118347 -809.821960 -0.000011 0.234331
454.416077 -808.756958 -0.000010 0.220951
nan nan nan 0.000000
470.063019 -832.952637 9.947706 0.605615
465.153229 -825.392517 7.055453 0.406744
465.763641 -826.332397 6.287601 0.401907
470.055695 -832.941406 6.231774 0.578546
470.053253 -832.937622 5.015831 0.560311
470.050934 -832.934021 3.806700 0.640726
470.048523 -832.930359 2.601731 0.598993
470.046143 -832.926697 1.398340 0.537087
470.043732 -832.922974 0.193947 1.000000
463.305786 -822.547791 -0.000024 0.223667
459.489594 -816.671570 -0.000018 0.228095
457.364197 -813.398865 -0.000015 0.230022
456.007324 -811.309509 -0.000012 0.215577
455.064240 -809.857361 -0.000011 0.237179
454.369415 -808.787476 -0.000010 0.294445
nan nan nan 0.000000
469.650299 -832.784119 9.868820 0.587060
464.851898 -825.281372 7.008755 0.422278
466.046234 -827.148804 6.412104 0.399649
469.643188 -832.773010 6.189787 0.584894
469.640839 -832.769287 4.985911 0.569924
469.638550 -832.765747 3.788778 0.577676
469.636230 -832.762146 2.595762 0.627466
469.633911 -832.758484 1.404307 0.618967
469.631592 -832.754883 0.211856 1.000000
463.162628 -822.640015 -0.000023 0.228251
459.387573 -816.737305 -0.000018 0.231829
457.285095 -813.449890 -0.000015 0.291884
455.942841 -811.351074 -0.000013 0.214691
455.009918 -809.892395 -0.000011 0.295510
454.322571 -808.817688 -0.000010 0.188733
nan nan nan 0.000000
469.245636 -832.618896 9.791857 0.545220
469.243347 -832.615234 8.563619 0.534615
465.206818 -826.205505 6.227239 0.399161
469.238770 -832.607971 6.148822 0.584741
469.236481 -832.604309 4.956724 0.560372
469.234253 -832.600769 3.771292 0.548699
469.231995 -832.597229 2.589940 0.596277
469.229736 -832.593628 1.410130 0.521111
469.227509 -832.590088 0.229330 1.000000
463.018860 -822.731262 -0.000023 0.239872
459.285095 -816.802368 -0.000018 0.217324
457.205597 -813.500305 -0.000014 0.213327
455.878052 -811.392212 -0.000012 0.229460
454.955322 -809.927002 -0.000011 0.229460
454.275513 -808.847534 -0.000010 0.215589
nan nan nan 0.000000
468.848816 -832.456848 9.716756 0.553872
468.846588 -832.453247 8.500371 0.616922
468.844299 -832.449585 7.298648 0.606226
468.842133 -832.446045 6.108849 0.592096
468.839935 -832.442505 4.928242 0.548119
468.837769 -832.439026 3.754230 0.629664
468.835571 -832.435486 2.584258 0.575479
468.833405 -832.431946 1.415810 0.682521
468.831238 -832.428467 0.246380 1.000000
462.874451 -822.821472 -0.000023 0.232691
459.182190 -816.866699 -0.000017 0.255969
457.125793 -813.550171 -0.000015 0.230286
455.812958 -811.432861 -0.000012 0.209055
454.900513 -809.961304 -0.000011 0.199277
454.228241 -808.877075 -0.000009 0.223344
nan nan nan 0.000000
468.459534 -832.297852 9.643457 0.590509
468.457367 -832.294312 8.438629 0.384207
468.455170 -832.290710 7.248333 0.598840
468.453064 -832.287231 6.069833 0.585504
468.450928 -832.283752 4.900438 0.297444
468.448822 -832.280334 3.737577 0.632593
468.446716 -832.276855 2.578712 0.647822
468.444580 -832.273376 1.421355 0.235370
468.442474 -832.269897 0.263021 1.000000
462.729401 -822.910706 -0.000023 0.236844
459.078796 -816.930298 -0.000017 0.221310
457.045624 -813.599487 -0.000014 0.240075
455.747589 -811.473083 -0.000012 0.226564
454.845428 -809.995178 -0.000011 0.203681
454.180756 -808.906311 -0.000010 0.218593
468.079742 -832.145508 10.782743 0.583505
468.077576 -832.141846 9.571901 0.518334
468.075470 -832.138367 8.378353 0.363546
468.073364 -832.134888 7.199218 0.614633
468.071289 -832.131409 6.031746 0.546334
468.069214 -832.127930 4.873297 0.477745
468.067200 -832.124573 3.721321 0.593652
468.065125 -832.121155 2.573298 0.594354
468.063080 -832.117737 1.426766 0.684291
468.061035 -832.114319 0.279266 1.000000
462.583740 -822.998962 -0.000023 0.234211
458.974976 -816.993164 -0.000017 0.223165
456.965088 -813.648254 -0.000014 0.254353
455.681976 -811.512817 -0.000012 0.249015
454.790131 -810.028625 -0.000011 0.206517
454.133087 -808.935181 -0.000010 0.220963
467.704803 -831.992371 10.701703 0.583474
467.702667 -831.988770 9.502039 0.575586
467.700623 -831.985291 8.319513 0.605859
467.698608 -831.981873 7.151261 0.585916
467.696564 -831.978455 5.994558 0.522194
467.694580 -831.975037 4.846800 0.627634
467.692596 -831.971741 3.705448 0.614496
467.690582 -831.968323 2.568012 0.593576
467.688599 -831.964966 1.432052 0.663188
467.686646 -831.961670 0.295127 1.000000
462.437469 -823.086121 -0.000023 0.233337
458.870728 -817.055298 -0.000017 0.232715
456.884247 -813.696472 -0.000014 0.206721
455.616058 -811.552124 -0.000012 0.224385
454.734619 -810.061768 -0.000010 0.196476
454.085205 -808.963684 -0.000010 0.234331
467.336670 -831.842041 10.622561 0.531746
467.334656 -831.838501 9.433828 0.596323
467.332642 -831.835083 8.262051 0.607950
467.330688 -831.831726 7.104428 0.591714
467.328705 -831.828308 5.958245 0.583337
467.326752 -831.824951 4.820923 0.646723
467.324860 -831.821655 3.689947 0.653132
467.130890 -831.488403 2.556604 0.523720
467.128967 -831.485107 1.443459 0.517449
467.127045 -831.481812 0.329370 0.535531
462.290619 -823.172302 -0.000023 0.240327
458.766052 -817.116699 -0.000017 0.234809
456.803070 -813.744080 -0.000014 0.215374
455.549866 -811.590942 -0.000012 0.229340
454.678864 -810.094482 -0.000010 0.189930
454.037109 -808.991943 -0.000009 0.239956
466.975189 -831.694397 10.545259 0.510231
466.973206 -831.690918 9.367186 0.612177
466.971252 -831.687500 8.205923 0.599405
466.969360 -831.684204 7.058681 0.575692
466.967438 -831.680847 5.922773 0.536934
466.965576 -831.677612 4.795650 0.563378
466.963715 -831.674316 3.674807 0.629343
466.880798 -831.529602 2.555141 0.624353
466.888092 -831.542297 1.444620 0.608774
466.895386 -831.555054 0.331946 0.611765
462.143127 -823.257446 -0.000023 0.230262
458.660950 -817.177429 -0.000017 0.245592
456.721558 -813.791138 -0.000014 0.244204
455.483398 -811.629333 -0.000012 0.238519
454.622864 -810.126770 -0.000010 0.236138
453.988861 -809.019775 -0.000009 0.232464
466.620087 -831.549377 10.469741 0.567498
466.618164 -831.545898 9.302078 0.561975
466.616302 -831.542603 8.151093 0.581796
466.614441 -831.539307 7.013989 0.579889
466.612579 -831.536011 5.888119 0.596338
466.610779 -831.532776 4.770957 0.725734
466.608948 -831.529602 3.660015 0.608194
466.607117 -831.526367 2.552882 0.317082
466.605316 -831.523132 1.447178 0.257465
466.603485 -831.519897 0.340531 0.186526
461.995087 -823.341553 -0.000023 0.234702
458.555389 -817.237366 -0.000017 0.218054
456.639709 -813.837646 -0.000014 0.218186
455.416687 -811.667236 -0.000011 0.208289
454.566650 -810.158752 -0.000010 0.200007
453.940369 -809.047302 -0.000009 0.216164
466.271210 -831.406860 10.395942 1.000000
466.269348 -831.403503 9.238466 0.630045
466.267517 -831.400208 8.097514 0.284459
466.265717 -831.396973 6.970319 0.535134
466.263885 -831.393677 5.854258 0.620066
466.262146 -831.390503 4.746826 0.243091
466.260406 -831.387329 3.645561 0.610636
466.258606 -831.384155 2.548069 0.269810
466.256866 -831.380981 1.451990 0.524865
466.255096 -831.377808 0.354974 0.269657
461.846436 -823.424622 -0.000022 0.228766
458.449463 -817.296570 -0.000017 0.216008
456.557526 -813.883606 -0.000014 0.247842
455.349701 -811.704712 -0.000012 0.252223
454.510223 -810.190247 -0.000010 0.215182
453.891724 -809.074524 -0.000009 0.223775
465.928314 -831.266785 10.323822 1.000000
465.926514 -831.263489 9.176300 0.568963
465.924774 -831.260254 8.045155 0.535027
465.923004 -831.257080 6.927642 0.521660
465.921234 -831.253845 5.821166 0.577356
465.919525 -831.250671 4.723246 0.492287
465.917847 -831.247559 3.631437 0.653284
465.739685 -830.920837 2.537334 0.591241
465.738007 -830.917786 1.462724 0.499107
465.736328 -830.914673 0.387192 0.529503
461.697205 -823.506653 -0.000022 0.229029
458.343109 -817.355042 -0.000017 0.236629
456.475037 -813.928955 -0.000014 0.214775
455.282471 -811.741638 -0.000012 0.236030
454.453583 -810.221436 -0.000010 0.212860
453.842865 -809.101379 -0.000009 0.219443
465.591278 -831.129150 10.253337 0.609384
465.589539 -831.125916 9.115540 0.613962
465.587830 -831.122742 7.993975 0.577874
465.586121 -831.119568 6.885930 0.581277
465.584381 -831.116333 5.788822 0.597955
465.582733 -831.113281 4.700197 0.599023
465.581116 -831.110168 3.617631 0.578454
465.496796 -830.953003 2.535906 0.624720
465.503662 -830.965759 1.463856 0.618097
465.510498 -830.978516 0.389708 0.612772
461.547424 -823.587646 -0.000022 0.229496
458.236328 -817.412781 -0.000016 0.232320
456.392242 -813.973694 -0.000013 0.205297
455.214966 -811.778137 -0.000012 0.243785
454.396698 -810.252136 -0.000010 0.193760
453.793854 -809.127869 -0.000009 0.252259
465.259857 -830.993835 10.184429 0.575830
465.258179 -830.990601 9.056135 0.547494
465.256531 -830.987488 7.943942 0.619928
465.254852 -830.984314 6.845148 0.600565
465.253204 -830.981140 5.757204 0.549477
465.251587 -830.978088 4.677665 0.614908
465.250000 -830.975098 3.604133 0.547372
465.248352 -830.971985 2.534273 0.632486
465.246765 -830.968933 1.465784 0.607156
465.245148 -830.965942 0.396375 1.000000
461.397064 -823.667603 -0.000022 0.217719
458.129181 -817.469788 -0.000017 0.232440
456.309143 -814.017883 -0.000014 0.238436
455.147217 -811.814148 -0.000012 0.209390
454.339630 -810.282532 -0.000010 0.222662
453.744629 -809.154053 -0.000009 0.218413
464.933929 -830.860718 10.117057 0.637003
464.932281 -830.857544 8.998058 0.611917
464.930695 -830.854431 7.895023 0.571572
464.929077 -830.851318 6.805277 0.599908
464.927460 -830.848206 5.726288 0.524697
464.925903 -830.845215 4.655634 0.507881
464.924347 -830.842224 3.590937 0.529778
464.922791 -830.839172 2.529877 0.623713
464.921204 -830.836182 1.470178 0.525963
464.919647 -830.833191 0.409563 1.000000
461.246155 -823.746521 -0.000021 0.217193
458.021606 -817.526001 -0.000016 0.221453
456.225708 -814.061523 -0.000013 0.215170
455.079193 -811.849731 -0.000012 0.210024
454.282318 -810.312439 -0.000010 0.196105
453.695221 -809.179871 -0.000009 0.231123
464.613312 -830.729736 10.051173 0.608911
464.611725 -830.726624 8.941265 0.596216
464.610138 -830.723572 7.847182 0.560800
464.608582 -830.720520 6.766286 0.558145
464.607025 -830.717407 5.696057 0.515648
464.605499 -830.714417 4.634090 0.480705
464.604004 -830.711487 3.578031 0.550683
464.602478 -830.708496 2.525579 0.607309
464.600952 -830.705505 1.474475 0.714855
464.599457 -830.702576 0.422460 1.000000
461.094696 -823.824341 -0.000022 0.233565
457.913666 -817.581482 -0.000016 0.229268
456.141998 -814.104553 -0.000013 0.253060
455.010956 -811.884827 -0.000011 0.282382
454.224823 -810.342041 -0.000010 0.240363
453.645660 -809.205383 -0.000009 0.254808
464.297821 -830.600952 9.986736 1.000000
464.296265 -830.597839 8.885714 0.574899
464.294769 -830.594788 7.800394 0.506630
464.293243 -830.591797 6.728149 0.515435
464.291748 -830.588745 5.666489 0.626505
464.290253 -830.585815 4.613021 0.323476
464.288788 -830.582886 3.565409 0.609140
464.287323 -830.579956 2.521376 0.551690
464.285828 -830.576965 1.478677 0.302922
464.284393 -830.574036 0.435074 1.000000
460.942688 -823.901123 -0.000022 0.221573
457.805328 -817.636169 -0.000016 0.252426
456.057983 -814.146973 -0.000014 0.264274
454.942444 -811.919373 -0.000011 0.220520
454.167114 -810.371155 -0.000010 0.265184
453.595886 -809.230469 -0.000009 0.201287
463.987366 -830.474121 9.923710 1.000000
463.985840 -830.471069 8.831383 0.607019
463.984375 -830.468079 7.754631 0.198138
463.982910 -830.465088 6.690849 0.606409
463.981445 -830.462097 5.637568 0.594263
463.980011 -830.459167 4.592410 0.241230
463.978577 -830.456299 3.553063 0.612924
463.977142 -830.453369 2.517265 0.578378
463.975708 -830.450500 1.482788 0.465156
463.974304 -830.447571 0.447413 1.000000
460.790161 -823.976868 -0.000021 0.238759
457.696625 -817.690186 -0.000017 0.210730
455.973663 -814.188843 -0.000013 0.218054
454.873718 -811.953491 -0.000011 0.250487
454.109222 -810.399902 -0.000010 0.264573
453.545959 -809.255249 -0.000009 0.267482
463.681732 -830.349304 9.862047 0.554589
463.680267 -830.346313 8.778225 0.486244
463.678833 -830.343323 7.709855 0.555718
463.677399 -830.340393 6.654356 0.608515
463.675995 -830.337463 5.609272 0.584039
463.674591 -830.334534 4.572246 0.615671
463.673218 -830.331726 3.540985 0.593042
463.671814 -830.328857 2.513243 0.521752
463.670441 -830.325928 1.486809 0.523400
463.669037 -830.323120 0.459484 0.510994
460.637115 -824.051514 -0.000021 0.228610
457.587524 -817.743347 -0.000016 0.213686
455.889069 -814.230103 -0.000013 0.213459
454.804749 -811.987183 -0.000011 0.270904
454.051117 -810.428223 -0.000010 0.247531
453.495880 -809.279724 -0.000009 0.206266
463.380798 -830.226440 9.801714 0.708873
463.379364 -830.223450 8.726214 0.550561
463.377991 -830.220520 7.666045 0.540215
463.376587 -830.217590 6.618650 0.552438
463.375214 -830.214722 5.581587 0.554406
463.373871 -830.211853 4.552518 0.653330
463.372528 -830.209045 3.529167 0.656168
463.371185 -830.206177 2.509307 0.582208
463.369843 -830.203369 1.490745 0.570123
463.368500 -830.200500 0.471295 0.548119
460.483551 -824.125061 -0.000021 0.212896
457.478058 -817.795837 -0.000016 0.219622
455.804169 -814.270752 -0.000013 0.235623
454.735565 -812.020325 -0.000011 0.246694
453.992798 -810.456177 -0.000010 0.226049
453.445587 -809.303772 -0.000009 0.230920
463.084442 -830.105408 9.742672 0.605646
463.083069 -830.102417 8.675320 0.560494
463.081696 -830.099548 7.623176 0.544335
463.080353 -830.096680 6.583709 0.632425
463.079041 -830.093811 5.554494 0.609140
463.077728 -830.091003 4.533213 0.585733
463.076416 -830.088196 3.517603 0.528405
463.075104 -830.085388 2.505456 0.626612
463.073792 -830.082581 1.494595 0.617823
463.072479 -830.079773 0.482853 0.530510
460.329468 -824.197571 -0.000021 0.244886
457.368256 -817.847473 -0.000016 0.233182
455.718994 -814.310852 -0.000013 0.232619
454.666107 -812.052979 -0.000011 0.259511
453.934326 -810.483704 -0.000010 0.188901
453.395172 -809.327515 -0.000008 0.207176
462.792511 -829.986206 9.684892 0.513848
462.791168 -829.983276 8.625509 0.613931
462.789856 -829.980347 7.581219 0.582773
462.788574 -829.977539 6.549513 0.644480
462.787292 -829.974731 5.527980 0.582101
462.786011 -829.971985 4.514318 0.680079
462.784729 -829.969177 3.506284 0.651881
462.783447 -829.966431 2.501686 0.569009
462.782196 -829.963684 1.498363 0.587304
462.780945 -829.960876 0.494165 0.545174
460.174866 -824.268982 -0.000021 0.229089
457.258057 -817.898376 -0.000016 0.241978
455.633575 -814.350342 -0.000013 0.214691
454.596466 -812.085205 -0.000011 0.200282
453.875641 -810.510803 -0.000010 0.206242
453.344574 -809.350891 -0.000009 0.240267
462.504913 -829.868713 9.628335 0.526513
462.503601 -829.865845 8.576756 0.557183
462.502319 -829.862976 7.540154 0.621881
462.501068 -829.860229 6.516042 0.615305
462.499817 -829.857422 5.502028 0.559548
462.498596 -829.854675 4.495825 0.656489
462.497345 -829.851929 3.495206 0.556054
462.496124 -829.849182 2.497997 0.466102
462.494904 -829.846436 1.502052 0.717525
462.493652 -829.843689 0.505237 0.572152
460.019806 -824.339355 -0.000021 0.238484
457.147522 -817.948547 -0.000016 0.223356
455.547852 -814.389221 -0.000013 0.230094
454.526581 -812.116882 -0.000010 0.255418
453.816772 -810.537537 -0.000010 0.252187
453.293793 -809.373962 -0.000009 0.232787
462.221497 -829.752991 9.572973 0.603220
462.220215 -829.750122 8.529032 0.593576
462.218994 -829.747314 7.499957 0.532830
462.217773 -829.744568 6.483277 0.535805
462.216553 -829.741821 5.476624 0.609506
462.215363 -829.739136 4.477722 0.439399
462.214172 -829.736389 3.484362 0.657801
462.212982 -829.733643 2.494385 0.564034
462.211792 -829.730957 1.505663 0.330129
462.210571 -829.728271 0.516075 0.630701
459.864227 -824.408630 -0.000020 0.232715
457.036652 -817.997925 -0.000015 0.239704
455.461853 -814.427490 -0.000013 0.216642
454.456482 -812.148071 -0.000011 0.223787
453.757690 -810.563843 -0.000010 0.199899
453.242889 -809.396606 -0.000008 0.226480
461.942139 -829.638916 9.518773 0.629877
461.940918 -829.636108 8.482309 0.710811
461.939728 -829.633301 7.460603 0.228382
461.938538 -829.630554 6.451200 0.628244
461.937347 -829.627869 5.451752 0.709270
461.936188 -829.625183 4.459998 0.244038
461.935028 -829.622498 3.473744 0.531518
461.933868 -829.619812 2.490849 0.589700
461.932709 -829.617126 1.509198 0.260594
461.931549 -829.614441 0.526686 0.621759
459.708191 -824.476807 -0.000020 0.230381
456.925446 -818.046509 -0.000015 0.217157
455.375610 -814.465149 -0.000012 0.216941
454.386169 -812.178833 -0.000011 0.222471
453.698456 -810.589722 -0.000009 0.248513
453.191803 -809.418945 -0.000008 0.215541
461.666748 -829.526428 9.465703 0.597635
461.665558 -829.523682 8.436562 0.722057
461.664398 -829.520935 7.422071 0.509392
461.663239 -829.518188 6.419793 0.570321
461.662109 -829.515503 5.427400 0.749432
461.660980 -829.512878 4.442643 0.706508
461.659851 -829.510193 3.463349 0.633173
461.658722 -829.507568 2.487387 0.617136
461.657623 -829.504944 1.512660 0.628641
461.656494 -829.502258 0.537076 0.550683
459.551666 -824.543884 -0.000020 0.234067
456.813873 -818.094299 -0.000015 0.226911
455.289093 -814.502258 -0.000013 0.233074
454.315613 -812.209045 -0.000011 0.249470
453.639038 -810.615173 -0.000009 0.230573
453.140564 -809.440918 -0.000008 0.238244
461.395203 -829.415527 9.413740 0.554269
461.394043 -829.412842 8.391768 0.487465
461.392914 -829.410095 7.384337 0.605097
461.391815 -829.407410 6.389039 0.624399
461.390717 -829.404785 5.403553 0.671168
461.389618 -829.402100 4.425649 0.586114
461.388519 -829.399475 3.453167 0.509316
461.387421 -829.396851 2.483997 0.520623
461.386322 -829.394287 1.516049 0.621317
461.385254 -829.391663 0.547249 0.578332
459.394684 -824.609863 -0.000020 0.218904
456.701996 -818.141357 -0.000015 0.215649
455.202301 -814.538757 -0.000012 0.234211
454.244873 -812.238770 -0.000010 0.199995
453.579437 -810.640259 -0.000009 0.218617
453.089172 -809.462524 -0.000009 0.241703
440.253052 -778.157471 8.475110 1.000000
440.253052 -778.157532 7.583084 1.000000
440.253052 -778.157471 6.703583 1.000000
440.253052 -778.157532 5.834498 1.000000
440.253052 -778.157532 4.973813 1.000000
440.253052 -778.157532 4.119586 1.000000
440.253052 -778.157532 3.269933 1.000000
440.253052 -778.157532 2.423009 1.000000
