# This PCD file was generated using the MATLAB® pcwrite function
# from Computer Vision Toolbox®.
# .PCD v.7 - Point Cloud Data file format
VERSION .7
FIELDS x y z intensity
SIZE 4 4 4 4
TYPE F F F F
COUNT 1 1 1 1
WIDTH 1186
HEIGHT 1
VIEWPOINT 0 0 0 1 0 0 0
POINTS 1186
DATA ascii
275.724487 -265.590851 4.633967 0.405310
279.257538 -267.792542 3.461567 0.397574
276.295868 -265.946899 3.709159 0.394736
272.971222 -263.875092 3.776179 1.000000
272.971222 -263.875092 3.265972 1.000000
272.971222 -263.875092 2.758497 1.000000
272.971222 -263.875092 2.252651 1.000000
272.971222 -263.875092 1.747348 1.000000
272.971222 -263.875092 1.241503 1.000000
272.971222 -263.875092 0.734028 1.000000
272.971222 -263.875092 0.223821 1.000000
274.631897 -264.909973 0.000011 0.234079
276.746216 -266.227539 0.000013 0.199169
278.215729 -267.143311 0.000015 0.206709
279.298401 -267.817993 0.000016 0.245066
276.058624 -265.701538 4.969177 0.394110
275.803101 -265.539825 4.625449 0.396368
276.440002 -265.942932 4.074711 0.399817
276.168701 -265.771240 3.738990 0.394430
273.125092 -263.844910 3.763036 1.000000
273.125092 -263.844910 3.256604 1.000000
273.125092 -263.844910 2.752884 1.000000
273.125092 -263.844910 2.250782 1.000000
273.125092 -263.844910 1.749218 1.000000
273.125092 -263.844910 1.247116 1.000000
273.125092 -263.844910 0.743395 1.000000
273.125092 -263.844910 0.236964 1.000000
274.681946 -264.830261 0.000011 0.209282
276.787018 -266.162567 0.000013 0.246789
278.250122 -267.088562 0.000015 0.202903
279.328033 -267.770782 0.000016 0.251696
279.925964 -268.088837 3.830871 0.392721
275.882233 -265.489838 4.616842 0.396765
278.999481 -267.493347 3.530362 0.387442
276.084290 -265.619690 3.761639 0.404440
273.276703 -263.815155 3.750171 1.000000
273.276703 -263.815155 3.247434 1.000000
273.276703 -263.815155 2.747390 1.000000
273.276703 -263.815155 2.248952 1.000000
273.276703 -263.815155 1.751048 1.000000
273.276703 -263.815155 1.252609 1.000000
273.276703 -263.815155 0.752565 1.000000
273.276703 -263.815155 0.249830 1.000000
274.732574 -264.750885 0.000011 0.194777
276.828278 -266.097870 0.000014 0.238747
278.284882 -267.034058 0.000015 0.198607
279.358032 -267.723785 0.000016 0.300908
nan nan nan 0.000000
315.908722 -291.511597 9.694384 0.658122
306.579010 -285.422699 6.455144 0.682383
306.580658 -285.423767 5.632256 0.619852
306.582275 -285.424835 4.817190 0.597086
306.583923 -285.425903 4.008113 0.726452
306.585541 -285.426941 3.203239 0.580850
306.587128 -285.427979 2.400825 0.707958
306.588745 -285.429047 1.599144 0.708522
306.590363 -285.430084 0.796478 0.696834
306.591980 -285.431152 -0.008901 0.619074
300.633270 -281.542267 0.000046 0.235204
297.365479 -279.409576 0.000047 0.231279
295.279266 -278.048035 0.000047 0.228155
293.829285 -277.101715 0.000047 0.217241
292.760986 -276.404510 0.000046 0.264825
nan nan nan 0.000000
315.974152 -291.853333 9.746741 0.671244
306.335938 -285.466675 6.422585 0.683986
306.337524 -285.467743 5.605709 0.729091
306.339142 -285.468781 4.796598 0.652888
306.340729 -285.469849 3.993433 0.677058
306.342316 -285.470886 3.194443 0.619791
306.343903 -285.471954 2.397894 0.751598
306.345459 -285.472992 1.602075 0.744457
306.347046 -285.474030 0.805278 0.703426
306.348633 -285.475098 0.005789 0.594263
300.566589 -281.643677 0.000046 0.237849
297.313751 -279.488220 0.000047 0.239728
295.237091 -278.112152 0.000047 0.243869
293.793762 -277.155731 0.000046 0.237682
292.730377 -276.451111 0.000046 0.229831
nan nan nan 0.000000
316.040466 -292.199738 9.800199 0.609705
306.096344 -285.510010 6.390710 0.721508
306.097931 -285.511078 5.579719 0.684123
306.099518 -285.512115 4.776440 0.723384
306.101074 -285.513184 3.979062 0.619348
306.102631 -285.514221 3.185831 0.583429
306.104187 -285.515259 2.395025 0.666743
306.105713 -285.516296 1.604944 0.667933
306.107269 -285.517334 0.813894 0.714641
306.108826 -285.518402 0.020172 0.612696
300.499176 -281.744598 0.000046 0.249721
297.261475 -279.566498 0.000047 0.226863
295.194489 -278.175964 0.000046 0.239010
293.757874 -277.209503 0.000046 0.216044
292.699402 -276.497467 0.000046 0.223296
nan nan nan 0.000000
316.107697 -292.550964 9.854782 0.577020
305.860199 -285.552734 6.359501 0.575250
305.861755 -285.553772 5.554273 0.623575
305.737976 -285.469269 4.739244 1.000000
305.864838 -285.555878 3.964992 0.680842
305.699310 -285.442841 3.167463 1.000000
305.719299 -285.456482 2.389272 1.000000
305.869385 -285.558990 1.607754 0.530999
305.870911 -285.560028 0.822329 0.534493
305.872437 -285.561066 0.034252 0.686259
300.431091 -281.845062 0.000046 0.216199
297.208679 -279.644409 0.000047 0.217564
295.151459 -278.239502 0.000046 0.197972
293.721588 -277.263031 0.000046 0.227928
292.668152 -276.543579 0.000046 0.239249
nan nan nan 0.000000
316.175903 -292.907166 9.910525 0.642161
305.627350 -285.594849 6.328945 0.559731
305.628906 -285.595917 5.529358 0.670420
305.506561 -285.511108 4.720039 1.000000
305.631897 -285.597992 3.951216 0.691920
305.509491 -285.513123 3.161737 1.000000
305.511047 -285.514221 2.387001 1.000000
305.636383 -285.601105 1.610504 0.545541
305.637878 -285.602142 0.830588 0.544991
305.639374 -285.603180 0.048039 0.523690
300.362305 -281.945068 0.000045 0.239896
297.155334 -279.721954 0.000046 0.207954
295.107941 -278.302704 0.000047 0.241296
293.684937 -277.316284 0.000046 0.215781
292.636536 -276.589508 0.000045 0.254233
nan nan nan 0.000000
316.245056 -293.268494 9.967455 0.635096
305.397766 -285.636383 6.299019 0.775402
305.399261 -285.637451 5.504959 0.794980
305.278351 -285.552368 4.701234 1.000000
305.402222 -285.639526 3.937724 0.580713
305.281250 -285.554413 3.153705 1.000000
305.282776 -285.555481 2.384324 1.000000
305.406616 -285.642609 1.613198 0.517388
305.408081 -285.643646 0.838676 0.518791
305.409546 -285.644684 0.061541 0.520195
300.292816 -282.044556 0.000045 0.214656
297.101440 -279.799133 0.000046 0.215098
295.064026 -278.365631 0.000046 0.218078
293.647919 -277.369263 0.000046 0.231674
292.604614 -276.635223 0.000046 0.303397
nan nan nan 0.000000
316.315247 -293.635071 10.025610 0.575341
305.171295 -285.677338 6.269713 0.805234
305.011505 -285.563232 5.451670 1.000000
305.053253 -285.593079 4.682817 1.000000
305.175659 -285.680481 3.924511 0.667704
305.056122 -285.595093 3.145838 1.000000
305.057617 -285.596161 2.381703 1.000000
305.179993 -285.683563 1.615836 0.714504
305.181427 -285.684570 0.846597 0.715404
305.182861 -285.685608 0.074764 0.715755
300.222626 -282.143585 0.000045 0.233876
297.046997 -279.875916 0.000046 0.245162
295.019653 -278.428223 0.000046 0.264621
293.610535 -277.422028 0.000046 0.249626
292.572388 -276.680695 0.000045 0.201228
nan nan nan 0.000000
nan nan nan 0.000000
304.947876 -285.717773 6.241008 0.649683
304.789978 -285.603333 5.428464 1.000000
304.831207 -285.633209 4.664777 1.000000
304.952179 -285.720886 3.911571 0.627146
304.834015 -285.635254 3.138133 1.000000
304.835480 -285.636292 2.379136 1.000000
304.956421 -285.723938 1.618420 0.680293
304.957825 -285.724976 0.854355 0.682567
304.959259 -285.725983 0.087714 0.684184
300.151733 -282.242096 0.000045 0.227258
296.992035 -279.952332 0.000046 0.217408
294.974823 -278.490509 0.000046 0.220915
293.572784 -277.474487 0.000045 0.266249
292.539856 -276.725952 0.000045 0.212358
nan nan nan 0.000000
nan nan nan 0.000000
304.727448 -285.757629 6.212891 0.697337
304.610718 -285.671814 5.412979 1.000000
304.612122 -285.672821 4.647107 1.000000
304.731659 -285.760742 3.898893 0.666285
304.614899 -285.674866 3.130586 1.000000
304.616302 -285.675903 2.376622 1.000000
304.735840 -285.763794 1.620951 0.705364
304.737213 -285.764801 0.861955 0.831846
304.738586 -285.765839 0.100400 0.837095
300.080200 -282.340149 0.000044 0.221489
296.936554 -280.028381 0.000045 0.214823
294.929596 -278.552490 0.000045 0.205991
293.534668 -277.526703 0.000045 0.230094
292.506989 -276.770966 0.000045 0.225690
nan nan nan 0.000000
nan nan nan 0.000000
304.509918 -285.796997 6.185345 0.592630
304.394531 -285.710907 5.390663 1.000000
304.395905 -285.711914 4.629797 1.000000
304.514038 -285.800079 3.886475 0.655238
304.398621 -285.713959 3.123192 1.000000
304.400024 -285.714996 2.374158 1.000000
304.518127 -285.803131 1.623430 0.581262
304.519501 -285.804138 0.869400 0.646540
304.520844 -285.805176 0.112828 0.648661
300.007935 -282.437683 0.000044 0.230345
296.880524 -280.104004 0.000045 0.217277
294.883911 -278.614166 0.000046 0.201084
293.496216 -277.578644 0.000045 0.240614
292.473816 -276.815765 0.000044 0.193425
nan nan nan 0.000000
nan nan nan 0.000000
304.295166 -285.835846 6.158360 0.560189
304.181152 -285.749512 5.368800 1.000000
304.182495 -285.750519 4.612839 1.000000
304.299255 -285.838928 3.874310 0.551492
304.185181 -285.752563 3.115949 1.000000
304.186523 -285.753571 2.371745 1.000000
304.303253 -285.841949 1.625859 0.615076
304.304596 -285.842957 0.876693 0.538262
304.305939 -285.843964 0.125003 0.560342
299.935028 -282.534698 0.000044 0.211388
296.823944 -280.179230 0.000045 0.283519
294.837799 -278.675507 0.000045 0.295786
293.457367 -277.630341 0.000045 0.189762
292.440308 -276.860321 0.000044 0.222889
nan nan nan 0.000000
nan nan nan 0.000000
304.083191 -285.874176 6.131920 0.518090
303.970459 -285.787598 5.347377 1.000000
303.971802 -285.788605 4.596223 1.000000
304.087189 -285.877258 3.862389 0.612085
303.974457 -285.790649 3.108851 1.000000
303.975769 -285.791656 2.369380 1.000000
304.091125 -285.880280 1.628239 0.564752
304.092438 -285.881287 0.883839 0.601709
304.093750 -285.882294 0.136931 0.674434
299.861420 -282.631195 0.000044 0.199456
296.766876 -280.254089 0.000045 0.223955
294.791260 -278.736511 0.000045 0.211197
293.418152 -277.681732 0.000045 0.210012
292.406525 -276.904633 0.000044 0.258901
nan nan nan 0.000000
nan nan nan 0.000000
303.873871 -285.912048 6.106013 0.674739
303.724884 -285.795929 5.319324 1.000000
303.726227 -285.796967 4.574466 1.000000
303.877808 -285.915100 3.850710 0.598108
303.766357 -285.828247 3.101898 1.000000
303.767670 -285.829254 2.367064 1.000000
303.881653 -285.918121 1.630571 0.632792
303.882965 -285.919128 0.890841 0.574578
303.884247 -285.920135 0.148620 0.658518
299.787170 -282.727173 0.000044 0.224744
296.709290 -280.328522 0.000045 0.201036
294.744324 -278.797211 0.000044 0.254485
293.378601 -277.732880 0.000044 0.232117
292.372406 -276.948730 0.000044 0.302009
nan nan nan 0.000000
nan nan nan 0.000000
303.667175 -285.949432 6.080627 0.737408
303.668457 -285.950470 5.326891 0.717220
303.669739 -285.951477 4.580331 0.660456
303.671021 -285.952484 3.839265 0.698573
303.636658 -285.925323 3.099830 1.000000
303.636658 -285.925323 2.366348 1.000000
303.674805 -285.955505 1.632856 0.721874
303.676086 -285.956482 0.897702 0.668833
303.677338 -285.957489 0.160072 0.577417
299.712219 -282.822662 0.000043 0.222159
296.651154 -280.402588 0.000044 0.223775
294.696930 -278.857574 0.000044 0.272532
293.338684 -277.783722 0.000044 0.278947
292.337982 -276.992554 0.000044 0.194131
nan nan nan 0.000000
nan nan nan 0.000000
303.462982 -285.986389 6.055748 0.746700
303.464233 -285.987396 5.306607 0.724926
303.465515 -285.988403 4.564598 0.633860
303.466766 -285.989410 3.828049 0.652033
303.468018 -285.990417 3.095339 0.659907
303.469238 -285.991394 2.364878 0.622156
303.470490 -285.992401 1.635095 0.682490
303.471741 -285.993408 0.904426 0.692027
303.472992 -285.994385 0.171297 0.625254
299.636627 -282.917603 0.000043 0.228239
296.592529 -280.476196 0.000044 0.222806
294.649139 -278.917603 0.000044 0.249374
293.298431 -277.834290 0.000044 0.216511
292.303253 -277.036163 0.000044 0.238148
nan nan nan 0.000000
nan nan nan 0.000000
303.261261 -286.022858 6.031366 0.727794
303.262512 -286.023895 5.286728 0.675944
303.263733 -286.024902 4.549178 0.748577
303.264984 -286.025879 3.817057 0.636378
303.266205 -286.026886 3.088753 0.722087
303.267426 -286.027893 2.362684 0.660243
303.268646 -286.028870 1.637290 0.767636
303.269867 -286.029877 0.911015 0.719646
303.271088 -286.030853 0.182296 0.605737
299.560364 -283.012024 0.000043 0.222901
296.533386 -280.549438 0.000044 0.210024
294.600922 -278.977295 0.000044 0.240231
293.257782 -277.884583 0.000044 0.234403
292.268250 -277.079529 0.000043 0.210957
nan nan nan 0.000000
nan nan nan 0.000000
303.061920 -286.058929 6.007471 0.583688
303.063171 -286.059937 5.267244 0.645167
303.064362 -286.060944 4.534065 0.665095
303.065582 -286.061951 3.806284 0.537377
303.066772 -286.062927 3.082297 0.603082
303.067993 -286.063904 2.360534 0.591546
303.069183 -286.064911 1.639441 0.591714
303.070374 -286.065887 0.917473 0.696513
303.071594 -286.066895 0.193077 0.659968
299.483429 -283.105896 0.000042 0.227102
296.473724 -280.622253 0.000043 0.216594
294.552307 -279.036652 0.000044 0.203896
293.216827 -277.934601 0.000044 0.240638
292.232910 -277.122650 0.000043 0.243917
nan nan nan 0.000000
nan nan nan 0.000000
302.864929 -286.094543 5.984050 0.697963
302.866150 -286.095551 5.248148 0.689693
302.867340 -286.096558 4.519253 0.652354
302.868530 -286.097565 3.795726 0.613489
302.869720 -286.098541 3.075971 0.627710
302.870880 -286.099518 2.358426 0.471443
302.872070 -286.100525 1.641549 0.667475
302.873260 -286.101501 0.923803 0.552148
302.874420 -286.102509 0.203643 0.567910
299.405884 -283.199249 0.000042 0.227078
296.413574 -280.694641 0.000043 0.205117
294.503265 -279.095642 0.000043 0.220149
293.175507 -277.984314 0.000043 0.244420
292.197296 -277.165527 0.000043 0.193724
nan nan nan 0.000000
nan nan nan 0.000000
302.670227 -286.129761 5.961092 0.557168
302.671417 -286.130768 5.229429 0.580865
302.672607 -286.131775 4.504735 0.648569
302.673767 -286.132751 3.785376 0.591089
302.674927 -286.133759 3.069768 0.644144
302.676086 -286.134735 2.356360 0.539559
302.677246 -286.135712 1.643616 0.695613
302.678406 -286.136688 0.930007 0.557397
302.679565 -286.137695 0.214000 0.710002
299.327637 -283.292023 0.000042 0.203513
296.352905 -280.766602 0.000043 0.221980
294.453796 -279.154327 0.000043 0.254556
293.133850 -278.033722 0.000043 0.224206
292.161346 -277.208130 0.000043 0.256005
nan nan nan 0.000000
302.237030 -285.957306 6.606438 0.643534
302.477753 -286.164581 5.938589 0.677562
302.478912 -286.165588 5.211081 0.686625
302.480072 -286.166595 4.490502 0.654276
302.481232 -286.167572 3.775231 0.720653
302.482361 -286.168549 3.063689 0.655573
302.483490 -286.169525 2.354335 0.548806
302.484650 -286.170532 1.645641 0.690974
302.485779 -286.171509 0.936089 0.564660
302.486908 -286.172485 0.224152 0.573816
299.248779 -283.384277 0.000041 0.242660
296.291748 -280.838135 0.000043 0.243725
294.403931 -279.212646 0.000043 0.205321
293.091827 -278.082886 0.000043 0.204220
292.125153 -277.250519 0.000042 0.180739
nan nan nan 0.000000
302.049530 -285.991272 6.580647 0.704799
302.287445 -286.199005 5.916529 0.617182
302.288574 -286.200012 5.193095 0.668132
302.289703 -286.201019 4.476551 0.649165
302.290833 -286.201996 3.765286 0.636408
302.291962 -286.202972 3.057730 0.671336
302.293091 -286.203949 2.352349 0.673854
302.294189 -286.204926 1.647626 0.588663
302.295319 -286.205902 0.942051 0.542763
302.296448 -286.206879 0.234104 0.575967
299.169281 -283.475983 0.000041 0.240853
296.230072 -280.909271 0.000042 0.247627
294.353668 -279.270630 0.000042 0.233254
293.049469 -278.131714 0.000042 0.226719
292.088623 -277.292633 0.000042 0.186615
nan nan nan 0.000000
301.864105 -286.024811 6.555362 0.672190
302.099213 -286.233063 5.894904 0.645350
302.100342 -286.234039 5.175462 0.600626
302.101471 -286.235046 4.462875 0.693965
302.102570 -286.236023 3.755537 0.513390
302.103668 -286.237000 3.051888 0.698665
302.104767 -286.237976 2.350403 0.654002
302.105865 -286.238953 1.649573 0.557366
302.106964 -286.239929 0.947896 0.595483
302.108093 -286.240906 0.243860 0.648661
299.089111 -283.567139 0.000041 0.216774
296.167908 -280.979950 0.000042 0.208815
294.302979 -279.328247 0.000042 0.224290
293.006775 -278.180267 0.000042 0.226755
292.051819 -277.334473 0.000042 0.246538
nan nan nan 0.000000
301.686157 -286.062897 6.532152 0.601434
301.913086 -286.266724 5.873704 0.706813
301.780487 -286.147644 5.131520 1.000000
301.781586 -286.148621 4.428796 1.000000
301.916382 -286.269684 3.745979 0.651652
301.783722 -286.150543 3.037331 1.000000
301.784790 -286.151489 2.345553 1.000000
301.919617 -286.272583 1.651481 0.604913
301.920685 -286.273560 0.953625 0.606271
301.921783 -286.274536 0.253425 0.681300
299.008331 -283.657715 0.000040 0.232667
296.105255 -281.050201 0.000041 0.223751
294.251923 -279.385529 0.000042 0.253958
292.963745 -278.228516 0.000042 0.212453
292.014709 -277.376068 0.000041 0.239573
nan nan nan 0.000000
301.609406 -286.191162 6.538443 0.597360
301.728943 -286.300049 5.852921 0.726207
301.630859 -286.210724 5.121337 1.000000
301.631958 -286.211700 4.420895 1.000000
301.732178 -286.302979 3.736609 0.644709
301.634125 -286.213684 3.033961 1.000000
301.635132 -286.214600 2.344430 1.000000
301.735352 -286.305878 1.653352 0.577798
301.736420 -286.306854 0.959242 0.604944
301.737488 -286.307831 0.262800 0.627543
298.926910 -283.747711 0.000040 0.222806
296.042114 -281.119995 0.000041 0.229639
294.200439 -279.442413 0.000041 0.210180
292.920410 -278.276459 0.000041 0.238567
291.977325 -277.417419 0.000041 0.236054
nan nan nan 0.000000
301.531494 -286.318909 6.544693 0.587182
301.546753 -286.332977 5.832544 0.582528
301.449829 -286.243439 5.104830 1.000000
301.450867 -286.244446 4.408091 1.000000
301.549927 -286.335938 3.727423 0.663447
301.453033 -286.246399 3.028491 1.000000
301.454010 -286.247314 2.342607 1.000000
301.553070 -286.338837 1.655186 0.643900
301.554108 -286.339783 0.964748 0.612100
301.555145 -286.340759 0.271993 0.543664
298.844879 -283.837158 0.000040 0.237538
295.978516 -281.189362 0.000041 0.226372
294.148560 -279.498962 0.000041 0.237514
292.876709 -278.324097 0.000041 0.202771
291.939636 -277.458496 0.000041 0.213052
nan nan nan 0.000000
301.365387 -286.364594 6.525146 0.583612
301.366455 -286.365601 5.812567 0.629160
301.270660 -286.275848 5.088645 1.000000
301.271729 -286.276825 4.395538 1.000000
301.369598 -286.368530 3.718417 0.680964
301.273804 -286.278778 3.023128 1.000000
301.274780 -286.279724 2.340821 1.000000
301.372681 -286.371399 1.656984 0.564050
301.373718 -286.372375 0.970147 0.566979
301.374725 -286.373352 0.281005 0.572549
298.762207 -283.926025 0.000039 0.232871
295.914398 -281.258270 0.000040 0.206529
294.096313 -279.555145 0.000041 0.200617
292.832672 -278.371429 0.000040 0.236437
291.901672 -277.499298 0.000040 0.201144
nan nan nan 0.000000
301.187012 -286.396881 6.501902 0.643717
301.188049 -286.397858 5.792982 0.596643
301.093353 -286.307922 5.072777 1.000000
301.094391 -286.308899 4.383230 1.000000
301.191132 -286.400787 3.709588 0.578714
301.096436 -286.310852 3.017870 1.000000
301.097412 -286.311768 2.339070 1.000000
301.194153 -286.403656 1.658747 0.705409
301.195160 -286.404633 0.975440 0.684169
301.196167 -286.405579 0.289840 0.603265
298.678925 -284.014313 0.000039 0.234893
295.849792 -281.326752 0.000040 0.230501
294.043640 -279.610992 0.000040 0.239465
292.788300 -278.418457 0.000040 0.267398
291.863434 -277.539856 0.000040 0.224134
nan nan nan 0.000000
301.010406 -286.428802 6.479111 0.657954
301.011444 -286.429810 5.773778 0.616556
300.917847 -286.339661 5.057220 1.000000
300.918884 -286.340637 4.371164 1.000000
301.014465 -286.432709 3.700931 0.593545
300.920868 -286.342560 3.012715 1.000000
300.921814 -286.343475 2.337352 1.000000
301.017456 -286.435577 1.660475 0.671565
301.018433 -286.436554 0.980630 0.626764
301.019440 -286.437500 0.298503 0.643336
298.595032 -284.102020 0.000039 0.245437
295.784729 -281.394775 0.000040 0.237765
293.990601 -279.666443 0.000040 0.252785
292.743622 -278.465179 0.000040 0.226001
291.824890 -277.580139 0.000040 0.237394
nan nan nan 0.000000
300.835602 -286.460449 6.456767 0.613489
300.836609 -286.461426 5.754951 0.570336
300.744110 -286.371063 5.041968 1.000000
300.745117 -286.372070 4.359334 1.000000
300.839569 -286.464325 3.692443 0.658488
300.747070 -286.373962 3.007661 1.000000
300.748016 -286.374878 2.335668 1.000000
300.842499 -286.467194 1.662170 0.607691
300.843475 -286.468140 0.985718 0.658427
300.844482 -286.469116 0.306996 0.626688
298.510529 -284.189148 0.000038 0.222842
295.719208 -281.462341 0.000039 0.212968
293.937195 -279.721497 0.000040 0.220939
292.698608 -278.511566 0.000039 0.192599
291.786072 -277.620148 0.000040 0.288701
nan nan nan 0.000000
300.662506 -286.491760 6.434859 0.783093
300.663513 -286.492737 5.736492 0.596170
300.572083 -286.402191 5.027012 1.000000
300.573090 -286.403168 4.347735 1.000000
300.666412 -286.495636 3.684122 0.653956
300.574982 -286.405060 3.002705 1.000000
300.575928 -286.405975 2.334018 1.000000
300.669312 -286.498505 1.663831 0.594598
300.670288 -286.499451 0.990706 0.639857
300.671234 -286.500397 0.315323 0.637598
298.425415 -284.275665 0.000038 0.222961
295.653198 -281.529449 0.000039 0.265878
293.883362 -279.776215 0.000039 0.280610
292.653290 -278.557648 0.000039 0.232021
291.747009 -277.659882 0.000039 0.185358
nan nan nan 0.000000
300.491089 -286.522766 6.413379 0.651469
300.492065 -286.523743 5.718393 0.629679
300.401733 -286.432983 5.012350 1.000000
300.402710 -286.433990 4.336362 1.000000
300.494965 -286.526642 3.675962 0.649973
300.404602 -286.435852 2.997847 1.000000
300.405518 -286.436768 2.332400 1.000000
300.497803 -286.529480 1.665460 0.608072
300.498749 -286.530426 0.995597 0.669017
300.499695 -286.531372 0.323487 0.599130
298.339722 -284.361572 0.000037 0.231794
295.586731 -281.596069 0.000039 0.228562
293.829193 -279.830536 0.000039 0.236569
292.607635 -278.603424 0.000039 0.192407
291.707642 -277.699341 0.000039 0.205632
nan nan nan 0.000000
300.321350 -286.553467 6.392319 0.643992
300.322296 -286.554443 5.700650 0.595560
300.233032 -286.463501 4.997975 1.000000
300.234009 -286.464478 4.325212 1.000000
300.325134 -286.557343 3.667963 0.646326
300.235809 -286.466339 2.993083 1.000000
300.236725 -286.467285 2.330813 1.000000
300.327911 -286.560181 1.667057 0.611185
300.328857 -286.561127 1.000392 0.630793
300.329773 -286.562073 0.331492 0.579263
298.253387 -284.446899 0.000037 0.256663
295.519775 -281.662262 0.000038 0.223739
293.774597 -279.884491 0.000039 0.246777
292.561646 -278.648865 0.000039 0.219694
291.667999 -277.738525 0.000039 0.206482
nan nan nan 0.000000
300.153168 -286.583893 6.371672 0.727977
300.154114 -286.584869 5.683252 0.603815
300.065918 -286.493744 4.983881 1.000000
300.066864 -286.494720 4.314281 1.000000
300.156921 -286.587738 3.660120 0.603113
300.068634 -286.496552 2.988413 1.000000
300.069550 -286.497498 2.329257 1.000000
300.159668 -286.590576 1.668623 0.615564
300.160583 -286.591522 1.005094 0.639048
300.161469 -286.592468 0.339341 0.562463
298.166504 -284.531647 0.000037 0.221621
295.452393 -281.727966 0.000038 0.217037
293.719666 -279.938049 0.000039 0.236533
292.515350 -278.694000 0.000038 0.252498
291.628082 -277.777435 0.000038 0.213279
nan nan nan 0.000000
299.986603 -286.614014 6.351429 0.544045
299.987518 -286.614990 5.666194 0.651713
299.900360 -286.523682 4.970063 1.000000
299.901276 -286.524658 4.303563 1.000000
299.990265 -286.617859 3.652431 0.626841
299.903015 -286.526489 2.983834 1.000000
299.903931 -286.527435 2.327732 1.000000
299.992950 -286.620697 1.670158 0.680797
299.993866 -286.621613 1.009703 0.586999
299.994751 -286.622589 0.347034 0.494148
298.079010 -284.615753 0.000037 0.242768
295.384521 -281.793182 0.000038 0.280168
293.664337 -279.991241 0.000038 0.205309
292.468750 -278.738800 0.000038 0.215984
291.587891 -277.816071 0.000038 0.245521
nan nan nan 0.000000
299.821533 -286.643860 6.331582 0.626398
299.822449 -286.644836 5.649473 0.614832
299.707275 -286.522522 4.950234 1.000000
299.708191 -286.523468 4.288181 1.000000
299.825134 -286.647705 3.644892 0.485435
299.738922 -286.556122 2.979345 1.000000
299.739807 -286.557068 2.326236 1.000000
299.827789 -286.650513 1.671663 0.569390
299.828674 -286.651459 1.014222 0.553246
299.829559 -286.652405 0.354578 0.621927
297.990906 -284.699249 0.000036 0.238938
295.316223 -281.857941 0.000037 0.221585
293.608643 -280.044037 0.000038 0.226396
292.421844 -278.783295 0.000037 0.245856
291.547455 -277.854431 0.000038 0.208923
290.713776 -277.038269 3.708016 1.000000
290.713776 -277.038269 3.472717 1.000000
290.713776 -277.038269 3.240720 1.000000
290.713776 -277.038269 3.011471 1.000000
290.713776 -277.038269 2.784438 1.000000
290.713776 -277.038269 2.559108 1.000000
290.713776 -277.038269 2.334985 1.000000
290.713776 -277.038269 2.111582 1.000000
290.713776 -277.038269 1.888418 1.000000
290.713776 -277.038269 1.665015 1.000000
290.713776 -277.038269 1.440892 1.000000
290.713776 -277.038269 1.215562 1.000000
290.713776 -277.038269 0.988529 1.000000
290.713776 -277.038269 0.759281 1.000000
290.713776 -277.038269 0.527284 1.000000
290.713776 -277.038269 0.291985 1.000000
290.658813 -277.048767 3.700615 1.000000
290.658813 -277.048767 3.466334 1.000000
290.658813 -277.048737 3.235343 1.000000
290.658813 -277.048737 3.007088 1.000000
290.658813 -277.048737 2.781038 1.000000
290.658813 -277.048737 2.556685 1.000000
290.658813 -277.048737 2.333533 1.000000
290.658813 -277.048737 2.111099 1.000000
290.658813 -277.048737 1.888902 1.000000
290.658813 -277.048737 1.666466 1.000000
290.658813 -277.048737 1.443315 1.000000
290.658813 -277.048737 1.218962 1.000000
290.658813 -277.048737 0.992913 1.000000
290.658813 -277.048737 0.764657 1.000000
290.658813 -277.048737 0.533666 1.000000
290.658813 -277.048737 0.299386 1.000000
290.604340 -277.059143 3.693359 1.000000
290.604340 -277.059143 3.460078 1.000000
290.604340 -277.059143 3.230072 1.000000
290.604340 -277.059143 3.002791 1.000000
290.604340 -277.059143 2.777706 1.000000
290.604340 -277.059143 2.554310 1.000000
290.604340 -277.059143 2.332111 1.000000
290.604340 -277.059143 2.110625 1.000000
290.604340 -277.059143 1.889376 1.000000
290.604340 -277.059113 1.667889 1.000000
290.604340 -277.059113 1.445690 1.000000
290.604340 -277.059143 1.222294 1.000000
290.604340 -277.059143 0.997209 1.000000
290.604340 -277.059113 0.769928 1.000000
290.604340 -277.059143 0.539922 1.000000
290.604340 -277.059113 0.306642 1.000000
290.550323 -277.069427 3.686247 1.000000
290.550323 -277.069427 3.453946 1.000000
290.550323 -277.069427 3.224906 1.000000
290.550323 -277.069427 2.998579 1.000000
290.550323 -277.069427 2.774440 1.000000
290.550323 -277.069427 2.551982 1.000000
290.550323 -277.069427 2.330716 1.000000
290.550323 -277.069427 2.110160 1.000000
290.550323 -277.069427 1.889840 1.000000
290.550323 -277.069427 1.669284 1.000000
290.550323 -277.069427 1.448018 1.000000
290.550323 -277.069427 1.225560 1.000000
290.550323 -277.069427 1.001421 1.000000
290.550323 -277.069427 0.775094 1.000000
290.550323 -277.069427 0.546055 1.000000
290.550323 -277.069427 0.313754 1.000000
290.496765 -277.079620 3.679276 1.000000
290.496765 -277.079620 3.447935 1.000000
290.496765 -277.079620 3.219842 1.000000
290.496765 -277.079620 2.994451 1.000000
290.496765 -277.079620 2.771238 1.000000
290.496765 -277.079620 2.549700 1.000000
290.496765 -277.079620 2.329348 1.000000
290.496765 -277.079620 2.109704 1.000000
290.496765 -277.079620 1.890296 1.000000
290.496765 -277.079620 1.670651 1.000000
290.496765 -277.079620 1.450300 1.000000
290.496765 -277.079620 1.228762 1.000000
290.496765 -277.079620 1.005549 1.000000
290.496765 -277.079620 0.780158 1.000000
290.496765 -277.079620 0.552065 1.000000
290.496765 -277.079620 0.320725 1.000000
290.443634 -277.089752 3.672444 1.000000
290.443604 -277.089752 3.442044 1.000000
290.443604 -277.089752 3.214879 1.000000
290.443604 -277.089752 2.990405 1.000000
290.443604 -277.089752 2.768100 1.000000
290.443604 -277.089752 2.547464 1.000000
290.443604 -277.089752 2.328008 1.000000
290.443604 -277.089752 2.109258 1.000000
290.443604 -277.089752 1.890742 1.000000
290.443604 -277.089752 1.671992 1.000000
290.443604 -277.089752 1.452536 1.000000
290.443604 -277.089752 1.231900 1.000000
290.443604 -277.089752 1.009595 1.000000
290.443604 -277.089752 0.785121 1.000000
290.443604 -277.089752 0.557957 1.000000
290.443604 -277.089752 0.327557 1.000000
290.390900 -277.099792 3.665747 1.000000
290.390900 -277.099792 3.436270 1.000000
290.390900 -277.099792 3.210015 1.000000
290.390900 -277.099792 2.986439 1.000000
290.390900 -277.099792 2.765025 1.000000
290.390900 -277.099792 2.545272 1.000000
290.390900 -277.099792 2.326695 1.000000
290.390900 -277.099792 2.108821 1.000000
290.390900 -277.099792 1.891179 1.000000
290.390900 -277.099792 1.673305 1.000000
290.390900 -277.099792 1.454729 1.000000
290.390900 -277.099792 1.234975 1.000000
290.390900 -277.099792 1.013561 1.000000
290.390900 -277.099792 0.789986 1.000000
290.390900 -277.099792 0.563731 1.000000
290.390900 -277.099792 0.334254 1.000000
290.338623 -277.109741 3.659185 1.000000
290.338623 -277.109741 3.430612 1.000000
290.338623 -277.109741 3.205248 1.000000
290.338623 -277.109741 2.982553 1.000000
290.338623 -277.109741 2.762011 1.000000
290.338623 -277.109741 2.543123 1.000000
290.338623 -277.109741 2.325408 1.000000
290.338623 -277.109741 2.108392 1.000000
290.338623 -277.109741 1.891608 1.000000
290.338623 -277.109741 1.674592 1.000000
290.338623 -277.109741 1.456877 1.000000
290.338623 -277.109741 1.237989 1.000000
290.338623 -277.109741 1.017447 1.000000
290.338623 -277.109741 0.794753 1.000000
290.338623 -277.109741 0.569389 1.000000
290.338623 -277.109741 0.340816 1.000000
290.286743 -277.119629 3.652754 1.000000
290.286743 -277.119629 3.425067 1.000000
290.286743 -277.119629 3.200577 1.000000
290.286743 -277.119629 2.978745 1.000000
290.286743 -277.119629 2.759058 1.000000
290.286743 -277.119629 2.541018 1.000000
290.286743 -277.119629 2.324147 1.000000
290.286743 -277.119629 2.107972 1.000000
290.286743 -277.119629 1.892028 1.000000
290.286743 -277.119629 1.675853 1.000000
290.286743 -277.119629 1.458982 1.000000
290.286743 -277.119629 1.240943 1.000000
290.286743 -277.119629 1.021255 1.000000
290.286743 -277.119629 0.799424 1.000000
290.286743 -277.119629 0.574934 1.000000
290.286743 -277.119629 0.347247 1.000000
290.235260 -277.129456 3.646454 1.000000
290.235260 -277.129425 3.419634 1.000000
290.235260 -277.129425 3.196000 1.000000
290.235260 -277.129425 2.975014 1.000000
290.235260 -277.129425 2.756164 1.000000
290.235260 -277.129425 2.538956 1.000000
290.235260 -277.129425 2.322911 1.000000
290.235260 -277.129425 2.107560 1.000000
290.235260 -277.129425 1.892440 1.000000
290.235260 -277.129425 1.677089 1.000000
290.235260 -277.129425 1.461044 1.000000
290.235260 -277.129425 1.243837 1.000000
290.235260 -277.129425 1.024987 1.000000
290.235260 -277.129425 0.804001 1.000000
290.235260 -277.129425 0.580367 1.000000
290.235260 -277.129425 0.353548 1.000000
290.184174 -277.139160 3.640280 1.000000
290.184174 -277.139160 3.414311 1.000000
290.184174 -277.139160 3.191515 1.000000
290.184174 -277.139160 2.971358 1.000000
290.184174 -277.139160 2.753328 1.000000
290.184174 -277.139160 2.536935 1.000000
290.184174 -277.139160 2.321700 1.000000
290.184174 -277.139160 2.107157 1.000000
290.184174 -277.139160 1.892843 1.000000
290.184174 -277.139160 1.678300 1.000000
290.184174 -277.139160 1.463065 1.000000
290.184174 -277.139160 1.246672 1.000000
290.184174 -277.139160 1.028642 1.000000
290.184174 -277.139160 0.808485 1.000000
290.184174 -277.139160 0.585689 1.000000
290.184174 -277.139160 0.359721 1.000000
290.133453 -277.148834 3.634232 1.000000
290.133453 -277.148834 3.409096 1.000000
290.133453 -277.148834 3.187122 1.000000
290.133453 -277.148834 2.967776 1.000000
290.133453 -277.148834 2.750551 1.000000
290.133453 -277.148834 2.534955 1.000000
290.133453 -277.148834 2.320514 1.000000
290.133453 -277.148834 2.106762 1.000000
290.133453 -277.148834 1.893238 1.000000
290.133453 -277.148834 1.679486 1.000000
290.133453 -277.148834 1.465045 1.000000
290.133453 -277.148834 1.249449 1.000000
290.133453 -277.148834 1.032224 1.000000
290.133453 -277.148834 0.812879 1.000000
290.133453 -277.148834 0.590905 1.000000
290.133453 -277.148834 0.365769 1.000000
290.083099 -277.158417 3.628307 1.000000
290.083099 -277.158417 3.403988 1.000000
290.083099 -277.158417 3.182818 1.000000
290.083099 -277.158417 2.964268 1.000000
290.083099 -277.158417 2.747830 1.000000
290.083099 -277.158417 2.533016 1.000000
290.083099 -277.158417 2.319352 1.000000
290.083099 -277.158417 2.106375 1.000000
290.083099 -277.158417 1.893625 1.000000
290.083099 -277.158417 1.680648 1.000000
290.083099 -277.158417 1.466984 1.000000
290.083099 -277.158417 1.252170 1.000000
290.083099 -277.158417 1.035733 1.000000
290.083099 -277.158417 0.817182 1.000000
290.083099 -277.158417 0.596013 1.000000
290.083099 -277.158417 0.371694 1.000000
290.033142 -277.167938 3.622504 1.000000
290.033142 -277.167938 3.398984 1.000000
290.033142 -277.167938 3.178603 1.000000
290.033142 -277.167938 2.960831 1.000000
290.033142 -277.167938 2.745165 1.000000
290.033142 -277.167938 2.531116 1.000000
290.033142 -277.167938 2.318214 1.000000
290.033142 -277.167938 2.105995 1.000000
290.033142 -277.167938 1.894004 1.000000
290.033142 -277.167938 1.681786 1.000000
290.033142 -277.167938 1.468884 1.000000
290.033142 -277.167938 1.254835 1.000000
290.033142 -277.167938 1.039169 1.000000
290.033142 -277.167938 0.821397 1.000000
290.033142 -277.167938 0.601017 1.000000
290.033142 -277.167938 0.377496 1.000000
289.983490 -277.177399 3.616821 1.000000
289.983490 -277.177399 3.394084 1.000000
289.983490 -277.177399 3.174475 1.000000
289.983490 -277.177399 2.957466 1.000000
289.983490 -277.177399 2.742555 1.000000
289.983490 -277.177399 2.529256 1.000000
289.983490 -277.177399 2.317099 1.000000
289.983490 -277.177399 2.105624 1.000000
289.983490 -277.177399 1.894376 1.000000
289.983490 -277.177399 1.682900 1.000000
289.983490 -277.177399 1.470744 1.000000
289.983490 -277.177399 1.257446 1.000000
289.983490 -277.177399 1.042534 1.000000
289.983490 -277.177399 0.825526 1.000000
289.983490 -277.177399 0.605917 1.000000
289.983490 -277.177399 0.383180 1.000000
289.934204 -277.186798 3.611256 1.000000
289.934204 -277.186798 3.389286 1.000000
289.934204 -277.186798 3.170432 1.000000
289.934204 -277.186798 2.954170 1.000000
289.934204 -277.186798 2.739999 1.000000
289.934204 -277.186798 2.527434 1.000000
289.934204 -277.186798 2.316008 1.000000
289.934204 -277.186798 2.105261 1.000000
289.934204 -277.186798 1.894739 1.000000
289.934204 -277.186798 1.683992 1.000000
289.934204 -277.186798 1.472566 1.000000
289.934204 -277.186798 1.260002 1.000000
289.934204 -277.186798 1.045830 1.000000
289.934204 -277.186798 0.829569 1.000000
289.934204 -277.186798 0.610715 1.000000
289.934204 -277.186798 0.388745 1.000000
289.885254 -277.196106 3.605807 1.000000
289.885254 -277.196106 3.384587 1.000000
289.885254 -277.196106 3.166473 1.000000
289.885254 -277.196106 2.950943 1.000000
289.885254 -277.196106 2.737496 1.000000
289.885254 -277.196106 2.525651 1.000000
289.885254 -277.196106 2.314939 1.000000
289.885254 -277.196106 2.104905 1.000000
289.885254 -277.196106 1.895095 1.000000
289.885254 -277.196106 1.685061 1.000000
289.885254 -277.196106 1.474349 1.000000
289.885254 -277.196106 1.262504 1.000000
289.885254 -277.196106 1.049057 1.000000
289.885254 -277.196106 0.833527 1.000000
289.885254 -277.196106 0.615414 1.000000
289.885254 -277.196106 0.394194 1.000000
289.836639 -277.205383 3.600472 1.000000
289.836639 -277.205383 3.379987 1.000000
289.836639 -277.205383 3.162598 1.000000
289.836639 -277.205383 2.947784 1.000000
289.836639 -277.205383 2.735046 1.000000
289.836639 -277.205383 2.523904 1.000000
289.836639 -277.205383 2.313893 1.000000
289.836639 -277.205383 2.104556 1.000000
289.836639 -277.205383 1.895444 1.000000
289.836639 -277.205383 1.686107 1.000000
289.836639 -277.205383 1.476096 1.000000
289.836639 -277.205383 1.264954 1.000000
289.836639 -277.205383 1.052216 1.000000
289.836639 -277.205383 0.837402 1.000000
289.836639 -277.205383 0.620013 1.000000
289.836639 -277.205383 0.399529 1.000000
289.788330 -277.214569 3.595250 1.000000
289.788330 -277.214569 3.375485 1.000000
289.788330 -277.214569 3.158805 1.000000
289.788330 -277.214569 2.944692 1.000000
289.788330 -277.214569 2.732648 1.000000
289.788330 -277.214569 2.522195 1.000000
289.788330 -277.214569 2.312869 1.000000
289.788330 -277.214569 2.104215 1.000000
289.788330 -277.214569 1.895785 1.000000
289.788330 -277.214569 1.687131 1.000000
289.788330 -277.214569 1.477805 1.000000
289.788330 -277.214569 1.267352 1.000000
289.788330 -277.214569 1.055308 1.000000
289.788330 -277.214569 0.841195 1.000000
289.788330 -277.214569 0.624516 1.000000
289.788330 -277.214569 0.404751 1.000000
289.740356 -277.223724 3.590140 1.000000
289.740356 -277.223724 3.371078 1.000000
289.740356 -277.223724 3.155093 1.000000
289.740356 -277.223724 2.941665 1.000000
289.740356 -277.223724 2.730301 1.000000
289.740356 -277.223724 2.520522 1.000000
289.740356 -277.223724 2.311867 1.000000
289.740356 -277.223724 2.103881 1.000000
289.740356 -277.223724 1.896119 1.000000
289.740356 -277.223724 1.688133 1.000000
289.740356 -277.223724 1.479478 1.000000
289.740356 -277.223724 1.269699 1.000000
289.740356 -277.223724 1.058335 1.000000
289.740356 -277.223724 0.844908 1.000000
289.740356 -277.223724 0.628922 1.000000
289.740356 -277.223724 0.409861 1.000000
289.692657 -277.232819 3.585139 1.000000
289.692657 -277.232819 3.366767 1.000000
289.692657 -277.232819 3.151460 1.000000
289.692657 -277.232819 2.938704 1.000000
289.692657 -277.232819 2.728004 1.000000
289.692657 -277.232788 2.518885 1.000000
289.692657 -277.232788 2.310886 1.000000
289.692657 -277.232788 2.103554 1.000000
289.692657 -277.232788 1.896445 1.000000
289.692657 -277.232788 1.689114 1.000000
289.692657 -277.232788 1.481115 1.000000
289.692657 -277.232788 1.271996 1.000000
289.692657 -277.232788 1.061296 1.000000
289.692657 -277.232788 0.848540 1.000000
289.692657 -277.232788 0.633234 1.000000
289.692657 -277.232788 0.414862 1.000000
289.645264 -277.241821 3.580246 1.000000
289.645264 -277.241821 3.362548 1.000000
289.645264 -277.241821 3.147906 1.000000
289.645264 -277.241821 2.935807 1.000000
289.645264 -277.241821 2.725757 1.000000
289.645264 -277.241821 2.517283 1.000000
289.645264 -277.241821 2.309926 1.000000
289.645264 -277.241821 2.103235 1.000000
289.645264 -277.241821 1.896765 1.000000
289.645264 -277.241821 1.690074 1.000000
289.645264 -277.241821 1.482716 1.000000
289.645264 -277.241821 1.274243 1.000000
289.645264 -277.241821 1.064194 1.000000
289.645264 -277.241821 0.852094 1.000000
289.645264 -277.241821 0.637453 1.000000
289.645264 -277.241821 0.419755 1.000000
289.598175 -277.250793 3.575460 1.000000
289.598175 -277.250793 3.358421 1.000000
289.598175 -277.250793 3.144429 1.000000
289.598175 -277.250793 2.932972 1.000000
289.598175 -277.250793 2.723559 1.000000
289.598175 -277.250793 2.515717 1.000000
289.598175 -277.250793 2.308988 1.000000
289.598175 -277.250793 2.102922 1.000000
289.598175 -277.250793 1.897078 1.000000
289.598175 -277.250793 1.691013 1.000000
289.598175 -277.250793 1.484283 1.000000
289.598175 -277.250793 1.276442 1.000000
289.598175 -277.250793 1.067028 1.000000
289.598175 -277.250793 0.855571 1.000000
289.598175 -277.250793 0.641580 1.000000
289.598175 -277.250793 0.424541 1.000000
289.551361 -277.259735 3.570779 1.000000
289.551361 -277.259735 3.354385 1.000000
289.551361 -277.259735 3.141029 1.000000
289.551361 -277.259735 2.930200 1.000000
289.551361 -277.259735 2.721409 1.000000
289.551361 -277.259735 2.514184 1.000000
289.551361 -277.259735 2.308069 1.000000
289.551361 -277.259735 2.102617 1.000000
289.551361 -277.259735 1.897383 1.000000
289.551361 -277.259735 1.691930 1.000000
289.551361 -277.259735 1.485816 1.000000
289.551361 -277.259735 1.278591 1.000000
289.551361 -277.259735 1.069800 1.000000
289.551361 -277.259735 0.858971 1.000000
289.551361 -277.259735 0.645616 1.000000
289.551361 -277.259735 0.429222 1.000000
289.504822 -277.268585 3.566202 1.000000
289.504822 -277.268585 3.350439 1.000000
289.504822 -277.268585 3.137704 1.000000
289.504822 -277.268585 2.927490 1.000000
289.504822 -277.268585 2.719307 1.000000
289.504822 -277.268585 2.512686 1.000000
289.504822 -277.268585 2.307172 1.000000
289.504822 -277.268585 2.102317 1.000000
289.504791 -277.268585 1.897683 1.000000
289.504822 -277.268585 1.692828 1.000000
289.504791 -277.268585 1.487314 1.000000
289.504822 -277.268585 1.280693 1.000000
289.504791 -277.268585 1.072511 1.000000
289.504822 -277.268585 0.862296 1.000000
289.504791 -277.268585 0.649562 1.000000
289.504791 -277.268585 0.433799 1.000000
289.458527 -277.277405 3.561728 1.000000
289.458527 -277.277405 3.346581 1.000000
289.458527 -277.277405 3.134454 1.000000
289.458527 -277.277405 2.924840 1.000000
289.458527 -277.277405 2.717252 1.000000
289.458527 -277.277405 2.511221 1.000000
289.458527 -277.277405 2.306294 1.000000
289.458527 -277.277405 2.102025 1.000000
289.458527 -277.277405 1.897975 1.000000
289.458527 -277.277405 1.693706 1.000000
289.458527 -277.277405 1.488778 1.000000
289.458527 -277.277405 1.282748 1.000000
289.458527 -277.277405 1.075161 1.000000
289.458527 -277.277405 0.865546 1.000000
289.458527 -277.277405 0.653420 1.000000
289.458527 -277.277405 0.438273 1.000000
289.412506 -277.286163 3.557354 1.000000
289.412506 -277.286163 3.342810 1.000000
289.412506 -277.286163 3.131277 1.000000
289.412506 -277.286163 2.922250 1.000000
289.412506 -277.286163 2.715243 1.000000
289.412506 -277.286163 2.509790 1.000000
289.412506 -277.286163 2.305437 1.000000
289.412506 -277.286163 2.101739 1.000000
289.412506 -277.286163 1.898261 1.000000
289.412506 -277.286163 1.694564 1.000000
289.412506 -277.286163 1.490210 1.000000
289.412506 -277.286163 1.284757 1.000000
289.412506 -277.286163 1.077750 1.000000
289.412506 -277.286163 0.868723 1.000000
289.412506 -277.286163 0.657191 1.000000
289.412506 -277.286163 0.442647 1.000000
289.366760 -277.294891 3.553081 1.000000
289.366760 -277.294891 3.339125 1.000000
289.366760 -277.294891 3.128173 1.000000
289.366760 -277.294891 2.919719 1.000000
289.366760 -277.294891 2.713280 1.000000
289.366760 -277.294891 2.508391 1.000000
289.366760 -277.294891 2.304598 1.000000
289.366760 -277.294891 2.101460 1.000000
289.366760 -277.294891 1.898540 1.000000
289.366760 -277.294891 1.695402 1.000000
289.366760 -277.294891 1.491609 1.000000
289.366760 -277.294891 1.286720 1.000000
289.366760 -277.294891 1.080281 1.000000
289.366760 -277.294891 0.871828 1.000000
289.366760 -277.294891 0.660876 1.000000
289.366760 -277.294891 0.446920 1.000000
289.321259 -277.303558 3.548906 1.000000
289.321259 -277.303558 3.335525 1.000000
289.321259 -277.303558 3.125140 1.000000
289.321259 -277.303558 2.917247 1.000000
289.321259 -277.303558 2.711363 1.000000
289.321259 -277.303558 2.507024 1.000000
289.321259 -277.303558 2.303780 1.000000
289.321259 -277.303558 2.101187 1.000000
289.321259 -277.303558 1.898812 1.000000
289.321259 -277.303558 1.696220 1.000000
289.321259 -277.303558 1.492976 1.000000
289.321259 -277.303558 1.288637 1.000000
289.321259 -277.303558 1.082753 1.000000
289.321259 -277.303558 0.874860 1.000000
289.321259 -277.303558 0.664476 1.000000
289.321259 -277.303558 0.451095 1.000000
289.275970 -277.312195 3.544829 1.000000
289.275970 -277.312195 3.332009 1.000000
289.275970 -277.312195 3.122179 1.000000
289.275970 -277.312195 2.914833 1.000000
289.275970 -277.312195 2.709491 1.000000
289.275970 -277.312195 2.505690 1.000000
289.275970 -277.312195 2.302980 1.000000
289.275970 -277.312195 2.100921 1.000000
289.275970 -277.312195 1.899079 1.000000
289.275970 -277.312195 1.697020 1.000000
289.275970 -277.312195 1.494310 1.000000
289.275970 -277.312195 1.290509 1.000000
289.275970 -277.312195 1.085168 1.000000
289.275970 -277.312195 0.877822 1.000000
289.275970 -277.312195 0.667991 1.000000
289.275970 -277.312195 0.455172 1.000000
289.230957 -277.320770 3.540848 1.000000
289.230957 -277.320770 3.328577 1.000000
289.230957 -277.320770 3.119287 1.000000
289.230957 -277.320770 2.912475 1.000000
289.230957 -277.320770 2.707663 1.000000
289.230957 -277.320770 2.504387 1.000000
289.230957 -277.320770 2.302199 1.000000
289.230957 -277.320770 2.100661 1.000000
289.230957 -277.320770 1.899339 1.000000
289.230957 -277.320770 1.697801 1.000000
289.230957 -277.320770 1.495613 1.000000
289.230957 -277.320770 1.292338 1.000000
289.230957 -277.320770 1.087525 1.000000
289.230957 -277.320770 0.880714 1.000000
289.230957 -277.320770 0.671424 1.000000
289.230957 -277.320770 0.459153 1.000000
289.186157 -277.329285 3.536962 1.000000
289.186157 -277.329285 3.325227 1.000000
289.186127 -277.329285 3.116464 1.000000
289.186127 -277.329285 2.910174 1.000000
289.186127 -277.329285 2.705878 1.000000
289.186127 -277.329285 2.503114 1.000000
289.186127 -277.329285 2.301437 1.000000
289.186127 -277.329285 2.100407 1.000000
289.186127 -277.329285 1.899593 1.000000
289.186127 -277.329285 1.698563 1.000000
289.186127 -277.329285 1.496886 1.000000
289.186127 -277.329285 1.294122 1.000000
289.186127 -277.329285 1.089826 1.000000
289.186127 -277.329285 0.883537 1.000000
289.186127 -277.329285 0.674774 1.000000
289.186127 -277.329285 0.463039 1.000000
289.141571 -277.337799 3.533170 1.000000
289.141571 -277.337799 3.321957 1.000000
289.141571 -277.337799 3.113709 1.000000
289.141571 -277.337799 2.907928 1.000000
289.141571 -277.337799 2.704136 1.000000
289.141571 -277.337799 2.501873 1.000000
289.141571 -277.337799 2.300694 1.000000
289.141571 -277.337799 2.100159 1.000000
289.141571 -277.337799 1.899840 1.000000
289.141571 -277.337799 1.699307 1.000000
289.141571 -277.337799 1.498127 1.000000
289.141571 -277.337799 1.295864 1.000000
289.141571 -277.337799 1.092072 1.000000
289.141571 -277.337799 0.886291 1.000000
289.141571 -277.337799 0.678044 1.000000
289.141571 -277.337799 0.466830 1.000000
289.097198 -277.346252 3.529471 1.000000
289.097198 -277.346252 3.318768 1.000000
289.097198 -277.346252 3.111023 1.000000
289.097198 -277.346252 2.905738 1.000000
289.097198 -277.346252 2.702438 1.000000
289.097198 -277.346252 2.500663 1.000000
289.097198 -277.346252 2.299968 1.000000
289.097198 -277.346252 2.099918 1.000000
289.097198 -277.346252 1.900082 1.000000
289.097198 -277.346252 1.700032 1.000000
289.097198 -277.346252 1.499337 1.000000
289.097198 -277.346252 1.297563 1.000000
289.097198 -277.346252 1.094262 1.000000
289.097198 -277.346252 0.888977 1.000000
289.097198 -277.346252 0.681232 1.000000
289.097198 -277.346252 0.470529 1.000000
289.053040 -277.354645 3.525865 1.000000
289.053040 -277.354645 3.315658 1.000000
289.053040 -277.354645 3.108403 1.000000
289.053040 -277.354645 2.903603 1.000000
289.053040 -277.354645 2.700781 1.000000
289.053040 -277.354645 2.499482 1.000000
289.053040 -277.354645 2.299261 1.000000
289.053040 -277.354645 2.099682 1.000000
289.053040 -277.354645 1.900318 1.000000
289.053040 -277.354645 1.700739 1.000000
289.053040 -277.354645 1.500518 1.000000
289.053040 -277.354645 1.299219 1.000000
289.053040 -277.354645 1.096398 1.000000
289.053040 -277.354645 0.891598 1.000000
289.053040 -277.354645 0.684342 1.000000
289.053040 -277.354645 0.474136 1.000000
289.009094 -277.363037 3.522349 1.000000
289.009094 -277.363037 3.312627 1.000000
289.009094 -277.363037 3.105849 1.000000
289.009094 -277.363037 2.901520 1.000000
289.009094 -277.363037 2.699167 1.000000
289.009094 -277.363037 2.498331 1.000000
289.009094 -277.363037 2.298571 1.000000
289.009094 -277.363037 2.099453 1.000000
289.009094 -277.363037 1.900547 1.000000
289.009094 -277.363037 1.701429 1.000000
289.009094 -277.363037 1.501669 1.000000
289.009094 -277.363007 1.300834 1.000000
289.009094 -277.363037 1.098480 1.000000
289.009094 -277.363037 0.894151 1.000000
289.009094 -277.363037 0.687374 1.000000
289.009094 -277.363037 0.477652 1.000000
288.965363 -277.371368 3.518923 1.000000
288.965363 -277.371368 3.309673 1.000000
288.965363 -277.371368 3.103361 1.000000
