# This PCD file was generated using the MATLAB® pcwrite function
# from Computer Vision Toolbox®.
# .PCD v.7 - Point Cloud Data file format
VERSION .7
FIELDS x y z intensity
SIZE 4 4 4 4
TYPE F F F F
COUNT 1 1 1 1
WIDTH 1172
HEIGHT 1
VIEWPOINT 0 0 0 1 0 0 0
POINTS 1172
DATA ascii
422.990509 -779.395325 5.192017 1.000000
422.990509 -779.395325 4.602225 1.000000
422.990509 -779.395325 4.018133 1.000000
422.990509 -779.395325 3.438425 1.000000
422.990509 -779.395325 2.861821 1.000000
422.990509 -779.395325 2.287068 1.000000
422.990509 -779.395325 1.712931 1.000000
422.990509 -779.395325 1.138179 1.000000
422.990509 -779.395325 0.561574 1.000000
422.854584 -779.474548 -0.000035 0.238627
419.482788 -781.439026 -0.000031 0.266393
417.330200 -782.693176 -0.000028 0.279485
415.833954 -783.564941 0.000004 0.337682
414.731689 -784.207153 0.000000 0.342351
423.139893 -779.450867 6.419679 1.000000
423.139893 -779.450867 5.810814 1.000000
423.139893 -779.450867 5.210497 1.000000
423.139893 -779.450867 4.617291 1.000000
423.139893 -779.450867 4.029818 1.000000
423.139893 -779.450867 3.446754 1.000000
423.139893 -779.450867 2.866811 1.000000
423.139893 -779.450867 2.288731 1.000000
423.139893 -779.450867 1.711269 1.000000
423.139893 -779.450867 1.133189 1.000000
423.139893 -779.450867 0.553246 1.000000
422.915314 -779.579590 -0.000035 0.209306
419.529877 -781.520508 -0.000031 0.219766
417.368591 -782.759644 -0.000028 0.213531
415.866302 -783.620911 0.000004 0.331991
414.759583 -784.255432 0.000001 0.339467
423.291046 -779.507019 6.445633 1.000000
423.291046 -779.507019 5.833194 1.000000
423.291046 -779.507019 5.229352 1.000000
423.291046 -779.507019 4.632662 1.000000
423.291046 -779.507019 4.041739 1.000000
423.291046 -779.507019 3.455250 1.000000
423.291046 -779.507019 2.871901 1.000000
423.291046 -779.507019 2.290426 1.000000
423.291046 -779.507019 1.709574 1.000000
423.291046 -779.507019 1.128098 1.000000
423.291046 -779.507019 0.544749 1.000000
422.975311 -779.685120 -0.000035 0.230070
419.576416 -781.602356 -0.000031 0.197302
417.406372 -782.826416 0.000006 0.344350
415.898254 -783.677124 0.000003 0.335897
414.787140 -784.303894 0.000002 0.333852
423.444000 -779.563843 6.472117 1.000000
423.444000 -779.563843 5.856030 1.000000
423.444000 -779.563843 5.248589 1.000000
423.444000 -779.563843 4.648345 1.000000
423.444000 -779.563843 4.053902 1.000000
423.444000 -779.563843 3.463919 1.000000
423.444000 -779.563843 2.877096 1.000000
423.444000 -779.563843 2.292157 1.000000
423.444000 -779.563843 1.707844 1.000000
423.444000 -779.563843 1.122904 1.000000
423.444000 -779.563843 0.536080 1.000000
423.034576 -779.791016 -0.000035 0.225115
419.622375 -781.684509 -0.000030 0.216582
417.443848 -782.893372 0.000003 0.341283
415.929810 -783.733521 0.000003 0.332113
414.814362 -784.352539 0.000003 0.337987
423.598785 -779.621338 6.499137 1.000000
423.598785 -779.621338 5.879326 1.000000
423.598785 -779.621338 5.268218 1.000000
423.598785 -779.621338 4.664346 1.000000
423.598785 -779.621338 4.066312 1.000000
423.598785 -779.621338 3.472764 1.000000
423.598785 -779.621338 2.882395 1.000000
423.598785 -779.621338 2.293921 1.000000
423.598785 -779.621338 1.706079 1.000000
423.598785 -779.621338 1.117605 1.000000
423.598785 -779.621338 0.527236 1.000000
423.093079 -779.897400 -0.000035 0.239441
419.667755 -781.766968 -0.000031 0.203071
417.432678 -782.986938 0.009988 1.000000
415.960999 -783.790161 0.000003 0.332204
414.841217 -784.401367 0.000004 0.336294
423.755463 -779.679565 6.526709 1.000000
423.755463 -779.679565 5.903099 1.000000
423.755463 -779.679565 5.288245 1.000000
423.755432 -779.679565 4.680674 1.000000
423.755463 -779.679565 4.078974 1.000000
423.755432 -779.679565 3.481790 1.000000
423.755463 -779.679565 2.887802 1.000000
423.755432 -779.679565 2.295723 1.000000
423.755432 -779.679565 1.704277 1.000000
423.755432 -779.679565 1.112198 1.000000
423.755432 -779.679565 0.518210 1.000000
423.150848 -780.004089 -0.000035 0.238639
419.712555 -781.849731 -0.000030 0.240686
417.469055 -783.054077 0.009984 1.000000
415.991760 -783.847046 0.000002 0.340520
414.867767 -784.450378 0.000004 0.342092
423.914063 -779.738525 6.554844 1.000000
423.914063 -779.738525 5.927359 1.000000
423.914063 -779.738525 5.308682 1.000000
423.914063 -779.738525 4.697334 1.000000
423.914063 -779.738525 4.091895 1.000000
423.914063 -779.738525 3.490999 1.000000
423.914063 -779.738525 2.893320 1.000000
423.914063 -779.738525 2.297561 1.000000
423.914063 -779.738525 1.702439 1.000000
423.914063 -779.738525 1.106680 1.000000
423.914063 -779.738525 0.509001 1.000000
423.207886 -780.111267 -0.000034 0.228598
419.756805 -781.932861 -0.000030 0.254592
417.504913 -783.121460 0.009984 1.000000
416.022156 -783.904114 0.000002 0.337881
414.893951 -784.499573 0.000004 0.340764
424.074677 -779.798218 6.583553 1.000000
424.074677 -779.798218 5.952114 1.000000
424.074677 -779.798218 5.329537 1.000000
424.074646 -779.798218 4.714336 1.000000
424.074677 -779.798218 4.105081 1.000000
424.074646 -779.798218 3.500397 1.000000
424.074677 -779.798218 2.898951 1.000000
424.074677 -779.798218 2.299437 1.000000
424.074677 -779.798218 1.700564 1.000000
424.074677 -779.798218 1.101049 1.000000
424.074646 -779.798218 0.499603 1.000000
423.264160 -780.218811 -0.000035 0.206781
419.800446 -782.016235 -0.000030 0.210335
417.589081 -783.163818 -0.000009 0.336721
416.052124 -783.961365 0.000001 0.332860
414.919800 -784.549011 0.000006 0.334585
424.237305 -779.858643 6.612856 1.000000
424.237305 -779.858643 5.977379 1.000000
424.237305 -779.858643 5.350823 1.000000
424.237305 -779.858643 4.731688 1.000000
424.237305 -779.858643 4.118538 1.000000
424.237305 -779.858643 3.509989 1.000000
424.237305 -779.858643 2.904697 1.000000
424.237305 -779.858643 2.301351 1.000000
424.237305 -779.858643 1.698650 1.000000
424.237305 -779.858643 1.095302 1.000000
424.237305 -779.858643 0.490011 1.000000
423.319702 -780.326721 -0.000034 0.242565
419.843506 -782.099915 -0.000030 0.222494
417.624207 -783.232056 -0.000013 0.333242
416.081696 -784.018860 0.000000 0.332692
414.945282 -784.598572 0.000007 0.335851
424.402069 -779.919861 6.642762 1.000000
424.402069 -779.919861 6.003164 1.000000
424.402069 -779.919861 5.372547 1.000000
424.402069 -779.919861 4.749399 1.000000
424.402069 -779.919861 4.132274 1.000000
424.402069 -779.919861 3.519778 1.000000
424.402069 -779.919861 2.910563 1.000000
424.402069 -779.919861 2.303304 1.000000
424.402069 -779.919861 1.696696 1.000000
424.402069 -779.919861 1.089437 1.000000
424.402069 -779.919861 0.480222 1.000000
423.374481 -780.435059 -0.000034 0.250380
419.885986 -782.183960 -0.000030 0.202831
417.658844 -783.300476 -0.000015 0.329641
416.110901 -784.076538 -0.000001 0.340261
414.970459 -784.648315 0.000007 0.333104
424.568970 -779.981873 6.673286 1.000000
424.568970 -779.981873 6.029483 1.000000
424.568970 -779.981873 5.394722 1.000000
424.568970 -779.981873 4.767475 1.000000
424.568970 -779.981873 4.146293 1.000000
424.568970 -779.981873 3.529771 1.000000
424.568970 -779.981873 2.916550 1.000000
424.568970 -779.981873 2.305298 1.000000
424.568970 -779.981873 1.694701 1.000000
424.568970 -779.981873 1.083450 1.000000
424.568970 -779.981873 0.470229 1.000000
423.428497 -780.543701 -0.000034 0.222375
419.927887 -782.268250 -0.000029 0.230932
417.692993 -783.369202 -0.000017 0.340169
416.139648 -784.134460 -0.000001 0.341497
414.995270 -784.698242 0.000006 0.341482
424.738098 -780.044739 6.704448 1.000000
424.738098 -780.044739 6.056353 1.000000
424.738098 -780.044739 5.417356 1.000000
424.738098 -780.044739 4.785930 1.000000
424.738098 -780.044739 4.160604 1.000000
424.738098 -780.044739 3.539971 1.000000
424.738098 -780.044739 2.922662 1.000000
424.738098 -780.044739 2.307334 1.000000
424.738098 -780.044739 1.692666 1.000000
424.738098 -780.044739 1.077338 1.000000
424.738098 -780.044739 0.460028 1.000000
423.481750 -780.652771 -0.000034 0.244707
419.969177 -782.352844 -0.000029 0.232105
417.726654 -783.438171 -0.000014 0.336934
416.168030 -784.192505 -0.000002 0.341772
415.019714 -784.748291 0.000006 0.334630
424.909515 -780.108398 6.736260 1.000000
424.909515 -780.108398 6.083781 1.000000
424.909515 -780.108398 5.440465 1.000000
424.909515 -780.108398 4.804768 1.000000
424.909515 -780.108398 4.175214 1.000000
424.909515 -780.108398 3.550384 1.000000
424.909515 -780.108398 2.928900 1.000000
424.909515 -780.108398 2.309412 1.000000
424.909515 -780.108398 1.690588 1.000000
424.909515 -780.108398 1.071099 1.000000
424.909515 -780.108398 0.449615 1.000000
423.534241 -780.762207 -0.000033 0.213172
420.009888 -782.437683 -0.000029 0.235611
417.759827 -783.507385 -0.000008 0.328786
416.195984 -784.250793 -0.000003 0.334340
415.043823 -784.798584 0.000005 0.336812
425.083252 -780.172974 6.768737 1.000000
425.083252 -780.172974 6.111786 1.000000
425.083252 -780.172974 5.464057 1.000000
425.083252 -780.172974 4.824001 1.000000
425.083252 -780.172974 4.190130 1.000000
425.083252 -780.172974 3.561016 1.000000
425.083252 -780.172974 2.935270 1.000000
425.083252 -780.172974 2.311534 1.000000
425.083252 -780.172974 1.688466 1.000000
425.083252 -780.172974 1.064730 1.000000
425.083252 -780.172974 0.438984 1.000000
423.585968 -780.872009 -0.000033 0.222961
420.050018 -782.522827 -0.000029 0.215003
417.792511 -783.576782 -0.000006 0.338460
416.223541 -784.309326 -0.000003 0.330480
415.067596 -784.848999 0.000005 0.341497
425.259399 -780.238464 6.801900 1.000000
425.259399 -780.238464 6.140380 1.000000
425.259399 -780.238464 5.488147 1.000000
425.259399 -780.238464 4.843639 1.000000
425.259399 -780.238464 4.205360 1.000000
425.259399 -780.238464 3.571872 1.000000
425.259399 -780.238464 2.941774 1.000000
425.259399 -780.238464 2.313701 1.000000
425.259399 -780.238464 1.686299 1.000000
425.259399 -780.238464 1.058226 1.000000
425.259399 -780.238464 0.428128 1.000000
423.636932 -780.982178 -0.000033 0.211747
420.089539 -782.608276 -0.000028 0.213100
417.824707 -783.646484 -0.000000 0.333455
416.250702 -784.367981 -0.000003 0.342916
415.091003 -784.899597 0.000005 0.331991
425.438049 -780.304810 6.835765 1.000000
425.438049 -780.304810 6.169581 1.000000
425.438049 -780.304810 5.512747 1.000000
425.438049 -780.304810 4.863693 1.000000
425.438049 -780.304810 4.220914 1.000000
425.438049 -780.304810 3.582957 1.000000
425.438049 -780.304810 2.948416 1.000000
425.438049 -780.304810 2.315913 1.000000
425.438049 -780.304810 1.684087 1.000000
425.438049 -780.304810 1.051584 1.000000
425.438049 -780.304810 0.417042 1.000000
423.687103 -781.092712 -0.000032 0.211041
420.128448 -782.693970 -0.000028 0.242325
417.856415 -783.716309 0.000002 0.343496
416.277435 -784.426819 -0.000004 0.333349
415.114044 -784.950317 0.000004 0.343847
425.619202 -780.372131 6.870350 1.000000
425.619232 -780.372131 6.199399 1.000000
425.619202 -780.372131 5.537869 1.000000
425.619232 -780.372131 4.884174 1.000000
425.619202 -780.372131 4.236797 1.000000
425.619232 -780.372131 3.594278 1.000000
425.619232 -780.372131 2.955199 1.000000
425.619232 -780.372131 2.318172 1.000000
425.619232 -780.372131 1.681828 1.000000
425.619232 -780.372131 1.044801 1.000000
425.619202 -780.372131 0.405721 1.000000
423.736511 -781.203552 -0.000032 0.217887
420.166779 -782.779968 -0.000027 0.235659
417.887634 -783.786438 0.000005 0.333867
416.303741 -784.485901 -0.000004 0.332601
415.136749 -785.001221 0.000004 0.339025
425.803009 -780.440430 6.905674 1.000000
425.803009 -780.440430 6.229856 1.000000
425.803009 -780.440430 5.563529 1.000000
425.803009 -780.440430 4.905093 1.000000
425.803009 -780.440430 4.253020 1.000000
425.803009 -780.440430 3.605841 1.000000
425.803009 -780.440430 2.962127 1.000000
425.803009 -780.440430 2.320480 1.000000
425.803009 -780.440430 1.679520 1.000000
425.803009 -780.440430 1.037873 1.000000
425.803009 -780.440430 0.394159 1.000000
423.785156 -781.314758 -0.000032 0.236042
420.204498 -782.866211 -0.000027 0.264286
417.918365 -783.856750 0.000010 0.338766
416.329651 -784.545105 -0.000004 0.337346
415.159088 -785.052307 0.000004 0.340200
425.989502 -780.509766 6.941755 1.000000
425.989502 -780.509766 6.260967 1.000000
425.989502 -780.509766 5.589739 1.000000
425.989502 -780.509766 4.926461 1.000000
425.989502 -780.509766 4.269592 1.000000
425.989502 -780.509705 3.617652 1.000000
425.989502 -780.509766 2.969204 1.000000
425.989502 -780.509766 2.322837 1.000000
425.989502 -780.509766 1.677163 1.000000
425.989502 -780.509766 1.030796 1.000000
425.989502 -780.509766 0.382347 1.000000
423.833038 -781.426270 -0.000032 0.226576
420.241608 -782.952698 -0.000027 0.241164
417.948608 -783.927246 0.000013 0.337362
416.355133 -784.604553 -0.000002 0.337087
415.181061 -785.103516 0.000003 0.321035
426.178772 -780.580078 6.978618 1.000000
426.178772 -780.580078 6.292752 1.000000
426.178772 -780.580078 5.616515 1.000000
426.178772 -780.580078 4.948289 1.000000
426.178772 -780.580078 4.286521 1.000000
426.178772 -780.580078 3.629719 1.000000
426.178772 -780.580078 2.976433 1.000000
426.178772 -780.580078 2.325245 1.000000
426.178772 -780.580078 1.674755 1.000000
426.178772 -780.580078 1.023567 1.000000
426.178772 -780.580078 0.370281 1.000000
423.880127 -781.538147 -0.000032 0.207966
420.278137 -783.039429 -0.000027 0.208097
417.978394 -783.997986 0.000015 0.332586
416.380219 -784.664124 -0.000001 0.334722
415.202698 -785.154907 0.000003 0.340871
426.370880 -780.651428 7.016279 1.000000
426.370880 -780.651428 6.325225 1.000000
426.370880 -780.651428 5.643874 1.000000
426.370880 -780.651428 4.970592 1.000000
426.370880 -780.651428 4.303819 1.000000
426.370880 -780.651428 3.642047 1.000000
426.370880 -780.651428 2.983819 1.000000
426.370880 -780.651428 2.327706 1.000000
426.370880 -780.651428 1.672294 1.000000
426.370880 -780.651428 1.016181 1.000000
426.370880 -780.651428 0.357953 1.000000
423.926422 -781.650330 -0.000031 0.206625
420.314026 -783.126465 -0.000027 0.223308
418.007660 -784.068909 0.000014 0.339971
416.404877 -784.723877 0.000001 0.341344
415.223969 -785.206421 0.000003 0.335180
426.565948 -780.723938 7.054762 1.000000
426.565948 -780.723938 6.358407 1.000000
426.565948 -780.723938 5.671829 1.000000
426.565948 -780.723938 4.993382 1.000000
426.565948 -780.723938 4.321492 1.000000
426.565948 -780.723938 3.654645 1.000000
426.565948 -780.723938 2.991367 1.000000
426.565948 -780.723938 2.330220 1.000000
426.565948 -780.723938 1.669780 1.000000
426.565948 -780.723938 1.008633 1.000000
426.565948 -780.723938 0.345355 1.000000
423.971924 -781.762878 -0.000031 0.237658
420.349335 -783.213745 -0.000027 0.225534
418.036438 -784.140076 0.000012 0.339788
416.429108 -784.783813 0.000002 0.341268
415.244873 -785.258118 0.000003 0.337774
426.764038 -780.797546 7.094094 1.000000
426.764038 -780.797546 6.392318 1.000000
426.764038 -780.797546 5.700398 1.000000
426.764038 -780.797546 5.016673 1.000000
426.764038 -780.797546 4.339555 1.000000
426.764038 -780.797546 3.667519 1.000000
426.764038 -780.797546 2.999081 1.000000
426.764038 -780.797546 2.332789 1.000000
426.764038 -780.797546 1.667211 1.000000
426.764038 -780.797546 1.000919 1.000000
426.764038 -780.797546 0.332481 1.000000
424.016663 -781.875671 -0.000031 0.234247
420.384033 -783.301208 -0.000026 0.228897
418.064758 -784.211365 0.000008 0.340002
416.452942 -784.843933 0.000004 0.338460
415.265411 -785.309937 0.000002 0.327672
426.965240 -780.872314 7.134292 1.000000
426.965240 -780.872314 6.426980 1.000000
426.965240 -780.872314 5.729599 1.000000
426.965240 -780.872314 5.040478 1.000000
426.965240 -780.872314 4.358018 1.000000
426.965240 -780.872314 3.680678 1.000000
426.965240 -780.872314 3.006965 1.000000
426.965240 -780.872314 2.335415 1.000000
426.965240 -780.872314 1.664585 1.000000
426.965240 -780.872314 0.993035 1.000000
426.965240 -780.872314 0.319322 1.000000
424.060608 -781.988831 -0.000031 0.245975
420.418121 -783.388977 -0.000026 0.215888
418.092529 -784.282898 0.000007 0.334707
416.476349 -784.904175 0.000005 0.332036
415.285583 -785.361877 0.000002 0.350881
427.169647 -780.948242 7.175383 1.000000
427.169647 -780.948242 6.462411 1.000000
427.169647 -780.948242 5.759449 1.000000
427.169647 -780.948242 5.064814 1.000000
427.169647 -780.948242 4.376890 1.000000
427.169647 -780.948242 3.694129 1.000000
427.169647 -780.948242 3.015024 1.000000
427.169647 -780.948242 2.338099 1.000000
427.169647 -780.948242 1.661900 1.000000
427.169647 -780.948242 0.984976 1.000000
427.169647 -780.948242 0.305870 1.000000
424.103760 -782.102295 -0.000031 0.223284
420.451569 -783.476929 -0.000026 0.216140
418.119843 -784.354614 0.000005 0.334203
416.499329 -784.964600 0.000006 0.344625
415.305420 -785.414001 0.000002 0.330770
427.377350 -781.025452 7.217394 1.000000
427.377350 -781.025452 6.498636 1.000000
427.377350 -781.025452 5.789968 1.000000
427.377350 -781.025452 5.089692 1.000000
427.377350 -781.025452 4.396185 1.000000
427.377350 -781.025452 3.707881 1.000000
427.377350 -781.025452 3.023263 1.000000
427.377350 -781.025452 2.340844 1.000000
427.377350 -781.025452 1.659156 1.000000
427.377350 -781.025452 0.976736 1.000000
427.377350 -781.025452 0.292118 1.000000
424.146118 -782.216003 -0.000030 0.223619
420.484436 -783.565186 -0.000026 0.212286
418.146637 -784.426514 0.000002 0.332509
416.521881 -785.025208 0.000008 0.340658
415.324860 -785.466187 0.000001 0.342168
427.588501 -781.103882 7.260353 1.000000
427.588501 -781.103882 6.535676 1.000000
427.588501 -781.103882 5.821172 1.000000
427.588501 -781.103882 5.115132 1.000000
427.588501 -781.103882 4.415914 1.000000
427.588501 -781.103882 3.721943 1.000000
427.588501 -781.103882 3.031689 1.000000
427.588501 -781.103882 2.343650 1.000000
427.588501 -781.103882 1.656349 1.000000
427.588501 -781.103882 0.968311 1.000000
427.588501 -781.103882 0.278056 1.000000
424.187683 -782.330017 -0.000030 0.214177
420.516663 -783.653625 -0.000025 0.252139
418.172913 -784.498596 0.000001 0.336370
416.544006 -785.085938 0.000009 0.340642
415.343964 -785.518616 0.000002 0.335164
427.803131 -781.183655 7.304284 1.000000
427.803131 -781.183655 6.573555 1.000000
427.803131 -781.183655 5.853085 1.000000
427.803131 -781.183655 5.141147 1.000000
427.803131 -781.183655 4.436090 1.000000
427.803131 -781.183655 3.736324 1.000000
427.803131 -781.183655 3.040305 1.000000
427.803131 -781.183655 2.346520 1.000000
427.803131 -781.183655 1.653479 1.000000
427.803131 -781.183655 0.959695 1.000000
427.803131 -781.183655 0.263676 1.000000
424.228455 -782.444397 -0.000030 0.249291
420.548279 -783.742249 -0.000025 0.208061
418.198700 -784.570923 -0.000001 0.343877
416.565704 -785.146790 0.000011 0.335164
415.362671 -785.571106 0.000001 0.342962
428.021393 -781.264771 7.349219 1.000000
428.021393 -781.264771 6.612299 1.000000
428.021393 -781.264771 5.885725 1.000000
428.021393 -781.264771 5.167756 1.000000
428.021393 -781.264771 4.456727 1.000000
428.021393 -781.264771 3.751033 1.000000
428.021393 -781.264771 3.049117 1.000000
428.021393 -781.264771 2.349456 1.000000
428.021393 -781.264771 1.650544 1.000000
428.021393 -781.264771 0.950882 1.000000
428.021393 -781.264771 0.248967 1.000000
424.268402 -782.558960 -0.000030 0.226504
420.579163 -783.831177 -0.000008 0.337148
418.223969 -784.643372 -0.000001 0.328527
416.587006 -785.207886 0.000011 0.337438
415.381042 -785.623718 0.000001 0.342229
428.243408 -781.347290 7.395188 1.000000
428.243408 -781.347290 6.651934 1.000000
428.243408 -781.347290 5.919117 1.000000
428.243408 -781.347290 5.194979 1.000000
428.243408 -781.347290 4.477840 1.000000
428.243408 -781.347290 3.766081 1.000000
428.243408 -781.347290 3.058133 1.000000
428.243408 -781.347290 2.352459 1.000000
428.243408 -781.347290 1.647541 1.000000
428.243408 -781.347290 0.941867 1.000000
428.243408 -781.347290 0.233919 1.000000
424.307556 -782.673828 -0.000029 0.256591
420.545593 -783.941833 0.010003 1.000000
418.248718 -784.716003 -0.000001 0.330434
416.607849 -785.269043 0.000011 0.336812
415.399017 -785.676453 0.000001 0.342748
428.469299 -781.431213 7.442220 1.000000
428.469299 -781.431213 6.692488 1.000000
428.469299 -781.431213 5.953282 1.000000
428.469299 -781.431213 5.222831 1.000000
428.469299 -781.431213 4.499439 1.000000
428.469299 -781.431213 3.781476 1.000000
428.469299 -781.431213 3.067357 1.000000
428.469299 -781.431213 2.355531 1.000000
428.469299 -781.431213 1.644468 1.000000
428.469299 -781.431213 0.932642 1.000000
428.469299 -781.431213 0.218523 1.000000
424.345947 -782.789001 -0.000029 0.235623
420.575256 -784.030640 0.009993 1.000000
418.272980 -784.788818 -0.000002 0.330541
416.628296 -785.330383 0.000011 0.334173
415.416656 -785.729370 0.000001 0.335225
428.699158 -781.516602 7.490348 1.000000
428.699158 -781.516602 6.733986 1.000000
428.699158 -781.516602 5.988243 1.000000
428.699158 -781.516602 5.251332 1.000000
428.699158 -781.516602 4.521544 1.000000
428.699158 -781.516602 3.797231 1.000000
428.699158 -781.516602 3.076797 1.000000
428.699158 -781.516602 2.358676 1.000000
428.699158 -781.516602 1.641324 1.000000
428.699158 -781.516602 0.923203 1.000000
428.699158 -781.516602 0.202769 1.000000
424.383484 -782.904419 -0.000029 0.225750
420.668396 -784.099121 -0.000007 0.337087
418.296722 -784.861755 -0.000002 0.341588
416.648285 -785.391846 0.000011 0.337285
415.433899 -785.782349 0.000001 0.333822
428.933105 -781.603577 7.539610 1.000000
428.933105 -781.603577 6.776461 1.000000
428.933105 -781.603577 6.024026 1.000000
428.933105 -781.603577 5.280504 1.000000
428.933105 -781.603577 4.544168 1.000000
428.933105 -781.603577 3.813356 1.000000
428.933105 -781.603577 3.086458 1.000000
428.933105 -781.603577 2.361894 1.000000
428.933105 -781.603577 1.638106 1.000000
428.933105 -781.603577 0.913542 1.000000
428.933105 -781.603577 0.186644 1.000000
424.420227 -783.020081 -0.000028 0.216391
420.696899 -784.188782 -0.000007 0.337621
418.319977 -784.934875 -0.000003 0.335210
416.667877 -785.453491 0.000011 0.331472
415.450775 -785.835510 0.000002 0.331060
429.171326 -781.692078 7.590035 1.000000
429.171326 -781.692078 6.819941 1.000000
429.171326 -781.692078 6.060657 1.000000
429.171326 -781.692078 5.310366 1.000000
429.171326 -781.692078 4.567327 1.000000
429.171326 -781.692078 3.829863 1.000000
429.171326 -781.692078 3.096347 1.000000
429.171326 -781.692078 2.365188 1.000000
429.171326 -781.692078 1.634812 1.000000
429.171326 -781.692078 0.903652 1.000000
429.171326 -781.692078 0.170137 1.000000
424.456177 -783.136047 -0.000028 0.226300
420.724792 -784.278687 -0.000006 0.339162
418.342712 -785.008179 -0.000004 0.341176
416.687012 -785.515198 0.000011 0.341146
415.467285 -785.888733 0.000002 0.344396
429.413940 -781.782227 7.641668 1.000000
429.413940 -781.782227 6.864460 1.000000
429.413940 -781.782227 6.098163 1.000000
429.413940 -781.782227 5.340942 1.000000
429.413940 -781.782227 4.591040 1.000000
429.413940 -781.782227 3.846765 1.000000
429.413940 -781.782227 3.106474 1.000000
429.413940 -781.782227 2.368561 1.000000
429.413940 -781.782227 1.631439 1.000000
429.413940 -781.782227 0.893525 1.000000
429.413940 -781.782227 0.153235 1.000000
424.491302 -783.252197 -0.000028 0.241535
420.752014 -784.368835 -0.000005 0.334524
418.364929 -785.081604 -0.000004 0.335012
416.705750 -785.577087 0.000010 0.337911
415.483398 -785.942078 0.000004 0.328359
429.661072 -781.874084 7.694542 1.000000
429.661072 -781.874084 6.910049 1.000000
429.661072 -781.874084 6.136570 1.000000
429.661072 -781.874084 5.372254 1.000000
429.661072 -781.874084 4.615323 1.000000
429.661072 -781.874084 3.864072 1.000000
429.661072 -781.874084 3.116844 1.000000
429.661072 -781.874084 2.372015 1.000000
429.661072 -781.874084 1.627985 1.000000
429.661072 -781.874084 0.883156 1.000000
429.661072 -781.874084 0.135927 1.000000
424.525635 -783.368591 -0.000028 0.237682
420.778625 -784.459106 -0.000005 0.338094
418.386627 -785.155212 -0.000005 0.337118
416.724030 -785.639099 0.000010 0.342107
415.499176 -785.995544 0.000004 0.344091
429.912903 -781.967651 7.748700 1.000000
429.912903 -781.967651 6.956747 1.000000
429.912903 -781.967651 6.175912 1.000000
429.912903 -781.967651 5.404325 1.000000
429.912903 -781.967651 4.640197 1.000000
429.912903 -781.967651 3.881801 1.000000
429.912903 -781.967651 3.127466 1.000000
429.912903 -781.967651 2.375554 1.000000
429.912903 -781.967651 1.624446 1.000000
429.912903 -781.967651 0.872534 1.000000
429.912903 -781.967651 0.118198 1.000000
424.559143 -783.485291 -0.000027 0.241140
420.804626 -784.549561 -0.000004 0.336492
418.407806 -785.229004 -0.000006 0.338598
416.741882 -785.701233 0.000010 0.338872
415.514557 -786.049133 0.000005 0.329503
430.169586 -782.063049 7.804184 1.000000
430.169586 -782.063049 7.004589 1.000000
430.169586 -782.063049 6.216215 1.000000
430.169586 -782.063049 5.437182 1.000000
430.169586 -782.063049 4.665678 1.000000
430.169586 -782.063049 3.899962 1.000000
430.169586 -782.063049 3.138348 1.000000
430.169586 -782.063049 2.379178 1.000000
430.169586 -782.063049 1.620822 1.000000
430.169586 -782.063049 0.861652 1.000000
430.169586 -782.063049 0.100037 1.000000
424.591827 -783.602173 -0.000027 0.226935
420.829956 -784.640198 -0.000003 0.339223
418.428497 -785.302917 -0.000005 0.332479
416.759277 -785.763489 0.000010 0.338582
415.529572 -786.102844 0.000006 0.339635
430.431274 -782.160278 7.861036 1.000000
430.431274 -782.160278 7.053607 1.000000
430.431274 -782.160278 6.257515 1.000000
430.431274 -782.160278 5.470850 1.000000
430.431274 -782.160278 4.691789 1.000000
430.431274 -782.160278 3.918573 1.000000
430.431274 -782.160278 3.149498 1.000000
430.431274 -782.160278 2.382892 1.000000
430.431274 -782.160278 1.617108 1.000000
430.431274 -782.160278 0.850502 1.000000
430.431274 -782.160278 0.081426 1.000000
424.623688 -783.719299 -0.000026 0.216164
420.854675 -784.731018 -0.000002 0.339910
418.448639 -785.376953 -0.000005 0.333959
416.776276 -785.825867 0.000006 0.333059
415.544189 -786.156616 0.000007 0.337682
430.698181 -782.259460 7.919307 1.000000
430.698181 -782.259460 7.103849 1.000000
430.698181 -782.259460 6.299842 1.000000
430.698181 -782.259460 5.505357 1.000000
430.698181 -782.259460 4.718550 1.000000
430.698181 -782.259460 3.937648 1.000000
430.698181 -782.259460 3.160926 1.000000
430.698181 -782.259460 2.386699 1.000000
430.698181 -782.259460 1.613301 1.000000
430.698181 -782.259460 0.839074 1.000000
430.698181 -782.259460 0.062352 1.000000
424.654755 -783.836609 -0.000026 0.219754
420.878754 -784.822021 -0.000001 0.334966
418.468262 -785.451111 -0.000005 0.337575
416.792816 -785.888367 0.000004 0.338201
415.558472 -786.210510 0.000007 0.341909
430.970428 -782.360596 7.979039 1.000000
430.970428 -782.360596 7.155352 1.000000
430.970428 -782.360596 6.343232 1.000000
430.970428 -782.360596 5.540730 1.000000
430.970428 -782.360596 4.745983 1.000000
430.970428 -782.360596 3.957201 1.000000
430.970428 -782.360596 3.172641 1.000000
430.970428 -782.360596 2.390601 1.000000
430.970428 -782.360596 1.609399 1.000000
430.970428 -782.360596 0.827358 1.000000
430.970428 -782.360596 0.042799 1.000000
424.684998 -783.954163 -0.000026 0.221489
420.902222 -784.913208 -0.000001 0.340063
418.487396 -785.525452 -0.000004 0.342672
416.808929 -785.950989 0.000003 0.337301
415.572357 -786.264465 0.000007 0.342641
431.248260 -782.463867 8.040289 1.000000
431.248260 -782.463867 7.208165 1.000000
431.248260 -782.463867 6.387725 1.000000
431.248260 -782.463867 5.577002 1.000000
431.248260 -782.463867 4.774114 1.000000
431.248260 -782.463867 3.977250 1.000000
431.248260 -782.463867 3.184653 1.000000
431.248260 -782.463867 2.394602 1.000000
431.248260 -782.463867 1.605397 1.000000
431.248260 -782.463867 0.815346 1.000000
431.248260 -782.463867 0.022749 1.000000
424.714417 -784.071899 -0.000025 0.213207
420.925018 -785.004517 0.000000 0.337682
418.505981 -785.599854 -0.000004 0.338781
416.824615 -786.013672 0.000002 0.333989
415.585846 -786.318542 0.000007 0.323110
431.531830 -782.569214 8.103106 1.000000
431.531860 -782.569214 7.262329 1.000000
431.531860 -782.569214 6.433357 1.000000
431.531830 -782.569214 5.614202 1.000000
431.531860 -782.569214 4.802965 1.000000
431.531860 -782.569214 3.997814 1.000000
431.531830 -782.569214 3.196973 1.000000
431.531860 -782.569214 2.398706 1.000000
431.531860 -782.569214 1.601294 1.000000
431.531830 -782.569214 0.803026 1.000000
431.531830 -782.569214 0.002186 1.000000
424.743011 -784.189880 -0.000025 0.257752
420.947205 -785.096008 0.000001 0.334569
418.524048 -785.674438 -0.000004 0.339330
416.839844 -786.076538 0.000000 0.331823
415.598999 -786.372742 0.000006 0.341894
431.821411 -782.676819 8.167547 1.000000
431.821411 -782.676819 7.317893 1.000000
431.821411 -782.676819 6.480167 1.000000
431.821411 -782.676819 5.652364 1.000000
431.821411 -782.676819 4.832561 1.000000
431.821411 -782.676819 4.018909 1.000000
431.821411 -782.676819 3.209613 1.000000
431.821411 -782.676819 2.402916 1.000000
431.821411 -782.676819 1.597084 1.000000
431.821411 -782.676819 0.790387 1.000000
431.597137 -782.728699 -0.000034 0.230022
424.770782 -784.308044 -0.000026 0.231889
420.968719 -785.187622 0.000001 0.334096
418.541626 -785.749146 -0.000004 0.338781
416.854645 -786.139465 -0.000001 0.330678
415.611755 -786.427002 0.000006 0.338903
432.117157 -782.786743 8.233671 1.000000
432.117157 -782.786743 7.374908 1.000000
432.117157 -782.786743 6.528200 1.000000
432.117157 -782.786743 5.691521 1.000000
432.117157 -782.786743 4.862928 1.000000
432.117157 -782.786743 4.040553 1.000000
432.117157 -782.786743 3.222581 1.000000
432.117157 -782.786743 2.407236 1.000000
432.117157 -782.786743 1.592764 1.000000
432.117157 -782.786743 0.777419 1.000000
431.634949 -782.894775 -0.000033 0.232332
424.797699 -784.426392 -0.000025 0.236629
420.989624 -785.279419 0.000002 0.339178
418.558655 -785.823975 -0.000003 0.340414
416.869019 -786.202454 -0.000005 0.339529
415.624115 -786.481323 0.000006 0.338491
432.419342 -782.899048 8.301539 1.000000
432.419342 -782.898987 7.433425 1.000000
432.419342 -782.898987 6.577499 1.000000
432.419342 -782.898987 5.731711 1.000000
432.419342 -782.898987 4.894098 1.000000
432.419342 -782.899048 4.062768 1.000000
432.419342 -782.898987 3.235892 1.000000
432.419342 -782.898987 2.411670 1.000000
432.419342 -782.898987 1.588331 1.000000
432.419342 -782.899048 0.764108 1.000000
431.671570 -783.061035 -0.000033 0.230716
424.823822 -784.544922 -0.000025 0.226109
421.009857 -785.371338 0.000003 0.334615
418.575165 -785.898926 -0.000003 0.336583
416.882935 -786.265625 -0.000006 0.342596
415.636108 -786.535767 0.000005 0.344320
432.728210 -783.013794 8.371216 1.000000
432.728210 -783.013794 7.493504 1.000000
432.728210 -783.013794 6.628113 1.000000
432.728210 -783.013794 5.772973 1.000000
432.728210 -783.013794 4.926099 1.000000
432.728210 -783.013794 4.085576 1.000000
432.728210 -783.013794 3.249557 1.000000
432.728210 -783.013794 2.416221 1.000000
432.728210 -783.013794 1.583778 1.000000
432.728210 -783.013794 0.750443 1.000000
431.707062 -783.227600 -0.000033 0.227030
424.849121 -784.663574 -0.000024 0.231303
421.029480 -785.463379 0.000004 0.334249
418.591156 -785.973999 -0.000003 0.339178
416.896423 -786.328857 -0.000008 0.336202
415.647736 -786.590271 0.000005 0.333196
433.043976 -783.131104 8.442764 1.000000
433.043976 -783.131104 7.555197 1.000000
433.043976 -783.131104 6.680087 1.000000
433.043976 -783.131104 5.815345 1.000000
433.043976 -783.131104 4.958960 1.000000
433.043976 -783.131104 4.108998 1.000000
433.043976 -783.131104 3.263589 1.000000
433.043976 -783.131104 2.420896 1.000000
433.043976 -783.131104 1.579104 1.000000
433.043976 -783.131104 0.736410 1.000000
431.741364 -783.394409 -0.000032 0.231973
424.873566 -784.782471 -0.000024 0.241069
421.048431 -785.555603 0.000005 0.339025
418.606598 -786.049133 -0.000002 0.342306
416.909454 -786.392151 -0.000009 0.329931
415.658966 -786.644897 0.000005 0.336721
433.366943 -783.251160 8.516266 1.000000
433.366943 -783.251160 7.618569 1.000000
433.366943 -783.251160 6.733477 1.000000
433.366943 -783.251160 5.858870 1.000000
433.366943 -783.251160 4.992713 1.000000
433.366943 -783.251160 4.133057 1.000000
433.366943 -783.251160 3.278004 1.000000
433.366943 -783.251160 2.425697 1.000000
433.366943 -783.251160 1.574303 1.000000
433.366943 -783.251160 0.721995 1.000000
431.774506 -783.561401 -0.000032 0.221741
424.897186 -784.901550 -0.000024 0.221764
421.066742 -785.647949 0.000006 0.338582
418.621552 -786.124390 -0.000002 0.335546
416.922028 -786.455566 -0.000010 0.332982
415.669830 -786.699585 0.000005 0.332830
433.697357 -783.373901 8.591783 1.000000
433.697357 -783.373901 7.683682 1.000000
433.697357 -783.373901 6.788334 1.000000
433.697357 -783.373901 5.903590 1.000000
433.697357 -783.373901 5.027397 1.000000
433.697357 -783.373901 4.157778 1.000000
433.697357 -783.373901 3.292816 1.000000
433.697357 -783.373901 2.430630 1.000000
433.697357 -783.373901 1.569370 1.000000
433.697357 -783.373901 0.707184 1.000000
431.806488 -783.728699 -0.000032 0.219658
424.919983 -785.020752 -0.000023 0.213590
421.084442 -785.740356 0.000006 0.338842
418.635956 -786.199768 -0.000002 0.333654
416.934174 -786.519043 -0.000008 0.332769
415.680298 -786.754333 0.000004 0.324880
434.035553 -783.499573 8.669402 1.000000
434.035553 -783.499573 7.750609 1.000000
434.035553 -783.499573 6.844718 1.000000
434.035553 -783.499573 5.949555 1.000000
434.035553 -783.499573 5.063046 1.000000
434.035553 -783.499573 4.183186 1.000000
434.035553 -783.499573 3.308039 1.000000
434.035553 -783.499573 2.435702 1.000000
434.035553 -783.499573 1.564298 1.000000
434.035553 -783.499573 0.691961 1.000000
431.837311 -783.896179 -0.000031 0.221226
424.941956 -785.140137 -0.000023 0.213231
421.101471 -785.832947 0.000007 0.334218
418.649841 -786.275269 -0.000001 0.331212
416.945862 -786.582642 -0.000006 0.338720
415.690399 -786.809143 0.000003 0.335042
434.381836 -783.628235 8.749204 1.000000
434.381836 -783.628235 7.819417 1.000000
434.381836 -783.628235 6.902686 1.000000
434.381836 -783.628235 5.996813 1.000000
434.381836 -783.628235 5.099696 1.000000
434.381836 -783.628235 4.209309 1.000000
434.381836 -783.628235 3.323689 1.000000
434.381836 -783.628235 2.440914 1.000000
434.381836 -783.628235 1.559085 1.000000
434.381836 -783.628235 0.676310 1.000000
431.866974 -784.063843 -0.000031 0.219957
424.963074 -785.259644 -0.000022 0.250368
421.117828 -785.925659 0.000008 0.334661
418.663208 -786.350830 -0.000001 0.337575
416.957123 -786.646301 -0.000005 0.340780
415.700104 -786.864014 0.000003 0.333059
434.736511 -783.760071 8.831274 1.000000
434.736511 -783.760071 7.890183 1.000000
434.736511 -783.760071 6.962304 1.000000
434.736511 -783.760071 6.045416 1.000000
434.736511 -783.760071 5.137388 1.000000
434.736511 -783.760071 4.236175 1.000000
434.736511 -783.760071 3.339787 1.000000
434.736511 -783.760071 2.446277 1.000000
434.736511 -783.760071 1.553724 1.000000
434.736511 -783.760071 0.660214 1.000000
431.895447 -784.231750 -0.000031 0.224840
424.983368 -785.379272 -0.000022 0.227330
421.133575 -786.018433 0.000008 0.340536
418.676025 -786.426453 -0.000001 0.337652
416.967926 -786.710022 -0.000003 0.337774
415.709412 -786.919006 0.000002 0.326390
435.099945 -783.895081 8.915707 1.000000
435.099945 -783.895081 7.962983 1.000000
435.099945 -783.895081 7.023636 1.000000
435.099945 -783.895081 6.095416 1.000000
435.099945 -783.895081 5.176167 1.000000
435.099945 -783.895081 4.263813 1.000000
435.099945 -783.895081 3.356345 1.000000
435.099945 -783.895081 2.451792 1.000000
435.099945 -783.895081 1.548208 1.000000
435.099945 -783.895081 0.643654 1.000000
431.922729 -784.399841 -0.000031 0.230812
425.002502 -785.499146 0.000015 0.337957
421.148682 -786.111389 0.000009 0.334493
418.688324 -786.502197 -0.000000 0.328618
416.978271 -786.773865 -0.000001 0.339193
415.718353 -786.973999 0.000001 0.333745
435.472473 -784.033569 9.002598 1.000000
435.472473 -784.033569 8.037905 1.000000
435.472473 -784.033569 7.086756 1.000000
435.472473 -784.033569 6.146873 1.000000
435.472473 -784.033569 5.216071 1.000000
435.472473 -784.033569 4.292256 1.000000
435.472473 -784.033569 3.373386 1.000000
435.472473 -784.033569 2.457469 1.000000
435.472473 -784.033569 1.542531 1.000000
435.472473 -784.033569 0.626613 1.000000
431.948853 -784.568115 -0.000030 0.220161
424.935364 -785.632080 0.009995 1.000000
421.163116 -786.204407 0.000010 0.340642
418.700104 -786.578003 -0.000000 0.334676
416.988190 -786.837769 0.000001 0.335592
415.726929 -787.029114 0.000000 0.336095
435.854523 -784.175476 9.092051 1.000000
435.854523 -784.175476 8.115032 1.000000
435.854523 -784.175476 7.151735 1.000000
435.854523 -784.175476 6.199845 1.000000
435.854523 -784.175476 5.257154 1.000000
435.854523 -784.175476 4.321538 1.000000
435.854523 -784.175476 3.390931 1.000000
435.854523 -784.175476 2.463312 1.000000
435.854523 -784.175476 1.536688 1.000000
435.854523 -784.175476 0.609069 1.000000
431.973816 -784.736572 -0.000030 0.231614
424.953033 -785.751587 0.009998 1.000000
421.176880 -786.297485 0.000011 0.339925
418.711365 -786.653931 0.000000 0.337865
416.997650 -786.901672 0.000004 0.334783
415.735077 -787.084229 -0.000000 0.339208
436.246460 -784.321167 9.184175 1.000000
436.246460 -784.321167 8.194466 1.000000
436.246460 -784.321167 7.218653 1.000000
436.246460 -784.321167 6.254400 1.000000
436.246460 -784.321167 5.299463 1.000000
436.246460 -784.321167 4.351694 1.000000
436.246460 -784.321167 3.408998 1.000000
436.246460 -784.321167 2.469331 1.000000
436.246460 -784.321167 1.530669 1.000000
436.246460 -784.321167 0.591001 1.000000
431.997589 -784.905151 -0.000029 0.236174
425.055908 -785.859314 0.000012 0.332418
421.190033 -786.390686 0.000011 0.336355
418.722076 -786.729919 0.000000 0.344701
417.006653 -786.965698 0.000006 0.338216
415.742859 -787.139404 -0.000001 0.333303
436.648743 -784.470642 9.279081 1.000000
436.648743 -784.470642 8.276299 1.000000
436.648743 -784.470642 7.287594 1.000000
436.648743 -784.470642 6.310602 1.000000
436.648773 -784.470642 5.343053 1.000000
436.648743 -784.470642 4.382761 1.000000
436.648743 -784.470642 3.427612 1.000000
436.648743 -784.470642 2.475530 1.000000
436.648743 -784.470642 1.524469 1.000000
436.648743 -784.470642 0.572387 1.000000
432.020172 -785.073975 -0.000029 0.226181
425.072021 -785.979614 0.000011 0.337285
421.202515 -786.484009 0.000012 0.337545
418.732239 -786.805969 0.000000 0.336263
417.015228 -787.029785 0.000007 0.334127
415.750275 -787.194702 -0.000001 0.341772
437.061829 -784.624146 9.376893 1.000000
437.061829 -784.624146 8.360637 1.000000
437.061829 -784.624146 7.358648 1.000000
437.061829 -784.624146 6.368526 1.000000
437.061829 -784.624146 5.387973 1.000000
437.061829 -784.624146 4.414779 1.000000
437.061829 -784.624146 3.446796 1.000000
437.061829 -784.624146 2.481921 1.000000
437.061829 -784.624146 1.518079 1.000000
437.061829 -784.624146 0.553204 1.000000
432.041595 -785.242920 -0.000029 0.227856
425.087280 -786.100037 0.000011 0.336629
421.214355 -786.577393 0.000013 0.335409
418.741882 -786.882080 0.000001 0.336172
417.023346 -787.093933 0.000010 0.327749
415.757294 -787.250000 -0.000002 0.341512
nan nan nan 0.000000
nan nan nan 0.000000
472.820953 -780.676941 13.904522 1.000000
472.820953 -780.676941 11.704912 1.000000
466.281036 -781.436707 8.769148 0.411063
464.530548 -781.640015 6.680215 0.405371
467.059204 -781.346252 4.929173 0.373205
472.820953 -780.676941 3.070612 1.000000
472.820953 -780.676941 0.929387 1.000000
448.272034 -783.528809 -0.000013 0.228526
432.061829 -785.411987 -0.000028 0.242050
425.101715 -786.220520 0.000010 0.335195
421.225525 -786.670837 0.000014 0.340917
418.751007 -786.958313 0.000001 0.341741
417.031036 -787.158142 0.000011 0.341695
415.763916 -787.305298 -0.000002 0.338033
nan nan nan 0.000000
nan nan nan 0.000000
472.621460 -781.158142 13.858652 1.000000
472.621490 -781.158142 11.667521 1.000000
465.595703 -781.924683 8.684519 0.407568
464.601349 -782.033142 6.682375 0.411749
465.386932 -781.947449 4.844231 0.403677
472.621490 -781.158142 3.066488 1.000000
472.621490 -781.158142 0.933512 1.000000
448.303864 -783.811218 -0.000013 0.229412
432.080872 -785.581177 -0.000028 0.222554
425.115295 -786.341125 0.000009 0.339269
421.236084 -786.764343 0.000014 0.329885
418.759613 -787.034546 0.000001 0.335256
417.038239 -787.222351 0.000014 0.337392
415.770142 -787.360718 -0.000002 0.336690
nan nan nan 0.000000
nan nan nan 0.000000
472.425476 -781.635498 13.814067 1.000000
472.425476 -781.635498 11.631171 1.000000
465.860535 -782.305420 8.710217 0.400854
464.898499 -782.403564 6.703416 0.372091
468.611603 -782.024658 5.001376 0.397574
466.648438 -782.225037 2.967452 0.372885
466.790405 -782.210510 1.030213 0.366583
448.333679 -784.093872 -0.000013 0.228885
432.098755 -785.750549 -0.000028 0.223895
425.128052 -786.461853 0.000008 0.335973
421.245941 -786.857971 0.000015 0.339132
418.767670 -787.110840 0.000001 0.333791
417.045044 -787.286621 0.000013 0.341650
415.776001 -787.416138 -0.000003 0.340215
nan nan nan 0.000000
nan nan nan 0.000000
472.230927 -782.109314 13.770384 1.000000
472.230927 -782.109314 11.595564 1.000000
468.069794 -782.504578 8.960902 0.430228
467.915771 -782.519226 6.948700 0.410834
466.247192 -782.677734 4.882634 0.394537
472.230957 -782.109314 3.058550 1.000000
472.230957 -782.109314 0.941450 1.000000
448.361542 -784.376709 -0.000013 0.230920
432.115448 -785.919983 -0.000027 0.233661
425.139954 -786.582642 0.000007 0.336828
421.255157 -786.951660 0.000016 0.336965
418.775177 -787.187256 0.000002 0.329549
417.051392 -787.350952 0.000011 0.343038
415.781464 -787.471619 -0.000002 0.346090
nan nan nan 0.000000
nan nan nan 0.000000
472.037811 -782.579651 13.727597 1.000000
472.037811 -782.579651 11.560681 1.000000
467.558044 -782.973633 8.897364 0.407660
467.720978 -782.959351 6.929507 0.413748
467.801636 -782.952209 4.957451 0.412222
468.620117 -782.880249 2.998559 0.410071
472.037811 -782.579651 0.945298 1.000000
448.387421 -784.659790 -0.000013 0.230992
432.130951 -786.089600 -0.000027 0.226899
425.151031 -786.703491 0.000006 0.337255
421.263733 -787.045410 0.000016 0.339773
418.782166 -787.263672 0.000002 0.340551
417.057281 -787.415344 0.000010 0.337743
415.786560 -787.527100 -0.000002 0.337224
nan nan nan 0.000000
nan nan nan 0.000000
471.846069 -783.046570 13.685684 1.000000
471.846069 -783.046570 11.526513 1.000000
467.884552 -783.367188 8.930981 0.399985
464.605194 -783.632568 6.670285 0.396201
466.135071 -783.508728 4.873569 0.414801
471.846100 -783.046570 3.050931 1.000000
471.846100 -783.046570 0.949067 1.000000
448.411346 -784.942993 -0.000013 0.229915
432.145264 -786.259277 -0.000026 0.224338
425.161255 -786.824402 0.000005 0.338811
421.271667 -787.139160 0.000017 0.332921
418.788635 -787.340088 0.000002 0.338598
417.062744 -787.479797 0.000009 0.331151
415.791229 -787.582642 -0.000003 0.333944
nan nan nan 0.000000
nan nan nan 0.000000
471.655701 -783.510254 13.644638 1.000000
471.655701 -783.510254 11.493049 1.000000
471.655701 -783.510254 9.362256 1.000000
465.745209 -783.947021 6.761495 0.416693
466.355560 -783.901917 4.882878 0.402594
471.655701 -783.510254 3.047242 1.000000
471.655701 -783.510254 0.952760 1.000000
448.433289 -785.226379 -0.000013 0.227545
432.158417 -786.429077 -0.000026 0.234893
425.170624 -786.945435 0.000004 0.339178
421.278931 -787.233032 0.000017 0.336919
418.794556 -787.416626 0.000002 0.341573
417.067719 -787.544250 0.000008 0.337881
415.795532 -787.638245 -0.000003 0.325917
nan nan nan 0.000000
nan nan nan 0.000000
471.466675 -783.970642 13.604443 1.000000
471.466644 -783.970642 11.460279 1.000000
471.466675 -783.970642 9.336841 1.000000
471.466644 -783.970642 7.229335 1.000000
466.434998 -784.307190 4.885374 0.408469
471.466644 -783.970642 3.043626 1.000000
471.466644 -783.970642 0.956374 1.000000
448.453247 -785.509888 -0.000012 0.226240
432.170349 -786.598938 -0.000026 0.232428
425.179138 -787.066528 0.000004 0.335851
421.285522 -787.326904 0.000018 0.337530
418.799927 -787.493164 0.000002 0.324147
417.072266 -787.608704 0.000007 0.334813
415.799469 -787.693848 -0.000003 0.331579
nan nan nan 0.000000
nan nan nan 0.000000
471.278900 -784.427917 13.565084 1.000000
471.278900 -784.427917 11.428195 1.000000
471.278931 -784.427917 9.311960 1.000000
466.723663 -784.700684 6.837422 0.420035
471.278900 -784.427917 5.122490 1.000000
471.278900 -784.427917 3.040086 1.000000
471.278900 -784.427917 0.959914 1.000000
448.471252 -785.793518 -0.000014 0.228754
432.181122 -786.768860 -0.000026 0.230501
425.186829 -787.187622 0.000003 0.336416
421.291473 -787.420837 0.000018 0.337224
418.804779 -787.569763 0.000002 0.335882
417.076355 -787.673218 0.000007 0.334600
415.802979 -787.749451 -0.000004 0.339620
nan nan nan 0.000000
nan nan nan 0.000000
471.092407 -784.882141 13.526551 1.000000
471.092407 -784.882141 11.396780 1.000000
471.092407 -784.882141 9.287596 1.000000
471.092407 -784.882141 7.194237 1.000000
471.092407 -784.882141 5.112084 1.000000
471.092407 -784.882141 3.036620 1.000000
471.092407 -784.882141 0.963380 1.000000
448.487213 -786.077271 -0.000013 0.229077
432.190704 -786.938904 -0.000025 0.242529
425.193665 -787.308838 0.000002 0.332723
421.296783 -787.514832 0.000018 0.339254
418.809113 -787.646362 0.000002 0.339437
417.079987 -787.737793 0.000006 0.333364
415.806122 -787.805115 -0.000003 0.339849
nan nan nan 0.000000
nan nan nan 0.000000
470.907135 -785.333374 13.488832 1.000000
470.907135 -785.333374 11.366032 1.000000
470.907135 -785.333374 9.263748 1.000000
470.907166 -785.333374 7.177239 1.000000
470.907135 -785.333374 5.101901 1.000000
470.907135 -785.333374 3.033228 1.000000
470.907135 -785.333374 0.966771 1.000000
448.501251 -786.361145 -0.000014 0.232200
432.199097 -787.108948 -0.000025 0.233852
425.199646 -787.430054 0.000003 0.338506
421.301422 -787.608826 0.000018 0.337362
418.812897 -787.723022 0.000003 0.336126
417.083191 -787.802368 0.000005 0.337194
415.808868 -787.860779 -0.000003 0.338155
nan nan nan 0.000000
nan nan nan 0.000000
470.723053 -785.781677 13.451915 1.000000
470.723053 -785.781677 11.335938 1.000000
470.723083 -785.781677 9.240408 1.000000
470.723083 -785.781677 7.160603 1.000000
470.723083 -785.781677 5.091933 1.000000
470.723083 -785.781677 3.029907 1.000000
470.723083 -785.781677 0.970091 1.000000
448.513275 -786.645142 -0.000014 0.231901
432.206299 -787.279114 -0.000024 0.222243
425.204803 -787.551270 0.000002 0.337209
421.305420 -787.702881 0.000017 0.343343
418.816132 -787.799683 0.000003 0.336965
417.085938 -787.866943 0.000003 0.335592
415.811218 -787.916504 -0.000002 0.341207
nan nan nan 0.000000
nan nan nan 0.000000
470.540161 -786.227112 13.415792 1.000000
470.540161 -786.227112 11.306487 1.000000
470.540161 -786.227112 9.217569 1.000000
470.540161 -786.227112 7.144325 1.000000
470.540192 -786.227112 5.082181 1.000000
470.540192 -786.227112 3.026660 1.000000
470.540192 -786.227112 0.973340 1.000000
448.523315 -786.929138 -0.000014 0.230585
432.212311 -787.449280 -0.000024 0.225259
425.209106 -787.672607 0.000001 0.338781
421.308746 -787.796997 0.000016 0.338674
418.818848 -787.876343 0.000003 0.336156
417.088226 -787.931580 0.000002 0.341604
415.813202 -787.972229 -0.000002 0.327932
nan nan nan 0.000000
nan nan nan 0.000000
470.358398 -786.669739 13.380449 1.000000
470.358398 -786.669739 11.277675 1.000000
470.358429 -786.669739 9.195223 1.000000
470.358398 -786.669739 7.128397 1.000000
470.358429 -786.669739 5.072638 1.000000
470.358429 -786.669739 3.023480 1.000000
470.358429 -786.669739 0.976518 1.000000
448.531403 -787.213257 -0.000014 0.228191
432.217163 -787.619507 -0.000023 0.240542
425.212555 -787.793884 0.000001 0.336477
421.311401 -787.891052 0.000016 0.334203
418.821045 -787.953064 0.000003 0.340887
417.090057 -787.996155 0.000000 0.342351
415.814758 -788.027954 -0.000001 0.329778
nan nan nan 0.000000
nan nan nan 0.000000
470.177734 -787.109680 13.345868 1.000000
470.177765 -787.109680 11.249483 1.000000
470.177765 -787.109680 9.173359 1.000000
470.177765 -787.109680 7.112815 1.000000
