# This PCD file was generated using the MATLABÂ® pcwrite function
# from Computer Vision ToolboxÂ®.
# .PCD v.7 - Point Cloud Data file format
VERSION .7
FIELDS x y z intensity
SIZE 4 4 4 4
TYPE F F F F
COUNT 1 1 1 1
WIDTH 1157
HEIGHT 1
VIEWPOINT 0 0 0 1 0 0 0
POINTS 1157
DATA ascii
390.868958 -273.533813 0.230139 0.607858
391.504272 -271.741272 0.000008 0.242960
392.336456 -269.393158 0.000005 0.215015
392.914856 -267.761139 0.000003 0.254209
393.341003 -266.558716 0.000002 0.204387
390.833466 -273.316528 5.805411 1.000000
390.847076 -273.278900 5.272524 1.000000
390.749725 -273.547638 4.809014 0.553170
390.846436 -273.280701 4.247879 1.000000
390.832123 -273.320221 3.748159 1.000000
390.831787 -273.321136 3.246080 1.000000
390.748383 -273.551331 2.758607 0.677195
390.748047 -273.552246 2.252704 0.619440
390.747711 -273.553162 1.747280 0.566430
390.747375 -273.554077 1.241249 0.670497
390.747070 -273.554993 0.733524 0.604822
390.746735 -273.555908 0.223002 0.525612
391.415649 -271.709534 0.000008 0.200462
392.264221 -269.367279 0.000004 0.215362
392.854004 -267.739319 0.000002 0.230166
393.288544 -266.539917 0.000001 0.204878
390.712250 -273.338379 5.820996 1.000000
390.726227 -273.300720 5.285929 1.000000
390.626556 -273.569855 4.820519 0.626551
390.725525 -273.302521 4.257086 1.000000
390.710876 -273.342133 3.755319 1.000000
390.710541 -273.343048 3.251184 1.000000
390.625183 -273.573578 2.761715 0.605661
390.624847 -273.574493 2.253739 0.574212
390.624512 -273.575439 1.746244 0.645823
390.624176 -273.576355 1.238140 0.622995
390.623840 -273.577271 0.728335 0.555200
390.623474 -273.578217 0.215720 0.525383
391.327271 -271.677155 0.000007 0.272448
392.192169 -269.340912 0.000004 0.206170
392.793304 -267.717102 0.000002 0.210455
393.236206 -266.520752 0.000001 0.218126
390.590057 -273.360443 5.836896 1.000000
390.589691 -273.361420 5.308539 1.000000
390.502380 -273.592285 4.832258 0.661357
390.603638 -273.324554 4.266480 1.000000
390.588654 -273.364197 3.762626 1.000000
390.588287 -273.365112 3.256393 1.000000
390.500977 -273.596039 2.764885 0.756588
390.500641 -273.596954 2.254796 0.528969
390.500275 -273.597870 1.745188 0.647196
390.499939 -273.598816 1.234968 0.758511
390.499573 -273.599731 0.723040 0.509438
390.499237 -273.600677 0.208290 0.577996
391.239105 -271.644165 0.000007 0.225403
392.120300 -269.313995 0.000004 0.235791
392.732758 -267.694458 0.000002 0.202388
393.183990 -266.501221 0.000001 0.248058
390.466858 -273.382690 5.853119 1.000000
390.466461 -273.383636 5.322527 1.000000
390.377167 -273.614868 4.844233 0.608881
390.480743 -273.346741 4.276064 1.000000
390.465393 -273.386475 3.770081 1.000000
390.465027 -273.387390 3.261707 1.000000
390.375732 -273.618652 2.768121 0.610697
390.375366 -273.619598 2.255874 0.665980
390.375000 -273.620514 1.744110 0.594629
390.374634 -273.621460 1.231732 0.612650
390.374298 -273.622375 0.717637 0.660853
390.373932 -273.623322 0.200709 0.562264
391.151184 -271.610565 0.000007 0.243175
392.048615 -269.286621 0.000004 0.221812
392.672363 -267.671356 0.000002 0.258805
393.131927 -266.481323 -0.000000 0.229041
390.342560 -273.405121 5.869669 1.000000
390.342194 -273.406097 5.336800 1.000000
390.250885 -273.637695 4.856451 0.535927
390.250519 -273.638641 4.328815 0.681544
390.341064 -273.408905 3.777686 1.000000
390.340698 -273.409851 3.267128 1.000000
390.249390 -273.641479 2.771421 0.609567
390.249023 -273.642426 2.256973 0.606744
390.248657 -273.643341 1.743010 0.652094
390.248291 -273.644287 1.228430 0.610132
390.247925 -273.645233 0.712126 0.613291
390.247528 -273.646179 0.192975 0.580209
391.063477 -271.576355 0.000006 0.216558
391.977112 -269.258728 0.000003 0.248549
392.612152 -267.647888 0.000001 0.272987
393.079987 -266.461060 0.000000 0.257369
390.217224 -273.427734 5.886551 1.000000
390.216827 -273.428711 5.351357 1.000000
392.043884 -268.887146 3.932689 0.403555
390.123108 -273.661652 4.338976 0.651987
390.215668 -273.431549 3.785443 1.000000
390.215302 -273.432495 3.272658 1.000000
390.121979 -273.664490 2.774788 0.619058
390.121582 -273.665436 2.258095 0.672465
390.121216 -273.666382 1.741889 0.647196
390.120850 -273.667328 1.225062 0.616983
390.120453 -273.668274 0.706504 0.682902
390.120056 -273.669220 0.185087 0.582712
390.976044 -271.541534 0.000006 0.246239
391.905823 -269.230347 0.000003 0.198726
392.552094 -267.623962 0.000001 0.251481
393.028198 -266.440460 -0.000001 0.236138
390.090759 -273.450562 5.903771 1.000000
390.090363 -273.451538 5.366208 1.000000
391.966125 -268.881348 3.937039 0.396124
389.994598 -273.684845 4.349342 0.674159
390.089172 -273.454407 3.793357 1.000000
390.088806 -273.455353 3.278298 1.000000
389.993439 -273.687714 2.778222 0.689433
389.993042 -273.688660 2.259239 0.697078
389.992645 -273.689606 1.740744 0.647959
389.992249 -273.690552 1.221627 0.679789
389.991882 -273.691498 0.700769 0.678737
389.991486 -273.692474 0.177040 0.633219
390.888824 -271.506104 0.000005 0.198930
391.834747 -269.201447 0.000003 0.230836
392.492188 -267.599609 0.000000 0.206529
392.976563 -266.419464 -0.000001 0.201144
389.963165 -273.473572 5.921337 1.000000
389.962769 -273.474579 5.381357 1.000000
389.865356 -273.707275 4.894595 0.689021
389.864929 -273.708252 4.359915 0.600687
389.961548 -273.477448 3.801428 1.000000
389.961151 -273.478394 3.284053 1.000000
389.863739 -273.711151 2.781726 0.697627
389.863342 -273.712097 2.260406 0.599252
389.862946 -273.713043 1.739577 0.667582
389.862518 -273.713989 1.218122 0.676051
389.862122 -273.714966 0.694919 0.712871
389.861725 -273.715912 0.168832 0.609400
390.801880 -271.470062 0.000005 0.253575
391.763855 -269.172058 0.000002 0.220735
392.432465 -267.574860 0.000000 0.221788
392.925079 -266.398132 -0.000001 0.249494
389.834412 -273.496826 5.939255 1.000000
392.209167 -267.933319 4.090086 0.399725
389.734497 -273.730896 4.907822 0.566705
389.734100 -273.731873 4.370700 0.614054
389.832764 -273.500702 3.809662 1.000000
389.832367 -273.501648 3.289922 1.000000
389.732849 -273.734772 2.785299 0.642786
389.732452 -273.735748 2.261596 0.617853
389.732025 -273.736694 1.738387 0.642954
389.731628 -273.737671 1.214547 0.621012
389.731201 -273.738617 0.688952 0.655848
389.730804 -273.739594 0.160458 0.577371
390.715179 -271.433411 0.000005 0.247280
391.693176 -269.142181 0.000002 0.239202
392.372925 -267.549683 -0.000000 0.217935
392.873718 -266.376404 -0.000002 0.264011
389.704498 -273.520264 5.957532 1.000000
389.704071 -273.521271 5.412568 1.000000
389.602478 -273.754730 4.921314 0.575601
389.602051 -273.755737 4.381701 0.611688
389.702789 -273.524170 3.818060 1.000000
389.702362 -273.525146 3.295908 1.000000
389.600769 -273.758636 2.788943 0.775753
389.600342 -273.759613 2.262810 0.655100
389.599915 -273.760590 1.737172 0.635172
389.599518 -273.761536 1.210901 0.678508
389.599091 -273.762512 0.682866 0.635569
389.598663 -273.763489 0.151918 0.648264
390.628723 -271.396179 0.000004 0.221070
391.622711 -269.111816 0.000001 0.249662
392.313538 -267.524109 -0.000001 0.243869
392.822540 -266.354370 -0.000002 0.234187
389.573334 -273.543945 5.976172 1.000000
389.572876 -273.544952 5.428643 1.000000
389.469177 -273.778778 4.935077 0.547417
389.468750 -273.779785 4.392921 0.644068
389.571594 -273.547882 3.826626 1.000000
389.571167 -273.548828 3.302014 1.000000
389.467438 -273.782715 2.792660 0.702205
389.467010 -273.783691 2.264049 0.529671
389.466583 -273.784668 1.735934 0.659678
389.466156 -273.785645 1.207182 0.662364
389.465729 -273.786621 0.676657 0.671839
389.465271 -273.787598 0.143206 0.691859
390.542542 -271.358307 0.000004 0.246574
391.552460 -269.080963 0.000001 0.262850
392.254364 -267.498108 -0.000001 0.215194
392.771515 -266.331940 -0.000003 0.230166
391.853607 -268.228027 4.527442 0.396109
392.037262 -267.821594 4.082927 0.396246
391.666748 -268.641602 3.918534 0.430121
391.709015 -268.548065 3.548817 0.395193
389.439148 -273.571808 3.835362 1.000000
389.438690 -273.572754 3.308242 1.000000
389.332855 -273.807037 2.796453 0.661860
389.332397 -273.808014 2.265312 0.660212
389.331970 -273.808990 1.734670 0.553658
389.331512 -273.809967 1.203389 0.619913
389.331085 -273.810944 0.670326 0.641093
389.330627 -273.811951 0.134322 0.704768
390.456635 -271.319855 0.000003 0.208097
391.482391 -269.049622 0.000001 0.192886
392.195343 -267.471710 -0.000001 0.259607
392.720612 -266.309174 -0.000003 0.245389
389.307251 -273.591949 6.014576 1.000000
391.493042 -268.842957 4.332407 0.398657
391.594482 -268.622559 3.920835 0.389776
389.198334 -273.828613 4.416038 0.498833
389.305420 -273.595947 3.844274 1.000000
389.304962 -273.596924 3.314595 1.000000
389.196960 -273.831604 2.800320 0.589960
389.196503 -273.832581 2.266601 0.674983
389.196045 -273.833557 1.733382 0.615885
389.195587 -273.834534 1.199520 0.634668
389.195129 -273.835541 0.663868 0.646708
389.194672 -273.836517 0.125259 0.559335
390.371002 -271.280792 0.000003 0.267242
391.412598 -269.017761 0.000000 0.201563
392.136536 -267.444885 -0.000002 0.259655
392.669891 -266.286041 -0.000003 0.253228
391.808502 -267.992371 4.478539 0.402014
391.919891 -267.754730 4.080406 0.397192
391.476288 -268.701080 3.942856 0.405936
391.436218 -268.786591 3.597879 0.399466
389.170380 -273.620331 3.853362 1.000000
389.169922 -273.621307 3.321073 1.000000
389.059723 -273.856384 2.804265 0.644511
389.059265 -273.857361 2.267915 0.515785
389.058807 -273.858368 1.732068 0.614343
389.058350 -273.859344 1.195574 0.637919
389.057861 -273.860352 0.657281 0.635019
389.057404 -273.861359 0.116016 0.607660
390.285614 -271.241150 0.000003 0.233936
391.342987 -268.985443 0.000000 0.232452
392.077911 -267.417633 -0.000002 0.200940
392.619354 -266.262543 -0.000004 0.201228
389.035919 -273.640930 6.054527 1.000000
389.035431 -273.641968 5.496216 1.000000
391.478455 -268.523468 3.913470 0.417060
391.824829 -267.797760 3.440636 0.403326
389.033997 -273.644958 3.862632 1.000000
389.033539 -273.645935 3.327682 1.000000
388.921143 -273.881409 2.808288 0.591882
388.920654 -273.882416 2.269255 0.616907
388.920197 -273.883423 1.730727 0.589303
388.919708 -273.884399 1.191550 0.661418
388.919250 -273.885406 0.650562 0.670039
388.918762 -273.886414 0.106589 0.639292
390.200531 -271.200897 0.000002 0.216463
391.273621 -268.952637 -0.000000 0.279737
392.019470 -267.390015 -0.000003 0.276565
392.568970 -266.238708 -0.000004 0.201862
388.898224 -273.665771 6.075104 1.000000
388.897705 -273.666809 5.513958 1.000000
391.733124 -267.831390 3.779910 0.406561
391.701202 -267.897034 3.461862 0.381903
388.896240 -273.669830 3.872087 1.000000
388.895752 -273.670837 3.334421 1.000000
388.781158 -273.906708 2.812391 0.635416
388.780670 -273.907715 2.270622 0.628473
388.780182 -273.908722 1.729360 0.606729
388.779694 -273.909729 1.187445 0.645609
388.779205 -273.910736 0.643709 0.651453
388.778717 -273.911743 0.096974 0.658869
390.115723 -271.160065 0.000002 0.245437
391.204498 -268.919342 -0.000001 0.221729
391.961212 -267.361938 -0.000003 0.212358
392.518738 -266.214539 -0.000004 0.232679
391.210968 -268.733124 4.710671 0.396048
388.778168 -273.652283 5.522509 1.000000
391.674408 -267.796082 3.778841 0.394980
391.652008 -267.841339 3.457657 0.396384
388.640717 -273.930206 3.911922 0.661082
388.640228 -273.931244 3.362816 0.606531
388.639709 -273.932251 2.816576 0.574884
388.639221 -273.933258 2.272016 0.659556
388.638733 -273.934265 1.727966 0.597589
388.638214 -273.935272 1.183258 0.677104
388.637726 -273.936310 0.636721 0.692500
388.637207 -273.937317 0.087167 0.745022
390.031219 -271.118622 0.000002 0.248106
391.135590 -268.885559 -0.000001 0.237634
391.903168 -267.333496 -0.000003 0.205668
392.468689 -266.190002 -0.000005 0.262479
392.506531 -265.990814 3.951127 0.388998
392.410767 -266.181091 3.728345 0.402106
391.341125 -268.306458 3.889018 0.402106
391.594574 -267.802887 3.456357 0.400259
388.497864 -273.956024 3.921916 0.648814
388.497345 -273.957031 3.369940 0.701045
388.496826 -273.958069 2.820845 0.664057
388.496307 -273.959076 2.273438 0.658213
388.495789 -273.960083 1.726543 0.584878
388.495300 -273.961121 1.178987 0.703288
388.494781 -273.962128 0.629591 0.706218
388.494263 -273.963165 0.077163 0.647608
389.946991 -271.076599 0.000001 0.237909
391.066925 -268.851318 -0.000001 0.255155
391.845306 -267.304626 -0.000003 0.236341
392.418823 -266.165131 -0.000005 0.189164
391.240173 -268.344574 4.620439 0.396078
388.355072 -273.978912 5.626605 0.652079
388.354553 -273.979980 5.055525 0.670161
391.894287 -267.067169 3.338920 0.398581
391.511017 -267.815674 3.135126 0.404166
388.352936 -273.983124 3.377206 0.620417
388.352417 -273.984161 2.825199 0.587976
388.351898 -273.985168 2.274889 0.615198
388.351379 -273.986206 1.725092 0.597009
388.350830 -273.987213 1.174631 0.658122
388.350311 -273.988251 0.622320 0.614588
388.349792 -273.989288 0.066961 0.620691
389.863037 -271.033997 0.000001 0.205680
390.998505 -268.816589 -0.000002 0.221752
391.787659 -267.275391 -0.000004 0.246430
392.369110 -266.139893 -0.000005 0.193377
392.365570 -266.026001 3.975067 0.404166
388.209198 -274.005249 5.646117 0.635660
391.519226 -267.650787 3.768052 0.404028
391.041687 -268.567566 3.594702 0.389044
388.207550 -274.008423 3.942506 0.680217
388.207001 -274.009491 3.384618 0.603006
388.206451 -274.010529 2.829640 0.614008
388.205933 -274.011536 2.276368 0.642618
388.205383 -274.012573 1.723613 0.581567
388.204834 -274.013611 1.170188 0.610025
388.204315 -274.014648 0.614904 0.664546
388.203766 -274.015686 0.056554 0.642939
389.779419 -270.990814 0.000001 0.258470
390.930298 -268.781372 -0.000002 0.223093
391.730225 -267.245697 -0.000004 0.200306
392.319580 -266.114319 -0.000005 0.249877
390.877106 -268.717896 4.745396 0.391608
392.232452 -266.159698 3.741908 0.395712
392.305298 -266.022217 3.439196 0.400656
391.430298 -267.673767 3.450519 0.398932
391.396240 -267.738007 3.133302 0.407675
388.059479 -274.036133 3.392178 0.612848
388.058929 -274.037170 2.834170 0.677546
388.058380 -274.038208 2.277878 0.601038
388.057800 -274.039246 1.722103 0.684535
388.057251 -274.040283 1.165656 0.653941
388.056702 -274.041321 0.607338 0.596399
388.056152 -274.042389 0.045938 0.662257
389.696075 -270.947052 0.000000 0.222399
390.862366 -268.745667 -0.000002 0.254784
391.673004 -267.215637 -0.000005 0.296611
392.270233 -266.088379 -0.000006 0.249075
392.219910 -266.064301 4.000623 0.392737
392.424927 -265.683746 3.631657 0.399237
392.222198 -266.060028 3.452390 0.395758
391.404083 -267.578491 3.439886 0.395636
391.348267 -267.682037 3.130225 0.396078
387.910309 -274.063049 3.399889 0.528603
387.909760 -274.064117 2.838791 0.635538
387.909180 -274.065155 2.279417 0.681926
387.908630 -274.066223 1.720564 0.573281
387.908051 -274.067261 1.161033 0.609018
387.907501 -274.068298 0.599622 0.719081
387.906921 -274.069366 0.035110 0.645304
389.613068 -270.902679 0.000000 0.242600
390.794708 -268.709534 -0.000003 0.226851
391.615967 -267.185181 -0.000005 0.225451
392.221069 -266.062103 -0.000006 0.207116
392.151428 -266.073181 4.010768 0.396078
392.186737 -266.008789 3.717898 0.397894
392.137390 -266.098846 3.465966 0.391409
391.903503 -266.525787 3.267310 0.404669
391.292023 -267.641968 3.129262 0.396979
387.759491 -274.090302 3.407755 0.589471
387.758911 -274.091370 2.843505 0.565606
387.758331 -274.092407 2.280988 0.622293
387.757751 -274.093475 1.718993 0.529656
387.757172 -274.094513 1.156318 0.665766
387.756592 -274.095581 0.591750 0.659083
387.756012 -274.096649 0.024064 0.537255
389.530365 -270.857758 -0.000000 0.239441
390.727264 -268.672882 -0.000003 0.206338
391.559174 -267.154327 -0.000005 0.204196
392.172089 -266.035522 -0.000006 0.202077
387.609985 -274.112396 6.323491 0.608560
392.055847 -266.129669 3.754419 0.396078
391.862732 -266.476410 3.550263 0.405341
391.266846 -267.546326 3.445482 0.396674
391.234222 -267.604950 3.128750 0.398611
387.606964 -274.117859 3.415780 0.650446
387.606354 -274.118927 2.848314 0.612467
387.605774 -274.119965 2.282589 0.618814
387.605164 -274.121033 1.717391 0.587747
387.604584 -274.122101 1.151507 0.638666
387.603973 -274.123169 0.583719 0.588022
387.603394 -274.124237 0.012795 0.663493
389.447968 -270.812256 -0.000001 0.227030
390.660095 -268.635773 -0.000003 0.243594
391.502594 -267.123077 -0.000005 0.238424
392.123291 -266.008545 -0.000007 0.222231
392.047211 -266.029816 4.013982 0.395346
391.382416 -267.204102 4.027974 0.399451
391.246521 -267.444153 3.758697 0.401404
391.208374 -267.511566 3.445234 0.412009
391.054047 -267.784149 3.156872 0.398001
387.452667 -274.145721 3.423967 0.545235
387.452057 -274.146790 2.853219 0.683024
387.451447 -274.147858 2.284224 0.653834
387.450836 -274.148926 1.715757 0.549569
387.450226 -274.149994 1.146599 0.608713
387.449615 -274.151062 0.575527 0.719692
387.449005 -274.152161 0.001300 0.601602
389.365875 -270.766144 -0.000001 0.252294
390.593201 -268.598206 -0.000004 0.199241
391.446228 -267.091400 -0.000005 0.233242
392.074677 -265.981262 -0.000007 0.247447
390.973999 -267.782501 4.528530 0.406058
391.322998 -267.175934 4.029054 0.398611
391.705627 -266.510925 3.569811 0.405066
391.160309 -267.458679 3.441955 0.400900
390.997223 -267.742126 3.155916 0.404715
387.368683 -274.048553 3.420462 1.000000
387.295929 -274.174988 2.858224 0.639979
387.295319 -274.176056 2.285890 0.698848
387.294708 -274.177155 1.714089 0.553231
387.294067 -274.178223 1.141592 0.633921
387.293457 -274.179321 0.567169 0.649622
387.338104 -274.101685 0.000020 0.213231
389.284119 -270.719513 -0.000001 0.239082
390.526550 -268.560181 -0.000004 0.251241
391.390076 -267.059357 -0.000005 0.249901
392.026276 -265.953644 -0.000008 0.210156
387.212555 -274.075989 6.364925 1.000000
391.887665 -266.080261 3.763161 0.407843
391.635681 -266.511200 3.576243 0.396078
391.588867 -266.591309 3.298763 0.410285
387.209991 -274.080353 4.005253 1.000000
387.209351 -274.081451 3.429348 1.000000
387.194489 -274.106873 2.857831 1.000000
387.137329 -274.204620 2.287592 0.700954
387.136719 -274.205688 1.712388 0.591043
387.136078 -274.206787 1.136484 0.682200
387.135437 -274.207886 0.558642 0.625116
387.233124 -274.040771 0.000020 0.218066
389.202698 -270.672272 -0.000001 0.262695
390.460175 -268.521667 -0.000004 0.212358
391.334137 -267.026947 -0.000007 0.256986
391.978058 -265.925659 -0.000008 0.205153
387.054047 -274.104584 6.391252 1.000000
391.606903 -266.441254 3.861120 0.395544
391.547119 -266.541901 3.589236 0.397528
390.977631 -267.500458 3.460982 0.415518
390.883789 -267.658386 3.154188 0.396078
387.050781 -274.110077 3.437973 1.000000
387.074158 -274.070740 2.859303 1.000000
386.977478 -274.233490 2.289328 0.669581
386.976807 -274.234589 1.710652 0.585397
386.976166 -274.235687 1.131272 0.574762
386.975494 -274.236786 0.549941 0.621469
387.128571 -273.979156 0.000020 0.216487
389.121613 -270.624481 -0.000002 0.254700
390.394043 -268.482727 -0.000005 0.182438
391.278442 -266.994110 -0.000007 0.254915
391.930023 -265.897369 -0.000008 0.254221
386.893646 -274.133514 6.418115 1.000000
391.436340 -266.607452 3.910839 0.402792
391.757477 -266.075378 3.496746 0.396078
390.938477 -267.432251 3.455284 0.406836
390.827362 -267.616333 3.153371 0.398901
386.890289 -274.139069 3.446774 1.000000
386.914063 -274.099670 2.864562 1.000000
386.815643 -274.262726 2.291099 0.675578
386.814972 -274.263824 1.708881 0.649607
386.814301 -274.264954 1.125954 0.571908
386.813629 -274.266052 0.541064 0.678843
387.024445 -273.916809 0.000020 0.248704
389.040863 -270.576111 -0.000002 0.228730
390.328217 -268.443298 -0.000005 0.202951
391.222992 -266.960907 -0.000007 0.218653
391.882202 -265.868744 -0.000009 0.269744
391.747559 -265.981689 4.041706 0.369970
391.404877 -266.540588 3.902036 0.395422
391.723663 -266.020660 3.491437 0.405219
386.654572 -274.287842 4.654355 0.677806
386.728485 -274.167297 4.042297 1.000000
386.727783 -274.168427 3.455755 1.000000
386.752014 -274.128937 2.869929 1.000000
386.651825 -274.292328 2.292906 0.665736
386.651123 -274.293457 1.707073 0.610834
386.650452 -274.294556 1.120527 0.607843
386.649750 -274.295685 0.532004 0.608743
386.920746 -273.853729 0.000020 0.219610
388.960449 -270.527191 -0.000003 0.237670
390.262665 -268.403412 -0.000005 0.235180
391.167755 -266.927307 -0.000007 0.208025
391.834595 -265.839752 -0.000009 0.274459
386.566803 -274.192474 6.473499 1.000000
390.973694 -267.116608 4.056824 0.401068
390.840607 -267.330261 3.778613 0.398566
386.488739 -274.317780 4.671062 0.647898
386.563965 -274.197021 4.055153 1.000000
386.563263 -274.198151 3.464920 1.000000
386.587891 -274.158569 2.875405 1.000000
386.485931 -274.322296 2.294750 0.610040
386.485229 -274.323425 1.705229 0.619471
386.484528 -274.324554 1.114989 0.550164
386.483826 -274.325684 0.522760 0.592081
386.817505 -273.789917 0.000021 0.224888
388.880371 -270.477722 -0.000003 0.233601
390.197388 -268.363068 -0.000005 0.280227
391.112762 -266.893311 -0.000008 0.248321
391.787170 -265.810455 -0.000009 0.224505
386.400269 -274.222504 6.502046 1.000000
391.546234 -266.087067 3.802748 0.400122
391.648773 -265.924988 3.483862 0.391730
391.443146 -266.250061 3.266746 0.404486
386.397369 -274.227081 4.068274 1.000000
386.396637 -274.228241 3.474273 1.000000
386.421722 -274.188599 2.880994 1.000000
386.317932 -274.352661 2.296632 0.620569
386.317230 -274.353790 1.703346 0.555474
386.316528 -274.354919 1.109337 0.575372
386.315796 -274.356049 0.513325 0.544717
386.714722 -273.725403 0.000020 0.203765
388.800629 -270.427673 -0.000003 0.260899
390.132385 -268.322296 -0.000006 0.204842
391.058014 -266.858948 -0.000008 0.240351
391.739960 -265.780823 -0.000009 0.211723
389.942810 -268.475403 4.811140 0.378058
391.451538 -266.126678 3.820952 0.410025
391.595123 -265.903137 3.485760 0.393515
386.150757 -274.378784 4.705514 0.594385
386.228607 -274.257568 4.081664 1.000000
386.227875 -274.258698 3.483818 1.000000
386.253387 -274.218994 2.886699 1.000000
386.147797 -274.383392 2.298553 0.602380
386.147064 -274.384521 1.701425 0.616831
386.146332 -274.385681 1.103568 0.654841
386.145569 -274.386810 0.503696 0.642725
386.612366 -273.660156 0.000020 0.249039
388.721252 -270.377075 -0.000003 0.249171
390.067688 -268.281036 -0.000006 0.220915
391.003479 -266.824188 -0.000008 0.225379
391.692963 -265.750854 -0.000009 0.224541
389.443665 -269.097290 5.009851 0.402533
391.746796 -265.566284 3.684696 0.398566
391.112061 -266.539429 3.630714 0.400198
385.978424 -274.409882 4.723277 0.595773
386.057648 -274.288452 4.095333 1.000000
386.056915 -274.289581 3.493562 1.000000
386.082855 -274.249786 2.892521 1.000000
385.975403 -274.414520 2.300513 0.625834
385.974640 -274.415680 1.699464 0.589609
385.973907 -274.416840 1.097680 0.585748
385.973145 -274.417999 0.493867 0.644236
386.510468 -273.594208 0.000020 0.238101
388.642242 -270.325928 -0.000003 0.199923
390.003265 -268.239349 -0.000006 0.243642
390.949219 -266.789063 -0.000009 0.191605
391.646149 -265.720581 -0.000009 0.206362
390.118286 -267.926697 4.672004 0.371649
391.401306 -265.989319 3.802032 0.357946
391.533081 -265.790375 3.474742 0.394644
385.803833 -274.441406 4.741409 0.589014
385.884430 -274.319733 4.109285 1.000000
385.883667 -274.320862 3.503508 1.000000
385.910034 -274.281067 2.898468 1.000000
385.800720 -274.446106 2.302515 0.671351
385.799957 -274.447266 1.697462 0.587549
385.799194 -274.448425 1.091669 0.648341
385.798401 -274.449585 0.483833 0.687892
386.408966 -273.527679 0.000001 0.217755
388.563568 -270.274231 -0.000004 0.227330
389.939117 -268.197205 -0.000007 0.226743
390.895203 -266.753571 -0.000009 0.202245
391.599579 -265.689972 -0.000010 0.215948
391.142151 -266.270386 4.184544 0.396735
389.564911 -268.616241 4.494125 0.406043
391.433350 -265.837280 3.491909 0.405051
385.626892 -274.473358 4.759919 0.606485
385.708862 -274.351410 4.123529 1.000000
385.708099 -274.352570 3.513661 1.000000
385.734894 -274.312714 2.904537 1.000000
385.623718 -274.478088 2.304558 0.662669
385.622925 -274.479248 1.695419 0.575677
385.622131 -274.480408 1.085534 0.627222
385.621338 -274.481598 0.473591 0.736233
386.308014 -273.460327 0.000000 0.240698
388.485291 -270.221985 -0.000004 0.223919
389.875305 -268.154602 -0.000007 0.197398
390.841400 -266.717682 -0.000009 0.221166
391.553192 -265.659027 -0.000010 0.258518
389.506134 -268.559387 4.889083 0.393866
391.199738 -266.078003 3.842218 0.394064
390.940216 -266.458252 3.635781 0.392126
385.447510 -274.505737 4.778818 0.649439
385.530914 -274.383545 4.138072 1.000000
385.530121 -274.384735 3.524027 1.000000
385.557373 -274.344788 2.910734 1.000000
385.444275 -274.510498 2.306644 0.699718
385.443451 -274.511688 1.693333 0.622309
385.442657 -274.512878 1.079269 0.633799
385.441833 -274.514038 0.463133 0.683696
386.207520 -273.392242 0.000000 0.252151
388.407349 -270.169220 -0.000005 0.204495
389.811768 -268.111572 -0.000007 0.214775
390.787903 -266.681427 -0.000010 0.283566
391.507050 -265.627747 -0.000010 0.245437
389.465363 -268.476807 4.877827 0.399527
391.546478 -265.472961 3.692112 0.394354
391.367737 -265.730957 3.482665 0.396536
385.265686 -274.538544 4.798113 0.594339
385.350494 -274.416138 4.152921 1.000000
385.349670 -274.417297 3.534612 1.000000
385.377380 -274.377319 2.917060 1.000000
385.262360 -274.543365 2.308774 0.652461
385.261536 -274.544556 1.691202 0.609003
385.260681 -274.545746 1.072873 0.595651
385.259857 -274.546967 0.452455 0.620172
386.107513 -273.323486 -0.000000 0.229532
388.329803 -270.115875 -0.000005 0.219132
389.748535 -268.068085 -0.000008 0.217109
390.734619 -266.644806 -0.000009 0.239573
391.461121 -265.596161 -0.000010 0.227437
389.410248 -268.415771 4.873195 0.401221
391.496613 -265.448792 3.693996 0.397421
385.198334 -274.405396 5.419448 1.000000
385.081268 -274.571838 4.817819 0.626535
385.080414 -274.573059 4.185508 0.582269
385.079559 -274.574280 3.557843 0.606210
385.078705 -274.575500 2.933442 0.554269
385.077881 -274.576691 2.310950 0.587549
385.077026 -274.577911 1.689027 0.631647
385.076172 -274.579102 1.066341 0.574990
385.075317 -274.580322 0.441551 0.550317
386.007965 -273.253998 -0.000001 0.252294
388.252594 -270.062012 -0.000005 0.205297
389.685608 -268.024170 -0.000008 0.218425
390.681610 -266.607788 -0.000010 0.255861
391.415405 -265.564270 -0.000011 0.222028
389.510651 -268.137207 4.801718 0.390066
389.048187 -268.785217 4.587690 0.396078
391.236023 -265.719666 3.494766 0.399390
384.894257 -274.605591 4.837942 0.602380
384.893372 -274.606842 4.201117 0.532219
384.892487 -274.608063 3.568970 0.613474
384.891632 -274.609283 2.940110 0.704479
384.890747 -274.610504 2.313170 0.676753
384.889893 -274.611725 1.686805 0.661814
384.889038 -274.612946 1.059670 0.566979
384.888153 -274.614166 0.430415 0.611582
385.908936 -273.183868 -0.000001 0.201311
388.175781 -270.007599 -0.000005 0.245904
389.622986 -267.979797 -0.000008 0.227461
390.628845 -266.570435 -0.000010 0.200653
391.369934 -265.532043 -0.000011 0.211328
389.307892 -268.284058 4.861234 0.404273
388.980835 -268.735626 4.587484 0.396078
389.013275 -268.690826 4.169816 0.389120
384.704529 -274.639832 4.858495 0.538308
384.703644 -274.641083 4.217059 0.610636
384.702728 -274.642334 3.580334 0.642252
384.701843 -274.643555 2.946920 0.619715
384.700958 -274.644806 2.315439 0.544396
384.700073 -274.646027 1.684536 0.599313
384.699188 -274.647247 1.052857 0.581353
384.698273 -274.648468 0.419042 0.643854
385.810394 -273.113007 -0.000001 0.222650
388.099365 -269.952637 -0.000005 0.240769
389.560699 -267.935028 -0.000008 0.244444
390.576355 -266.532684 -0.000010 0.202771
391.324677 -265.499512 -0.000011 0.221705
389.259460 -268.215302 4.854471 0.396078
389.388855 -268.039246 4.414037 0.396109
383.339935 -276.269348 5.892241 1.000000
390.196930 -266.939789 3.455580 0.352819
383.307617 -276.313324 4.467128 0.606790
383.351105 -276.254150 3.752421 1.000000
383.351105 -276.254150 3.049951 1.000000
383.304596 -276.317444 2.351018 0.730861
383.303589 -276.318817 1.648953 0.627894
383.302582 -276.320160 0.946025 0.683528
383.301575 -276.321533 0.240721 0.568139
385.712341 -273.041473 -0.000002 0.222112
388.023315 -269.897156 -0.000006 0.238304
389.498688 -267.889801 -0.000008 0.276529
390.524139 -266.494598 -0.000011 0.246299
391.279633 -265.466644 -0.000012 0.238759
390.129761 -266.915253 4.463029 0.387686
389.822144 -267.327728 4.234848 0.410391
388.648224 -268.901794 4.240084 0.408515
390.118561 -266.930298 3.461364 0.388312
383.091766 -276.352295 4.485505 0.582177
383.183990 -276.228668 3.758898 1.000000
383.182983 -276.230042 3.053913 1.000000
383.088684 -276.356445 2.353634 0.704585
383.087646 -276.357819 1.646338 0.688884
383.086639 -276.359192 0.938170 0.646372
383.085602 -276.360565 0.227610 0.636088
389.945862 -267.161835 0.833421 0.370855
390.032379 -267.045837 0.517256 0.339483
389.878021 -267.252808 0.134212 0.371725
390.472168 -266.456116 -0.000011 0.215948
391.234833 -265.433502 -0.000012 0.239094
388.492065 -268.965729 5.120071 0.396765
388.884125 -268.447601 4.549914 0.399847
382.969666 -276.263702 5.931696 1.000000
389.949860 -267.039215 3.489313 0.381613
389.997864 -266.975800 3.145873 0.363363
389.916748 -267.082977 2.827743 0.379889
382.965424 -276.269318 3.061875 1.000000
382.869537 -276.396057 2.356306 0.729366
382.868469 -276.397430 1.643665 0.691325
382.867432 -276.398834 0.930146 0.644541
389.991608 -266.984070 1.182428 0.353017
390.000580 -266.972229 0.854643 0.383459
389.994110 -266.980774 0.521562 0.384604
389.974304 -267.006927 0.180508 0.359014
390.420502 -266.417297 -0.000011 0.246945
391.190277 -265.400024 -0.000012 0.214895
389.878479 -267.017120 4.521361 0.369360
389.941711 -266.934723 4.151578 0.423194
389.952057 -266.921265 3.809549 0.388022
389.956390 -266.915619 3.474144 0.355978
389.958893 -266.912384 3.142789 0.374563
389.945587 -266.929688 2.816313 0.353048
389.936127 -266.942017 2.489850 0.409964
389.934662 -266.943939 2.163206 0.366171
389.950134 -266.923767 1.837209 0.377554
389.951996 -266.921356 1.511430 0.373327
389.957153 -266.914642 1.185241 0.373312
389.963013 -266.907013 0.857988 0.404990
389.957123 -266.914673 0.526035 0.377554
389.937622 -266.940094 0.186133 0.370840
390.369080 -266.378113 -0.000011 0.279210
391.145935 -265.366211 -0.000012 0.209318
389.877777 -266.903656 4.498981 0.391516
389.902924 -266.871368 4.145881 0.388418
390.476593 -266.134857 3.637973 0.400610
389.916473 -266.853943 3.470529 0.384329
389.918243 -266.851685 3.140127 0.382025
389.906464 -266.866821 2.814199 0.383459
389.897583 -266.878235 2.488531 0.394842
389.897095 -266.878845 2.162740 0.387701
389.913422 -266.857880 1.837695 0.328862
389.913849 -266.857330 1.512771 0.358831
389.918243 -266.851685 1.187374 0.388434
389.924072 -266.844208 0.860964 0.343542
389.914154 -266.856964 0.528907 0.359731
389.899323 -266.876007 0.191091 0.405402
390.317932 -266.338562 -0.000012 0.226336
391.101837 -265.332123 -0.000012 0.236174
389.832092 -266.849121 4.495298 0.378744
389.833313 -266.847595 4.151119 0.372213
389.847015 -266.830261 3.808234 0.394247
389.847931 -266.829102 3.473904 0.392157
389.835449 -266.844879 3.145387 0.368475
389.854553 -266.820709 2.813850 0.386191
389.857880 -266.816498 2.487349 0.377295
389.857788 -266.816589 2.162335 0.345541
389.873962 -266.796173 1.838091 0.351110
389.874847 -266.795013 1.513996 0.387640
389.879181 -266.789551 1.189407 0.393362
389.849274 -266.827393 0.857175 0.364614
389.822876 -266.860779 0.520103 0.412390
389.831512 -266.849884 0.187217 0.388083
390.267059 -266.298645 -0.000012 0.245233
391.057983 -265.297729 -0.000013 0.224134
389.789246 -266.791412 4.490669 0.387289
388.599182 -268.276031 4.558495 0.396887
390.468628 -265.943817 3.611596 0.399558
389.752808 -266.836853 3.483590 0.436545
389.740417 -266.852325 3.152867 0.404532
389.761719 -266.825745 2.818913 0.396078
389.771423 -266.813629 2.489883 0.381125
389.787964 -266.792969 2.162745 0.368734
389.822906 -266.749390 1.838170 0.388159
389.810944 -266.764313 1.513222 0.389441
389.788574 -266.792236 1.184608 0.376883
389.757416 -266.831085 0.850264 0.404105
389.729462 -266.865967 0.510871 0.353491
389.742096 -266.850220 0.177038 0.363134
390.216492 -266.258392 -0.000012 0.251732
391.014374 -265.263000 -0.000013 0.244432
388.985077 -267.670380 4.788515 0.398535
388.417206 -268.368744 4.598764 0.396384
390.459442 -265.857147 3.600373 0.396323
381.829376 -276.470764 5.333821 1.000000
381.725067 -276.599060 4.604539 0.677378
381.826965 -276.473724 3.843141 1.000000
389.675659 -266.821045 2.493122 0.362417
389.694672 -266.797638 2.163763 0.385473
389.731354 -266.752533 1.837188 0.363745
389.718689 -266.768127 1.510228 0.352651
389.694855 -266.797424 1.179449 0.376852
385.040314 -272.521820 -0.000004 0.215565
387.502136 -269.494141 -0.000007 0.201347
389.649719 -266.852966 0.166089 0.356435
390.166168 -266.217773 -0.000012 0.206553
390.971008 -265.227997 -0.000013 0.207642
389.100616 -267.408112 4.719350 0.397131
390.582214 -265.611755 3.841813 0.400565
388.145874 -268.565704 4.248388 0.392523
381.590424 -276.513885 5.361232 1.000000
381.484344 -276.642517 4.625954 0.692805
381.587952 -276.516876 3.858296 1.000000
381.586731 -276.518341 3.113477 1.000000
381.480652 -276.646973 2.373622 0.716503
381.479431 -276.648438 1.626346 0.720211
381.478241 -276.649902 0.878145 0.725002
381.477020 -276.651367 0.127407 0.684993
384.946411 -272.444916 -0.000004 0.222243
387.429321 -269.434509 -0.000008 0.189583
389.014435 -267.512604 -0.000010 0.202879
390.116150 -266.176819 -0.000012 0.222183
390.927856 -265.192688 -0.000014 0.203837
389.058563 -267.340302 4.713018 0.405158
390.783051 -265.278900 3.758801 0.398550
389.423676 -266.903839 3.867224 0.383352
381.347504 -276.557739 5.389261 1.000000
381.239624 -276.686676 4.647853 0.635584
381.344971 -276.560760 3.873796 1.000000
381.343719 -276.562256 3.122765 1.000000
381.235840 -276.691193 2.376739 0.627253
381.234589 -276.692688 1.623229 0.626352
381.233368 -276.694153 0.868786 0.644114
381.232117 -276.695648 0.111782 0.580911
384.853058 -272.367371 -0.000004 0.235492
387.356903 -269.374359 -0.000008 0.241679
388.955414 -267.463593 -0.000011 0.190169
390.066437 -266.135529 -0.000012 0.236856
390.884979 -265.157043 -0.000013 0.216068
389.018524 -267.270599 4.706124 0.394003
390.546265 -265.470093 3.823330 0.403754
389.357300 -266.871338 3.870483 0.369711
380.992065 -276.730072 5.442781 0.654505
380.990753 -276.731628 4.670252 0.663386
380.989471 -276.733154 3.903387 0.662135
380.988190 -276.734650 3.140497 0.644190
380.986908 -276.736176 2.379927 0.627192
380.985626 -276.737671 1.620041 0.626505
380.984344 -276.739166 0.859212 0.640375
380.983063 -276.740692 0.095801 0.651514
384.760223 -272.289154 -0.000004 0.221645
387.284912 -269.313721 -0.000008 0.227497
388.896729 -267.414154 -0.000011 0.237155
390.016998 -266.093872 -0.000013 0.229149
390.842346 -265.121155 -0.000014 0.218270
388.977020 -267.203217 4.700050 0.396078
391.040710 -264.805206 3.644781 0.410254
388.639465 -267.595428 4.055497 0.415656
380.738983 -276.775757 5.472321 0.544976
380.737640 -276.777313 4.693165 0.554803
380.736328 -276.778839 3.919720 0.584436
380.734985 -276.780396 3.150285 0.575204
380.733673 -276.781921 2.383188 0.566949
380.732361 -276.783447 1.616780 0.590387
380.731079 -276.784943 0.849419 0.595010
380.729767 -276.786469 0.079453 0.599680
384.667969 -272.210297 -0.000004 0.251493
387.213348 -269.252563 -0.000009 0.248632
388.838379 -267.364288 -0.000011 0.214799
389.967834 -266.051880 -0.000013 0.237742
390.799988 -265.084930 -0.000014 0.224385
380.485718 -276.817413 7.912955 0.616236
390.650665 -265.171234 3.759694 0.400549
380.482880 -276.820648 6.296009 0.627039
380.481506 -276.822235 5.502543 0.649180
380.480133 -276.823792 4.716608 0.627619
380.478760 -276.825348 3.936433 0.619425
380.477417 -276.826904 3.160299 0.611048
380.476074 -276.828461 2.386524 0.549386
380.474731 -276.829987 1.613442 0.590661
380.473389 -276.831512 0.839399 0.551629
380.472046 -276.833069 0.062726 0.553597
384.576233 -272.130829 -0.000005 0.228909
387.142212 -269.190918 -0.000009 0.243630
388.780396 -267.314026 -0.000011 0.225834
389.919006 -266.009521 -0.000013 0.190050
390.757843 -265.048431 -0.000014 0.191378
390.863831 -264.844574 3.944138 0.390463
390.596375 -265.146729 3.763462 0.404074
388.558624 -267.448792 4.045070 0.386969
380.219513 -276.869507 5.533471 0.639139
380.218079 -276.871094 4.740599 0.610605
380.216705 -276.872681 3.953534 0.644755
380.215302 -276.874268 3.170548 0.621439
380.213928 -276.875824 2.389938 0.598718
380.212555 -276.877350 1.610028 0.598535
380.211182 -276.878937 0.829145 0.626337
380.209778 -276.880493 0.045610 0.652873
384.485077 -272.050690 -0.000005 0.219407
387.071533 -269.128784 -0.000009 0.212262
388.722748 -267.263367 -0.000011 0.225786
389.870422 -265.966858 -0.000013 0.273071
390.716003 -265.011627 -0.000015 0.180715
379.957245 -276.912720 8.018576 0.632746
390.542786 -265.121124 3.767037 0.395254
379.954254 -276.916016 6.372761 0.637781
388.325500 -267.591034 3.705962 0.396078
379.951355 -276.919250 4.765152 0.626642
379.949921 -276.920868 3.971039 0.597772
379.948517 -276.922424 3.181037 0.696956
379.947083 -276.924011 2.393433 0.698634
379.945679 -276.925598 1.606533 0.706279
379.944275 -276.927155 0.818651 0.703990
379.942841 -276.928741 0.028091 0.635096
384.394470 -271.969940 -0.000005 0.217528
387.001251 -269.066132 -0.000009 0.223631
388.665466 -267.212311 -0.000012 0.269217
389.822174 -265.923828 -0.000014 0.228000
390.674377 -264.974518 -0.000015 0.245760
390.794403 -264.759888 3.939968 0.408927
388.718567 -267.040009 4.338687 0.386069
390.401215 -265.191772 3.515486 0.404486
388.305084 -267.494202 3.697339 0.398672
379.679810 -276.968292 4.790286 0.674861
379.678345 -276.969910 3.988956 0.653513
379.676880 -276.971497 3.191774 0.656092
379.675415 -276.973114 2.397010 0.673442
379.673981 -276.974701 1.602955 0.714946
379.672516 -276.976288 0.807908 0.705531
379.671051 -276.977905 0.010157 0.608331
384.304443 -271.888550 -0.000005 0.228407
386.931427 -269.003021 -0.000010 0.203681
388.608551 -267.160858 -0.000012 0.272233
389.774231 -265.880463 -0.000014 0.271371
390.633026 -264.937134 -0.000015 0.250224
389.084930 -266.531769 4.556491 0.390967
388.971893 -266.654175 4.240289 0.398672
379.566162 -276.841736 6.410306 1.000000
379.564636 -276.843384 5.595743 1.000000
379.403259 -277.018219 4.816020 0.653422
379.561584 -276.846710 3.987980 1.000000
379.560120 -276.848328 3.191190 1.000000
379.398743 -277.023102 2.400672 0.587289
379.397278 -277.024689 1.599292 0.663508
379.395782 -277.026306 0.796909 0.572335
379.394287 -277.027924 -0.008205 0.598566
384.214966 -271.806519 -0.000005 0.217169
386.862061 -268.939423 -0.000010 0.263688
388.552002 -267.109009 -0.000012 0.257716
389.726563 -265.836792 -0.000014 0.214727
390.591949 -264.899475 -0.000015 0.253013
379.249725 -276.932129 8.141930 1.000000
390.364288 -265.061066 3.783525 0.403143
379.246582 -276.935516 6.462397 1.000000
379.244965 -276.937256 5.638229 1.000000
379.121521 -277.069061 4.842373 0.610742
379.241882 -276.940521 4.011464 1.000000
379.240356 -276.942169 3.205262 1.000000
379.116913 -277.074005 2.404423 0.629984
379.115387 -277.075623 1.595541 0.629709
379.113861 -277.077271 0.785645 0.578882
379.337677 -276.838226 0.000028 0.235671
384.126099 -271.723877 -0.000006 0.219933
386.793121 -268.875305 -0.000010 0.236030
388.495789 -267.056732 -0.000012 0.190995
389.679230 -265.792755 -0.000014 0.279904
390.551117 -264.861511 -0.000015 0.214237
391.061523 -264.242981 3.799576 0.394614
388.590057 -266.846008 4.326899 0.355154
378.961670 -276.986908 6.504765 1.000000
378.960022 -276.988678 5.672775 1.000000
378.834473 -277.120880 4.869365 0.593164
378.956879 -276.991974 4.030565 1.000000
378.955292 -276.993652 3.216710 1.000000
378.829712 -277.125885 2.408265 0.615045
378.828186 -277.127533 1.591699 0.600427
378.826599 -277.129181 0.774108 0.602701
379.213776 -276.721405 0.000027 0.222231
384.037781 -271.640625 -0.000006 0.229053
386.724640 -268.810730 -0.000010 0.217348
388.439972 -267.004089 -0.000012 0.215003
389.632172 -265.748413 -0.000014 0.215757
390.510559 -264.823273 -0.000015 0.219239
390.959991 -264.276123 3.823151 0.395529
388.834076 -266.484131 4.233991 0.403021
389.380280 -265.916840 3.738776 0.396597
378.669617 -277.041077 5.708164 1.000000
378.541901 -277.173706 4.897017 0.649683
378.666382 -277.044434 4.050134 1.000000
378.664734 -277.046112 3.228436 1.000000
378.537018 -277.178772 2.412200 0.750835
378.535431 -277.180420 1.587762 0.725811
378.533813 -277.182098 0.762288 0.701503
379.090698 -276.603729 0.000027 0.227186
383.950043 -271.556732 -0.000006 0.219874
386.656586 -268.745697 -0.000010 0.244168
388.384491 -266.951080 -0.000012 0.242481
389.585449 -265.703735 -0.000014 0.254592
390.470276 -264.784760 -0.000016 0.197075
390.854889 -264.311035 3.847755 0.401053
390.048340 -265.137115 3.842563 0.395575
389.281830 -265.922180 3.751945 0.391897
378.373535 -277.094482 5.744424 1.000000
378.243622 -277.227570 4.925351 0.646708
378.370239 -277.097870 4.070184 1.000000
378.368561 -277.099609 3.240452 1.000000
378.238617 -277.232697 2.416233 0.674571
378.236969 -277.234375 1.583729 0.707149
378.235321 -277.236053 0.750178 0.728191
378.968445 -276.485199 0.000027 0.222901
383.862915 -271.472260 -0.000006 0.246275
386.589020 -268.680176 -0.000010 0.210898
388.329407 -266.897644 -0.000013 0.226576
389.539032 -265.658752 -0.000015 0.227820
390.430237 -264.745972 -0.000015 0.276099
390.334747 -264.763184 4.019859 0.396628
390.015594 -265.085541 3.839572 0.403433
389.138794 -265.971130 3.776544 0.392203
378.071594 -277.148987 5.781587 1.000000
377.939423 -277.282471 4.954391 0.586984
378.068207 -277.152405 4.090734 1.000000
378.066467 -277.154144 3.252768 1.000000
377.934296 -277.287659 2.420365 0.578286
377.932617 -277.289368 1.579596 0.668101
377.930908 -277.291077 0.737765 0.551232
378.847015 -276.365814 0.000027 0.222459
383.776367 -271.387177 -0.000006 0.233900
386.521881 -268.614166 -0.000010 0.250439
388.274689 -266.843872 -0.000013 0.215146
389.492950 -265.613403 -0.000015 0.219646
390.390503 -264.706879 -0.000016 0.220783
390.327057 -264.691406 4.008492 0.409918
389.985016 -265.032074 3.836063 0.402609
389.045593 -265.967743 3.788081 0.397696
377.763611 -277.204559 5.819682 1.000000
377.629120 -277.338501 4.984158 0.625925
377.760101 -277.208038 4.111801 1.000000
377.758331 -277.209808 3.265392 1.000000
377.623871 -277.343750 2.424602 0.605310
377.622101 -277.345490 1.575358 0.594446
377.620361 -277.347229 0.725041 0.655299
378.726410 -276.245575 0.000027 0.222159
383.690399 -271.301483 -0.000006 0.216953
386.455231 -268.547729 -0.000010 0.214021
388.220337 -266.789673 -0.000013 0.214488
389.447144 -265.567780 -0.000015 0.234630
390.351013 -264.667511 -0.000016 0.227365
390.317444 -264.622375 3.998041 0.338659
388.760681 -266.151398 4.194068 0.401343
388.953918 -265.961609 3.799158 0.404700
377.494293 -277.217102 5.849395 1.000000
377.312500 -277.395630 5.014680 0.633860
377.490601 -277.220703 4.128242 1.000000
377.488831 -277.222473 3.275243 1.000000
377.307068 -277.400970 2.428946 0.671122
377.305298 -277.402710 1.571013 0.629602
377.303497 -277.404480 0.711995 0.710674
378.606689 -276.124512 0.000027 0.235767
383.605072 -271.215179 -0.000007 0.218820
386.389038 -268.480804 -0.000010 0.211281
388.166382 -266.735138 -0.000013 0.234977
389.401703 -265.521820 -0.000015 0.206625
390.311829 -264.627899 -0.000016 0.249350
390.331879 -264.530884 3.979453 0.389609
388.838470 -265.977325 4.155795 0.395514
389.347778 -265.484039 3.687178 0.398688
388.653931 -266.156067 3.518719 0.400916
376.989288 -277.453979 5.045984 0.641199
376.987427 -277.455811 4.171238 0.638834
376.985565 -277.457611 3.301008 0.701961
376.983734 -277.459381 2.433402 0.614450
376.981873 -277.461182 1.566556 0.634730
376.980042 -277.462952 0.698613 0.651316
378.487793 -276.002625 0.000027 0.218761
383.520325 -271.128296 -0.000006 0.257189
386.323303 -268.413422 -0.000010 0.230692
388.112793 -266.680176 -0.000013 0.215230
389.356567 -265.475525 -0.000015 0.277882
390.272919 -264.587982 -0.000016 0.245844
388.570618 -266.136810 4.576278 0.394888
390.121460 -264.655548 3.758177 0.395636
389.052551 -265.676483 3.750168 0.396078
388.577789 -266.129974 3.524179 0.398642
376.659302 -277.513550 5.078095 0.627695
376.657379 -277.515381 4.194131 0.591424
376.655457 -277.517212 3.314726 0.658625
376.653564 -277.519043 2.437972 0.612024
376.651672 -277.520844 1.561985 0.641276
376.649780 -277.522675 0.684887 0.694255
378.369751 -275.879883 0.000027 0.227401
383.436188 -271.040802 -0.000007 0.218593
386.258057 -268.345581 -0.000011 0.232188
388.059601 -266.624878 -0.000013 0.234235
389.311737 -265.428925 -0.000015 0.238484
390.234253 -264.547821 -0.000016 0.235994
390.401428 -264.313782 3.929293 0.397665
390.131683 -264.567871 3.743545 0.393683
389.666534 -265.005951 3.585147 0.394980
376.324249 -277.572540 6.011043 0.707362
376.322266 -277.574402 5.111045 0.645518
376.320282 -277.576263 4.217620 0.526818
376.318329 -277.578125 3.328802 0.616464
376.316376 -277.579956 2.442661 0.676966
376.314423 -277.581787 1.557295 0.649989
376.312469 -277.583618 0.670803 0.649348
378.252563 -275.756348 0.000027 0.224565
383.352661 -270.952759 -0.000007 0.247842
386.193298 -268.277283 -0.000011 0.268176
388.006805 -266.569214 -0.000014 0.224948
389.267242 -265.382019 -0.000015 0.239836
390.195892 -264.507385 -0.000016 0.228299
390.443909 -264.200958 3.902215 0.398535
390.050385 -264.566437 3.756156 0.403769
389.649475 -264.938812 3.579071 0.408103
376.200653 -277.429688 6.009960 1.000000
375.977905 -277.636566 5.144862 0.657893
376.212616 -277.418579 4.215238 1.000000
376.212555 -277.418610 3.327244 1.000000
375.971863 -277.642181 2.447474 0.616876
375.969849 -277.644043 1.552481 0.616144
375.967834 -277.645935 0.656347 0.671077
378.136230 -275.631989 0.000026 0.237742
383.269745 -270.864105 -0.000008 0.224601
386.128998 -268.208527 -0.000011 0.236712
387.954376 -266.513153 -0.000014 0.194765
389.223083 -265.334808 -0.000015 0.189762
390.157837 -264.466675 -0.000016 0.200390
388.337830 -266.057922 4.605365 0.394125
390.207642 -264.345459 3.698832 0.396063
388.999390 -265.452026 3.729337 0.394903
389.325562 -265.153320 3.344197 0.401480
375.625977 -277.700104 5.179579 0.642206
375.623871 -277.702026 4.266479 0.673838
375.913269 -277.436981 3.338665 1.000000
375.619751 -277.705811 2.452416 0.646036
375.617676 -277.707703 1.547538 0.602548
375.615601 -277.709595 0.641506 0.683085
378.020782 -275.506805 0.000026 0.231087
383.187469 -270.774902 -0.000007 0.239405
386.065186 -268.139343 -0.000011 0.216080
387.902344 -266.456757 -0.000014 0.175557
389.179260 -265.287292 -0.000015 0.283985
390.120026 -264.425690 -0.000016 0.218916
388.273560 -266.018127 4.610569 0.396384
389.367798 -265.029907 3.932487 0.405402
389.140259 -265.235413 3.683856 0.393317
375.564850 -277.495300 6.086086 1.000000
375.464966 -277.585510 5.184414 1.000000
375.264008 -277.766998 4.291894 0.670436
375.558472 -277.501068 3.353677 1.000000
375.259766 -277.770844 2.457490 0.647517
375.257629 -277.772766 1.542463 0.606973
375.255493 -277.774689 0.626267 0.642878
377.906219 -275.380829 0.000026 0.232176
383.105804 -270.685120 -0.000008 0.233744
386.001831 -268.069702 -0.000011 0.224673
387.850708 -266.399994 -0.000014 0.242337
389.135773 -265.239471 -0.000015 0.215816
390.082520 -264.384460 -0.000017 0.191785
388.209045 -265.978149 4.615914 0.395361
388.668945 -265.568604 4.122535 0.406058
388.783447 -265.466644 3.760276 0.391485
375.202148 -277.560760 6.132622 1.000000
375.250793 -277.517456 5.197529 1.000000
374.895966 -277.833435 4.317999 0.647578
375.195618 -277.566589 3.369097 1.000000
374.891571 -277.837341 2.462703 0.689677
374.889374 -277.839294 1.537250 0.648203
374.887207 -277.841248 0.610613 0.650736
377.792542 -275.254059 0.000027 0.219431
383.024750 -270.594757 -0.000007 0.229041
385.938995 -267.999634 -0.000012 0.219742
387.799500 -266.342865 -0.000014 0.181971
389.092590 -265.191345 -0.000016 0.212789
390.045319 -264.342957 -0.000017 0.256974
