# This PCD file was generated using the MATLABÂ® pcwrite function
# from Computer Vision ToolboxÂ®.
# .PCD v.7 - Point Cloud Data file format
VERSION .7
FIELDS x y z intensity
SIZE 4 4 4 4
TYPE F F F F
COUNT 1 1 1 1
WIDTH 1336
HEIGHT 1
VIEWPOINT 0 0 0 1 0 0 0
POINTS 1336
DATA ascii
60.741142 -62.604744 0.000006 0.242828
62.609802 -64.252205 -0.000004 0.340429
63.908630 -65.397278 -0.000004 0.335286
64.865540 -66.240906 -0.000006 0.333425
56.981499 -59.116955 6.661559 1.000000
56.981499 -59.116955 6.019372 1.000000
56.981499 -59.116955 5.386202 1.000000
56.981499 -59.116955 4.760530 1.000000
56.981491 -59.116951 4.140907 1.000000
56.981491 -59.116951 3.525932 1.000000
56.981491 -59.116951 2.914250 1.000000
56.981491 -59.116951 2.304533 1.000000
56.981491 -59.116951 1.695467 1.000000
56.981491 -59.116951 1.085750 1.000000
56.981491 -59.116951 0.474067 1.000000
57.894630 -59.933395 0.000008 0.217755
60.803635 -62.534359 0.000006 0.213997
62.660751 -64.194817 -0.000005 0.341100
63.951550 -65.348930 -0.000004 0.338323
64.902550 -66.199226 -0.000005 0.329137
57.218117 -59.156128 6.610946 1.000000
57.218117 -59.156128 5.975732 1.000000
57.218117 -59.156128 5.349436 1.000000
57.218117 -59.156128 4.730559 1.000000
57.218109 -59.156120 4.117663 1.000000
57.218109 -59.156124 3.509364 1.000000
57.218109 -59.156124 2.904324 1.000000
57.218109 -59.156124 2.301226 1.000000
57.218109 -59.156124 1.698774 1.000000
57.218109 -59.156124 1.095676 1.000000
57.218113 -59.156124 0.490635 1.000000
57.975853 -59.843204 0.000008 0.224816
60.866623 -62.464409 0.000006 0.260133
62.712097 -64.137787 -0.000004 0.334798
63.994808 -65.300888 -0.000004 0.337606
64.939850 -66.157799 -0.000005 0.344900
57.449657 -59.194462 6.561643 1.000000
57.449654 -59.194462 5.933222 1.000000
57.449657 -59.194462 5.313622 1.000000
57.449654 -59.194462 4.701362 1.000000
57.449650 -59.194458 4.095019 1.000000
57.449646 -59.194454 3.493226 1.000000
57.449650 -59.194458 2.894654 1.000000
57.449650 -59.194454 2.298005 1.000000
57.449650 -59.194454 1.701995 1.000000
57.449650 -59.194454 1.105345 1.000000
57.449646 -59.194454 0.506774 1.000000
58.057690 -59.753578 0.000008 0.231387
60.930088 -62.394897 0.000006 0.221226
62.763836 -64.081123 -0.000005 0.341253
64.038399 -65.253151 -0.000004 0.340444
64.977432 -66.116638 -0.000005 0.345205
57.676315 -59.231987 6.513599 1.000000
57.676315 -59.231987 5.891796 1.000000
57.676315 -59.231987 5.278724 1.000000
57.676315 -59.231987 4.672911 1.000000
57.676308 -59.231979 4.072955 1.000000
57.676308 -59.231979 3.477499 1.000000
57.676308 -59.231979 2.885232 1.000000
57.676308 -59.231979 2.294867 1.000000
57.676308 -59.231979 1.705134 1.000000
57.676308 -59.231979 1.114768 1.000000
57.676308 -59.231979 0.522501 1.000000
58.140152 -59.664524 0.000008 0.257608
60.994045 -62.325836 0.000006 0.191821
62.815975 -64.024818 -0.000005 0.337606
64.082321 -65.205711 -0.000005 0.342947
65.015305 -66.075737 -0.000006 0.345449
57.898254 -59.268730 6.466774 1.000000
57.898254 -59.268730 5.851420 1.000000
57.898254 -59.268730 5.244708 1.000000
57.898254 -59.268730 4.645180 1.000000
57.898247 -59.268726 4.051449 1.000000
57.898247 -59.268723 3.462171 1.000000
57.898247 -59.268723 2.876048 1.000000
57.898247 -59.268723 2.291807 1.000000
57.898247 -59.268723 1.708193 1.000000
57.898247 -59.268723 1.123952 1.000000
57.898247 -59.268723 0.537829 1.000000
58.223240 -59.576054 0.000008 0.236988
61.058479 -62.257217 0.000006 0.217767
62.868504 -63.968880 -0.000005 0.338766
64.126579 -65.158585 -0.000005 0.331044
65.053467 -66.035103 -0.000006 0.328115
58.115654 -59.304722 6.421120 1.000000
58.115654 -59.304722 5.812057 1.000000
58.115654 -59.304722 5.211544 1.000000
58.115654 -59.304718 4.618145 1.000000
58.115650 -59.304718 4.030481 1.000000
58.115646 -59.304714 3.447226 1.000000
58.115650 -59.304718 2.867094 1.000000
58.115646 -59.304714 2.288825 1.000000
58.115646 -59.304714 1.711175 1.000000
58.115650 -59.304718 1.132906 1.000000
58.115646 -59.304714 0.552773 1.000000
58.306938 -59.488155 0.000008 0.270091
61.123390 -62.189053 0.000006 0.250224
62.921421 -63.913307 -0.000005 0.342855
64.171158 -65.111771 -0.000005 0.337819
65.091904 -65.994736 -0.000006 0.337255
58.328663 -59.339985 6.376603 1.000000
58.328663 -59.339985 5.773672 1.000000
58.328663 -59.339989 5.179207 1.000000
58.328663 -59.339989 4.591782 1.000000
58.328659 -59.339981 4.010036 1.000000
58.328659 -59.339981 3.432653 1.000000
58.328659 -59.339981 2.858363 1.000000
58.328659 -59.339981 2.285916 1.000000
58.328659 -59.339981 1.714083 1.000000
58.328659 -59.339981 1.141637 1.000000
58.328659 -59.339981 0.567346 1.000000
58.391247 -59.400848 0.000008 0.222100
61.188782 -62.121342 0.000006 0.217564
62.974728 -63.858109 -0.000006 0.337301
64.216064 -65.065262 -0.000005 0.328939
65.130623 -65.954636 -0.000007 0.343862
58.537430 -59.374550 6.333183 1.000000
58.537430 -59.374550 5.736234 1.000000
58.537434 -59.374550 5.147666 1.000000
58.537430 -59.374550 4.566070 1.000000
58.537422 -59.374542 3.990095 1.000000
58.537426 -59.374542 3.418441 1.000000
58.537426 -59.374546 2.849847 1.000000
58.537426 -59.374542 2.283080 1.000000
58.537426 -59.374542 1.716920 1.000000
58.537426 -59.374546 1.150153 1.000000
58.537426 -59.374542 0.581559 1.000000
58.537422 -59.374542 0.009905 1.000000
61.254639 -62.054092 0.000006 0.212968
63.028416 -63.803284 -0.000006 0.338247
64.261299 -65.019073 -0.000005 0.336843
65.169624 -65.914810 -0.000007 0.330678
58.742111 -59.408436 6.290823 1.000000
58.742111 -59.408436 5.699709 1.000000
58.742111 -59.408436 5.116895 1.000000
58.742111 -59.408432 4.540985 1.000000
58.742107 -59.408432 3.970640 1.000000
58.742104 -59.408428 3.404575 1.000000
58.742104 -59.408428 2.841540 1.000000
58.742104 -59.408428 2.280313 1.000000
58.742104 -59.408428 1.719687 1.000000
58.742104 -59.408428 1.158460 1.000000
58.742100 -59.408428 0.595425 1.000000
58.742104 -59.408428 0.029360 1.000000
61.320965 -61.987301 0.000006 0.249877
63.121365 -63.787712 0.009998 1.000000
64.306854 -64.973206 -0.000006 0.339467
65.208908 -65.875259 -0.000007 0.338109
58.942833 -59.441666 6.249488 1.000000
58.942833 -59.441666 5.664069 1.000000
58.942833 -59.441666 5.086869 1.000000
58.942829 -59.441666 4.516507 1.000000
58.942825 -59.441658 3.951656 1.000000
58.942825 -59.441658 3.391044 1.000000
58.942825 -59.441662 2.833433 1.000000
58.942829 -59.441666 2.277612 1.000000
58.942829 -59.441666 1.722387 1.000000
58.942825 -59.441662 1.166567 1.000000
58.942825 -59.441658 0.608956 1.000000
58.942833 -59.441662 0.048344 1.000000
61.387753 -61.920975 0.000005 0.242517
63.175529 -63.733898 0.009995 1.000000
64.352722 -64.927650 -0.000006 0.334524
65.248459 -65.835983 -0.000007 0.331640
59.139740 -59.474262 6.209144 1.000000
59.139740 -59.474266 5.629283 1.000000
59.139740 -59.474266 5.057564 1.000000
59.139732 -59.474258 4.492617 1.000000
59.139732 -59.474258 3.933128 1.000000
59.139732 -59.474258 3.377838 1.000000
59.139732 -59.474258 2.825520 1.000000
59.139732 -59.474258 2.274977 1.000000
59.139732 -59.474258 1.725023 1.000000
59.139732 -59.474258 1.174479 1.000000
59.139732 -59.474258 0.622162 1.000000
59.139732 -59.474258 0.066872 1.000000
61.455006 -61.855118 0.000006 0.215792
63.230068 -63.680462 0.009992 1.000000
64.398911 -64.882416 -0.000006 0.324880
65.288284 -65.796982 -0.000007 0.351598
59.332947 -59.506248 6.169763 1.000000
59.332947 -59.506248 5.595326 1.000000
59.332947 -59.506248 5.028956 1.000000
59.332943 -59.506245 4.469295 1.000000
59.332943 -59.506245 3.915041 1.000000
59.332943 -59.506248 3.364946 1.000000
59.332943 -59.506245 2.817796 1.000000
59.332939 -59.506245 2.272404 1.000000
59.332939 -59.506245 1.727596 1.000000
59.332943 -59.506245 1.182203 1.000000
59.332943 -59.506248 0.635054 1.000000
59.332943 -59.506245 0.084959 1.000000
61.522717 -61.789734 0.000006 0.212142
63.246960 -63.587765 -0.000007 0.337560
64.445419 -64.837509 -0.000006 0.330282
65.328377 -65.758263 -0.000007 0.328298
59.522591 -59.537647 6.131309 1.000000
59.522587 -59.537647 5.562170 1.000000
59.522583 -59.537643 5.001022 1.000000
59.522579 -59.537640 4.446524 1.000000
59.522583 -59.537640 3.897380 1.000000
59.522583 -59.537643 3.352358 1.000000
59.522583 -59.537640 2.810255 1.000000
59.522583 -59.537643 2.269892 1.000000
59.522583 -59.537643 1.730108 1.000000
59.522583 -59.537640 1.189745 1.000000
59.522583 -59.537643 0.647642 1.000000
59.522583 -59.537640 0.102620 1.000000
61.590881 -61.724815 0.000006 0.197003
63.302574 -63.534889 0.000005 0.240518
64.492233 -64.792923 -0.000006 0.333593
65.368744 -65.719818 -0.000008 0.339727
59.708763 -59.568466 6.093756 1.000000
59.708763 -59.568466 5.529791 1.000000
59.708763 -59.568470 4.973744 1.000000
59.708759 -59.568462 4.424285 1.000000
59.708759 -59.568466 3.880134 1.000000
59.708759 -59.568466 3.340065 1.000000
59.708759 -59.568462 2.802890 1.000000
59.708759 -59.568466 2.267439 1.000000
59.708759 -59.568466 1.732561 1.000000
59.708759 -59.568462 1.197110 1.000000
59.708759 -59.568466 0.659934 1.000000
59.708759 -59.568466 0.119867 1.000000
61.659496 -61.660385 0.000006 0.252713
63.358509 -63.482361 0.000005 0.256567
64.539352 -64.748672 -0.000007 0.335470
65.409378 -65.681656 -0.000007 0.344564
59.891598 -59.598736 6.057077 1.000000
59.891602 -59.598740 5.498163 1.000000
59.891598 -59.598740 4.947100 1.000000
59.891594 -59.598732 4.402563 1.000000
59.891594 -59.598732 3.863288 1.000000
59.891594 -59.598732 3.328058 1.000000
59.891594 -59.598732 2.795696 1.000000
59.891594 -59.598732 2.265043 1.000000
59.891594 -59.598732 1.734958 1.000000
59.891594 -59.598732 1.204304 1.000000
59.891594 -59.598732 0.671941 1.000000
59.891594 -59.598732 0.136712 1.000000
61.728561 -61.596432 0.000006 0.201072
63.414814 -63.430222 0.000005 0.227294
64.586792 -64.704742 -0.000006 0.338109
65.450279 -65.643784 -0.000008 0.330007
60.071198 -59.628471 6.021242 1.000000
60.071198 -59.628471 5.467266 1.000000
60.071194 -59.628468 4.921070 1.000000
60.071190 -59.628464 4.381342 1.000000
60.071190 -59.628468 3.846830 1.000000
60.071190 -59.628464 3.316329 1.000000
60.071190 -59.628468 2.788668 1.000000
60.071190 -59.628468 2.262702 1.000000
60.071190 -59.628468 1.737298 1.000000
60.071190 -59.628468 1.211332 1.000000
60.071190 -59.628464 0.683671 1.000000
60.071190 -59.628468 0.153170 1.000000
61.798073 -61.532959 0.000006 0.213040
63.471478 -63.378479 0.000004 0.222506
64.634529 -64.661148 -0.000007 0.329473
65.491440 -65.606201 -0.000008 0.332921
60.247658 -59.657684 5.986226 1.000000
60.247658 -59.657684 5.437076 1.000000
60.247654 -59.657684 4.895634 1.000000
60.247650 -59.657681 4.360607 1.000000
60.247650 -59.657681 3.830749 1.000000
60.247650 -59.657681 3.304866 1.000000
60.247650 -59.657677 2.781801 1.000000
60.247650 -59.657681 2.260414 1.000000
60.247650 -59.657681 1.739586 1.000000
60.247650 -59.657677 1.218199 1.000000
60.247650 -59.657681 0.695133 1.000000
60.247650 -59.657681 0.169251 1.000000
61.868027 -61.469978 0.000006 0.280730
63.528503 -63.327133 0.000004 0.227940
64.682571 -64.617889 -0.000007 0.341436
65.532867 -65.568901 -0.000008 0.337926
60.421074 -59.686394 5.952008 1.000000
60.421074 -59.686394 5.407571 1.000000
60.421074 -59.686394 4.870778 1.000000
60.421074 -59.686390 4.340343 1.000000
60.421070 -59.686390 3.815034 1.000000
60.421074 -59.686390 3.293665 1.000000
60.421074 -59.686394 2.775089 1.000000
60.421074 -59.686390 2.258179 1.000000
60.421074 -59.686390 1.741821 1.000000
60.421074 -59.686394 1.224910 1.000000
60.421074 -59.686390 0.706334 1.000000
60.421070 -59.686390 0.184967 1.000000
61.938412 -61.407482 0.000006 0.218449
63.585888 -63.276184 0.000004 0.217133
64.730911 -64.574974 -0.000007 0.334356
65.574547 -65.531891 -0.000008 0.327749
60.591553 -59.714619 5.918561 1.000000
60.591557 -59.714622 5.378731 1.000000
60.591557 -59.714619 4.846480 1.000000
60.591553 -59.714615 4.320536 1.000000
60.591553 -59.714615 3.799672 1.000000
60.591553 -59.714615 3.282717 1.000000
60.591553 -59.714615 2.768529 1.000000
60.591553 -59.714615 2.255994 1.000000
60.591553 -59.714615 1.744006 1.000000
60.591553 -59.714615 1.231470 1.000000
60.591553 -59.714615 0.717283 1.000000
60.591553 -59.714615 0.200328 1.000000
62.009235 -61.345478 0.000006 0.220843
63.643627 -63.225639 0.000005 0.186280
64.779556 -64.532387 -0.000008 0.336538
65.616493 -65.495171 -0.000008 0.329366
60.759178 -59.742371 5.885864 1.000000
60.759178 -59.742371 5.350538 1.000000
60.759178 -59.742367 4.822729 1.000000
60.759174 -59.742367 4.301172 1.000000
60.759174 -59.742363 3.784655 1.000000
60.759178 -59.742367 3.272013 1.000000
60.759174 -59.742367 2.762116 1.000000
60.759174 -59.742363 2.253857 1.000000
60.759174 -59.742363 1.746143 1.000000
60.759174 -59.742367 1.237883 1.000000
60.759178 -59.742367 0.727987 1.000000
60.759174 -59.742363 0.215345 1.000000
62.080490 -61.283974 0.000006 0.198200
63.701714 -63.175503 0.000005 0.224721
64.828491 -64.490143 -0.000008 0.343359
65.658684 -65.458748 -0.000008 0.344335
60.924038 -59.769661 5.853893 1.000000
60.924038 -59.769661 5.322972 1.000000
60.924038 -59.769661 4.799506 1.000000
60.924034 -59.769657 4.282239 1.000000
60.924034 -59.769661 3.769972 1.000000
60.924034 -59.769657 3.261548 1.000000
60.924034 -59.769657 2.755846 1.000000
60.924034 -59.769657 2.251769 1.000000
60.924034 -59.769657 1.748231 1.000000
60.924034 -59.769657 1.244153 1.000000
60.924034 -59.769657 0.738452 1.000000
60.924034 -59.769661 0.230028 1.000000
62.152172 -61.222969 0.000006 0.236449
63.760151 -63.125767 0.000005 0.251852
64.877724 -64.448242 -0.000008 0.335546
65.701134 -65.422623 -0.000009 0.319203
61.086212 -59.796513 5.822629 1.000000
61.086216 -59.796513 5.296015 1.000000
61.086212 -59.796509 4.776796 1.000000
61.086212 -59.796509 4.263725 1.000000
61.086212 -59.796509 3.755613 1.000000
61.086212 -59.796509 3.251314 1.000000
61.086212 -59.796509 2.749715 1.000000
61.086212 -59.796509 2.249726 1.000000
61.086212 -59.796509 1.750274 1.000000
61.086212 -59.796509 1.250285 1.000000
61.086212 -59.796509 0.748686 1.000000
61.086212 -59.796509 0.244387 1.000000
62.224277 -61.162464 0.000006 0.192156
63.818935 -63.076443 0.000005 0.240434
64.927246 -64.406685 -0.000008 0.338033
65.743835 -65.386787 -0.000009 0.322667
61.245785 -59.822926 5.792052 1.000000
61.245789 -59.822929 5.269650 1.000000
61.245785 -59.822926 4.754584 1.000000
61.245785 -59.822926 4.245617 1.000000
61.245781 -59.822926 3.741570 1.000000
61.245785 -59.822926 3.241305 1.000000
61.245781 -59.822922 2.743718 1.000000
61.245781 -59.822922 2.247729 1.000000
61.245781 -59.822922 1.752271 1.000000
61.245781 -59.822922 1.256282 1.000000
61.245785 -59.822926 0.758695 1.000000
61.245781 -59.822926 0.258430 1.000000
62.296806 -61.102467 0.000006 0.228287
63.878063 -63.027527 0.000005 0.208205
65.006462 -64.401268 0.009995 1.000000
65.786789 -65.351257 -0.000009 0.316258
61.402836 -59.848930 5.762142 1.000000
61.402836 -59.848927 5.243861 1.000000
61.402832 -59.848927 4.732857 1.000000
61.402832 -59.848927 4.227905 1.000000
61.402832 -59.848927 3.727833 1.000000
61.402832 -59.848927 3.231514 1.000000
61.402832 -59.848927 2.737851 1.000000
61.402832 -59.848927 2.245775 1.000000
61.402832 -59.848927 1.754225 1.000000
61.402832 -59.848927 1.262148 1.000000
61.402832 -59.848927 0.768486 1.000000
61.402832 -59.848927 0.272167 1.000000
62.369751 -61.042976 0.000006 0.237071
63.937531 -62.979031 0.000005 0.193628
65.056320 -64.360626 0.009999 1.000000
65.829979 -65.316025 -0.000009 0.344808
61.557434 -59.874519 5.732881 1.000000
61.557434 -59.874523 5.218630 1.000000
61.557430 -59.874519 4.711601 1.000000
61.557430 -59.874519 4.210576 1.000000
61.557430 -59.874519 3.714394 1.000000
61.557430 -59.874519 3.221935 1.000000
61.557430 -59.874519 2.732113 1.000000
61.557430 -59.874519 2.243863 1.000000
61.557430 -59.874519 1.756137 1.000000
61.557430 -59.874519 1.267887 1.000000
61.557430 -59.874519 0.778064 1.000000
61.557430 -59.874519 0.285606 1.000000
62.443108 -60.983994 0.000006 0.201108
63.997330 -62.930946 0.000005 0.232428
65.106468 -64.320343 0.010004 1.000000
65.873421 -65.281097 -0.000010 0.348638
61.709656 -59.899727 5.704248 1.000000
61.709656 -59.899727 5.193944 1.000000
61.709652 -59.899723 4.690804 1.000000
61.709648 -59.899719 4.193622 1.000000
61.709648 -59.899719 3.701245 1.000000
61.709652 -59.899723 3.212563 1.000000
61.709652 -59.899723 2.726497 1.000000
61.709652 -59.899723 2.241993 1.000000
61.709652 -59.899723 1.758007 1.000000
61.709652 -59.899723 1.273503 1.000000
61.709652 -59.899723 0.787437 1.000000
61.709648 -59.899719 0.298755 1.000000
62.516876 -60.925529 0.000006 0.217360
64.057472 -62.883286 0.000005 0.243582
65.156876 -64.280380 0.010003 1.000000
65.917107 -65.246475 -0.000010 0.334844
61.859558 -59.924541 5.676232 1.000000
61.859558 -59.924541 5.169786 1.000000
61.859554 -59.924538 4.670452 1.000000
61.859554 -59.924538 4.177031 1.000000
61.859554 -59.924538 3.688378 1.000000
61.859554 -59.924538 3.203392 1.000000
61.859554 -59.924534 2.721003 1.000000
61.859554 -59.924538 2.240163 1.000000
61.859554 -59.924538 1.759837 1.000000
61.859554 -59.924534 1.278997 1.000000
61.859554 -59.924538 0.796607 1.000000
61.859554 -59.924538 0.311622 1.000000
62.591049 -60.867580 0.000006 0.226851
64.117935 -62.836040 0.000005 0.231231
65.179146 -64.204155 -0.000009 0.336217
65.961037 -65.212158 -0.000010 0.351476
62.007225 -59.948990 5.648813 1.000000
62.007225 -59.948990 5.146144 1.000000
62.007225 -59.948986 4.650534 1.000000
62.007221 -59.948986 4.160792 1.000000
62.007225 -59.948986 3.675785 1.000000
62.007221 -59.948986 3.194416 1.000000
62.007221 -59.948986 2.715625 1.000000
62.007221 -59.948986 2.238371 1.000000
62.007221 -59.948986 1.761629 1.000000
62.007221 -59.948986 1.284375 1.000000
62.007221 -59.948986 0.805584 1.000000
62.007225 -59.948986 0.324215 1.000000
62.665627 -60.810143 0.000006 0.216965
64.178734 -62.789223 0.000005 0.223165
65.230370 -64.164703 -0.000010 0.338643
66.005196 -65.178146 -0.000010 0.329198
62.152710 -59.973076 5.621973 1.000000
62.152710 -59.973076 5.123002 1.000000
62.152710 -59.973072 4.631038 1.000000
62.152710 -59.973072 4.144898 1.000000
62.152710 -59.973068 3.663458 1.000000
62.152710 -59.973072 3.185630 1.000000
62.152710 -59.973072 2.710361 1.000000
62.152710 -59.973072 2.236618 1.000000
62.152710 -59.973072 1.763382 1.000000
62.152710 -59.973072 1.289639 1.000000
62.152710 -59.973072 0.814369 1.000000
62.152710 -59.973072 0.336542 1.000000
62.740601 -60.753235 0.000006 0.194047
64.239861 -62.742825 0.000005 0.192838
65.281898 -64.125671 0.000004 0.302583
66.049599 -65.144440 -0.000010 0.339193
62.296082 -59.996811 5.595700 1.000000
62.296082 -59.996811 5.100348 1.000000
62.296078 -59.996807 4.611953 1.000000
62.296078 -59.996803 4.129340 1.000000
62.296078 -59.996803 3.651392 1.000000
62.296078 -59.996807 3.177030 1.000000
62.296078 -59.996807 2.705208 1.000000
62.296078 -59.996807 2.234901 1.000000
62.296078 -59.996807 1.765099 1.000000
62.296078 -59.996807 1.294792 1.000000
62.296078 -59.996807 0.822969 1.000000
62.296078 -59.996803 0.348608 1.000000
62.815975 -60.696850 0.000006 0.265172
64.301300 -62.696857 0.000005 0.251146
65.333664 -64.086945 0.000004 0.215158
66.094231 -65.111053 -0.000010 0.346487
62.437386 -60.020203 5.569979 1.000000
62.437386 -60.020203 5.078172 1.000000
62.437386 -60.020203 4.593268 1.000000
62.437386 -60.020203 4.114109 1.000000
62.437386 -60.020203 3.639579 1.000000
62.437386 -60.020199 3.168611 1.000000
62.437386 -60.020199 2.700164 1.000000
62.437386 -60.020199 2.233221 1.000000
62.437386 -60.020199 1.766779 1.000000
62.437386 -60.020199 1.299836 1.000000
62.437386 -60.020199 0.831389 1.000000
62.437386 -60.020203 0.360421 1.000000
62.891739 -60.640999 0.000006 0.214787
64.363068 -62.651325 0.000005 0.214069
65.385696 -64.048584 0.000004 0.227880
66.139099 -65.077972 -0.000010 0.333822
62.576698 -60.043270 5.544794 1.000000
62.576698 -60.043266 5.056456 1.000000
62.576698 -60.043266 4.574974 1.000000
62.576698 -60.043266 4.099194 1.000000
62.576698 -60.043266 3.628013 1.000000
62.576698 -60.043266 3.160366 1.000000
62.576698 -60.043266 2.695224 1.000000
62.576698 -60.043266 2.231576 1.000000
62.576698 -60.043266 1.768424 1.000000
62.576698 -60.043266 1.304776 1.000000
62.576698 -60.043266 0.839633 1.000000
62.576698 -60.043266 0.371987 1.000000
62.967888 -60.585667 0.000006 0.219012
64.425148 -62.606216 0.000005 0.234438
65.438004 -64.010582 0.000004 0.205704
66.184196 -65.045212 -0.000010 0.329137
62.714062 -60.066010 5.520133 1.000000
62.714058 -60.066002 5.035193 1.000000
62.714058 -60.066002 4.557060 1.000000
62.714058 -60.066002 4.084590 1.000000
62.714058 -60.066006 3.616686 1.000000
62.714058 -60.066002 3.152294 1.000000
62.714058 -60.066002 2.690388 1.000000
62.714058 -60.066002 2.229965 1.000000
62.714058 -60.066002 1.770035 1.000000
62.714058 -60.066002 1.309612 1.000000
62.714058 -60.066002 0.847706 1.000000
62.714058 -60.066006 0.383314 1.000000
63.044422 -60.530876 0.000006 0.243558
64.487541 -62.561550 0.000005 0.208516
65.490570 -63.972950 0.000004 0.266464
66.229515 -65.012756 -0.000010 0.340505
62.849537 -60.088436 5.495982 1.000000
62.849533 -60.088432 5.014368 1.000000
62.849533 -60.088436 4.539516 1.000000
62.849533 -60.088436 4.070288 1.000000
62.849533 -60.088432 3.605594 1.000000
62.849533 -60.088432 3.144388 1.000000
62.849533 -60.088432 2.685651 1.000000
62.849533 -60.088432 2.228387 1.000000
62.849533 -60.088432 1.771613 1.000000
62.849533 -60.088436 1.314349 1.000000
62.849533 -60.088432 0.855612 1.000000
62.849533 -60.088432 0.394406 1.000000
63.121342 -60.476616 0.000006 0.217612
64.550247 -62.517319 0.000005 0.211257
65.543396 -63.935684 0.000004 0.257345
66.275070 -64.980629 -0.000010 0.335546
62.983170 -60.110558 5.472327 1.000000
62.983170 -60.110558 4.993972 1.000000
62.983170 -60.110558 4.522333 1.000000
62.983166 -60.110558 4.056279 1.000000
62.983166 -60.110558 3.594730 1.000000
62.983170 -60.110558 3.136645 1.000000
62.983166 -60.110558 2.681011 1.000000
62.983170 -60.110558 2.226841 1.000000
62.983170 -60.110558 1.773158 1.000000
62.983166 -60.110558 1.318988 1.000000
62.983166 -60.110558 0.863355 1.000000
62.983166 -60.110558 0.405270 1.000000
63.198631 -60.422894 0.000006 0.235551
64.613258 -62.473526 0.000005 0.207870
65.596481 -63.898788 0.000004 0.207295
66.320839 -64.948814 -0.000010 0.336522
63.115009 -60.132385 5.449159 1.000000
63.115009 -60.132385 4.973996 1.000000
63.115009 -60.132385 4.505503 1.000000
63.115009 -60.132385 4.042559 1.000000
63.115005 -60.132381 3.584090 1.000000
63.115009 -60.132385 3.129061 1.000000
63.115009 -60.132385 2.676467 1.000000
63.115009 -60.132385 2.225328 1.000000
63.115009 -60.132385 1.774672 1.000000
63.115009 -60.132385 1.323532 1.000000
63.115009 -60.132385 0.870939 1.000000
63.115009 -60.132385 0.415910 1.000000
63.276299 -60.369717 0.000006 0.225510
64.676575 -62.430172 0.000005 0.225379
65.649818 -63.862267 0.000004 0.228730
66.366837 -64.917328 -0.000010 0.333379
63.245117 -60.153931 5.426461 1.000000
63.245113 -60.153923 4.954426 1.000000
63.245110 -60.153923 4.489016 1.000000
63.245110 -60.153923 4.029119 1.000000
63.245113 -60.153923 3.573666 1.000000
63.245113 -60.153923 3.121631 1.000000
63.245110 -60.153923 2.672016 1.000000
63.245110 -60.153923 2.223845 1.000000
63.245110 -60.153923 1.776155 1.000000
63.245110 -60.153923 1.327984 1.000000
63.245113 -60.153923 0.878369 1.000000
63.245113 -60.153923 0.426334 1.000000
63.354336 -60.317081 0.000006 0.204579
64.740189 -62.387260 0.000005 0.241164
65.703415 -63.826115 0.000004 0.184987
66.413048 -64.886154 -0.000010 0.329885
63.373520 -60.175186 5.404227 1.000000
63.373520 -60.175182 4.935254 1.000000
63.373520 -60.175182 4.472864 1.000000
63.373516 -60.175179 4.015952 1.000000
63.373516 -60.175179 3.563454 1.000000
63.373516 -60.175179 3.114352 1.000000
63.373516 -60.175179 2.667655 1.000000
63.373520 -60.175182 2.222393 1.000000
63.373520 -60.175182 1.777607 1.000000
63.373516 -60.175179 1.332344 1.000000
63.373516 -60.175179 0.885647 1.000000
63.373516 -60.175179 0.436546 1.000000
63.432739 -60.264992 0.000006 0.202640
64.804108 -62.344795 0.000005 0.206817
65.757263 -63.790337 0.000004 0.181385
66.459473 -64.855309 -0.000010 0.343862
63.500278 -60.196171 5.382442 1.000000
63.500275 -60.196167 4.916471 1.000000
63.500278 -60.196167 4.457040 1.000000
63.500278 -60.196167 4.003051 1.000000
63.500275 -60.196167 3.553449 1.000000
63.500278 -60.196167 3.107221 1.000000
63.500278 -60.196167 2.663383 1.000000
63.500275 -60.196167 2.220970 1.000000
63.500275 -60.196167 1.779030 1.000000
63.500278 -60.196167 1.336617 1.000000
63.500278 -60.196167 0.892778 1.000000
63.500275 -60.196167 0.446551 1.000000
63.500278 -60.196167 -0.003051 1.000000
64.868317 -62.302780 0.000005 0.236102
65.811356 -63.754940 0.000004 0.212801
66.527870 -64.858276 0.009994 1.000000
63.625427 -60.216888 5.361098 1.000000
63.625427 -60.216888 4.898066 1.000000
63.625427 -60.216888 4.441535 1.000000
63.625427 -60.216888 3.990411 1.000000
63.625427 -60.216888 3.543646 1.000000
63.625427 -60.216888 3.100234 1.000000
63.625427 -60.216888 2.659197 1.000000
63.625427 -60.216888 2.219575 1.000000
63.625427 -60.216888 1.780425 1.000000
63.625427 -60.216888 1.340803 1.000000
63.625427 -60.216888 0.899765 1.000000
63.625427 -60.216888 0.456354 1.000000
63.625427 -60.216888 0.009589 1.000000
64.932816 -62.261208 0.000005 0.246897
65.865700 -63.719921 0.000004 0.270928
66.574501 -64.828247 0.009998 1.000000
63.749016 -60.237350 5.340183 1.000000
63.749016 -60.237347 4.880033 1.000000
63.749016 -60.237350 4.426342 1.000000
63.749016 -60.237347 3.978025 1.000000
63.749016 -60.237347 3.534041 1.000000
63.749016 -60.237347 3.093388 1.000000
63.749016 -60.237347 2.655095 1.000000
63.749016 -60.237343 2.218209 1.000000
63.749016 -60.237343 1.781791 1.000000
63.749016 -60.237347 1.344905 1.000000
63.749016 -60.237347 0.906612 1.000000
63.749016 -60.237347 0.465959 1.000000
63.749016 -60.237347 0.021975 1.000000
64.997612 -62.220093 0.000005 0.190241
65.920280 -63.685280 0.000004 0.207822
66.621338 -64.798538 0.010001 1.000000
63.871078 -60.257557 5.319688 1.000000
63.871078 -60.257553 4.862361 1.000000
63.871078 -60.257553 4.411454 1.000000
63.871078 -60.257553 3.965888 1.000000
63.871078 -60.257553 3.524628 1.000000
63.871078 -60.257553 3.086679 1.000000
63.871078 -60.257553 2.651075 1.000000
63.871078 -60.257553 2.216870 1.000000
63.871078 -60.257553 1.783130 1.000000
63.871078 -60.257553 1.348925 1.000000
63.871078 -60.257553 0.913321 1.000000
63.871078 -60.257553 0.475372 1.000000
63.871078 -60.257553 0.034112 1.000000
65.062683 -62.179428 0.000005 0.231183
65.975105 -63.651024 0.000004 0.246119
66.668373 -64.769157 0.010003 1.000000
63.991661 -60.277519 5.299603 1.000000
63.991661 -60.277519 4.845042 1.000000
63.991661 -60.277515 4.396864 1.000000
63.991661 -60.277519 3.953993 1.000000
63.991661 -60.277519 3.515404 1.000000
63.991661 -60.277515 3.080104 1.000000
63.991661 -60.277519 2.647136 1.000000
63.991661 -60.277515 2.215558 1.000000
63.991661 -60.277515 1.784442 1.000000
63.991661 -60.277519 1.352864 1.000000
63.991661 -60.277519 0.919896 1.000000
63.991661 -60.277519 0.484596 1.000000
63.991661 -60.277519 0.046007 1.000000
65.128044 -62.139221 0.000005 0.273992
66.030174 -63.617149 0.000004 0.268667
66.694786 -64.705971 -0.000010 0.344366
64.110802 -60.297245 5.279917 1.000000
64.110802 -60.297241 4.828069 1.000000
64.110802 -60.297241 4.382564 1.000000
64.110802 -60.297241 3.942336 1.000000
64.110802 -60.297241 3.506362 1.000000
64.110802 -60.297241 3.073660 1.000000
64.110802 -60.297245 2.643275 1.000000
64.110802 -60.297241 2.214272 1.000000
64.110802 -60.297241 1.785728 1.000000
64.110802 -60.297245 1.356725 1.000000
64.110802 -60.297241 0.926339 1.000000
64.110802 -60.297241 0.493637 1.000000
64.110802 -60.297241 0.057664 1.000000
65.193680 -62.099468 0.000005 0.236198
66.085464 -63.583656 0.000004 0.201144
66.742470 -64.677094 -0.000010 0.334646
64.228531 -60.316734 5.260624 1.000000
64.228531 -60.316730 4.811434 1.000000
64.228531 -60.316730 4.368549 1.000000
64.228531 -60.316730 3.930911 1.000000
64.228531 -60.316730 3.497502 1.000000
64.228531 -60.316730 3.067345 1.000000
64.228531 -60.316730 2.639491 1.000000
64.228531 -60.316734 2.213012 1.000000
64.228531 -60.316734 1.786989 1.000000
64.228531 -60.316730 1.360509 1.000000
64.228531 -60.316734 0.932655 1.000000
64.228531 -60.316730 0.502498 1.000000
64.228531 -60.316730 0.069089 1.000000
65.259598 -62.060177 0.000005 0.207882
66.140999 -63.550556 0.000004 0.248620
66.790344 -64.648552 -0.000010 0.336736
79.604744 -86.555191 6.357209 0.398840
80.176170 -87.537010 6.002303 0.405844
nan nan nan 0.000000
79.432053 -86.258476 4.529373 0.399161
80.566734 -88.208069 4.221137 0.395956
nan nan nan 0.000000
nan nan nan 0.000000
nan nan nan 0.000000
nan nan nan 0.000000
91.333099 -106.706635 -0.000000 0.337179
83.124084 -92.602051 0.000018 0.235049
79.599716 -86.546547 0.000022 0.214763
77.636833 -83.173965 0.000023 0.236413
76.383705 -81.020866 0.000023 0.208301
75.512733 -79.524376 0.000024 0.242972
74.871040 -78.421837 0.000023 0.218198
80.482315 -88.331879 6.852537 0.404196
80.091202 -87.648964 6.014068 0.400443
nan nan nan 0.000000
79.823730 -87.181915 4.677052 0.399130
nan nan nan 0.000000
nan nan nan 0.000000
nan nan nan 0.000000
nan nan nan 0.000000
nan nan nan 0.000000
91.086929 -106.848679 0.000003 0.338689
82.976608 -92.687195 0.000018 0.229137
79.494606 -86.607239 0.000021 0.211472
77.555313 -83.221031 0.000023 0.204567
76.317253 -81.059235 0.000023 0.202580
75.456749 -79.556702 0.000024 0.204196
74.822769 -78.449707 0.000024 0.212130
81.104263 -89.711166 7.229896 0.402396
79.932198 -87.631081 5.993746 0.400854
80.181122 -88.072853 5.456879 0.388235
80.338852 -88.352783 4.865810 0.395804
80.254074 -88.202324 4.202688 0.399176
nan nan nan 0.000000
nan nan nan 0.000000
nan nan nan 0.000000
nan nan nan 0.000000
90.839813 -106.989090 0.000002 0.338766
82.828552 -92.771301 0.000018 0.225415
79.389069 -86.667183 0.000021 0.225211
77.473473 -83.267525 0.000023 0.219742
76.250526 -81.097137 0.000023 0.231578
75.400536 -79.588631 0.000023 0.203454
74.774300 -78.477234 0.000023 0.205500
79.566696 -87.237976 6.501219 0.407324
80.193733 -88.369171 6.160460 0.394293
80.083412 -88.170158 5.463660 0.406836
80.816551 -89.492783 5.047996 0.400946
80.575584 -89.058060 4.306667 0.397345
nan nan nan 0.000000
nan nan nan 0.000000
nan nan nan 0.000000
nan nan nan 0.000000
90.591690 -107.127701 0.000005 0.337514
82.679909 -92.854378 0.000018 0.231913
79.283127 -86.726395 0.000022 0.229125
77.391312 -83.313446 0.000023 0.230585
76.183548 -81.134567 0.000023 0.265208
75.344101 -79.620171 0.000024 0.188195
74.725647 -78.504433 0.000023 0.212669
79.244728 -86.909508 6.390265 0.396124
80.294540 -88.835007 6.259116 0.398611
79.963280 -88.227440 5.462264 0.405798
nan nan nan 0.000000
nan nan nan 0.000000
nan nan nan 0.000000
nan nan nan 0.000000
nan nan nan 0.000000
nan nan nan 0.000000
90.342636 -107.264633 0.000004 0.338140
82.530693 -92.936417 0.000018 0.234797
79.176773 -86.784874 0.000021 0.215517
77.308823 -83.358788 0.000022 0.209258
76.116302 -81.171539 0.000023 0.234367
75.287453 -79.651314 0.000023 0.249961
74.676796 -78.531288 0.000023 0.207966
79.318237 -87.305534 6.486284 0.410849
80.232536 -89.010712 6.286127 0.401236
79.964996 -88.511749 5.507919 0.403464
80.166374 -88.887314 4.922971 0.397391
nan nan nan 0.000000
nan nan nan 0.000000
nan nan nan 0.000000
nan nan nan 0.000000
nan nan nan 0.000000
90.092606 -107.399765 0.000007 0.338125
82.380905 -93.017410 0.000018 0.234079
79.070015 -86.842598 0.000020 0.232930
77.226028 -83.403564 0.000022 0.215745
76.048805 -81.208038 0.000023 0.202783
75.230591 -79.682068 0.000023 0.191929
74.627762 -78.557800 0.000023 0.229149
79.535690 -87.986084 6.662374 0.382055
nan nan nan 0.000000
nan nan nan 0.000000
nan nan nan 0.000000
nan nan nan 0.000000
nan nan nan 0.000000
nan nan nan 0.000000
nan nan nan 0.000000
nan nan nan 0.000000
89.841667 -107.533211 0.000005 0.337942
82.230553 -93.097366 0.000017 0.228335
78.962852 -86.899582 0.000020 0.214081
77.142914 -83.447754 0.000022 0.207475
75.981049 -81.244064 0.000023 0.216008
75.173508 -79.712418 0.000023 0.281975
74.578545 -78.583969 0.000023 0.208875
nan nan nan 0.000000
79.838638 -88.852890 6.216298 0.396582
nan nan nan 0.000000
nan nan nan 0.000000
nan nan nan 0.000000
nan nan nan 0.000000
nan nan nan 0.000000
nan nan nan 0.000000
nan nan nan 0.000000
89.589767 -107.664833 0.000008 0.338476
82.079643 -93.176254 0.000017 0.235049
78.855293 -86.955811 0.000020 0.231482
77.059502 -83.491364 0.000022 0.231315
75.913048 -81.279610 0.000023 0.225726
75.116219 -79.742363 0.000023 0.182390
74.529152 -78.609787 0.000023 0.284620
79.480400 -88.449997 6.759169 0.409049
79.758972 -88.996727 6.236063 0.396078
nan nan nan 0.000000
80.023445 -89.515793 4.995770 0.402304
nan nan nan 0.000000
nan nan nan 0.000000
nan nan nan 0.000000
nan nan nan 0.000000
nan nan nan 0.000000
89.244865 -107.613953 0.009977 1.000000
81.928192 -93.254089 0.000017 0.216774
78.747345 -87.011292 0.000020 0.225917
76.975784 -83.534393 0.000021 0.200581
75.844795 -81.314690 0.000022 0.212310
75.058716 -79.771919 0.000022 0.239848
74.479576 -78.635269 0.000023 0.221537
79.633743 -89.052460 6.911188 0.397406
nan nan nan 0.000000
nan nan nan 0.000000
nan nan nan 0.000000
nan nan nan 0.000000
nan nan nan 0.000000
nan nan nan 0.000000
nan nan nan 0.000000
nan nan nan 0.000000
89.083282 -107.922867 0.000010 0.337377
81.776199 -93.330872 0.000017 0.213650
78.639015 -87.066017 0.000019 0.249075
76.891769 -83.576836 0.000021 0.222602
75.776306 -81.349289 0.000022 0.220663
75.001015 -79.801064 0.000022 0.218892
74.429817 -78.660400 0.000022 0.207954
79.211533 -88.504440 6.741209 0.391135
nan nan nan 0.000000
nan nan nan 0.000000
nan nan nan 0.000000
nan nan nan 0.000000
nan nan nan 0.000000
nan nan nan 0.000000
nan nan nan 0.000000
nan nan nan 0.000000
88.828720 -108.049248 0.000009 0.338796
81.623680 -93.406593 0.000016 0.233158
78.530304 -87.119987 0.000019 0.247890
76.807457 -83.618683 0.000021 0.226815
75.707573 -81.383408 0.000022 0.266991
74.943108 -79.829811 0.000022 0.246885
74.379890 -78.685188 0.000022 0.222351
79.100098 -88.577530 6.745427 0.389746
nan nan nan 0.000000
nan nan nan 0.000000
nan nan nan 0.000000
nan nan nan 0.000000
nan nan nan 0.000000
nan nan nan 0.000000
nan nan nan 0.000000
nan nan nan 0.000000
88.573242 -108.173798 0.000011 0.337484
81.470627 -93.481239 0.000016 0.233577
78.421211 -87.173187 0.000020 0.220173
76.722855 -83.659943 0.000021 0.201994
75.638603 -81.417046 0.000022 0.248465
74.885010 -79.858147 0.000022 0.260277
74.329788 -78.709625 0.000022 0.196440
nan nan nan 0.000000
nan nan nan 0.000000
nan nan nan 0.000000
nan nan nan 0.000000
nan nan nan 0.000000
nan nan nan 0.000000
108.171104 -150.109650 6.273940 0.409735
107.767151 -149.258911 3.408217 0.407935
nan nan nan 0.000000
88.316917 -108.296570 0.000013 0.337926
81.317062 -93.554817 0.000016 0.231865
78.311760 -87.225632 0.000019 0.224146
76.637970 -83.700615 0.000021 0.237538
75.569405 -81.450203 0.000021 0.235946
74.826706 -79.886086 0.000022 0.208660
74.279526 -78.733711 0.000022 0.229101
nan nan nan 0.000000
nan nan nan 0.000000
nan nan nan 0.000000
nan nan nan 0.000000
nan nan nan 0.000000
106.729721 -148.455688 8.960402 0.401633
107.316315 -149.713623 6.238456 0.396933
106.985626 -149.004471 3.399006 0.401801
nan nan nan 0.000000
88.059769 -108.417603 0.000012 0.338216
81.162979 -93.627319 0.000016 0.231698
78.201942 -87.277313 0.000019 0.234762
76.552803 -83.740700 0.000021 0.209665
75.499969 -81.482880 0.000021 0.231028
74.768211 -79.913612 0.000021 0.245628
74.229088 -78.757446 0.000022 0.196979
nan nan nan 0.000000
nan nan nan 0.000000
nan nan nan 0.000000
nan nan nan 0.000000
nan nan nan 0.000000
106.411743 -149.184784 9.003733 0.410040
96.787392 -128.163239 5.060419 0.405844
107.232101 -150.976624 3.429992 0.409079
nan nan nan 0.000000
87.801758 -108.536804 0.000013 0.337957
81.008408 -93.698753 0.000015 0.239309
78.091766 -87.328217 0.000019 0.234462
76.467354 -83.780182 0.000021 0.199983
75.430313 -81.515060 0.000021 0.212609
74.709526 -79.940727 0.000022 0.229173
74.178490 -78.780823 0.000022 0.251014
nan nan nan 0.000000
nan nan nan 0.000000
nan nan nan 0.000000
nan nan nan 0.000000
nan nan nan 0.000000
96.533272 -128.658752 7.136396 0.405753
106.872307 -151.664276 6.316510 0.414420
106.218292 -150.209030 3.411701 0.371069
nan nan nan 0.000000
87.542931 -108.654221 0.000012 0.338750
80.853333 -93.769104 0.000015 0.251170
77.981239 -87.378357 0.000019 0.244659
76.381638 -83.819069 0.000020 0.210922
75.360435 -81.546768 0.000021 0.231542
74.650658 -79.967430 0.000021 0.197410
74.127724 -78.803856 0.000021 0.273980
nan nan nan 0.000000
nan nan nan 0.000000
nan nan nan 0.000000
nan nan nan 0.000000
95.844543 -128.180908 9.124001 0.412787
96.111526 -128.786240 7.131880 0.407843
95.761299 -127.992157 5.032088 0.397818
nan nan nan 0.000000
nan nan nan 0.000000
87.283279 -108.769791 0.000013 0.340047
80.697769 -93.838364 0.000015 0.230681
77.870361 -87.427727 0.000018 0.221669
76.295647 -83.857353 0.000020 0.201551
75.290329 -81.577980 0.000021 0.237071
74.591599 -79.993729 0.000021 0.223105
74.076805 -78.826523 0.000021 0.258338
nan nan nan 0.000000
nan nan nan 0.000000
nan nan nan 0.000000
nan nan nan 0.000000
95.518814 -128.516754 9.144403 0.404334
96.113495 -129.890976 7.214953 0.408606
95.447701 -128.352417 5.042141 0.415579
nan nan nan 0.000000
nan nan nan 0.000000
87.022842 -108.883583 0.000013 0.338399
80.541733 -93.906540 0.000014 0.231518
77.759148 -87.476326 0.000018 0.217935
76.209396 -83.895035 0.000020 0.271910
75.220016 -81.608704 0.000020 0.212202
74.532356 -80.019608 0.000021 0.243283
74.025726 -78.848846 0.000021 0.227952
nan nan nan 0.000000
nan nan nan 0.000000
nan nan nan 0.000000
nan nan nan 0.000000
95.202950 -128.882233 9.168736 0.389288
95.683929 -130.015350 7.210452 0.406806
95.230728 -128.947662 5.064819 0.412665
nan nan nan 0.000000
nan nan nan 0.000000
86.761604 -108.995537 0.000014 0.338735
80.385216 -93.973618 0.000014 0.228335
77.647583 -87.524124 0.000018 0.233194
76.122879 -83.932114 0.000020 0.255346
75.149483 -81.638931 0.000020 0.263413
74.472939 -80.045074 0.000021 0.221645
73.974487 -78.870804 0.000021 0.217133
nan nan nan 0.000000
nan nan nan 0.000000
nan nan nan 0.000000
nan nan nan 0.000000
95.536713 -130.816086 9.388703 0.405676
95.412552 -130.517807 7.239809 0.407721
95.257339 -130.144943 5.119549 0.371084
95.243538 -130.111786 3.038520 0.370565
95.335770 -130.333374 0.957554 0.379705
86.499634 -109.105759 0.000009 0.338293
80.228241 -94.039612 0.000014 0.225965
77.535698 -87.571167 0.000018 0.225355
76.036110 -83.968597 0.000019 0.231794
75.078743 -81.668663 0.000020 0.199349
74.413345 -80.070129 0.000021 0.227389
73.923103 -78.892403 0.000021 0.203980
nan nan nan 0.000000
nan nan nan 0.000000
nan nan nan 0.000000
nan nan nan 0.000000
95.332306 -131.501923 9.452687 0.416556
94.594795 -129.694687 7.151857 0.412314
103.861099 -152.401215 6.291506 0.408194
nan nan nan 0.000000
nan nan nan 0.000000
86.236824 -109.213982 0.000013 0.338354
80.070808 -94.104507 0.000014 0.226635
77.423492 -87.617416 0.000017 0.229903
75.949081 -84.004463 0.000019 0.214536
75.007797 -81.697906 0.000020 0.220340
74.353577 -80.094765 0.000020 0.233972
73.871567 -78.913643 0.000020 0.237526
nan nan nan 0.000000
nan nan nan 0.000000
nan nan nan 0.000000
nan nan nan 0.000000
94.113724 -129.673080 9.205101 0.400015
94.560669 -130.790527 7.234122 0.399863
93.824715 -128.950500 5.038624 0.411566
107.903145 -164.149338 3.632507 0.413931
nan nan nan 0.000000
85.973312 -109.320465 0.000013 0.338994
79.912918 -94.168304 0.000013 0.221669
77.310959 -87.662888 0.000017 0.264442
75.861809 -84.039726 0.000019 0.225092
74.936653 -81.726654 0.000020 0.228790
74.293633 -80.118988 0.000020 0.261917
73.819885 -78.934525 0.000020 0.222542
nan nan nan 0.000000
nan nan nan 0.000000
nan nan nan 0.000000
nan nan nan 0.000000
94.362740 -131.506821 9.411790 0.388235
94.174820 -131.027298 7.240526 0.399725
94.080521 -130.786682 5.127122 0.392874
107.009796 -163.778503 3.621482 0.422644
nan nan nan 0.000000
85.709000 -109.424942 0.000021 0.338643
79.754593 -94.230988 0.000013 0.212250
77.198112 -87.707565 0.000017 0.229005
75.774292 -84.074379 0.000018 0.245293
74.865303 -81.754906 0.000019 0.239884
74.233528 -80.142784 0.000020 0.241200
73.768059 -78.955048 0.000020 0.281819
nan nan nan 0.000000
nan nan nan 0.000000
nan nan nan 0.000000
nan nan nan 0.000000
93.766197 -131.207870 9.354910 0.405035
nan nan nan 0.000000
94.133011 -132.163467 5.191116 0.396460
nan nan nan 0.000000
nan nan nan 0.000000
85.444145 -109.528030 0.000004 0.227330
79.595833 -94.292564 0.000013 0.232727
77.084953 -87.751457 0.000017 0.215302
75.686539 -84.108421 0.000018 0.208432
74.793762 -81.782654 0.000019 0.240374
74.173256 -80.166168 0.000019 0.291693
73.716095 -78.975204 0.000020 0.215661
nan nan nan 0.000000
nan nan nan 0.000000
nan nan nan 0.000000
nan nan nan 0.000000
nan nan nan 0.000000
92.818375 -129.954788 7.118562 0.411139
102.618889 -156.028809 6.435178 0.415549
nan nan nan 0.000000
nan nan nan 0.000000
85.178459 -109.628967 0.000004 0.229161
79.436653 -94.353043 0.000013 0.222937
76.971497 -87.794563 0.000016 0.220460
75.598541 -84.141846 0.000018 0.261163
74.722031 -81.809906 0.000019 0.223033
74.112823 -80.189117 0.000019 0.253743
73.663986 -78.995003 0.000019 0.238531
nan nan nan 0.000000
nan nan nan 0.000000
nan nan nan 0.000000
nan nan nan 0.000000
nan nan nan 0.000000
92.551529 -130.491623 7.152194 0.397360
102.445160 -157.381927 6.494508 0.408133
102.186699 -156.679443 3.484849 0.405982
nan nan nan 0.000000
84.912064 -109.728035 0.000004 0.229651
79.277046 -94.412399 0.000013 0.237454
76.857742 -87.836868 0.000016 0.220855
75.510323 -84.174660 0.000017 0.244671
74.650108 -81.836655 0.000019 0.235599
74.052231 -80.211655 0.000019 0.239609
73.611740 -79.014435 0.000019 0.199803
nan nan nan 0.000000
nan nan nan 0.000000
nan nan nan 0.000000
nan nan nan 0.000000
nan nan nan 0.000000
101.443314 -156.484711 9.404348 0.407309
101.787987 -157.442093 6.486244 0.410346
101.634712 -157.016357 3.486943 0.409842
nan nan nan 0.000000
84.644989 -109.825241 0.000003 0.229532
79.117035 -94.470642 0.000012 0.227665
76.743690 -87.878387 0.000016 0.230513
75.421867 -84.206856 0.000018 0.230692
74.578003 -81.862900 0.000018 0.224134
73.991478 -80.233765 0.000019 0.247029
73.559357 -79.033501 0.000019 0.207858
nan nan nan 0.000000
nan nan nan 0.000000
nan nan nan 0.000000
nan nan nan 0.000000
nan nan nan 0.000000
100.968513 -157.034363 9.433744 0.426719
100.218674 -154.905090 6.342968 0.404959
100.664825 -156.172028 3.468603 0.455940
100.924072 -156.908188 0.518625 0.446387
84.377251 -109.920601 0.000003 0.228586
78.956619 -94.527771 0.000012 0.223955
76.629356 -87.919098 0.000016 0.232847
75.333199 -84.238426 0.000018 0.228909
74.505714 -81.888649 0.000018 0.262587
73.930580 -80.255455 0.000019 0.257153
73.506851 -79.052193 0.000019 0.217121
nan nan nan 0.000000
nan nan nan 0.000000
nan nan nan 0.000000
nan nan nan 0.000000
nan nan nan 0.000000
99.723541 -155.362793 9.270735 0.409552
99.895050 -155.860886 6.382084 0.404288
100.264626 -156.934204 3.478225 0.406973
nan nan nan 0.000000
84.108841 -110.014069 0.000003 0.229639
78.795807 -94.583771 0.000012 0.233050
76.514740 -87.959015 0.000015 0.230716
75.244308 -84.269386 0.000017 0.200366
74.433243 -81.913879 0.000018 0.212442
73.869530 -80.276718 0.000018 0.282154
73.454208 -79.070526 0.000019 0.221776
nan nan nan 0.000000
nan nan nan 0.000000
nan nan nan 0.000000
nan nan nan 0.000000
nan nan nan 0.000000
nan nan nan 0.000000
99.614807 -156.980530 6.429717 0.406561
99.598274 -156.931396 3.474670 0.397314
nan nan nan 0.000000
83.839798 -110.105667 0.000002 0.226683
78.634613 -94.638657 0.000011 0.235863
76.399841 -87.998131 0.000015 0.224314
75.155197 -84.299728 0.000017 0.224960
74.360603 -81.938614 0.000017 0.293284
73.808327 -80.297554 0.000018 0.234319
73.401443 -79.088493 0.000018 0.201886
nan nan nan 0.000000
nan nan nan 0.000000
nan nan nan 0.000000
nan nan nan 0.000000
nan nan nan 0.000000
99.232933 -157.834488 9.449991 0.411810
nan nan nan 0.000000
99.135155 -157.537079 3.481683 0.401266
nan nan nan 0.000000
83.570114 -110.195374 0.000002 0.229879
78.473030 -94.692406 0.000011 0.229508
76.284683 -88.036446 0.000014 0.219251
75.065887 -84.329437 0.000017 0.225020
74.287788 -81.962830 0.000018 0.307299
73.746986 -80.317955 0.000018 0.225355
73.348549 -79.106087 0.000018 0.237299
nan nan nan 0.000000
nan nan nan 0.000000
nan nan nan 0.000000
nan nan nan 0.000000
nan nan nan 0.000000
98.639198 -158.060181 9.452547 0.405753
nan nan nan 0.000000
nan nan nan 0.000000
nan nan nan 0.000000
83.299812 -110.283218 0.000002 0.230046
78.311081 -94.745033 0.000010 0.229891
76.169250 -88.073952 0.000015 0.235516
74.976364 -84.358528 0.000016 0.257788
74.214813 -81.986542 0.000017 0.220017
73.685509 -80.337936 0.000018 0.250954
73.295532 -79.123314 0.000018 0.203382
nan nan nan 0.000000
nan nan nan 0.000000
nan nan nan 0.000000
nan nan nan 0.000000
nan nan nan 0.000000
nan nan nan 0.000000
97.849197 -157.661163 6.434714 0.405386
nan nan nan 0.000000
nan nan nan 0.000000
83.028900 -110.369164 0.000001 0.230752
78.148773 -94.796524 0.000010 0.233924
76.053558 -88.110657 0.000014 0.230561
74.886642 -84.386986 0.000016 0.237586
74.141670 -82.009750 0.000017 0.231363
73.623886 -80.357483 0.000017 0.223225
73.242401 -79.140167 0.000018 0.245090
nan nan nan 0.000000
nan nan nan 0.000000
nan nan nan 0.000000
nan nan nan 0.000000
nan nan nan 0.000000
nan nan nan 0.000000
nan nan nan 0.000000
nan nan nan 0.000000
nan nan nan 0.000000
82.757393 -110.453209 0.000001 0.233337
77.986099 -94.846878 0.000010 0.231949
75.937622 -88.146545 0.000014 0.232739
74.796722 -84.414818 0.000016 0.207200
74.068367 -82.032440 0.000017 0.194023
73.562126 -80.376602 0.000017 0.245293
73.189156 -79.156654 0.000018 0.247687
nan nan nan 0.000000
nan nan nan 0.000000
nan nan nan 0.000000
nan nan nan 0.000000
nan nan nan 0.000000
nan nan nan 0.000000
nan nan nan 0.000000
nan nan nan 0.000000
nan nan nan 0.000000
82.485313 -110.535355 0.000001 0.226252
77.823082 -94.896095 0.000010 0.231782
75.821426 -88.181625 0.000014 0.248752
74.706619 -84.442032 0.000015 0.243833
73.994904 -82.054619 0.000017 0.213937
73.500237 -80.395287 0.000017 0.278444
73.135796 -79.172760 0.000017 0.214344
nan nan nan 0.000000
nan nan nan 0.000000
nan nan nan 0.000000
nan nan nan 0.000000
nan nan nan 0.000000
nan nan nan 0.000000
nan nan nan 0.000000
nan nan nan 0.000000
nan nan nan 0.000000
82.212662 -110.615616 0.000000 0.230262
77.659729 -94.944183 0.000009 0.227689
75.705002 -88.215889 0.000013 0.232548
74.616318 -84.468613 0.000015 0.223955
73.921295 -82.076294 0.000016 0.225498
73.438225 -80.413544 0.000017 0.206805
73.082321 -79.188507 0.000017 0.246227
nan nan nan 0.000000
nan nan nan 0.000000
nan nan nan 0.000000
nan nan nan 0.000000
nan nan nan 0.000000
nan nan nan 0.000000
nan nan nan 0.000000
nan nan nan 0.000000
nan nan nan 0.000000
81.939453 -110.693962 -0.000000 0.228060
77.496040 -94.991119 0.000009 0.235707
75.588333 -88.249352 0.000013 0.212430
74.525841 -84.494553 0.000015 0.244886
73.847527 -82.097443 0.000016 0.226360
73.376083 -80.431366 0.000016 0.231925
73.028740 -79.203873 0.000017 0.257596
nan nan nan 0.000000
nan nan nan 0.000000
nan nan nan 0.000000
nan nan nan 0.000000
nan nan nan 0.000000
nan nan nan 0.000000
nan nan nan 0.000000
nan nan nan 0.000000
nan nan nan 0.000000
81.665718 -110.770401 -0.000000 0.230286
77.332031 -95.036919 0.000009 0.236629
75.471436 -88.281998 0.000012 0.209964
74.435181 -84.519867 0.000014 0.215900
73.773621 -82.118080 0.000015 0.274818
73.313812 -80.448746 0.000016 0.213016
72.975052 -79.218857 0.000016 0.214476
nan nan nan 0.000000
nan nan nan 0.000000
nan nan nan 0.000000
nan nan nan 0.000000
