# This PCD file was generated using the MATLABÂ® pcwrite function
# from Computer Vision ToolboxÂ®.
# .PCD v.7 - Point Cloud Data file format
VERSION .7
FIELDS x y z intensity
SIZE 4 4 4 4
TYPE F F F F
COUNT 1 1 1 1
WIDTH 1188
HEIGHT 1
VIEWPOINT 0 0 0 1 0 0 0
POINTS 1188
DATA ascii
-87.714508 -47.136169 7.279537 1.000000
-87.714500 -47.136169 5.762990 1.000000
-87.714508 -47.136169 4.254565 1.000000
-87.714615 -47.136124 2.750987 1.000000
-87.714615 -47.136124 1.249013 1.000000
-82.868645 -48.968956 -0.000046 0.228921
-67.603973 -54.742321 -0.000021 0.338125
-61.050385 -57.221004 -0.000009 0.338949
-57.400417 -58.601486 -0.000002 0.338582
-55.070251 -59.482796 0.000000 0.334112
-53.450706 -60.095337 0.000001 0.330114
-52.257526 -60.546616 -0.000007 0.335988
nan nan nan 0.000000
-86.184296 -47.383705 11.584083 1.000000
-86.184303 -47.383705 10.074306 1.000000
-86.184311 -47.383701 8.582413 1.000000
-86.184311 -47.383701 7.104935 1.000000
-86.184319 -47.383698 5.638544 1.000000
-86.184319 -47.383698 4.180005 1.000000
-86.184418 -47.383659 2.726150 1.000000
-86.184418 -47.383659 1.273849 1.000000
-82.767166 -48.703468 -0.000046 0.230381
-67.543190 -54.583252 -0.000022 0.337530
-61.007050 -57.107632 -0.000009 0.337926
-57.366810 -58.513561 -0.000001 0.338170
-55.042854 -59.411118 0.000000 0.341772
-53.427620 -60.034950 0.000001 0.341436
-52.237625 -60.494549 -0.000007 0.341512
nan nan nan 0.000000
-84.752060 -47.615387 11.277720 1.000000
-84.752060 -47.615387 9.816205 1.000000
-84.752068 -47.615387 8.372000 1.000000
-84.752068 -47.615383 6.941752 1.000000
-84.752068 -47.615383 5.522235 1.000000
-84.752075 -47.615379 4.110320 1.000000
-84.752167 -47.615345 2.702939 1.000000
-84.752167 -47.615345 1.297061 1.000000
-82.663849 -48.438694 -0.000046 0.230130
-67.481247 -54.424633 -0.000019 0.337407
-60.962925 -56.994568 -0.000008 0.338201
-57.332588 -58.425877 -0.000001 0.335912
-55.014957 -59.339630 0.000001 0.334951
-53.404125 -59.974724 0.000001 0.331014
-52.217365 -60.442619 -0.000007 0.341527
nan nan nan 0.000000
-83.408440 -47.832741 10.990753 1.000000
-83.408447 -47.832737 9.574445 1.000000
-83.408447 -47.832737 8.174907 1.000000
-83.408447 -47.832737 6.788898 1.000000
-83.408447 -47.832737 5.413289 1.000000
-83.408455 -47.832733 4.045046 1.000000
-83.408539 -47.832699 2.681196 1.000000
-83.408539 -47.832699 1.318803 1.000000
-82.558678 -48.174644 -0.000046 0.226887
-67.418251 -54.266426 -0.000021 0.337636
-60.918015 -56.881809 -0.000008 0.334279
-57.297756 -58.338428 -0.000000 0.340047
-54.986561 -59.268341 0.000001 0.339696
-53.380199 -59.914665 0.000001 0.338552
-52.196739 -60.390835 -0.000007 0.340749
nan nan nan 0.000000
-82.145378 -48.037064 10.721416 1.000000
-82.145386 -48.037060 9.347535 1.000000
-82.145386 -48.037060 7.989924 1.000000
-82.145386 -48.037056 6.645437 1.000000
-82.145386 -48.037056 5.311036 1.000000
-82.145393 -48.037056 3.983781 1.000000
-82.145470 -48.037025 2.660789 1.000000
-82.145470 -48.037025 1.339211 1.000000
-82.145477 -48.037022 0.016214 1.000000
-67.354156 -54.108662 -0.000021 0.336690
-60.872314 -56.769371 -0.000007 0.338643
-57.262314 -58.251228 -0.000000 0.340444
-54.957668 -59.197254 0.000001 0.338430
-53.355858 -59.854774 0.000001 0.337346
-52.175751 -60.339195 -0.000007 0.329366
-80.955750 -48.229507 11.821131 1.000000
-80.955765 -48.229500 10.468153 1.000000
-80.955765 -48.229500 9.134167 1.000000
-80.955765 -48.229500 7.815983 1.000000
-80.955772 -48.229500 6.510536 1.000000
-80.955765 -48.229500 5.214887 1.000000
-80.955849 -48.229465 3.926178 1.000000
-80.955841 -48.229465 2.641600 1.000000
-80.955841 -48.229465 1.358399 1.000000
-80.955849 -48.229465 0.073822 1.000000
-67.288956 -53.951355 -0.000023 0.338369
-60.825829 -56.657257 -0.000007 0.340581
-57.226261 -58.164280 0.000000 0.331212
-54.928280 -59.126369 0.000001 0.330831
-53.331100 -59.795055 0.000001 0.328313
-52.154404 -60.287701 -0.000008 0.335378
-79.833206 -48.411095 11.544430 1.000000
-79.833206 -48.411095 10.229566 1.000000
-79.833221 -48.411091 8.933168 1.000000
-79.833221 -48.411087 7.652121 1.000000
-79.833221 -48.411091 6.383456 1.000000
-79.833221 -48.411087 5.124309 1.000000
-79.833298 -48.411057 3.871909 1.000000
-79.833290 -48.411057 2.623524 1.000000
-79.833290 -48.411057 1.376476 1.000000
-79.833298 -48.411057 0.128091 1.000000
-67.222649 -53.794502 -0.000024 0.338186
-60.778564 -56.545464 -0.000007 0.334524
-57.189606 -58.077579 0.000000 0.334874
-54.898399 -59.055691 0.000002 0.325872
-53.263317 -59.753700 0.010008 1.000000
-52.132698 -60.236359 -0.000008 0.340307
-78.772141 -48.582737 11.283331 1.000000
-78.772141 -48.582733 10.004440 1.000000
-78.772156 -48.582729 8.743505 1.000000
-78.772156 -48.582729 7.497504 1.000000
-78.772148 -48.582733 6.263543 1.000000
-78.772156 -48.582726 5.038841 1.000000
-78.772217 -48.582703 3.820701 1.000000
-78.772217 -48.582703 2.606466 1.000000
-78.772217 -48.582703 1.393533 1.000000
-78.772217 -48.582703 0.179299 1.000000
-67.155258 -53.638115 -0.000025 0.338659
-60.730522 -56.434006 -0.000007 0.337728
-57.152344 -57.991138 0.000001 0.337636
-54.868023 -58.985222 0.000002 0.332708
-53.237862 -59.694626 0.010006 1.000000
-52.110634 -60.185169 -0.000008 0.337621
-77.767517 -48.745251 11.036566 1.000000
-77.767525 -48.745247 9.791670 1.000000
-77.767525 -48.745247 8.564251 1.000000
-77.767532 -48.745247 7.351369 1.000000
-77.767532 -48.745243 6.150212 1.000000
-77.767532 -48.745247 4.958064 1.000000
-77.767593 -48.745216 3.772305 1.000000
-77.767601 -48.745213 2.590347 1.000000
-77.767601 -48.745213 1.409653 1.000000
-77.767593 -48.745216 0.227696 1.000000
-66.974686 -53.531921 0.010028 1.000000
-60.681698 -56.322887 -0.000006 0.338170
-57.114487 -57.904961 0.000001 0.333440
-54.837154 -58.914967 0.000003 0.334234
-53.212017 -59.635723 0.009999 1.000000
-52.088215 -60.134132 -0.000008 0.340139
-76.814896 -48.899353 10.803001 1.000000
-76.814896 -48.899349 9.590282 1.000000
-76.814896 -48.899349 8.394588 1.000000
-76.814911 -48.899345 7.213056 1.000000
-76.814896 -48.899349 6.042941 1.000000
-76.814911 -48.899345 4.881607 1.000000
-76.814964 -48.899319 3.726496 1.000000
-76.814957 -48.899323 2.575088 1.000000
-76.814957 -48.899323 1.424912 1.000000
-76.814964 -48.899319 0.273504 1.000000
-67.017159 -53.326801 -0.000023 0.337255
-60.632103 -56.212112 -0.000006 0.337240
-57.076019 -57.819054 0.000002 0.333288
-54.805798 -58.844933 0.000003 0.338384
-53.227921 -59.557949 0.000001 0.324315
-52.065437 -60.083260 -0.000008 0.337087
-75.910233 -49.045696 10.581614 1.000000
-75.910248 -49.045689 9.399396 1.000000
-75.910240 -49.045692 8.233770 1.000000
-75.910248 -49.045689 7.081953 1.000000
-75.910248 -49.045689 5.941266 1.000000
-75.910240 -49.045692 4.809138 1.000000
-75.910294 -49.045666 3.683076 1.000000
-75.910294 -49.045666 2.560624 1.000000
-75.910294 -49.045666 1.439375 1.000000
-75.910294 -49.045666 0.316924 1.000000
-66.946548 -53.171844 -0.000028 0.230645
-60.581734 -56.101688 -0.000006 0.336507
-57.036953 -57.733414 0.000002 0.341558
-54.773949 -58.775116 0.000003 0.337896
-53.201096 -59.499130 0.000000 0.338430
-52.042305 -60.032543 -0.000008 0.325139
-75.049889 -49.184872 10.371481 1.000000
-75.049896 -49.184868 9.218208 1.000000
-75.049889 -49.184868 8.081127 1.000000
-75.049896 -49.184868 6.957513 1.000000
-75.049904 -49.184864 5.844759 1.000000
-75.049950 -49.184841 4.740356 1.000000
-75.049950 -49.184841 3.641862 1.000000
-75.049950 -49.184841 2.546897 1.000000
-75.049950 -49.184841 1.453103 1.000000
-75.049950 -49.184841 0.358137 1.000000
-66.874802 -53.017403 -0.000028 0.225115
-60.530594 -55.991611 -0.000005 0.338933
-56.997295 -57.648048 0.000002 0.339925
-54.741623 -58.705521 0.000003 0.333532
-53.173859 -59.440498 0.000001 0.337072
-52.018822 -59.981987 -0.000008 0.338720
-74.230659 -49.317394 10.171789 1.000000
-74.230667 -49.317390 9.046025 1.000000
-74.230667 -49.317390 7.936067 1.000000
-74.230667 -49.317390 6.839257 1.000000
-74.230675 -49.317387 5.753045 1.000000
-74.230721 -49.317364 4.674989 1.000000
-74.230713 -49.317368 3.602698 1.000000
-74.230721 -49.317364 2.533851 1.000000
-74.230721 -49.317364 1.466149 1.000000
-74.230713 -49.317368 0.397302 1.000000
-66.801987 -52.863472 -0.000028 0.239812
-60.478691 -55.881901 -0.000005 0.336660
-56.957039 -57.562962 0.000003 0.334874
-54.708805 -58.636158 0.000004 0.337499
-53.146210 -59.382061 0.000000 0.334203
-51.994984 -59.931602 -0.000008 0.338689
-73.449562 -49.443745 9.981780 1.000000
-73.449562 -49.443745 8.882193 1.000000
-73.449570 -49.443741 7.798043 1.000000
-73.449570 -49.443741 6.726736 1.000000
-73.449570 -49.443741 5.665780 1.000000
-73.449615 -49.443718 4.612790 1.000000
-73.449615 -49.443718 3.565432 1.000000
-73.449615 -49.443718 2.521438 1.000000
-73.449615 -49.443718 1.478562 1.000000
-73.449615 -49.443718 0.434568 1.000000
-66.728088 -52.710052 -0.000028 0.232440
-60.426018 -55.772552 -0.000004 0.338140
-56.916195 -57.478157 0.000003 0.338445
-54.675507 -58.567024 0.000004 0.333822
-53.118156 -59.323818 0.000001 0.335119
-51.970795 -59.881378 -0.000008 0.336049
-72.703926 -49.564362 9.800777 1.000000
-72.703934 -49.564362 8.726124 1.000000
-72.703934 -49.564362 7.666562 1.000000
-72.703941 -49.564358 6.619548 1.000000
-72.703934 -49.564358 5.582651 1.000000
-72.703979 -49.564339 4.553540 1.000000
-72.703979 -49.564339 3.529933 1.000000
-72.703979 -49.564339 2.509613 1.000000
-72.703979 -49.564339 1.490386 1.000000
-72.703979 -49.564339 0.470067 1.000000
-66.653130 -52.557152 -0.000028 0.225271
-60.372589 -55.663578 -0.000004 0.337514
-56.874756 -57.393642 0.000004 0.338491
-54.641724 -58.498123 0.000004 0.339635
-53.089699 -59.265770 0.000001 0.330800
-51.946259 -59.831329 -0.000008 0.343084
-71.991325 -49.679638 9.628164 1.000000
-71.991325 -49.679638 8.577293 1.000000
-71.991333 -49.679634 7.541174 1.000000
-71.991333 -49.679634 6.517327 1.000000
-71.991333 -49.679634 5.503376 1.000000
-71.991371 -49.679615 4.497035 1.000000
-71.991371 -49.679615 3.496079 1.000000
-71.991379 -49.679611 2.498337 1.000000
-71.991379 -49.679611 1.501663 1.000000
-71.991371 -49.679615 0.503921 1.000000
-66.577095 -52.404781 -0.000028 0.226061
-60.318398 -55.554977 -0.000004 0.336309
-56.832726 -57.309418 0.000005 0.330968
-54.607464 -58.429459 0.000004 0.333165
-53.060837 -59.207924 0.000001 0.342428
-51.921371 -59.781452 -0.000008 0.327047
-71.309547 -49.789925 9.463381 1.000000
-71.309540 -49.789925 8.435211 1.000000
-71.309555 -49.789925 7.421475 1.000000
-71.309547 -49.789925 6.419744 1.000000
-71.309593 -49.789902 5.427701 1.000000
-71.309586 -49.789906 4.443095 1.000000
-71.309586 -49.789906 3.463761 1.000000
-71.309586 -49.789906 2.487572 1.000000
-71.309586 -49.789906 1.512428 1.000000
-71.309586 -49.789906 0.536239 1.000000
-66.500008 -52.252945 -0.000028 0.232464
-60.263451 -55.446754 -0.000003 0.337438
-56.790112 -57.225491 0.000005 0.337057
-54.572723 -58.361038 0.000005 0.342138
-53.031574 -59.150280 0.000000 0.340673
-51.896137 -59.731750 -0.000008 0.333974
-70.656555 -49.895557 9.305916 1.000000
-70.656555 -49.895557 8.299437 1.000000
-70.656570 -49.895554 7.307090 1.000000
-70.656570 -49.895554 6.326494 1.000000
-70.656601 -49.895535 5.355381 1.000000
-70.656601 -49.895535 4.391549 1.000000
-70.656601 -49.895535 3.432878 1.000000
-70.656601 -49.895538 2.477285 1.000000
-70.656601 -49.895538 1.522715 1.000000
-70.656601 -49.895535 0.567122 1.000000
-66.421860 -52.101646 -0.000028 0.236664
-60.207745 -55.338921 -0.000003 0.336294
-56.746914 -57.141861 0.000005 0.337224
-54.537506 -58.292862 0.000005 0.332189
-53.001900 -59.092842 0.000001 0.335851
-51.870556 -59.682224 -0.000008 0.345327
-70.030540 -49.996826 9.155300 1.000000
-70.030540 -49.996826 8.169571 1.000000
-70.030548 -49.996826 7.197681 1.000000
-70.030548 -49.996826 6.237302 1.000000
-70.030579 -49.996803 5.286208 1.000000
-70.030579 -49.996803 4.342246 1.000000
-70.030579 -49.996803 3.403338 1.000000
-70.030579 -49.996803 2.467446 1.000000
-70.030579 -49.996803 1.532555 1.000000
-70.030579 -49.996803 0.596662 1.000000
-66.342659 -51.950897 -0.000028 0.239369
-60.151287 -55.231483 -0.000002 0.336522
-56.703129 -57.058537 0.000005 0.335485
-54.501816 -58.224934 0.000005 0.334905
-52.971836 -59.035614 0.000000 0.332906
-51.844627 -59.632877 -0.000008 0.340459
-69.429764 -50.094009 9.011101 1.000000
-69.429764 -50.094009 8.045235 1.000000
-69.429764 -50.094009 7.092932 1.000000
-69.429764 -50.094009 6.151907 1.000000
-69.429794 -50.093994 5.219981 1.000000
-69.429802 -50.093990 4.295043 1.000000
-69.429802 -50.093990 3.375056 1.000000
-69.429794 -50.093994 2.458025 1.000000
-69.429794 -50.093994 1.541975 1.000000
-69.429802 -50.093990 0.624943 1.000000
-66.262405 -51.800705 -0.000028 0.223380
-60.094082 -55.124435 -0.000002 0.336950
-56.658764 -56.975517 0.000006 0.337011
-54.465649 -58.157253 0.000005 0.335271
-52.941368 -58.978592 0.000000 0.340444
-51.818359 -59.583714 -0.000009 0.344427
-68.852722 -50.187355 8.872931 1.000000
-68.852722 -50.187355 7.926102 1.000000
-68.852722 -50.187355 6.992565 1.000000
-68.852722 -50.187355 6.070086 1.000000
-68.852760 -50.187332 5.156526 1.000000
-68.852753 -50.187336 4.249814 1.000000
-68.852753 -50.187336 3.347959 1.000000
-68.852753 -50.187336 2.448999 1.000000
-68.852753 -50.187336 1.551002 1.000000
-68.852753 -50.187336 0.652042 1.000000
-66.181107 -51.651081 -0.000028 0.234199
-60.036137 -55.017792 -0.000001 0.339925
-56.613823 -56.892811 0.000006 0.333089
-54.429012 -58.089828 0.000006 0.333135
-52.910500 -58.921791 0.000001 0.338903
-51.791748 -59.534737 -0.000008 0.329763
-68.297943 -50.277100 8.740423 1.000000
-68.297943 -50.277100 7.811848 1.000000
-68.297951 -50.277096 6.896310 1.000000
-68.297943 -50.277100 5.991613 1.000000
-68.297974 -50.277081 5.095667 1.000000
-68.297974 -50.277081 4.206437 1.000000
-68.297974 -50.277084 3.321970 1.000000
-68.297974 -50.277081 2.440341 1.000000
-68.297974 -50.277081 1.559658 1.000000
-68.297974 -50.277084 0.678030 1.000000
-66.098763 -51.502026 -0.000028 0.222387
-59.977440 -54.911556 -0.000001 0.342916
-56.568306 -56.810421 0.000007 0.336690
-54.391903 -58.022659 0.000006 0.345342
-52.879238 -58.865204 0.000001 0.336996
-51.764793 -59.485943 -0.000008 0.342596
-67.764114 -50.363453 8.613241 1.000000
-67.764114 -50.363453 7.702187 1.000000
-67.764122 -50.363449 6.803923 1.000000
-67.764145 -50.363434 5.916304 1.000000
-67.764145 -50.363438 5.037256 1.000000
-67.764145 -50.363434 4.164805 1.000000
-67.764145 -50.363438 3.297026 1.000000
-67.764145 -50.363434 2.432034 1.000000
-67.764145 -50.363434 1.567967 1.000000
-67.764145 -50.363438 0.702974 1.000000
-66.015381 -51.353542 -0.000028 0.237873
-59.842205 -54.848648 0.010021 1.000000
-56.522209 -56.728348 0.000007 0.333288
-54.354328 -57.955753 0.000006 0.339040
-52.847588 -58.808834 -0.000000 0.335073
-51.737495 -59.437340 -0.000008 0.339040
-67.250053 -50.446609 8.491083 1.000000
-67.250053 -50.446609 7.596858 1.000000
-67.250053 -50.446609 6.715187 1.000000
-67.250076 -50.446594 5.843962 1.000000
-67.250076 -50.446594 4.981153 1.000000
-67.250076 -50.446594 4.124818 1.000000
-67.250076 -50.446594 3.273067 1.000000
-67.250076 -50.446594 2.424053 1.000000
-67.250076 -50.446594 1.575948 1.000000
-67.250076 -50.446594 0.726932 1.000000
-65.930969 -51.205654 -0.000028 0.229544
-59.857838 -54.700325 0.000000 0.337392
-56.475548 -56.646603 0.000008 0.338277
-54.316288 -57.889111 0.000006 0.331243
-52.815540 -58.752689 0.000000 0.330587
-51.709866 -59.388927 -0.000009 0.348837
-66.754593 -50.526760 8.373656 1.000000
-66.754593 -50.526756 7.495608 1.000000
-66.754593 -50.526760 6.629886 1.000000
-66.754623 -50.526745 5.774424 1.000000
-66.754623 -50.526741 4.927224 1.000000
-66.754623 -50.526745 4.086379 1.000000
-66.754623 -50.526741 3.250037 1.000000
-66.754623 -50.526741 2.416382 1.000000
-66.754623 -50.526741 1.583619 1.000000
-66.754623 -50.526741 0.749962 1.000000
-65.845520 -51.058357 -0.000027 0.238507
-59.796932 -54.595341 0.000001 0.339101
-56.428314 -56.565182 0.000008 0.343313
-54.277782 -57.822735 0.000007 0.337240
-52.783100 -58.696766 0.000000 0.339467
-51.681896 -59.340710 -0.000009 0.340719
-66.276741 -50.604057 8.260708 1.000000
-66.276741 -50.604061 7.398220 1.000000
-66.276749 -50.604057 6.547841 1.000000
-66.276764 -50.604046 5.707536 1.000000
-66.276764 -50.604046 4.875350 1.000000
-66.276772 -50.604042 4.049406 1.000000
-66.276764 -50.604046 3.227885 1.000000
-66.276764 -50.604046 2.409003 1.000000
-66.276764 -50.604046 1.590997 1.000000
-66.276764 -50.604046 0.772115 1.000000
-65.759041 -50.911659 -0.000027 0.241404
-59.735458 -54.490692 -0.000020 0.223356
-56.380516 -56.484097 0.000008 0.339529
-54.238815 -57.756630 0.000007 0.336690
-52.750275 -58.641075 0.000000 0.333486
-51.653591 -59.292690 -0.000009 0.326284
-65.815491 -50.678673 8.151986 1.000000
-65.815498 -50.678673 7.304476 1.000000
-65.815491 -50.678673 6.468863 1.000000
-65.815521 -50.678658 5.643151 1.000000
-65.815514 -50.678661 4.825416 1.000000
-65.815521 -50.678658 4.013816 1.000000
-65.815521 -50.678658 3.206561 1.000000
-65.815521 -50.678658 2.401901 1.000000
-65.815521 -50.678658 1.598100 1.000000
-65.815521 -50.678658 0.793438 1.000000
-65.671555 -50.765568 -0.000028 0.232655
-59.673092 -54.386566 -0.000020 0.218689
-56.332153 -56.403343 0.000009 0.337743
-54.199387 -57.690796 0.000008 0.332601
-52.717060 -58.585613 -0.000000 0.336721
-51.624950 -59.244869 -0.000009 0.337163
-65.369980 -50.750740 8.047267 1.000000
-65.369980 -50.750744 7.214181 1.000000
-65.369980 -50.750744 6.392793 1.000000
-65.370010 -50.750725 5.581138 1.000000
-65.370003 -50.750729 4.777321 1.000000
-65.370003 -50.750732 3.979537 1.000000
-65.370010 -50.750725 3.186024 1.000000
-65.370003 -50.750729 2.395059 1.000000
-65.370003 -50.750729 1.604941 1.000000
-65.370010 -50.750725 0.813976 1.000000
-65.370003 -50.750732 0.020463 1.000000
-59.610008 -54.282879 -0.000020 0.236509
-56.283222 -56.322933 0.000009 0.335256
-54.159500 -57.625244 0.000008 0.338338
-52.683456 -58.530384 0.000000 0.336248
-51.595978 -59.197250 -0.000009 0.338811
-64.939362 -50.820396 7.946338 1.000000
-64.939362 -50.820396 7.127158 1.000000
-64.939377 -50.820389 6.319481 1.000000
-64.939377 -50.820389 5.521367 1.000000
-64.939384 -50.820389 4.730968 1.000000
-64.939384 -50.820385 3.946497 1.000000
-64.939377 -50.820389 3.166229 1.000000
-64.939377 -50.820389 2.388465 1.000000
-64.939377 -50.820389 1.611535 1.000000
-64.939377 -50.820389 0.833771 1.000000
-64.939384 -50.820385 0.053501 1.000000
-59.546200 -54.179630 -0.000020 0.227724
-56.233734 -56.242867 0.000010 0.337026
-54.119156 -57.559971 0.000008 0.342123
-52.649471 -58.475391 -0.000000 0.345968
-51.566673 -59.149834 -0.000009 0.339483
-64.522858 -50.887775 7.849000 1.000000
-64.522858 -50.887775 7.043230 1.000000
-64.522873 -50.887764 6.248775 1.000000
-64.522873 -50.887764 5.463726 1.000000
-64.522881 -50.887764 4.686264 1.000000
-64.522881 -50.887760 3.914636 1.000000
-64.522881 -50.887764 3.147138 1.000000
-64.522873 -50.887764 2.382106 1.000000
-64.522873 -50.887764 1.617894 1.000000
-64.522881 -50.887764 0.852861 1.000000
-64.522881 -50.887760 0.085364 1.000000
-59.481674 -54.076836 -0.000020 0.214811
-56.183689 -56.163143 0.000010 0.331426
-54.078358 -57.494976 0.000008 0.338842
-52.615101 -58.420635 -0.000001 0.337087
-51.537037 -59.102619 -0.000009 0.331991
-64.119743 -50.952984 7.755076 1.000000
-64.119743 -50.952988 6.962244 1.000000
-64.119759 -50.952976 6.180547 1.000000
-64.119759 -50.952976 5.408104 1.000000
-64.119759 -50.952976 4.643126 1.000000
-64.119766 -50.952972 3.883890 1.000000
-64.119759 -50.952976 3.128717 1.000000
-64.119766 -50.952972 2.375970 1.000000
-64.119766 -50.952972 1.624030 1.000000
-64.119759 -50.952976 0.871282 1.000000
-64.119766 -50.952972 0.116110 1.000000
-59.416420 -53.974491 -0.000020 0.224433
-56.133087 -56.083775 0.000010 0.342535
-54.037109 -57.430271 0.000008 0.343435
-52.580345 -58.366123 -0.000000 0.339742
-51.507072 -59.055618 -0.000009 0.341787
-63.729359 -51.016136 7.664392 1.000000
-63.729359 -51.016136 6.884053 1.000000
-63.729378 -51.016125 6.114674 1.000000
-63.729378 -51.016129 5.354403 1.000000
-63.729378 -51.016125 4.601479 1.000000
-63.729378 -51.016125 3.854205 1.000000
-63.729378 -51.016125 3.110932 1.000000
-63.729378 -51.016125 2.370046 1.000000
-63.729378 -51.016125 1.629954 1.000000
-63.729378 -51.016125 0.889068 1.000000
-63.729378 -51.016125 0.145795 1.000000
-59.350471 -53.872604 -0.000020 0.240219
-56.081932 -56.004761 0.000011 0.337285
-53.995407 -57.365856 0.000008 0.340795
-52.545216 -58.311855 -0.000000 0.333013
-51.476780 -59.008827 -0.000009 0.333700
-63.351067 -51.077332 7.576788 1.000000
-63.351067 -51.077332 6.808518 1.000000
-63.351082 -51.077320 6.051036 1.000000
-63.351082 -51.077320 5.302524 1.000000
-63.351082 -51.077324 4.561245 1.000000
-63.351082 -51.077320 3.825528 1.000000
-63.351074 -51.077324 3.093750 1.000000
-63.351082 -51.077324 2.364323 1.000000
-63.351082 -51.077324 1.635677 1.000000
-63.351074 -51.077324 0.906249 1.000000
-63.351082 -51.077320 0.174471 1.000000
-59.283794 -53.771187 -0.000019 0.218509
-56.030228 -55.926102 0.000011 0.339574
-53.953255 -57.301735 0.000009 0.340536
-52.509708 -58.257832 -0.000001 0.338003
-51.446163 -58.962242 -0.000009 0.332876
-62.984287 -51.136662 7.492120 1.000000
-62.984283 -51.136665 6.735512 1.000000
-62.984299 -51.136654 5.989532 1.000000
-62.984299 -51.136654 5.252383 1.000000
-62.984299 -51.136654 4.522359 1.000000
-62.984299 -51.136654 3.797812 1.000000
-62.984299 -51.136654 3.077145 1.000000
-62.984299 -51.136654 2.358791 1.000000
-62.984299 -51.136654 1.641208 1.000000
-62.984299 -51.136654 0.922855 1.000000
-62.984299 -51.136654 0.202187 1.000000
-59.216427 -53.670227 -0.000020 0.247986
-55.977978 -55.847813 0.000011 0.343679
-53.910660 -57.237907 0.000009 0.340551
-52.473824 -58.204060 -0.000001 0.335180
-51.415222 -58.915878 -0.000009 0.338338
-62.628445 -51.194225 7.410239 1.000000
-62.628448 -51.194221 6.664913 1.000000
-62.628460 -51.194214 5.930054 1.000000
-62.628456 -51.194218 5.203894 1.000000
-62.628460 -51.194214 4.484754 1.000000
-62.628460 -51.194218 3.771008 1.000000
-62.628460 -51.194218 3.061086 1.000000
-62.628456 -51.194218 2.353443 1.000000
-62.628456 -51.194218 1.646557 1.000000
-62.628460 -51.194218 0.938914 1.000000
-62.628460 -51.194218 0.228991 1.000000
-59.148346 -53.569748 -0.000019 0.235157
-55.925179 -55.769882 0.000012 0.339315
-53.867615 -57.174377 0.000009 0.329519
-52.437561 -58.150536 -0.000001 0.335882
-51.383957 -58.869728 -0.000010 0.343816
-62.283051 -51.250099 7.331022 1.000000
-62.283062 -51.250092 6.596611 1.000000
-62.283058 -51.250092 5.872508 1.000000
-62.283058 -51.250092 5.156982 1.000000
-62.283058 -51.250092 4.448371 1.000000
-62.283062 -51.250092 3.745078 1.000000
-62.283062 -51.250092 3.045549 1.000000
-62.283058 -51.250092 2.348267 1.000000
-62.283058 -51.250092 1.651733 1.000000
-62.283062 -51.250092 0.954450 1.000000
-62.283062 -51.250092 0.254922 1.000000
-59.079575 -53.469738 -0.000020 0.208516
-55.871838 -55.692329 0.000012 0.336553
-53.824131 -57.111153 0.000010 0.342626
-52.400928 -58.097267 -0.000001 0.339467
-51.352371 -58.823799 -0.000010 0.340551
-61.947605 -51.304363 7.254343 1.000000
-61.947617 -51.304356 6.530496 1.000000
-61.947617 -51.304352 5.816809 1.000000
-61.947617 -51.304352 5.111574 1.000000
-61.947617 -51.304352 4.413156 1.000000
-61.947617 -51.304352 3.719977 1.000000
-61.947620 -51.304352 3.030511 1.000000
-61.947617 -51.304352 2.343258 1.000000
-61.947617 -51.304352 1.656742 1.000000
-61.947620 -51.304352 0.969489 1.000000
-61.947617 -51.304352 0.280022 1.000000
-59.010098 -53.370220 -0.000019 0.220316
-55.762852 -55.653904 0.010006 1.000000
-53.780205 -57.048233 0.000010 0.336416
-52.363926 -58.044258 -0.000001 0.335164
-51.320465 -58.778091 -0.000010 0.327504
-61.621655 -51.357090 7.180087 1.000000
-61.621670 -51.357082 6.466470 1.000000
-61.621666 -51.357082 5.762868 1.000000
-61.621674 -51.357082 5.067600 1.000000
-61.621666 -51.357082 4.379052 1.000000
-61.621670 -51.357082 3.695670 1.000000
-61.621670 -51.357079 3.015947 1.000000
-61.621670 -51.357079 2.338407 1.000000
-61.621670 -51.357079 1.661593 1.000000
-61.621670 -51.357079 0.984053 1.000000
-61.621670 -51.357082 0.304330 1.000000
-58.939930 -53.271183 -0.000019 0.237012
-55.708725 -55.577469 0.010003 1.000000
-53.735844 -56.985619 0.000010 0.340826
-52.326553 -57.991505 -0.000002 0.342885
-51.288239 -58.732609 -0.000009 0.336110
-61.304779 -51.408352 7.108147 1.000000
-61.304794 -51.408340 6.404441 1.000000
-61.304794 -51.408340 5.710611 1.000000
-61.304794 -51.408340 5.024999 1.000000
-61.304794 -51.408340 4.346013 1.000000
-61.304798 -51.408340 3.672121 1.000000
-61.304794 -51.408340 3.001838 1.000000
-61.304794 -51.408340 2.333708 1.000000
-61.304794 -51.408340 1.666292 1.000000
-61.304794 -51.408340 0.998162 1.000000
-61.304798 -51.408340 0.327878 1.000000
-58.869076 -53.172642 -0.000019 0.231052
-55.708588 -55.461926 0.000014 0.328756
-53.691048 -56.923317 0.000010 0.339330
-52.288811 -57.939018 -0.000002 0.345769
-51.255695 -58.687351 -0.000009 0.328634
-60.996574 -51.458206 7.038421 1.000000
-60.996582 -51.458199 6.344320 1.000000
-60.996582 -51.458199 5.659961 1.000000
-60.996590 -51.458195 4.983708 1.000000
-60.996586 -51.458199 4.313990 1.000000
-60.996586 -51.458199 3.649296 1.000000
-60.996586 -51.458199 2.988163 1.000000
-60.996586 -51.458199 2.329152 1.000000
-60.996586 -51.458199 1.670848 1.000000
-60.996586 -51.458199 1.011837 1.000000
-60.996586 -51.458199 0.350703 1.000000
-58.797531 -53.074600 -0.000019 0.234726
-55.653103 -55.385887 0.000014 0.336797
-53.645813 -56.861332 0.000010 0.336721
-52.250706 -57.886795 -0.000002 0.339681
-51.222839 -58.642323 -0.000009 0.340887
-60.696648 -51.506729 6.970810 1.000000
-60.696659 -51.506714 6.286024 1.000000
-60.696659 -51.506714 5.610848 1.000000
-60.696659 -51.506714 4.943669 1.000000
-60.696663 -51.506714 4.282938 1.000000
-60.696663 -51.506714 3.627165 1.000000
-60.696659 -51.506714 2.974903 1.000000
-60.696663 -51.506714 2.324735 1.000000
-60.696663 -51.506714 1.675264 1.000000
-60.696659 -51.506714 1.025097 1.000000
-60.696663 -51.506714 0.372835 1.000000
-58.725304 -52.977055 -0.000019 0.246705
-55.597244 -55.310123 -0.000015 0.228383
-53.600151 -56.799664 0.000011 0.344640
-52.212238 -57.834839 -0.000002 0.345876
-51.189667 -58.597527 -0.000009 0.344793
-60.404663 -51.553951 6.905231 1.000000
-60.404663 -51.553947 6.229475 1.000000
-60.404667 -51.553947 5.563208 1.000000
-60.404663 -51.553947 4.904831 1.000000
-60.404663 -51.553947 4.252818 1.000000
-60.404663 -51.553947 3.605697 1.000000
-60.404663 -51.553947 2.962040 1.000000
-60.404663 -51.553947 2.320451 1.000000
-60.404663 -51.553947 1.679549 1.000000
-60.404663 -51.553947 1.037960 1.000000
-60.404663 -51.553947 0.394303 1.000000
-58.652405 -52.880013 -0.000019 0.230405
-55.540703 -55.234871 -0.000015 0.213076
-53.554054 -56.738312 0.000011 0.336721
-52.173405 -57.783154 -0.000002 0.337697
-51.156185 -58.552959 -0.000009 0.341543
-60.120258 -51.599957 6.841589 1.000000
-60.120262 -51.599957 6.174601 1.000000
-60.120258 -51.599957 5.516977 1.000000
-60.120262 -51.599957 4.867143 1.000000
-60.120262 -51.599953 4.223589 1.000000
-60.120258 -51.599957 3.584863 1.000000
-60.120262 -51.599953 2.949558 1.000000
-60.120262 -51.599953 2.316293 1.000000
-60.120262 -51.599953 1.683707 1.000000
-60.120262 -51.599953 1.050442 1.000000
-60.120258 -51.599957 0.415136 1.000000
-58.578823 -52.783489 -0.000019 0.224194
-55.483639 -55.160011 -0.000015 0.226037
-53.507538 -56.677288 0.000011 0.339696
-52.134216 -57.731739 -0.000002 0.344015
-51.122395 -58.508629 -0.000010 0.326192
-59.843124 -51.644787 6.779806 1.000000
-59.843124 -51.644791 6.121329 1.000000
-59.843124 -51.644791 5.472097 1.000000
-59.843124 -51.644787 4.830555 1.000000
-59.843124 -51.644787 4.195213 1.000000
-59.843124 -51.644787 3.564639 1.000000
-59.843124 -51.644787 2.937441 1.000000
-59.843124 -51.644787 2.312258 1.000000
-59.843124 -51.644787 1.687743 1.000000
-59.843124 -51.644787 1.062559 1.000000
-59.843124 -51.644787 0.435360 1.000000
-58.504570 -52.687481 -0.000019 0.236377
-55.426052 -55.085552 -0.000014 0.219263
-53.460587 -56.616589 0.000012 0.345663
-52.094666 -57.680599 -0.000002 0.332845
-51.088295 -58.464531 -0.000010 0.343435
-59.572960 -51.688492 6.719807 1.000000
-59.572960 -51.688492 6.069596 1.000000
-59.572968 -51.688488 5.428514 1.000000
-59.572964 -51.688492 4.795024 1.000000
-59.572968 -51.688488 4.167658 1.000000
-59.572968 -51.688488 3.544999 1.000000
-59.572968 -51.688488 2.925674 1.000000
-59.572964 -51.688488 2.308338 1.000000
-59.572964 -51.688488 1.691662 1.000000
-59.572968 -51.688488 1.074326 1.000000
-59.572968 -51.688488 0.455000 1.000000
-58.429653 -52.591988 -0.000019 0.227916
-55.367950 -55.011494 -0.000015 0.212549
-53.413223 -56.556213 0.000011 0.333898
-52.054760 -57.629738 -0.000002 0.339834
-51.053886 -58.420677 -0.000010 0.329747
-59.309486 -51.731110 6.661520 1.000000
-59.309486 -51.731110 6.019339 1.000000
-59.309486 -51.731113 5.386173 1.000000
-59.309486 -51.731110 4.760509 1.000000
-59.309486 -51.731110 4.140889 1.000000
-59.309490 -51.731110 3.525919 1.000000
-59.309490 -51.731110 2.914243 1.000000
-59.309490 -51.731110 2.304529 1.000000
-59.309490 -51.731110 1.695470 1.000000
-59.309490 -51.731110 1.085757 1.000000
-59.309490 -51.731110 0.474080 1.000000
-58.354065 -52.497028 -0.000019 0.235085
-55.309326 -54.937851 -0.000014 0.232811
-53.365433 -56.496178 0.000012 0.339895
-52.014500 -57.579155 -0.000002 0.336889
-51.019169 -58.377064 -0.000009 0.329091
-59.052429 -51.772694 6.604879 1.000000
-59.052429 -51.772694 5.970501 1.000000
-59.052429 -51.772694 5.345029 1.000000
-59.052429 -51.772694 4.726966 1.000000
-59.052429 -51.772694 4.114875 1.000000
-59.052429 -51.772694 3.507378 1.000000
-59.052429 -51.772694 2.903133 1.000000
-59.052429 -51.772694 2.300830 1.000000
-59.052429 -51.772694 1.699170 1.000000
-59.052429 -51.772694 1.096866 1.000000
-59.052429 -51.772694 0.492621 1.000000
-58.277817 -52.402596 -0.000019 0.252821
-55.250198 -54.864613 -0.000014 0.235085
-53.317226 -56.436474 0.000012 0.335866
-51.973888 -57.528858 -0.000002 0.338262
-50.984154 -58.333694 -0.000010 0.345876
-58.801529 -51.813282 6.549815 1.000000
-58.801529 -51.813282 5.923022 1.000000
-58.801529 -51.813282 5.305031 1.000000
-58.801529 -51.813282 4.694357 1.000000
-58.801529 -51.813282 4.089586 1.000000
-58.801529 -51.813282 3.489353 1.000000
-58.801529 -51.813278 2.892334 1.000000
-58.801533 -51.813278 2.297233 1.000000
-58.801533 -51.813278 1.702768 1.000000
-58.801529 -51.813278 1.107666 1.000000
-58.801529 -51.813282 0.510646 1.000000
-58.200916 -52.308697 -0.000019 0.220532
-55.190552 -54.791794 -0.000014 0.219682
-53.268604 -56.377110 0.000013 0.338766
-51.932930 -57.478840 -0.000003 0.336065
-50.948833 -58.290573 -0.000009 0.333288
-58.556549 -51.852909 6.496271 1.000000
-58.556549 -51.852913 5.876854 1.000000
-58.556549 -51.852913 5.266135 1.000000
-58.556549 -51.852913 4.662648 1.000000
-58.556549 -51.852909 4.064995 1.000000
-58.556553 -51.852905 3.471826 1.000000
-58.556549 -51.852909 2.881832 1.000000
-58.556549 -51.852905 2.293734 1.000000
-58.556549 -51.852905 1.706266 1.000000
-58.556549 -51.852909 1.118167 1.000000
-58.556553 -51.852905 0.528173 1.000000
-58.123352 -52.215343 -0.000018 0.221956
-55.130409 -54.719387 -0.000014 0.210239
-53.219570 -56.318085 0.000013 0.341466
-51.891621 -57.429111 -0.000004 0.338994
-50.913216 -58.247692 -0.000010 0.336828
-58.317245 -51.891621 6.444182 1.000000
-58.317249 -51.891621 5.831943 1.000000
-58.317249 -51.891621 5.228297 1.000000
-58.317245 -51.891624 4.631803 1.000000
-58.317245 -51.891624 4.041072 1.000000
-58.317249 -51.891621 3.454775 1.000000
-58.317245 -51.891621 2.871617 1.000000
-58.317249 -51.891621 2.290332 1.000000
-58.317249 -51.891621 1.709668 1.000000
-58.317245 -51.891621 1.128383 1.000000
-58.317249 -51.891621 0.545224 1.000000
-58.045147 -52.122520 -0.000018 0.221597
-55.069756 -54.647400 -0.000014 0.214093
-53.170124 -56.259403 0.000013 0.331151
-51.849964 -57.379673 -0.000003 0.338018
-50.877296 -58.205063 -0.000010 0.341344
-58.083420 -51.929447 6.393501 1.000000
-58.083420 -51.929447 5.788242 1.000000
-58.083420 -51.929447 5.191482 1.000000
-58.083420 -51.929451 4.601789 1.000000
-58.083420 -51.929447 4.017796 1.000000
-58.083420 -51.929447 3.438184 1.000000
-58.083420 -51.929447 2.861677 1.000000
-58.083424 -51.929443 2.287020 1.000000
-58.083424 -51.929443 1.712980 1.000000
-58.083420 -51.929447 1.138323 1.000000
-58.083420 -51.929447 0.561815 1.000000
-57.966293 -52.030254 -0.000018 0.219622
-55.008598 -54.575844 -0.000014 0.243594
-53.078613 -56.236919 0.010013 1.000000
-51.807964 -57.330528 -0.000004 0.344732
-50.841084 -58.162689 -0.000010 0.331426
-57.854858 -51.966419 6.344172 1.000000
-57.854858 -51.966423 5.745709 1.000000
-57.854858 -51.966419 5.155649 1.000000
-57.854858 -51.966419 4.572577 1.000000
-57.854862 -51.966419 3.995141 1.000000
-57.854858 -51.966419 3.422037 1.000000
-57.854858 -51.966423 2.852002 1.000000
-57.854858 -51.966419 2.283798 1.000000
-57.854858 -51.966419 1.716202 1.000000
-57.854858 -51.966423 1.147998 1.000000
-57.854858 -51.966419 0.577962 1.000000
-57.854862 -51.966419 0.004859 1.000000
-54.946949 -54.504715 -0.000014 0.227581
-53.028641 -56.179195 0.010005 1.000000
-51.765621 -57.281673 -0.000004 0.336400
-50.804573 -58.120567 -0.000010 0.338659
-57.631359 -52.002575 6.296146 1.000000
-57.631359 -52.002575 5.704299 1.000000
-57.631359 -52.002575 5.120762 1.000000
-57.631359 -52.002575 4.544137 1.000000
-57.631359 -52.002575 3.973083 1.000000
-57.631359 -52.002575 3.406316 1.000000
-57.631363 -52.002571 2.842583 1.000000
-57.631363 -52.002571 2.280661 1.000000
-57.631363 -52.002571 1.719340 1.000000
-57.631363 -52.002571 1.157417 1.000000
-57.631359 -52.002575 0.593684 1.000000
-57.631359 -52.002575 0.026916 1.000000
-54.884800 -54.434021 -0.000014 0.253228
-52.978264 -56.121819 0.009997 1.000000
-51.722942 -57.233120 -0.000005 0.337469
-50.767769 -58.078701 -0.000010 0.336889
-57.412739 -52.037941 6.249374 1.000000
-57.412739 -52.037941 5.663971 1.000000
-57.412739 -52.037941 5.086787 1.000000
-57.412743 -52.037941 4.516439 1.000000
-57.412739 -52.037941 3.951603 1.000000
-57.412743 -52.037937 3.391006 1.000000
-57.412743 -52.037937 2.833410 1.000000
-57.412743 -52.037941 2.277605 1.000000
-57.412743 -52.037941 1.722395 1.000000
-57.412743 -52.037937 1.166590 1.000000
-57.412743 -52.037937 0.608994 1.000000
-57.412739 -52.037941 0.048397 1.000000
-54.822163 -54.363762 -0.000014 0.267829
-52.968281 -56.028175 0.000014 0.337499
-51.679920 -57.184864 -0.000004 0.330846
-50.730679 -58.037094 -0.000010 0.339345
-57.198814 -52.072548 6.203811 1.000000
-57.198811 -52.072548 5.624685 1.000000
-57.198814 -52.072548 5.053690 1.000000
-57.198814 -52.072544 4.489458 1.000000
-57.198814 -52.072544 3.930678 1.000000
-57.198814 -52.072544 3.376092 1.000000
-57.198814 -52.072548 2.824474 1.000000
-57.198814 -52.072544 2.274628 1.000000
-57.198814 -52.072544 1.725372 1.000000
-57.198814 -52.072548 1.175526 1.000000
-57.198814 -52.072544 0.623908 1.000000
-57.198814 -52.072544 0.069322 1.000000
-54.759033 -54.293938 -0.000014 0.229089
-52.916813 -55.971256 0.000014 0.343694
-51.636566 -57.136906 -0.000005 0.339300
-50.693291 -57.995747 -0.000009 0.344518
-56.989422 -52.106419 6.159419 1.000000
-56.989418 -52.106419 5.586408 1.000000
-56.989418 -52.106415 5.021442 1.000000
-56.989422 -52.106415 4.463168 1.000000
-56.989418 -52.106419 3.910289 1.000000
-56.989418 -52.106419 3.361559 1.000000
-56.989418 -52.106419 2.815767 1.000000
-56.989422 -52.106419 2.271729 1.000000
-56.989422 -52.106419 1.728272 1.000000
-56.989418 -52.106419 1.184232 1.000000
-56.989418 -52.106419 0.638441 1.000000
-56.989418 -52.106419 0.089711 1.000000
-54.695419 -54.224560 -0.000013 0.195016
-52.865055 -55.914604 -0.000011 0.258111
-51.592876 -57.089256 -0.000005 0.338445
-50.655621 -57.954662 -0.000009 0.334569
-56.784389 -52.139587 6.116150 1.000000
-56.784389 -52.139584 5.549100 1.000000
-56.784389 -52.139587 4.990010 1.000000
-56.784389 -52.139584 4.437545 1.000000
-56.784389 -52.139587 3.890417 1.000000
-56.784389 -52.139587 3.347395 1.000000
-56.784389 -52.139584 2.807281 1.000000
-56.784386 -52.139587 2.268902 1.000000
-56.784386 -52.139587 1.731098 1.000000
-56.784389 -52.139584 1.192718 1.000000
-56.784389 -52.139587 0.652604 1.000000
-56.784389 -52.139587 0.109583 1.000000
-54.631321 -54.155624 -0.000014 0.206338
-52.812801 -55.858406 -0.000010 0.287300
-51.548855 -57.041912 -0.000005 0.335927
-50.617664 -57.913837 -0.000010 0.347662
-56.583580 -52.172070 6.073970 1.000000
-56.583576 -52.172070 5.512730 1.000000
-56.583576 -52.172070 4.959372 1.000000
-56.583580 -52.172070 4.412567 1.000000
-56.583580 -52.172066 3.871046 1.000000
-56.583576 -52.172070 3.333588 1.000000
-56.583576 -52.172070 2.799009 1.000000
-56.583576 -52.172070 2.266146 1.000000
-56.583576 -52.172070 1.733854 1.000000
-56.583576 -52.172070 1.200991 1.000000
-56.583576 -52.172070 0.666411 1.000000
-56.583580 -52.172066 0.128954 1.000000
-54.566746 -54.087143 -0.000013 0.235611
-52.760159 -55.802574 -0.000010 0.226623
-51.504505 -56.994877 -0.000005 0.336416
-50.579422 -57.873283 -0.000010 0.348714
-56.386822 -52.203899 6.032840 1.000000
-56.386826 -52.203896 5.477266 1.000000
-56.386826 -52.203896 4.929495 1.000000
-56.386826 -52.203896 4.388209 1.000000
-56.386826 -52.203896 3.852156 1.000000
-56.386826 -52.203899 3.320124 1.000000
-56.386826 -52.203896 2.790942 1.000000
-56.386826 -52.203896 2.263459 1.000000
-56.386826 -52.203896 1.736541 1.000000
-56.386826 -52.203896 1.209058 1.000000
-56.386826 -52.203899 0.679875 1.000000
-56.386826 -52.203896 0.147844 1.000000
-54.501690 -54.019112 -0.000013 0.231554
-52.707123 -55.747116 -0.000010 0.236174
-51.459827 -56.948151 -0.000005 0.335805
-50.540897 -57.832996 -0.000010 0.337850
-56.193996 -52.235092 5.992724 1.000000
-56.194000 -52.235088 5.442678 1.000000
-56.193996 -52.235088 4.900354 1.000000
-56.194000 -52.235088 4.364454 1.000000
-56.193996 -52.235092 3.833732 1.000000
-56.193996 -52.235092 3.306993 1.000000
-56.194000 -52.235088 2.783075 1.000000
-56.193996 -52.235088 2.260839 1.000000
-56.193996 -52.235088 1.739161 1.000000
-56.194000 -52.235088 1.216925 1.000000
-56.193996 -52.235092 0.693006 1.000000
-56.193996 -52.235092 0.166268 1.000000
-54.436165 -53.951534 -0.000013 0.220161
-52.653709 -55.692024 -0.000011 0.272867
-51.414825 -56.901737 -0.000006 0.334630
-50.502098 -57.792976 -0.000010 0.327718
-56.004955 -52.265671 5.953589 1.000000
-56.004959 -52.265671 5.408935 1.000000
-56.004959 -52.265667 4.871926 1.000000
-56.004959 -52.265667 4.341279 1.000000
-56.004955 -52.265671 3.815759 1.000000
-56.004959 -52.265671 3.294182 1.000000
-56.004959 -52.265671 2.775399 1.000000
-56.004955 -52.265671 2.258281 1.000000
-56.004955 -52.265671 1.741718 1.000000
-56.004959 -52.265671 1.224601 1.000000
-56.004959 -52.265671 0.705817 1.000000
-56.004955 -52.265671 0.184241 1.000000
-54.370167 -53.884415 -0.000013 0.205464
-52.599907 -55.637310 -0.000010 0.200533
-51.369499 -56.855640 -0.000006 0.334295
-50.463013 -57.753231 -0.000010 0.337484
-55.819580 -52.295658 5.915405 1.000000
-55.819584 -52.295654 5.376010 1.000000
-55.819584 -52.295654 4.844190 1.000000
-55.819580 -52.295654 4.318666 1.000000
-55.819584 -52.295654 3.798223 1.000000
-55.819580 -52.295654 3.281683 1.000000
-55.819580 -52.295654 2.767910 1.000000
-55.819584 -52.295654 2.255787 1.000000
-55.819584 -52.295654 1.744213 1.000000
-55.819580 -52.295654 1.232090 1.000000
-55.819580 -52.295654 0.718317 1.000000
-55.819584 -52.295654 0.201778 1.000000
-54.303703 -53.817764 -0.000013 0.210694
-52.545723 -55.582970 -0.000010 0.222147
-51.323853 -56.809860 -0.000006 0.340642
-50.423653 -57.713760 -0.000009 0.345953
-55.637737 -52.325073 5.878136 1.000000
-55.637737 -52.325073 5.343876 1.000000
-55.637741 -52.325073 4.817117 1.000000
-55.637737 -52.325073 4.296596 1.000000
-55.637741 -52.325073 3.781106 1.000000
-55.637741 -52.325073 3.269484 1.000000
-55.637741 -52.325073 2.760601 1.000000
-55.637737 -52.325073 2.253353 1.000000
-55.637737 -52.325073 1.746647 1.000000
-55.637741 -52.325073 1.239399 1.000000
-55.637741 -52.325073 0.730516 1.000000
-55.637741 -52.325073 0.218894 1.000000
-54.236778 -53.751572 -0.000013 0.206721
-52.491158 -55.529015 -0.000010 0.190516
-51.277885 -56.764400 -0.000006 0.334737
-50.384022 -57.674561 -0.000010 0.340337
-55.459320 -52.353935 5.841758 1.000000
-55.459320 -52.353935 5.312509 1.000000
-55.459320 -52.353935 4.790690 1.000000
-55.459320 -52.353935 4.275053 1.000000
-55.459320 -52.353935 3.764398 1.000000
-55.459320 -52.353935 3.257575 1.000000
-55.459320 -52.353935 2.753466 1.000000
-55.459320 -52.353935 2.250976 1.000000
-55.459320 -52.353935 1.749024 1.000000
-55.459320 -52.353935 1.246534 1.000000
-55.459320 -52.353935 0.742425 1.000000
-55.459320 -52.353935 0.235602 1.000000
-54.169392 -53.685852 -0.000013 0.282669
-52.436222 -55.475437 -0.000010 0.225103
-51.231606 -56.719261 -0.000007 0.339437
-50.344112 -57.635643 -0.000009 0.334447
-55.284210 -52.382259 5.806238 1.000000
-55.284210 -52.382259 5.281882 1.000000
-55.284210 -52.382259 4.764889 1.000000
-55.284210 -52.382259 4.254018 1.000000
-55.284210 -52.382259 3.748085 1.000000
-55.284210 -52.382259 3.245948 1.000000
-55.284210 -52.382259 2.746500 1.000000
-55.284210 -52.382259 2.248655 1.000000
-55.284210 -52.382259 1.751345 1.000000
-55.284210 -52.382259 1.253500 1.000000
-55.284210 -52.382259 0.754052 1.000000
-55.284210 -52.382259 0.251915 1.000000
-54.101543 -53.620605 -0.000012 0.216008
-52.380913 -55.422245 -0.000010 0.249745
-51.185013 -56.674450 -0.000007 0.338048
-50.303940 -57.597000 -0.000010 0.342718
-55.112297 -52.410072 5.771551 1.000000
-55.112297 -52.410072 5.251974 1.000000
-55.112297 -52.410069 4.739692 1.000000
-55.112297 -52.410072 4.233477 1.000000
-55.112297 -52.410069 3.732154 1.000000
-55.112297 -52.410072 3.234593 1.000000
-55.112297 -52.410072 2.739697 1.000000
-55.112297 -52.410072 2.246389 1.000000
-55.112297 -52.410072 1.753611 1.000000
-55.112297 -52.410072 1.260303 1.000000
-55.112297 -52.410072 0.765406 1.000000
-55.112297 -52.410069 0.267846 1.000000
-54.033245 -53.555832 -0.000012 0.209126
-52.325233 -55.369438 -0.000010 0.268714
-51.106358 -56.663670 0.009993 1.000000
-50.263493 -57.558647 -0.000009 0.333104
-54.943481 -52.437378 5.737672 1.000000
-54.943481 -52.437378 5.222762 1.000000
-54.943481 -52.437378 4.715081 1.000000
-54.943481 -52.437378 4.213414 1.000000
-54.943481 -52.437378 3.716595 1.000000
-54.943481 -52.437378 3.223503 1.000000
-54.943481 -52.437378 2.733052 1.000000
-54.943481 -52.437378 2.244176 1.000000
-54.943481 -52.437378 1.755824 1.000000
-54.943481 -52.437378 1.266948 1.000000
-54.943481 -52.437378 0.776497 1.000000
-54.943481 -52.437378 0.283405 1.000000
-53.964493 -53.491539 -0.000012 0.228095
-52.269188 -55.317024 -0.000010 0.237359
-51.059376 -56.619736 0.009994 1.000000
-50.222778 -57.520569 -0.000009 0.338003
-54.777664 -52.464199 5.704575 1.000000
-54.777664 -52.464203 5.194223 1.000000
-54.777664 -52.464203 4.691038 1.000000
-54.777664 -52.464203 4.193814 1.000000
-54.777668 -52.464199 3.701394 1.000000
-54.777664 -52.464203 3.212669 1.000000
-54.777664 -52.464199 2.726561 1.000000
-54.777664 -52.464199 2.242014 1.000000
-54.777664 -52.464199 1.757986 1.000000
-54.777664 -52.464199 1.273439 1.000000
-54.777664 -52.464203 0.787331 1.000000
-54.777668 -52.464199 0.298606 1.000000
-53.895298 -53.427727 -0.000012 0.250822
-52.212776 -55.265003 -0.000009 0.229974
-51.012077 -56.576138 0.009997 1.000000
-50.181805 -57.482780 -0.000010 0.312169
-54.614750 -52.490555 5.672235 1.000000
-54.614754 -52.490555 5.166340 1.000000
-54.614754 -52.490555 4.667548 1.000000
-54.614754 -52.490555 4.174663 1.000000
-54.614754 -52.490555 3.686541 1.000000
-54.614754 -52.490555 3.202083 1.000000
-54.614754 -52.490555 2.720218 1.000000
-54.614750 -52.490555 2.239901 1.000000
-54.614750 -52.490555 1.760099 1.000000
-54.614754 -52.490555 1.279781 1.000000
-54.614754 -52.490555 0.797917 1.000000
-54.614754 -52.490555 0.313459 1.000000
-53.825661 -53.364399 -0.000012 0.226588
-52.156006 -55.213375 -0.000009 0.261749
-50.964470 -56.532883 0.010003 1.000000
-50.140564 -57.445278 -0.000010 0.336477
-54.454647 -52.516457 5.640632 1.000000
-54.454647 -52.516457 5.139090 1.000000
-54.454647 -52.516457 4.644590 1.000000
-54.454651 -52.516457 4.155948 1.000000
-54.454647 -52.516457 3.672027 1.000000
-54.454651 -52.516453 3.191738 1.000000
-54.454647 -52.516457 2.714020 1.000000
-54.454651 -52.516453 2.237837 1.000000
-54.454651 -52.516453 1.762163 1.000000
-54.454647 -52.516457 1.285980 1.000000
-54.454651 -52.516453 0.808262 1.000000
-54.454647 -52.516457 0.327973 1.000000
-53.755577 -53.301559 -0.000012 0.245329
-52.098869 -55.162148 -0.000009 0.187369
-50.947403 -56.455318 -0.000009 0.341207
-50.099060 -57.408066 -0.000009 0.342016
-54.297276 -52.541908 5.609743 1.000000
-54.297272 -52.541912 5.112456 1.000000
-54.297272 -52.541912 4.622152 1.000000
-54.297272 -52.541912 4.137655 1.000000
-54.297272 -52.541912 3.657841 1.000000
-54.297276 -52.541912 3.181627 1.000000
-54.297276 -52.541908 2.707962 1.000000
-54.297276 -52.541908 2.235819 1.000000
-54.297276 -52.541908 1.764181 1.000000
-54.297276 -52.541908 1.292038 1.000000
-54.297272 -52.541912 0.818373 1.000000
-54.297272 -52.541912 0.342159 1.000000
-53.685059 -53.239212 -0.000011 0.230094
-52.041382 -55.111320 -0.000009 0.247017
-50.898975 -56.412495 -0.000009 0.340719
-50.057301 -57.371143 -0.000009 0.328237
-54.142532 -52.566944 5.579545 1.000000
-54.142536 -52.566944 5.086419 1.000000
-54.142532 -52.566944 4.600217 1.000000
-54.142536 -52.566940 4.119773 1.000000
-54.142536 -52.566944 3.643972 1.000000
-54.142536 -52.566944 3.171741 1.000000
-54.142536 -52.566940 2.702040 1.000000
-54.142536 -52.566944 2.233846 1.000000
-54.142536 -52.566944 1.766154 1.000000
-54.142536 -52.566940 1.297960 1.000000
-54.142536 -52.566944 0.828258 1.000000
-54.142536 -52.566944 0.356027 1.000000
-53.614105 -53.177353 -0.000011 0.217959
-51.983543 -55.060890 -0.000009 0.243055
-50.850239 -56.370022 -0.000007 0.226671
-50.015285 -57.334511 -0.000010 0.340291
-53.990356 -52.591560 5.550021 1.000000
-53.990356 -52.591560 5.060962 1.000000
-53.990356 -52.591560 4.578770 1.000000
-53.990356 -52.591560 4.102288 1.000000
-53.990356 -52.591560 3.630413 1.000000
-53.990356 -52.591560 3.162077 1.000000
-53.990360 -52.591560 2.696249 1.000000
-53.990356 -52.591560 2.231917 1.000000
-53.990356 -52.591560 1.768083 1.000000
-53.990360 -52.591560 1.303750 1.000000
-53.990356 -52.591560 0.837923 1.000000
-53.990356 -52.591560 0.369588 1.000000
-53.542728 -53.115993 -0.000012 0.220137
-51.925350 -55.010872 -0.000009 0.215900
-50.801212 -56.327877 -0.000006 0.183252
-49.973015 -57.298176 -0.000009 0.345708
-53.840660 -52.615776 5.521149 1.000000
-53.840664 -52.615776 5.036068 1.000000
-53.840664 -52.615776 4.557798 1.000000
-53.840664 -52.615776 4.085192 1.000000
-53.840664 -52.615776 3.617153 1.000000
-53.840664 -52.615772 3.152626 1.000000
-53.840664 -52.615776 2.690587 1.000000
-53.840664 -52.615776 2.230031 1.000000
-53.840664 -52.615776 1.769969 1.000000
-53.840664 -52.615776 1.309413 1.000000
-53.840664 -52.615772 0.847373 1.000000
-53.840664 -52.615776 0.382847 1.000000
-53.470917 -53.055134 -0.000011 0.196811
-51.866810 -54.961258 -0.000009 0.217061
-50.751896 -56.286079 -0.000007 0.191665
-49.930489 -57.262135 -0.000009 0.340230
-53.693378 -52.639603 5.492914 1.000000
-53.693382 -52.639603 5.011723 1.000000
-53.693382 -52.639603 4.537287 1.000000
-53.693382 -52.639603 4.068471 1.000000
-53.693382 -52.639603 3.604185 1.000000
-53.693382 -52.639603 3.143383 1.000000
-53.693382 -52.639603 2.685049 1.000000
-53.693382 -52.639599 2.228186 1.000000
