# This PCD file was generated using the MATLABÂ® pcwrite function
# from Computer Vision ToolboxÂ®.
# .PCD v.7 - Point Cloud Data file format
VERSION .7
FIELDS x y z intensity
SIZE 4 4 4 4
TYPE F F F F
COUNT 1 1 1 1
WIDTH 1225
HEIGHT 1
VIEWPOINT 0 0 0 1 0 0 0
POINTS 1225
DATA ascii
245.019180 -437.183960 4.007545 0.495552
245.021423 -437.178375 2.668802 0.586191
245.023682 -437.172760 1.331099 0.569696
244.961700 -437.326965 0.000028 0.226839
238.875671 -452.468597 0.000017 0.230417
236.262695 -458.969482 0.000012 0.232595
234.807404 -462.590149 0.000009 0.224409
233.878326 -464.901672 0.000007 0.225965
233.232574 -466.508240 0.000006 0.231626
232.756821 -467.691895 0.000005 0.233996
238.241440 -454.464050 7.586843 0.343664
238.563156 -453.679504 7.000326 0.387335
238.366974 -454.157928 6.118540 0.375341
238.309845 -454.297211 5.335223 0.396872
237.878082 -455.350128 4.455689 0.349798
237.812973 -455.508911 3.736221 0.341299
245.437317 -436.916199 4.027459 0.616464
245.439651 -436.910522 2.675437 0.584039
245.441986 -436.904816 1.324462 0.564675
245.225037 -437.433899 0.000028 0.232954
239.033447 -452.532654 0.000017 0.227042
236.375153 -459.015137 0.000012 0.208779
234.894623 -462.625580 0.000009 0.217169
233.949417 -464.930511 0.000007 0.223021
233.292465 -466.532562 0.000006 0.229855
232.808456 -467.712860 0.000004 0.264861
238.070282 -455.276794 7.382350 0.346181
238.300522 -454.726318 6.769740 0.363180
238.627716 -453.944000 6.172656 0.391760
238.346466 -454.616455 5.293549 0.420401
238.158783 -455.065186 4.498330 0.355673
238.000275 -455.444183 3.747000 0.419547
245.863861 -436.643097 4.047873 0.562875
245.866272 -436.637299 2.682239 0.597299
245.868698 -436.631500 1.317657 0.600473
245.487610 -437.542664 0.000028 0.229149
239.190781 -452.597809 0.000017 0.232655
236.487289 -459.061584 0.000012 0.205428
234.981583 -462.661591 0.000009 0.262060
234.020325 -464.959900 0.000007 0.219981
233.352203 -466.557281 0.000005 0.216271
232.859955 -467.734192 0.000005 0.224912
237.666458 -456.606079 7.036261 0.356130
238.395645 -454.896271 6.743915 0.411353
238.586212 -454.449432 6.085000 0.466087
238.487030 -454.682007 5.292707 0.341650
238.089203 -455.614838 4.436967 0.458152
238.200958 -455.352783 3.760308 0.372076
246.299088 -436.364380 4.068806 0.583139
246.301605 -436.358490 2.689214 0.541085
246.304108 -436.352631 1.310681 0.516213
245.749420 -437.653259 0.000029 0.228909
239.347641 -452.664063 0.000017 0.228550
236.599091 -459.108795 0.000012 0.216223
235.068298 -462.698212 0.000009 0.217109
234.091003 -464.989746 0.000007 0.216738
233.411758 -466.582458 0.000006 0.199791
232.911316 -467.755890 0.000005 0.277295
237.830536 -456.580719 7.058348 0.374197
238.105652 -455.947937 6.510525 0.362371
239.160614 -453.521332 6.281443 0.368597
237.957397 -456.288910 5.042707 0.371160
238.789139 -454.375793 4.599731 0.350179
238.385773 -455.303589 3.770004 0.431281
246.743332 -436.079926 4.090272 0.595697
246.745941 -436.073914 2.696367 0.583230
246.748535 -436.067963 1.303526 0.564141
246.010468 -437.765625 0.000028 0.225834
239.504044 -452.731415 0.000018 0.236688
236.710571 -459.156799 0.000012 0.227617
235.154739 -462.735443 0.000009 0.231028
234.161484 -465.020081 0.000007 0.256615
233.471130 -466.608002 0.000006 0.184844
232.962509 -467.777924 0.000005 0.212741
237.983261 -456.584045 7.072961 0.441138
238.657700 -455.061890 6.733679 0.368734
247.185928 -435.814270 9.818588 0.513191
238.089813 -456.343536 5.043179 0.423850
238.347900 -455.761078 4.433404 0.454398
238.511948 -455.390839 3.767613 0.401663
239.161041 -453.925903 3.137768 0.371756
247.199631 -435.783356 2.703704 0.539117
247.202316 -435.777313 1.296187 0.554635
246.270721 -437.879852 0.000028 0.232595
239.659973 -452.799835 0.000017 0.226552
236.821701 -459.205597 0.000012 0.244827
235.240936 -462.773254 0.000009 0.201922
234.231750 -465.050934 0.000007 0.246933
233.530334 -466.634003 0.000006 0.260684
233.013550 -467.800323 0.000005 0.233182
237.972015 -456.952576 6.987545 0.356146
238.673828 -455.398010 6.668828 0.358495
239.398682 -453.792450 6.253884 0.404730
238.222961 -456.396729 5.044042 0.391485
238.730911 -455.271576 4.502798 0.405661
238.812363 -455.091156 3.800102 0.348577
239.010971 -454.651215 3.102229 0.400687
247.662994 -435.486633 2.711233 0.553033
247.665787 -435.480438 1.288656 0.612711
246.530151 -437.995911 0.000029 0.231016
239.815414 -452.869354 0.000017 0.232464
236.932495 -459.255157 0.000012 0.210790
235.326859 -462.811707 0.000009 0.215589
234.301804 -465.082275 0.000007 0.212812
233.589340 -466.660400 0.000006 0.247053
233.064438 -467.823090 0.000005 0.280610
238.311218 -456.547668 7.115068 0.372229
239.307053 -454.382294 6.925165 0.353384
238.231079 -456.721954 5.680731 0.359045
238.355743 -456.450867 5.044898 0.391485
238.821945 -455.437164 4.489806 0.469123
248.130569 -435.196106 5.601377 0.556023
239.348373 -454.292480 3.125140 0.448844
248.136398 -435.183472 2.718960 0.602731
248.139297 -435.177155 1.280927 0.569802
246.788773 -438.113770 0.000029 0.230321
239.970367 -452.939972 0.000017 0.224960
237.042938 -459.305481 0.000012 0.230142
235.412521 -462.850739 0.000010 0.216331
234.371628 -465.114075 0.000008 0.205979
233.648163 -466.687195 0.000006 0.255251
233.115158 -467.846191 0.000005 0.195938
239.521072 -454.300720 7.753180 0.369360
238.676117 -456.104706 6.530364 0.347967
238.415085 -456.662018 5.704720 0.413397
239.518524 -454.306152 5.406090 0.427756
239.531128 -454.279236 4.644984 0.393500
239.916290 -453.456879 3.959671 0.457206
248.617218 -434.880005 4.181887 0.575113
248.620224 -434.873596 2.726893 0.576364
248.623245 -434.867157 1.272991 0.578958
247.046570 -438.233398 0.000029 0.226695
240.124817 -453.011658 0.000017 0.229556
237.153030 -459.356567 0.000013 0.240243
235.497894 -462.890350 0.000009 0.254114
234.441238 -465.146393 0.000008 0.182247
233.706802 -466.714417 0.000006 0.190205
233.165710 -467.869659 0.000005 0.265016
239.826172 -454.033478 7.846360 0.390280
239.624100 -454.457153 6.939571 0.379263
238.536026 -456.738647 5.701514 0.399390
239.507034 -454.702606 5.352189 0.394812
239.701523 -454.294830 4.651735 0.369284
239.949020 -453.775848 3.937171 0.387869
239.280457 -455.177734 3.084340 0.453208
249.114883 -434.556824 2.735038 0.603677
249.118011 -434.550232 1.264843 0.600961
247.303528 -438.354858 0.000028 0.228802
240.278778 -453.084412 0.000017 0.227318
237.262772 -459.408417 0.000012 0.229771
235.582993 -462.930573 0.000009 0.193472
234.510605 -465.179169 0.000008 0.212406
233.765259 -466.742035 0.000006 0.230178
233.216110 -467.893494 0.000005 0.253407
239.882156 -454.291229 7.794261 0.384085
239.094589 -455.913361 6.606575 0.384924
238.656799 -456.815033 5.698519 0.371283
240.203751 -453.628815 5.540532 0.408179
240.233124 -453.568359 4.753564 0.373053
239.496689 -455.085144 3.824349 0.456245
239.412445 -455.258667 3.083569 0.463188
249.620758 -434.232849 2.743405 0.542000
239.401825 -455.280548 1.639466 0.454475
239.388855 -455.307251 0.919084 0.467628
239.380814 -455.323822 0.197404 0.475990
237.372131 -459.461060 0.000013 0.250810
235.667816 -462.971405 0.000009 0.220077
234.579758 -465.212463 0.000007 0.226947
233.823517 -466.770081 0.000006 0.221034
233.266342 -467.917664 0.000005 0.245569
239.963760 -454.490601 7.758402 0.382315
238.856964 -456.730316 6.425538 0.352941
239.247589 -455.939850 5.888819 0.373831
239.038040 -456.363892 5.100117 0.383993
239.523544 -455.381409 4.530343 0.453056
239.528549 -455.371277 3.804428 0.447471
239.512207 -455.404388 3.079296 0.461479
239.514679 -455.399384 2.359600 0.459022
239.511383 -455.406006 1.640522 0.466926
239.500244 -455.428558 0.922029 0.468513
239.496643 -455.435852 0.201476 0.469917
237.481125 -459.514465 0.000012 0.231063
235.752350 -463.012817 0.000009 0.231973
234.648666 -465.246216 0.000008 0.238543
233.881561 -466.798523 0.000006 0.239704
233.316406 -467.942169 0.000005 0.216175
240.365265 -454.049408 7.902179 0.423514
238.908646 -456.945923 6.388842 0.375082
239.217117 -456.332550 5.822397 0.353353
238.962555 -456.838745 5.032085 0.411490
240.541260 -453.699463 4.755748 0.410666
250.661026 -433.576080 5.811076 0.514961
239.895950 -454.982666 3.106249 0.405173
250.668015 -433.562164 2.760836 0.542779
250.671539 -433.555176 1.239035 0.571984
239.688828 -455.394531 0.916400 0.432212
239.674011 -455.424011 0.194118 0.473060
237.589752 -459.568604 0.000013 0.226935
235.836594 -463.054810 0.000009 0.227198
234.717346 -465.280457 0.000007 0.219562
233.939423 -466.827362 0.000006 0.253814
233.366287 -467.967041 0.000005 0.294182
239.389984 -456.316650 7.285176 0.369100
240.195557 -454.742218 6.939052 0.376211
239.140839 -456.803589 5.739681 0.368795
239.080872 -456.920776 5.029169 0.431296
239.448090 -456.203094 4.441991 0.351858
239.987610 -455.148651 3.837648 0.442908
251.206741 -433.221924 4.311020 0.603342
251.210342 -433.214874 2.769920 0.595148
251.214005 -433.207703 1.229949 0.607599
248.322693 -438.858521 0.000029 0.227832
240.889404 -453.386169 0.000018 0.226480
237.697983 -459.623505 0.000013 0.236485
235.920532 -463.097382 0.000009 0.224469
234.785782 -465.315155 0.000008 0.230788
233.997086 -466.856598 0.000006 0.212549
233.416000 -467.992249 0.000005 0.200270
239.559921 -456.309204 7.306358 0.406989
239.795059 -455.857452 6.685340 0.360632
239.994522 -455.474243 6.025864 0.382940
239.286987 -456.833588 5.054685 0.390539
239.451309 -456.517883 4.409979 0.361166
239.774307 -455.897339 3.775075 0.367987
240.204987 -455.069916 3.109348 0.452079
251.765793 -432.859131 2.779262 0.580148
251.769608 -432.851807 1.220604 0.610346
248.575256 -438.988861 0.000029 0.228718
241.040726 -453.464294 0.000018 0.218234
237.805847 -459.679169 0.000012 0.241045
236.004181 -463.140564 0.000010 0.245209
234.853973 -465.350342 0.000007 0.207355
234.054520 -466.886230 0.000006 0.234067
233.465530 -468.017822 0.000005 0.191175
239.728058 -456.307678 7.326273 0.424994
239.149353 -457.400818 6.325373 0.382864
239.575562 -456.595764 5.809749 0.455787
239.332520 -457.054840 5.028764 0.378302
239.348740 -457.024200 4.352922 0.409766
239.942505 -455.902618 3.781102 0.467979
240.398010 -455.042236 3.114960 0.401312
252.334930 -432.494659 2.788870 0.566979
252.338867 -432.487183 1.210991 0.611811
248.826904 -439.120941 0.000029 0.229304
241.191498 -453.543427 0.000018 0.229232
237.913300 -459.735596 0.000012 0.233708
236.087524 -463.184296 0.000010 0.215769
234.921906 -465.386017 0.000008 0.235827
234.111771 -466.916290 0.000006 0.267661
233.514893 -468.043732 0.000005 0.222100
239.772919 -456.537537 7.280776 0.351308
240.329117 -455.504425 6.806695 0.404837
239.636200 -456.791473 5.783529 0.376684
239.644394 -456.776276 5.087007 0.434852
239.864532 -456.367340 4.447529 0.411749
252.910156 -432.136139 6.000970 0.566842
240.566406 -455.063690 3.117926 0.354864
252.918289 -432.121063 2.798760 0.547860
252.922394 -432.113434 1.201098 0.608545
249.077606 -439.254822 0.000029 0.229077
241.341705 -453.623627 0.000018 0.235372
238.020370 -459.792755 0.000012 0.229161
236.170563 -463.228638 0.000009 0.227198
234.989609 -465.422150 0.000007 0.252522
234.168793 -466.946747 0.000006 0.202353
233.564056 -468.069977 0.000005 0.255107
240.397278 -455.703491 7.538998 0.369650
239.414886 -457.498077 6.334068 0.446052
239.873825 -456.659698 5.825230 0.346426
253.499435 -431.769104 9.327625 0.562127
240.245377 -455.980988 4.507495 0.370626
240.155533 -456.145081 3.771877 0.345190
240.736649 -455.083557 3.121058 0.354543
253.516510 -431.737946 2.808940 0.539834
253.520767 -431.730133 1.190914 0.560128
249.327393 -439.390411 0.000030 0.228742
241.491364 -453.704865 0.000018 0.231339
238.127045 -459.850647 0.000012 0.217839
236.253281 -463.273529 0.000009 0.210706
235.057037 -465.458771 0.000007 0.207834
234.225616 -466.977600 0.000006 0.195268
233.613052 -468.096588 0.000005 0.193556
240.541138 -455.762451 7.543483 0.383963
239.558868 -457.527435 6.343542 0.404868
239.967789 -456.792664 5.812312 0.388998
239.876389 -456.956909 5.080026 0.366934
240.279266 -456.233002 4.483997 0.460807
240.345886 -456.113312 3.781701 0.392889
254.125793 -431.352814 4.459582 0.591806
254.130188 -431.344910 2.819425 0.599573
254.134628 -431.336945 1.180427 0.593988
249.576202 -439.527771 0.000030 0.228933
241.640442 -453.787170 0.000018 0.223560
238.233292 -459.909302 0.000013 0.231782
236.335678 -463.319031 0.000010 0.250176
235.124222 -465.495850 0.000008 0.215996
234.282211 -467.008820 0.000006 0.192252
233.661850 -468.123505 0.000005 0.271084
240.524490 -456.105652 7.466472 0.429038
239.698608 -457.565582 6.351127 0.470115
239.933182 -457.150909 5.752384 0.386114
240.420364 -456.289734 5.205820 0.381720
240.398651 -456.328125 4.481174 0.342061
240.337433 -456.436340 3.758263 0.358633
254.755447 -430.949646 4.491993 0.575738
254.760025 -430.941559 2.830224 0.536721
254.764633 -430.933411 1.169623 0.549325
249.824066 -439.666809 0.000030 0.227701
241.788956 -453.870483 0.000018 0.223990
238.339142 -459.968689 0.000013 0.236940
236.417770 -463.365082 0.000010 0.208133
235.191147 -465.533386 0.000008 0.223751
234.338593 -467.040466 0.000006 0.241416
233.710464 -468.150787 0.000005 0.228646
239.390320 -458.383911 6.829999 0.410986
239.829132 -457.620728 6.354744 0.352148
239.891190 -457.512787 5.691397 0.329290
240.085342 -457.175110 5.067117 0.401801
240.652496 -456.188690 4.509574 0.427588
240.461517 -456.520844 3.757284 0.360113
255.401932 -430.535706 4.525393 0.608972
255.406708 -430.527405 2.841352 0.580377
255.411499 -430.519073 1.158489 0.614801
250.070938 -439.807648 0.000030 0.229161
241.936859 -453.954834 0.000018 0.217061
238.444565 -460.028839 0.000013 0.205368
236.499542 -463.411713 0.000010 0.276709
235.257797 -465.571411 0.000007 0.191749
234.394745 -467.072479 0.000006 0.262754
233.758881 -468.178406 0.000005 0.213016
239.542038 -458.391083 6.847504 0.388235
241.028442 -455.847137 6.816057 0.337545
239.993332 -457.618713 5.684044 0.369650
241.833725 -454.468903 5.544480 0.432975
240.640808 -456.510559 4.476863 0.346990
240.583282 -456.609039 3.756034 0.389242
256.066040 -430.110474 4.559827 0.595941
256.071014 -430.101959 2.852828 0.558663
256.075989 -430.093445 1.147010 0.608652
250.316849 -439.950165 0.000030 0.229986
242.084198 -454.040222 0.000018 0.227306
238.549576 -460.089691 0.000013 0.233744
236.580978 -463.458923 0.000010 0.227712
235.324188 -465.609894 0.000007 0.229197
234.450684 -467.104919 0.000006 0.252306
233.807114 -468.206360 0.000005 0.232583
239.572342 -458.604706 6.805253 0.362631
239.867447 -458.107635 6.268119 0.387778
240.099731 -457.716370 5.678556 0.364065
241.023956 -456.159637 5.267419 0.400305
240.461761 -457.106567 4.407331 0.394553
242.247910 -454.098022 4.002710 0.399817
nan nan nan 0.000000
nan nan nan 0.000000
nan nan nan 0.000000
250.561737 -440.094391 0.000030 0.228359
242.230911 -454.126648 0.000018 0.230094
238.654160 -460.151276 0.000013 0.252773
236.662079 -463.506683 0.000009 0.237730
235.390305 -465.648834 0.000008 0.236353
234.506378 -467.137726 0.000006 0.248728
233.855133 -468.234650 0.000005 0.220580
239.601364 -458.815887 6.763590 0.388663
239.918350 -458.290344 6.239902 0.370077
240.205627 -457.814087 5.673196 0.411490
240.663025 -457.055756 5.125864 0.382589
240.661087 -457.058960 4.423805 0.397299
240.821655 -456.792786 3.753057 0.372656
nan nan nan 0.000000
nan nan nan 0.000000
nan nan nan 0.000000
250.805618 -440.240326 0.000030 0.229208
242.377029 -454.214111 0.000018 0.224936
238.758301 -460.213593 0.000012 0.235970
236.742859 -463.555023 0.000010 0.208851
235.456161 -465.688232 0.000008 0.247723
234.561859 -467.170898 0.000006 0.216989
233.902969 -468.263275 0.000005 0.256986
241.938843 -455.255188 7.829881 0.368460
239.970123 -458.468170 6.212893 0.381750
nan nan nan 0.000000
242.706863 -454.001740 5.670458 0.411414
240.904572 -456.943146 4.449741 0.385443
nan nan nan 0.000000
nan nan nan 0.000000
nan nan nan 0.000000
nan nan nan 0.000000
251.048462 -440.387970 0.000030 0.228790
242.522537 -454.302551 0.000017 0.227282
238.862015 -460.276642 0.000013 0.255011
236.823288 -463.603912 0.000010 0.219359
235.521729 -465.728119 0.000008 0.254556
234.617096 -467.204498 0.000006 0.222399
233.950607 -468.292236 0.000005 0.218796
242.169098 -455.192719 7.873498 0.372885
241.930298 -455.576416 6.966743 0.354116
nan nan nan 0.000000
240.784988 -457.416626 5.089670 0.431724
241.114868 -456.886597 4.467990 0.392004
nan nan nan 0.000000
nan nan nan 0.000000
nan nan nan 0.000000
nan nan nan 0.000000
251.290283 -440.537323 0.000030 0.228718
242.667419 -454.392029 0.000018 0.228730
238.965271 -460.340424 0.000013 0.207559
236.903366 -463.653381 0.000010 0.222231
235.587021 -465.768433 0.000008 0.196369
234.672104 -467.238464 0.000006 0.203071
233.998032 -468.321533 0.000005 0.239752
242.463486 -455.033356 7.946498 0.404273
nan nan nan 0.000000
nan nan nan 0.000000
240.871384 -457.552094 5.079458 0.401770
241.574936 -456.439056 4.539727 0.402731
nan nan nan 0.000000
nan nan nan 0.000000
nan nan nan 0.000000
nan nan nan 0.000000
251.531036 -440.688354 0.000030 0.228371
242.811676 -454.482513 0.000018 0.227844
239.068100 -460.404907 0.000013 0.227976
236.983109 -463.703400 0.000009 0.205117
235.652023 -465.809204 0.000008 0.199037
234.726868 -467.272827 0.000006 0.229280
234.045242 -468.351135 0.000005 0.250344
nan nan nan 0.000000
nan nan nan 0.000000
nan nan nan 0.000000
240.956146 -457.688324 5.069167 0.424567
nan nan nan 0.000000
nan nan nan 0.000000
nan nan nan 0.000000
nan nan nan 0.000000
nan nan nan 0.000000
251.770752 -440.841034 0.000030 0.228454
242.955292 -454.574005 0.000018 0.227222
239.170456 -460.470123 0.000013 0.223380
237.062500 -463.753967 0.000010 0.213890
235.716736 -465.850433 0.000008 0.248896
234.781387 -467.307556 0.000006 0.216750
234.092255 -468.381073 0.000005 0.187046
nan nan nan 0.000000
nan nan nan 0.000000
nan nan nan 0.000000
nan nan nan 0.000000
nan nan nan 0.000000
nan nan nan 0.000000
nan nan nan 0.000000
nan nan nan 0.000000
nan nan nan 0.000000
252.009399 -440.995392 0.000030 0.228766
243.098282 -454.666473 0.000018 0.238867
239.272369 -460.536041 0.000013 0.206649
237.141541 -463.805084 0.000010 0.219455
235.781174 -465.892090 0.000008 0.242660
234.835678 -467.342651 0.000006 0.268990
234.139069 -468.411377 0.000005 0.244372
nan nan nan 0.000000
nan nan nan 0.000000
nan nan nan 0.000000
nan nan nan 0.000000
nan nan nan 0.000000
253.578201 -439.139893 5.535839 0.419974
nan nan nan 0.000000
nan nan nan 0.000000
nan nan nan 0.000000
252.246948 -441.151428 0.000030 0.228443
243.240601 -454.759979 0.000018 0.229005
239.373810 -460.602661 0.000013 0.232655
237.220200 -463.856781 0.000010 0.236760
235.845306 -465.934235 0.000008 0.221980
234.889709 -467.378143 0.000006 0.225103
234.185654 -468.441956 0.000005 0.209342
nan nan nan 0.000000
nan nan nan 0.000000
nan nan nan 0.000000
241.192947 -458.112854 5.035816 0.345098
252.880753 -440.717712 6.765307 0.396399
253.525436 -439.758240 5.491258 0.404913
nan nan nan 0.000000
nan nan nan 0.000000
nan nan nan 0.000000
252.483398 -441.309113 0.000031 0.231985
243.382278 -454.854431 0.000018 0.231434
239.474792 -460.670013 0.000013 0.244180
237.298523 -463.908997 0.000010 0.266752
235.909149 -465.976807 0.000008 0.215661
234.943497 -467.414001 0.000006 0.207379
234.232040 -468.472900 0.000005 0.229352
nan nan nan 0.000000
nan nan nan 0.000000
241.170990 -458.398621 5.678581 0.417716
241.292435 -458.220551 5.030858 0.352941
252.588715 -441.659088 6.656795 0.409949
254.139648 -439.385254 5.544815 0.406241
nan nan nan 0.000000
nan nan nan 0.000000
nan nan nan 0.000000
252.718750 -441.468445 0.000031 0.229496
243.523285 -454.949921 0.000018 0.235384
239.575302 -460.738037 0.000013 0.230585
237.376465 -463.961761 0.000010 0.254724
235.972702 -466.019836 0.000008 0.219969
234.997025 -467.450256 0.000006 0.239046
234.278198 -468.504150 0.000005 0.242265
nan nan nan 0.000000
nan nan nan 0.000000
nan nan nan 0.000000
nan nan nan 0.000000
252.549103 -442.212738 6.601722 0.408835
254.163879 -439.880463 5.512477 0.402304
253.598175 -440.697540 4.055650 0.404761
nan nan nan 0.000000
nan nan nan 0.000000
252.952972 -441.629395 0.000031 0.228634
243.663635 -455.046356 0.000018 0.232763
239.675323 -460.806793 0.000013 0.242636
237.454041 -464.015076 0.000010 0.207930
236.035934 -466.063293 0.000008 0.222040
235.050308 -467.486877 0.000006 0.279988
234.324127 -468.535706 0.000005 0.239680
nan nan nan 0.000000
283.119812 -399.196167 22.036858 1.000000
283.119781 -399.196198 18.880453 1.000000
283.119812 -399.196167 15.761442 1.000000
252.673187 -442.521851 6.580722 0.415427
254.137894 -440.437561 5.473791 0.404517
253.866180 -440.824219 4.058078 0.407843
283.119781 -399.196198 3.518114 1.000000
283.119781 -399.196198 0.481886 1.000000
253.186081 -441.791992 0.000031 0.227748
243.803284 -455.143768 0.000018 0.227916
239.774872 -460.876221 0.000013 0.237287
237.531250 -464.068909 0.000010 0.236760
236.098877 -466.107178 0.000008 0.208396
235.103333 -467.523865 0.000006 0.240602
234.369843 -468.567596 0.000005 0.219407
nan nan nan 0.000000
283.306641 -400.049622 21.909729 1.000000
254.045380 -441.076660 9.604069 0.405188
253.712418 -441.543488 8.114005 0.415244
252.890060 -442.696503 6.578739 0.404318
283.306641 -400.049622 9.558615 1.000000
254.570084 -440.340973 4.097436 0.399954
283.306641 -400.049622 3.508482 1.000000
283.306610 -400.049652 0.491517 1.000000
253.418060 -441.956238 0.000031 0.227210
243.942261 -455.242157 0.000018 0.237969
239.873932 -460.946350 0.000013 0.239537
237.608063 -464.123322 0.000010 0.212633
236.161499 -466.151520 0.000008 0.272939
235.156097 -467.561218 0.000006 0.252103
234.415344 -468.599792 0.000005 0.228359
nan nan nan 0.000000
283.491089 -400.892365 21.785162 1.000000
254.840225 -440.476074 9.777208 0.398062
253.761688 -441.966187 8.067347 0.409537
283.491119 -400.892365 12.538507 1.000000
255.318207 -439.815704 5.571504 0.398077
254.377563 -441.115295 4.061024 0.410483
283.491119 -400.892365 3.499046 1.000000
283.491089 -400.892365 0.500955 1.000000
253.648865 -442.122070 0.000031 0.229256
244.080551 -455.341522 0.000019 0.233948
239.972488 -461.017181 0.000013 0.222243
237.684509 -464.178223 0.000010 0.250595
236.223831 -466.196289 0.000008 0.205309
235.208588 -467.598938 0.000006 0.192671
234.460617 -468.632324 0.000005 0.199325
nan nan nan 0.000000
283.673279 -401.724640 21.663097 1.000000
254.766907 -441.079956 9.680561 0.397162
255.496658 -440.086426 8.444279 0.403967
253.493027 -442.814331 6.608431 0.391775
255.616745 -439.922943 5.578822 0.406058
254.712097 -441.154602 4.069145 0.361212
283.673309 -401.724640 3.489795 1.000000
283.673309 -401.724640 0.510203 1.000000
253.878510 -442.289520 0.000031 0.229065
244.218155 -455.441833 0.000018 0.235683
240.070557 -461.088684 0.000013 0.225546
237.760559 -464.233673 0.000010 0.236341
236.285828 -466.241516 0.000007 0.233313
235.260834 -467.637024 0.000006 0.205859
234.505646 -468.665161 0.000005 0.224828
nan nan nan 0.000000
283.853271 -402.546753 21.543482 1.000000
254.046677 -442.539459 9.389129 0.402152
254.036072 -442.553711 8.021202 0.405295
253.620178 -443.111725 6.589628 0.400702
255.916916 -440.030090 5.586396 0.400092
254.811615 -441.513123 4.057897 0.373068
283.853271 -402.546753 3.480735 1.000000
283.853271 -402.546753 0.519267 1.000000
254.106979 -442.458557 0.000031 0.229448
244.355042 -455.543121 0.000018 0.219443
240.168137 -461.160858 0.000013 0.249590
237.836227 -464.289673 0.000010 0.222135
236.347519 -466.287140 0.000008 0.260217
235.312805 -467.675476 0.000006 0.268331
234.550461 -468.698334 0.000005 0.218880
nan nan nan 0.000000
284.031067 -403.358978 21.426249 1.000000
255.662720 -440.872467 9.808243 0.395209
254.002411 -443.068024 7.957190 0.401694
253.886078 -443.221863 6.597861 0.401724
284.031067 -403.358948 9.375067 1.000000
256.381866 -439.921509 4.166742 0.394125
284.031067 -403.358948 3.471852 1.000000
284.031067 -403.358948 0.528148 1.000000
254.334274 -442.629181 0.000031 0.228419
244.491211 -455.645386 0.000019 0.230226
240.265198 -461.233734 0.000013 0.215278
237.911514 -464.346191 0.000010 0.210215
236.408890 -466.333221 0.000008 0.220927
235.364502 -467.714294 0.000006 0.250966
234.595047 -468.731781 0.000005 0.216906
nan nan nan 0.000000
284.206757 -404.161530 21.311350 1.000000
254.991516 -442.239471 9.536368 0.406973
254.852646 -442.420441 8.110029 0.407568
284.206757 -404.161530 12.286132 1.000000
254.603165 -442.745605 5.343820 0.396078
255.529755 -441.537933 4.078203 0.364065
255.489151 -441.590881 2.691149 0.376440
255.444672 -441.648834 1.310048 0.376730
254.560364 -442.801392 0.000030 0.229173
244.626678 -455.748566 0.000019 0.231805
240.361740 -461.307281 0.000013 0.242146
237.986389 -464.403229 0.000010 0.242433
236.469925 -466.379730 0.000008 0.222231
235.415924 -467.753448 0.000006 0.259703
234.639389 -468.765564 0.000005 0.225307
nan nan nan 0.000000
284.380371 -404.954712 21.198732 1.000000
255.239105 -442.392120 9.541939 0.409934
255.015656 -442.679169 8.094448 0.412421
254.601257 -443.211548 6.648885 0.411292
256.521149 -440.745087 5.569781 0.387198
255.018097 -442.676056 4.018592 0.414298
284.380402 -404.954712 3.454614 1.000000
284.380402 -404.954712 0.545386 1.000000
254.785248 -442.975189 0.000031 0.233002
244.761414 -455.852661 0.000018 0.229244
240.457779 -461.381500 0.000013 0.214057
238.060867 -464.460785 0.000010 0.230429
236.530640 -466.426636 0.000008 0.242110
235.467072 -467.792999 0.000006 0.203142
234.683487 -468.799652 0.000005 0.232966
nan nan nan 0.000000
284.552002 -405.738708 21.088345 1.000000
254.917542 -443.266266 9.380665 0.415030
255.587952 -442.417267 8.177401 0.394049
254.675232 -443.573120 6.621403 0.399084
257.072083 -440.537842 5.611026 0.394690
284.552002 -405.738708 6.341850 1.000000
284.552002 -405.738708 3.446252 1.000000
284.552002 -405.738708 0.553750 1.000000
255.008896 -443.150574 0.000031 0.231770
244.895416 -455.957733 0.000019 0.242577
240.553299 -461.456390 0.000013 0.219754
238.134949 -464.518860 0.000010 0.231758
236.591034 -466.473999 0.000008 0.260780
235.517944 -467.832886 0.000006 0.249350
234.727356 -468.834045 0.000005 0.192180
nan nan nan 0.000000
284.721680 -406.513794 20.980139 1.000000
256.042633 -442.314728 9.643604 0.401984
255.830490 -442.579529 8.180958 0.405432
255.027908 -443.581421 6.645911 0.394614
254.929092 -443.704773 5.298415 0.396674
256.473999 -441.776245 4.097611 0.400015
284.721710 -406.513794 3.438054 1.000000
284.721710 -406.513794 0.561948 1.000000
255.231339 -443.327484 0.000031 0.229364
245.028687 -456.063751 0.000018 0.233385
240.648285 -461.531952 0.000013 0.236258
238.208618 -464.577454 0.000010 0.210539
236.651093 -466.521759 0.000008 0.209007
235.568542 -467.873108 0.000007 0.231075
234.770981 -468.868744 0.000005 0.233948
284.889435 -407.280182 23.889637 1.000000
284.889435 -407.280182 20.874067 1.000000
256.274292 -442.494659 9.644589 0.407843
256.276367 -442.492096 8.232586 0.403388
256.703339 -441.966675 6.911515 0.412116
255.423264 -443.541962 5.334249 0.411154
257.125580 -441.447052 4.130298 0.403250
284.889465 -407.280151 3.430017 1.000000
284.889465 -407.280151 0.569985 1.000000
255.452515 -443.505951 0.000032 0.230333
245.161224 -456.170654 0.000019 0.233158
240.742737 -461.608154 0.000013 0.227102
238.281860 -464.636566 0.000010 0.242577
236.710815 -466.569946 0.000008 0.184832
235.618866 -467.913727 0.000006 0.263903
234.814362 -468.903748 0.000005 0.215146
285.055359 -408.038086 23.769037 1.000000
285.055359 -408.038086 20.770084 1.000000
256.560059 -442.609131 9.661404 0.392645
256.221191 -443.020233 8.166771 0.405234
255.508972 -443.884308 6.653769 0.409567
256.893890 -442.204102 5.495512 0.408011
285.055359 -408.038055 6.269463 1.000000
285.055389 -408.038025 3.422136 1.000000
285.055389 -408.038055 0.577862 1.000000
255.672470 -443.685944 0.000031 0.229819
245.292999 -456.278503 0.000018 0.232536
240.836670 -461.685028 0.000013 0.244707
238.354706 -464.696167 0.000010 0.220233
236.770187 -466.618530 0.000008 0.282717
235.668884 -467.954651 0.000007 0.190935
234.857498 -468.939056 0.000005 0.275177
285.219482 -408.787720 23.650814 1.000000
285.219482 -408.787720 20.668154 1.000000
285.219482 -408.787689 17.727367 1.000000
256.947937 -442.603455 8.283201 0.418997
257.371368 -442.096985 6.948825 0.399466
257.173035 -442.334198 5.501925 0.403372
285.219482 -408.787689 6.246276 1.000000
285.219482 -408.787689 3.414416 1.000000
285.219482 -408.787689 0.585586 1.000000
255.891144 -443.867493 0.000032 0.229388
245.424011 -456.387268 0.000019 0.235767
240.930054 -461.762543 0.000013 0.220771
238.427139 -464.756287 0.000010 0.224433
236.829239 -466.667542 0.000008 0.289826
235.718628 -467.995941 0.000006 0.179530
234.900391 -468.974640 0.000005 0.202616
285.381805 -409.529297 23.534914 1.000000
285.381805 -409.529297 20.568213 1.000000
285.381805 -409.529297 17.643173 1.000000
285.381805 -409.529266 14.752772 1.000000
257.672455 -442.206268 6.961518 0.402716
285.381805 -409.529266 9.049317 1.000000
257.720276 -442.149902 4.122391 0.422034
285.381836 -409.529236 3.406843 1.000000
285.381836 -409.529236 0.593158 1.000000
256.108551 -444.050537 0.000031 0.229268
245.554276 -456.496948 0.000019 0.239632
241.022888 -461.840729 0.000013 0.227796
238.499146 -464.816925 0.000010 0.224397
236.887939 -466.716980 0.000008 0.205871
235.768082 -468.037598 0.000006 0.196440
234.943024 -469.010559 0.000005 0.206278
285.542419 -410.263000 23.421284 1.000000
285.542419 -410.262970 20.470242 1.000000
285.542419 -410.262970 17.560633 1.000000
285.542419 -410.262970 14.685482 1.000000
257.919861 -442.380371 6.964774 0.407919
285.542419 -410.262970 9.012122 1.000000
257.823792 -442.492065 4.112913 0.411017
285.542450 -410.262939 3.399421 1.000000
285.542450 -410.262939 0.600581 1.000000
256.324677 -444.235107 0.000032 0.228083
245.683762 -456.607544 0.000019 0.232105
241.115189 -461.919525 0.000013 0.239082
238.570724 -464.878052 0.000010 0.237586
236.946289 -466.766815 0.000008 0.216343
235.817245 -468.079559 0.000006 0.244994
234.985413 -469.046753 0.000005 0.179302
285.701355 -410.989044 23.309875 1.000000
285.701355 -410.989014 20.374182 1.000000
285.701355 -410.989044 17.479704 1.000000
285.701355 -410.989014 14.619508 1.000000
285.701355 -410.989014 11.786953 1.000000
258.357758 -442.336670 5.564858 0.404578
257.666595 -443.129059 4.084201 0.419715
285.701385 -410.989014 3.392142 1.000000
285.701385 -410.989014 0.607858 1.000000
256.539520 -444.421173 0.000032 0.228825
245.812485 -456.719025 0.000019 0.223141
241.206924 -461.998993 0.000013 0.233888
238.641876 -464.939667 0.000010 0.246418
237.004288 -466.817047 0.000008 0.224421
235.866119 -468.121887 0.000006 0.179973
235.027557 -469.083252 0.000005 0.223524
285.858643 -411.707581 23.200653 1.000000
285.858643 -411.707581 20.280008 1.000000
285.858643 -411.707581 17.400364 1.000000
285.858643 -411.707581 14.554824 1.000000
285.858643 -411.707581 11.736792 1.000000
285.858643 -411.707581 8.939899 1.000000
285.858643 -411.707581 6.157987 1.000000
285.858673 -411.707550 3.385008 1.000000
285.858673 -411.707550 0.614994 1.000000
256.753052 -444.608734 0.000031 0.228694
245.940414 -456.831421 0.000019 0.225905
241.298111 -462.079102 0.000013 0.243510
238.712585 -465.001801 0.000010 0.203896
237.061951 -466.867676 0.000008 0.239118
235.914688 -468.164551 0.000006 0.190600
235.069427 -469.120026 0.000005 0.232212
286.014343 -412.418854 23.093571 1.000000
286.014343 -412.418854 20.187670 1.000000
286.014374 -412.418854 17.322577 1.000000
286.014343 -412.418854 14.491412 1.000000
286.014343 -412.418854 11.687612 1.000000
286.014343 -412.418854 8.904845 1.000000
286.014374 -412.418854 6.136984 1.000000
286.014374 -412.418854 3.378010 1.000000
286.014404 -412.418823 0.621989 1.000000
256.965240 -444.797821 0.000032 0.232835
246.067566 -456.944672 0.000019 0.225199
241.388733 -462.159821 0.000013 0.223727
238.782867 -465.064423 0.000010 0.246442
237.119232 -466.918732 0.000008 0.210215
235.962952 -468.207581 0.000007 0.218533
235.111053 -469.157104 0.000006 0.254245
286.168488 -413.123016 22.988579 1.000000
286.168488 -413.122986 20.097145 1.000000
286.168518 -413.122986 17.246311 1.000000
286.168518 -413.122986 14.429237 1.000000
286.168518 -413.122986 11.639392 1.000000
286.168488 -413.123016 8.870479 1.000000
286.168518 -413.122986 6.116394 1.000000
286.168518 -413.122986 3.371150 1.000000
286.168549 -413.122955 0.628848 1.000000
257.176147 -444.988342 0.000032 0.230537
246.193909 -457.058838 0.000019 0.233289
241.478790 -462.241211 0.000013 0.218222
238.852707 -465.127502 0.000010 0.219072
237.176178 -466.970184 0.000008 0.218054
236.010925 -468.250916 0.000007 0.247172
235.152405 -469.194489 0.000006 0.268295
286.321106 -413.820221 22.885637 1.000000
286.321106 -413.820221 20.008385 1.000000
286.321106 -413.820221 17.171532 1.000000
286.321136 -413.820190 14.368279 1.000000
286.321136 -413.820190 11.592115 1.000000
286.321136 -413.820190 8.836782 1.000000
286.321136 -413.820190 6.096205 1.000000
286.321136 -413.820190 3.364427 1.000000
286.321136 -413.820190 0.635573 1.000000
257.385681 -445.180328 0.000032 0.228849
246.319473 -457.173859 0.000019 0.231889
241.568283 -462.323181 0.000014 0.230369
238.922119 -465.191101 0.000010 0.215792
237.232758 -467.022034 0.000008 0.241452
236.058578 -468.294586 0.000007 0.209438
235.193512 -469.232147 0.000005 0.200210
287.165924 -413.769348 23.039015 1.000000
287.165924 -413.769348 20.140633 1.000000
287.165924 -413.769348 17.282944 1.000000
287.165894 -413.769348 14.459104 1.000000
287.165924 -413.769318 11.662555 1.000000
287.165924 -413.769348 8.886990 1.000000
287.165924 -413.769348 6.126284 1.000000
287.165924 -413.769348 3.374446 1.000000
287.165741 -413.769531 0.625558 1.000000
257.593872 -445.373810 0.000032 0.228443
246.444214 -457.289795 0.000019 0.225175
241.657196 -462.405792 0.000014 0.248776
238.991074 -465.255157 0.000010 0.222877
237.288971 -467.074249 0.000008 0.228790
236.105942 -468.338593 0.000006 0.230381
235.234344 -469.270081 0.000005 0.220113
288.186188 -413.545990 23.254993 1.000000
288.186188 -413.545990 20.326859 1.000000
288.186188 -413.545990 17.439838 1.000000
288.186188 -413.545990 14.587008 1.000000
288.186188 -413.545990 11.761749 1.000000
288.186188 -413.545959 8.957689 1.000000
288.186188 -413.545959 6.168643 1.000000
288.186188 -413.545959 3.388556 1.000000
288.186035 -413.546143 0.611448 1.000000
257.800751 -445.568695 0.000032 0.227820
246.568146 -457.406555 0.000019 0.226875
241.745529 -462.489044 0.000014 0.236198
239.059570 -465.319733 0.000010 0.234450
237.344818 -467.126862 0.000008 0.222327
236.153000 -468.382904 0.000007 0.238783
235.274918 -469.308319 0.000005 0.213447
289.227661 -413.317993 23.476509 1.000000
289.227661 -413.317993 20.517860 1.000000
289.227661 -413.317993 17.600752 1.000000
289.227692 -413.317963 14.718188 1.000000
289.227661 -413.317993 11.863482 1.000000
289.227661 -413.317963 9.030203 1.000000
289.227692 -413.317963 6.212090 1.000000
289.227539 -413.318115 3.403023 1.000000
289.227539 -413.318115 0.596976 1.000000
258.006226 -445.765045 0.000032 0.231040
246.691254 -457.524200 0.000019 0.223799
241.833282 -462.572876 0.000014 0.238735
239.127625 -465.384735 0.000010 0.240889
237.400299 -467.179901 0.000008 0.218318
236.199738 -468.427582 0.000006 0.206482
235.315216 -469.346832 0.000005 0.216367
290.291138 -413.085175 23.703775 1.000000
290.291138 -413.085175 20.713810 1.000000
290.291168 -413.085175 17.765835 1.000000
290.291168 -413.085144 14.852769 1.000000
290.291168 -413.085175 11.967855 1.000000
290.291168 -413.085144 9.104592 1.000000
290.291168 -413.085144 6.256662 1.000000
290.291016 -413.085297 3.417870 1.000000
290.291016 -413.085297 0.582130 1.000000
258.210327 -445.962830 0.000032 0.230692
246.813553 -457.642700 0.000019 0.236916
241.920441 -462.657349 0.000013 0.203765
239.195236 -465.450256 0.000010 0.229484
237.455414 -467.233276 0.000008 0.205201
236.246170 -468.472565 0.000007 0.236521
235.355255 -469.385620 0.000006 0.251552
291.377441 -412.847351 23.936972 1.000000
291.377441 -412.847351 20.914885 1.000000
291.377441 -412.847351 17.935230 1.000000
291.377441 -412.847351 14.990867 1.000000
291.377441 -412.847351 12.074960 1.000000
291.377441 -412.847351 9.180930 1.000000
291.377441 -412.847351 6.302399 1.000000
291.377289 -412.847504 3.433105 1.000000
291.377289 -412.847504 0.566896 1.000000
258.413055 -446.162018 0.000032 0.227904
246.935013 -457.762054 0.000019 0.227641
242.007019 -462.742401 0.000013 0.245054
239.262375 -465.516235 0.000010 0.237873
237.510147 -467.287079 0.000008 0.185622
236.292282 -468.517883 0.000006 0.209689
235.395004 -469.424683 0.000005 0.233289
nan nan nan 0.000000
292.487366 -412.604370 21.121267 1.000000
292.487366 -412.604370 18.109100 1.000000
292.487366 -412.604370 15.132612 1.000000
292.487366 -412.604370 12.184889 1.000000
292.487366 -412.604370 9.259281 1.000000
292.487244 -412.604492 6.349333 1.000000
292.487244 -412.604492 3.448740 1.000000
292.487244 -412.604492 0.551258 1.000000
258.614380 -446.362640 0.000032 0.227545
247.055634 -457.882233 0.000019 0.229388
242.092987 -462.828064 0.000013 0.236246
239.329041 -465.582672 0.000010 0.219299
237.564499 -467.341217 0.000008 0.232667
236.338074 -468.563507 0.000007 0.225343
235.434494 -469.464020 0.000005 0.231399
nan nan nan 0.000000
293.621857 -412.356018 21.333157 1.000000
293.621857 -412.355988 18.287615 1.000000
293.621887 -412.355988 15.278139 1.000000
293.621857 -412.355988 12.297750 1.000000
293.621857 -412.355988 9.339724 1.000000
293.621735 -412.356140 6.397527 1.000000
293.621735 -412.356140 3.464795 1.000000
293.621735 -412.356140 0.535205 1.000000
258.814301 -446.564636 0.000032 0.228802
247.175415 -458.003265 0.000019 0.236413
242.178360 -462.914337 0.000013 0.230956
239.395264 -465.649567 0.000010 0.226970
237.618484 -467.395782 0.000008 0.223799
236.383545 -468.609467 0.000006 0.199516
235.473709 -469.503632 0.000005 0.218820
nan nan nan 0.000000
294.781799 -412.102081 21.550753 1.000000
294.781799 -412.102081 18.470930 1.000000
294.781799 -412.102051 15.427590 1.000000
294.781799 -412.102051 12.413651 1.000000
294.781677 -412.102173 9.422318 1.000000
294.781708 -412.102173 6.447025 1.000000
294.781677 -412.102173 3.481281 1.000000
294.781677 -412.102173 0.518716 1.000000
259.012817 -446.768036 0.000032 0.231877
247.294357 -458.125122 0.000019 0.219096
242.263138 -463.001190 0.000013 0.228634
239.460999 -465.716919 0.000010 0.235827
237.672073 -467.450684 0.000008 0.193867
236.428696 -468.655731 0.000007 0.187584
235.512634 -469.543549 0.000006 0.209773
nan nan nan 0.000000
295.968201 -411.842346 21.774282 1.000000
295.968231 -411.842316 18.659250 1.000000
295.968231 -411.842346 15.581104 1.000000
295.968231 -411.842346 12.532713 1.000000
295.968140 -411.842438 9.507182 1.000000
295.968140 -411.842438 6.497869 1.000000
295.968140 -411.842438 3.498218 1.000000
295.968140 -411.842438 0.501782 1.000000
259.209900 -446.972809 0.000032 0.231458
247.412445 -458.247833 0.000019 0.233074
242.347305 -463.088654 0.000013 0.232332
239.526276 -465.784760 0.000010 0.218390
237.725281 -467.505981 0.000008 0.231123
236.473526 -468.702301 0.000007 0.222483
235.551285 -469.583710 0.000006 0.275512
nan nan nan 0.000000
297.182159 -411.576599 22.003971 1.000000
297.182159 -411.576599 18.852749 1.000000
297.182159 -411.576599 15.738853 1.000000
297.182068 -411.576660 12.655040 1.000000
297.182068 -411.576660 9.594381 1.000000
297.182068 -411.576660 6.550112 1.000000
297.182068 -411.576691 3.515620 1.000000
297.182068 -411.576691 0.484378 1.000000
259.405548 -447.178955 0.000032 0.227473
247.529663 -458.371338 0.000019 0.229244
242.430847 -463.176697 0.000013 0.220580
239.591064 -465.853027 0.000010 0.223033
237.778107 -467.561646 0.000008 0.242493
236.518036 -468.749207 0.000007 0.262766
235.589661 -469.624115 0.000006 0.229831
nan nan nan 0.000000
298.424683 -411.304565 22.240049 1.000000
298.424683 -411.304565 19.051643 1.000000
298.424683 -411.304565 15.900995 1.000000
298.424591 -411.304626 12.780793 1.000000
298.424591 -411.304657 9.684011 1.000000
298.424591 -411.304657 6.603814 1.000000
298.424591 -411.304657 3.533509 1.000000
298.424591 -411.304657 0.466491 1.000000
259.599731 -447.386475 0.000032 0.229053
247.646011 -458.495667 0.000018 0.226683
242.513779 -463.265289 0.000013 0.229556
239.655396 -465.921753 0.000010 0.248477
237.830536 -467.617676 0.000008 0.221884
236.562210 -468.796387 0.000007 0.199624
235.627747 -469.664825 0.000005 0.244611
nan nan nan 0.000000
299.696960 -411.026062 22.482782 1.000000
299.696960 -411.026062 19.256138 1.000000
299.696960 -411.026031 16.067711 1.000000
299.696869 -411.026123 12.910081 1.000000
299.696869 -411.026123 9.776163 1.000000
299.696838 -411.026123 6.659026 1.000000
299.696869 -411.026123 3.551898 1.000000
299.696869 -411.026123 0.448100 1.000000
259.792480 -447.595337 0.000032 0.230333
247.761490 -458.620819 0.000019 0.226300
242.596100 -463.354492 0.000013 0.228000
239.719223 -465.990936 0.000010 0.225187
237.882584 -467.674042 0.000008 0.236808
236.606049 -468.843903 0.000007 0.220819
235.665558 -469.705780 0.000006 0.236760
nan nan nan 0.000000
301.000153 -410.740753 22.732428 1.000000
301.000153 -410.740753 19.466455 1.000000
301.000092 -410.740814 16.239151 1.000000
301.000092 -410.740784 13.043056 1.000000
301.000092 -410.740814 9.870940 1.000000
301.000092 -410.740814 6.715811 1.000000
301.000092 -410.740814 3.570814 1.000000
301.000092 -410.740814 0.429186 1.000000
259.983795 -447.805542 0.000032 0.230573
247.876114 -458.746765 0.000019 0.238890
242.677780 -463.444275 0.000013 0.211783
239.782578 -466.060547 0.000011 0.224721
237.934235 -467.730804 0.000008 0.272664
236.649567 -468.891724 0.000007 0.222806
235.703064 -469.747009 0.000006 0.215481
nan nan nan 0.000000
302.335571 -410.448395 22.989267 1.000000
302.335602 -410.448395 19.682837 1.000000
302.335541 -410.448425 16.415554 1.000000
302.335571 -410.448425 13.179867 1.000000
302.335541 -410.448425 9.968453 1.000000
302.335541 -410.448425 6.774234 1.000000
302.335571 -410.448425 3.590276 1.000000
302.335571 -410.448425 0.409724 1.000000
260.173615 -448.017059 0.000032 0.230908
247.989838 -458.873474 0.000019 0.228502
242.758850 -463.534607 0.000013 0.219945
239.845444 -466.130585 0.000011 0.211305
237.985474 -467.787933 0.000008 0.215469
236.692734 -468.939819 0.000007 0.204076
235.740295 -469.788513 0.000006 0.201168
nan nan nan 0.000000
nan nan nan 0.000000
nan nan nan 0.000000
303.704559 -410.148712 16.597105 1.000000
303.704559 -410.148743 13.320662 1.000000
303.704559 -410.148743 10.068803 1.000000
303.704559 -410.148743 6.834357 1.000000
303.704559 -410.148743 3.610301 1.000000
303.704559 -410.148743 0.389699 1.000000
260.361938 -448.229919 0.000032 0.229520
248.102676 -459.001007 0.000019 0.219538
242.839264 -463.625488 0.000014 0.226121
239.907822 -466.201080 0.000010 0.212812
238.036331 -467.845398 0.000008 0.219407
236.735580 -468.988251 0.000007 0.212310
235.777237 -469.830261 0.000006 0.240626
nan nan nan 0.000000
nan nan nan 0.000000
nan nan nan 0.000000
nan nan nan 0.000000
nan nan nan 0.000000
nan nan nan 0.000000
305.108582 -409.841339 6.896262 1.000000
305.108582 -409.841339 3.630920 1.000000
305.108582 -409.841339 0.369078 1.000000
260.548767 -448.444092 0.000032 0.228502
248.214630 -459.129333 0.000019 0.238807
242.919052 -463.716949 0.000014 0.246227
239.969696 -466.272003 0.000010 0.226037
238.086777 -467.903229 0.000008 0.250631
236.778076 -469.036957 0.000006 0.208731
235.813889 -469.872253 0.000006 0.244886
nan nan nan 0.000000
nan nan nan 0.000000
nan nan nan 0.000000
nan nan nan 0.000000
nan nan nan 0.000000
nan nan nan 0.000000
nan nan nan 0.000000
nan nan nan 0.000000
nan nan nan 0.000000
260.734131 -448.659546 0.000032 0.228778
248.325668 -459.258423 0.000019 0.224637
242.998215 -463.808960 0.000013 0.212166
240.031082 -466.343384 0.000010 0.224457
238.136826 -467.961395 0.000008 0.229867
236.820236 -469.085968 0.000006 0.248201
235.850235 -469.914520 0.000006 0.239022
nan nan nan 0.000000
nan nan nan 0.000000
nan nan nan 0.000000
nan nan nan 0.000000
nan nan nan 0.000000
nan nan nan 0.000000
nan nan nan 0.000000
nan nan nan 0.000000
nan nan nan 0.000000
260.917969 -448.876312 0.000032 0.231710
248.435806 -459.388306 0.000019 0.232380
243.076706 -463.901520 0.000014 0.234343
240.091965 -466.415161 0.000010 0.223955
238.186447 -468.019897 0.000008 0.194155
236.862045 -469.135284 0.000007 0.205237
235.886292 -469.957031 0.000006 0.251433
nan nan nan 0.000000
nan nan nan 0.000000
nan nan nan 0.000000
nan nan nan 0.000000
nan nan nan 0.000000
nan nan nan 0.000000
nan nan nan 0.000000
306.643799 -411.279572 3.634857 1.000000
306.643799 -411.279572 0.365141 1.000000
261.100281 -449.094330 0.000032 0.230190
248.545044 -459.518921 0.000019 0.224637
243.154572 -463.994629 0.000014 0.233194
240.152344 -466.487366 0.000010 0.231243
238.235687 -468.078766 0.000008 0.204459
236.903519 -469.184875 0.000006 0.207319
235.922043 -469.999786 0.000005 0.181229
nan nan nan 0.000000
nan nan nan 0.000000
nan nan nan 0.000000
nan nan nan 0.000000
nan nan nan 0.000000
306.811035 -412.044037 10.162558 1.000000
306.811066 -412.044006 6.890530 1.000000
306.811035 -412.044037 3.629011 1.000000
306.811035 -412.044037 0.370987 1.000000
261.281067 -449.313629 0.000032 0.228191
248.653366 -459.650299 0.000019 0.239525
243.231781 -464.088287 0.000014 0.226827
240.212219 -466.559998 0.000010 0.222734
238.284485 -468.138000 0.000008 0.226899
236.944641 -469.234741 0.000007 0.204519
235.957504 -470.042786 0.000005 0.210347
nan nan nan 0.000000
nan nan nan 0.000000
nan nan nan 0.000000
nan nan nan 0.000000
306.977112 -412.803040 13.411949 1.000000
306.977112 -412.803040 10.133871 1.000000
306.977142 -412.803040 6.873343 1.000000
306.977112 -412.803040 3.623288 1.000000
306.977112 -412.803040 0.376712 1.000000
261.460327 -449.534180 0.000032 0.227701
248.760773 -459.782440 0.000019 0.229508
243.308319 -464.182465 0.000014 0.236461
240.271591 -466.633057 0.000010 0.233361
238.332886 -468.197540 0.000008 0.240662
236.985428 -469.284912 0.000006 0.229711
235.992661 -470.086060 0.000005 0.208911
nan nan nan 0.000000
nan nan nan 0.000000
nan nan nan 0.000000
307.142029 -413.556824 16.663990 1.000000
307.142029 -413.556824 13.372531 1.000000
307.142029 -413.556824 10.105776 1.000000
307.142029 -413.556824 6.856510 1.000000
307.142029 -413.556824 3.617679 1.000000
307.142029 -413.556824 0.382319 1.000000
261.638031 -449.755981 0.000032 0.229424
248.867249 -459.915344 0.000019 0.236186
243.384216 -464.277191 0.000014 0.235910
240.330444 -466.706512 0.000010 0.218258
238.380875 -468.257416 0.000008 0.240207
237.025848 -469.335358 0.000007 0.245975
236.027512 -470.129547 0.000006 0.256878
nan nan nan 0.000000
nan nan nan 0.000000
nan nan nan 0.000000
307.305786 -414.305420 16.614223 1.000000
307.305817 -414.305420 13.333942 1.000000
307.305817 -414.305420 10.078269 1.000000
307.305817 -414.305420 6.840029 1.000000
307.305817 -414.305420 3.612190 1.000000
307.305817 -414.305420 0.387808 1.000000
261.814209 -449.979004 0.000032 0.231662
248.972778 -460.048981 0.000019 0.230860
243.459442 -464.372437 0.000014 0.237754
240.388794 -466.780365 0.000010 0.266728
238.428436 -468.317627 0.000008 0.210574
237.065918 -469.386108 0.000007 0.227473
236.062057 -470.173309 0.000006 0.263688
nan nan nan 0.000000
nan nan nan 0.000000
307.468506 -415.048981 19.866768 1.000000
307.468506 -415.048981 16.565510 1.000000
307.468506 -415.048981 13.296160 1.000000
307.468506 -415.048981 10.051341 1.000000
307.468506 -415.048981 6.823894 1.000000
307.468506 -415.048981 3.606816 1.000000
307.468506 -415.048981 0.393184 1.000000
261.988770 -450.203278 0.000032 0.227844
249.077393 -460.183350 0.000019 0.235683
243.533997 -464.468201 0.000014 0.234498
240.446609 -466.854645 0.000010 0.207271
238.475571 -468.378174 0.000008 0.219790
237.105621 -469.437103 0.000007 0.204363
