# This PCD file was generated using the MATLABÂ® pcwrite function
# from Computer Vision ToolboxÂ®.
# .PCD v.7 - Point Cloud Data file format
VERSION .7
FIELDS x y z intensity
SIZE 4 4 4 4
TYPE F F F F
COUNT 1 1 1 1
WIDTH 1191
HEIGHT 1
VIEWPOINT 0 0 0 1 0 0 0
POINTS 1191
DATA ascii
86.455658 -273.832947 3.549418 0.756466
86.455772 -273.832794 3.201617 0.725643
86.455894 -273.832672 2.856438 0.720806
86.456009 -273.832520 2.513119 0.757061
86.456123 -273.832397 2.170914 0.788022
86.456238 -273.832245 1.829088 0.884611
86.456352 -273.832123 1.486907 0.733303
86.456467 -273.831970 1.143636 0.701244
86.456589 -273.831848 0.798528 0.831540
86.456703 -273.831696 0.450824 0.647898
86.456810 -273.831573 0.099736 0.737728
87.215538 -272.923492 -0.000009 0.224960
88.033485 -271.944519 -0.000010 0.235575
86.418884 -273.763550 4.609047 0.737255
86.419006 -273.763397 4.249578 0.696269
86.419128 -273.763275 3.895169 0.749020
86.419250 -273.763123 3.544970 0.767529
86.419365 -273.762970 3.198167 0.688579
86.419487 -273.762848 2.853979 0.760433
86.419601 -273.762695 2.511646 0.830915
86.419716 -273.762573 2.170424 0.807294
86.419830 -273.762421 1.829579 0.711513
86.419952 -273.762299 1.488380 0.816358
86.420067 -273.762146 1.146094 0.873365
86.420181 -273.762024 0.801977 0.704707
86.420296 -273.761902 0.455270 0.714443
86.420410 -273.761749 0.105191 0.826444
87.166077 -272.881866 -0.000009 0.257548
87.990837 -271.908630 -0.000009 0.243414
86.382683 -273.694122 4.601704 0.731075
86.382805 -273.693970 4.243247 0.807340
86.382927 -273.693817 3.889835 0.702541
86.383049 -273.693695 3.540622 0.727504
86.383171 -273.693542 3.194795 0.730816
86.383286 -273.693420 2.851576 0.723461
86.383400 -273.693268 2.510206 0.689494
86.383522 -273.693146 2.169944 0.807782
86.383636 -273.692993 1.830059 0.742809
86.383751 -273.692871 1.489820 0.734859
86.383865 -273.692749 1.148497 0.700282
86.383980 -273.692596 0.805349 0.818601
86.384094 -273.692474 0.459617 0.650675
86.384209 -273.692352 0.110523 0.763058
87.116898 -272.839874 -0.000009 0.205967
87.948441 -271.872437 -0.000009 0.205811
86.346680 -273.625061 4.594528 0.674510
86.346802 -273.624908 4.237060 0.806760
86.346924 -273.624786 3.884623 0.749096
86.347046 -273.624634 3.536372 0.678767
86.347168 -273.624512 3.191500 0.748531
86.347282 -273.624359 2.849227 0.720226
86.347404 -273.624237 2.508799 0.725917
86.347519 -273.624084 2.169475 0.798306
86.347633 -273.623962 1.830527 0.745937
86.347748 -273.623840 1.491227 0.762829
86.347862 -273.623718 1.150845 0.697780
86.347984 -273.623566 0.808643 0.868208
86.348099 -273.623444 0.463865 0.670848
86.348213 -273.623322 0.115733 0.831998
87.068024 -272.797577 -0.000008 0.230202
87.906296 -271.835938 -0.000008 0.190469
86.310875 -273.556396 4.587518 0.676875
86.311005 -273.556244 4.231015 0.808438
86.311127 -273.556122 3.879530 0.873426
86.311249 -273.555969 3.532221 0.675395
86.311363 -273.555847 3.188281 0.728664
86.311485 -273.555695 2.846933 0.853498
86.311600 -273.555573 2.507424 0.753918
86.311714 -273.555450 2.169018 0.783429
86.311829 -273.555298 1.830985 0.677653
86.311951 -273.555176 1.492601 0.718151
86.312065 -273.555054 1.153139 0.854948
86.312180 -273.554901 0.811861 0.820188
86.312302 -273.554779 0.468015 0.680812
86.312408 -273.554657 0.120823 0.739345
87.019440 -272.754913 -0.000008 0.268798
87.864403 -271.799164 -0.000008 0.288210
86.275261 -273.488068 4.580671 0.706569
86.275391 -273.487946 4.225111 0.654490
86.275513 -273.487793 3.874557 0.774395
86.275635 -273.487671 3.528167 0.687373
86.275749 -273.487549 3.185136 0.632395
86.275871 -273.487396 2.844692 0.698268
86.275986 -273.487274 2.506082 0.700786
86.276108 -273.487152 2.168570 0.791226
86.276222 -273.487000 1.831432 0.724727
86.276337 -273.486877 1.493944 0.694224
86.276451 -273.486755 1.155380 0.670893
86.276573 -273.486633 0.815005 0.824796
86.276688 -273.486481 0.472068 0.624674
86.276802 -273.486359 0.125794 0.717601
86.971161 -272.711945 -0.000007 0.212178
87.822777 -271.762115 -0.000008 0.234857
86.239838 -273.420135 4.573984 0.725231
86.239960 -273.419983 4.219347 0.826139
86.240082 -273.419861 3.869701 0.709178
86.240204 -273.419708 3.524208 0.753368
86.240326 -273.419586 3.182066 0.768963
86.240448 -273.419464 2.842503 0.723369
86.240562 -273.419342 2.504770 0.691814
86.240677 -273.419189 2.168134 0.729580
86.240799 -273.419067 1.831869 0.775341
86.240913 -273.418945 1.495255 0.662852
86.241028 -273.418823 1.157568 0.748333
86.241142 -273.418701 0.818074 0.813504
86.241264 -273.418549 0.476026 0.600656
86.241379 -273.418427 0.130649 0.765270
86.923172 -272.668610 -0.000007 0.189894
87.781403 -271.724762 -0.000007 0.227138
86.204590 -273.352539 4.567458 0.610300
86.204712 -273.352386 4.213719 0.769848
86.204842 -273.352264 3.864959 0.813336
86.204964 -273.352112 3.520343 0.615106
86.205078 -273.351990 3.179069 0.757443
86.205200 -273.351868 2.840367 0.656184
86.205322 -273.351746 2.503491 0.670802
86.205437 -273.351593 2.167708 0.780514
86.205551 -273.351471 1.832295 0.729503
86.205666 -273.351349 1.496534 0.766003
86.205788 -273.351227 1.159703 0.632868
86.205902 -273.351105 0.821071 0.796780
86.206024 -273.350983 0.479890 0.615854
86.206131 -273.350861 0.135388 0.800626
86.875496 -272.624939 -0.000006 0.193676
87.740288 -271.687103 -0.000007 0.218940
86.169518 -273.285248 4.561089 0.591302
86.169647 -273.285126 4.208228 0.721523
86.169769 -273.285004 3.860334 0.705791
86.169891 -273.284851 3.516572 0.645670
86.170013 -273.284729 3.176144 0.760876
86.170135 -273.284607 2.838283 0.642863
86.170250 -273.284485 2.502242 0.641840
86.170372 -273.284363 2.167291 0.700191
86.170486 -273.284241 1.832711 0.671138
86.170601 -273.284119 1.497783 0.730220
86.170715 -273.283966 1.161788 0.618418
86.170837 -273.283844 0.823995 0.780255
86.170959 -273.283722 0.483659 0.618769
86.171066 -273.283600 0.140012 0.707408
86.828125 -272.580963 -0.000006 0.201539
87.699448 -271.649170 -0.000007 0.221250
86.134621 -273.218323 4.554875 0.673533
86.134750 -273.218201 4.202871 0.811353
86.134872 -273.218079 3.855820 0.722301
86.134995 -273.217926 3.512893 0.632700
86.135117 -273.217804 3.173291 0.762219
86.135239 -273.217682 2.836249 0.605005
86.135353 -273.217560 2.501023 0.707790
86.135475 -273.217438 2.166886 0.674205
86.135590 -273.217316 1.833117 0.583673
86.135704 -273.217194 1.499002 0.721813
86.135826 -273.217072 1.163821 0.816052
86.135941 -273.216949 0.826847 0.698070
86.136063 -273.216827 0.487337 0.770275
86.136177 -273.216705 0.144524 0.634913
86.781059 -272.536621 -0.000006 0.196046
87.658867 -271.610962 -0.000006 0.242170
86.099892 -273.151703 4.548816 0.674952
86.100021 -273.151581 4.197646 0.651728
86.100143 -273.151459 3.851419 0.782238
86.100266 -273.151337 3.509305 0.632044
86.100388 -273.151215 3.170509 0.724254
86.100510 -273.151062 2.834266 0.696345
86.100624 -273.150940 2.499835 0.673854
86.100746 -273.150818 2.166490 0.723415
86.100861 -273.150696 1.833513 0.614801
86.100975 -273.150574 1.500189 0.730999
86.101097 -273.150452 1.165803 0.656260
86.101212 -273.150330 0.829629 0.664149
86.101334 -273.150208 0.490924 0.686778
86.101448 -273.150085 0.148923 0.704692
86.734306 -272.491974 -0.000005 0.244360
87.618553 -271.572449 -0.000006 0.187477
86.065323 -273.085419 4.542909 0.759503
86.065453 -273.085297 4.192554 0.580758
86.065575 -273.085144 3.847128 0.855787
86.065697 -273.085022 3.505807 0.626307
86.065819 -273.084900 3.167796 0.796567
86.065941 -273.084778 2.832333 0.756390
86.066063 -273.084656 2.498677 0.688060
86.066177 -273.084534 2.166104 0.738201
86.066292 -273.084412 1.833899 0.791180
86.066414 -273.084290 1.501348 0.789517
86.066528 -273.084167 1.167736 0.645487
86.066650 -273.084045 0.832341 0.723095
86.066772 -273.083923 0.494420 0.655238
86.066887 -273.083801 0.153212 0.684443
86.687866 -272.447021 -0.000005 0.206960
87.578506 -271.533691 -0.000005 0.196285
86.030914 -273.019409 4.537152 0.758373
86.031044 -273.019287 4.187591 0.750210
86.031166 -273.019165 3.842947 0.823240
86.031288 -273.019043 3.502398 0.639933
86.031410 -273.018921 3.165153 0.799558
86.031532 -273.018799 2.830449 0.743099
86.031654 -273.018677 2.497549 0.760922
86.031769 -273.018555 2.165728 0.766903
86.031891 -273.018433 1.834274 0.812085
86.032005 -273.018311 1.502476 0.707881
86.032127 -273.018188 1.169620 0.790127
86.032242 -273.018066 0.834984 0.656489
86.032364 -273.017944 0.497828 0.630335
86.032478 -273.017822 0.157393 0.790692
86.641739 -272.401703 -0.000005 0.213842
87.538742 -271.494629 -0.000005 0.246287
85.996658 -272.953705 4.531546 0.684230
85.996788 -272.953583 4.182755 0.732189
85.996910 -272.953461 3.838875 0.740444
85.997032 -272.953339 3.499079 0.682109
85.997154 -272.953217 3.162578 0.841901
85.997276 -272.953094 2.828614 0.751842
85.997398 -272.952972 2.496449 0.758160
85.997513 -272.952850 2.165362 0.714534
85.997635 -272.952728 1.834641 0.842451
85.997749 -272.952637 1.503575 0.754421
85.997871 -272.952515 1.171455 0.657816
85.997986 -272.952393 0.837557 0.661067
85.998108 -272.952271 0.501147 0.660655
85.998230 -272.952148 0.161463 0.727962
86.595932 -272.356110 -0.000004 0.207032
87.499245 -271.455292 -0.000005 0.259152
85.962555 -272.888306 4.526086 0.724926
85.962677 -272.888184 4.178048 0.742214
85.962807 -272.888062 3.834909 0.750607
85.962929 -272.887939 3.495845 0.716960
85.963051 -272.887817 3.160071 0.835660
85.963173 -272.887695 2.826827 0.664607
85.963295 -272.887573 2.495378 0.764782
85.963409 -272.887451 2.165006 0.782193
85.963531 -272.887329 1.834997 0.861463
85.963646 -272.887207 1.504646 0.795483
85.963768 -272.887115 1.173241 0.611154
85.963890 -272.886993 0.840064 0.700740
85.964005 -272.886871 0.504379 0.780484
85.964127 -272.886749 0.165428 0.719860
86.550446 -272.310150 -0.000004 0.191749
87.460022 -271.415680 -0.000004 0.234498
85.928589 -272.823151 4.520772 0.709651
85.928719 -272.823029 4.173466 0.741756
85.928848 -272.822906 3.831049 0.774548
85.928970 -272.822784 3.492700 0.680125
85.929092 -272.822662 3.157631 0.809110
85.929214 -272.822571 2.825088 0.694987
85.929337 -272.822449 2.494336 0.731197
85.929451 -272.822327 2.164658 0.785260
85.929573 -272.822205 1.835344 0.794278
85.929688 -272.822083 1.505688 0.745068
85.929810 -272.821991 1.174980 0.671489
85.929932 -272.821869 0.842503 0.673457
85.930046 -272.821747 0.507524 0.736385
85.930168 -272.821625 0.169286 0.652125
86.505280 -272.263916 -0.000003 0.219886
87.421074 -271.375793 -0.000004 0.235192
85.894768 -272.758301 4.515604 0.638514
85.894897 -272.758179 4.169010 0.771038
85.895027 -272.758057 3.827295 0.737133
85.895149 -272.757935 3.489639 0.663813
85.895271 -272.757813 3.155257 0.771160
85.895393 -272.757690 2.823396 0.755703
85.895515 -272.757568 2.493323 0.777752
85.895638 -272.757477 2.164321 0.761303
85.895752 -272.757355 1.835682 0.809308
85.895874 -272.757233 1.506701 0.785611
85.895988 -272.757111 1.176671 0.787335
85.896111 -272.757019 0.844876 0.714443
85.896233 -272.756897 0.510584 0.772305
85.896347 -272.756775 0.173039 0.675990
86.460442 -272.217346 -0.000003 0.203705
87.382416 -271.335663 -0.000003 0.190576
85.861084 -272.693695 4.510578 0.626245
85.861214 -272.693573 4.164677 0.825879
85.861343 -272.693451 3.823645 0.760006
85.861465 -272.693329 3.486663 0.850355
85.861588 -272.693207 3.152950 0.807935
85.861710 -272.693085 2.821751 0.675776
85.861832 -272.692993 2.492337 0.761959
85.861954 -272.692871 2.163993 0.885466
85.862076 -272.692749 1.836010 0.724697
85.862190 -272.692657 1.507686 0.788037
85.862312 -272.692535 1.178316 0.840696
85.862434 -272.692413 0.847183 0.792355
85.862556 -272.692291 0.513559 0.789807
85.862671 -272.692200 0.176687 0.914458
86.415924 -272.170471 -0.000002 0.182833
87.344032 -271.295227 -0.000003 0.197027
85.827538 -272.629333 4.505694 0.593027
85.827667 -272.629211 4.160467 0.734646
85.827789 -272.629089 3.820097 0.776654
85.827919 -272.628967 3.483771 0.802029
85.828041 -272.628876 3.150707 0.752834
85.828163 -272.628754 2.820153 0.702861
85.828285 -272.628632 2.491380 0.870237
85.828400 -272.628540 2.163674 0.765896
85.828522 -272.628418 1.836329 0.632853
85.828644 -272.628296 1.508644 0.777951
85.828766 -272.628204 1.179914 0.809033
85.828880 -272.628082 0.849426 0.700801
85.829002 -272.627960 0.516449 0.731991
85.829124 -272.627869 0.180233 0.706661
86.371735 -272.123260 -0.000002 0.207355
87.305931 -271.254547 -0.000002 0.262611
85.794113 -272.565216 4.500951 0.627985
85.794243 -272.565125 4.156377 0.728313
85.794373 -272.565002 3.816652 0.849302
85.794495 -272.564880 3.480963 0.717449
85.794617 -272.564758 3.148529 0.821042
85.794739 -272.564667 2.818601 0.655360
85.794861 -272.564545 2.490450 0.783047
85.794983 -272.564423 2.163364 0.759350
85.795105 -272.564331 1.836639 0.702556
85.795227 -272.564209 1.509574 0.673442
85.795341 -272.564117 1.181466 0.764935
85.795464 -272.563995 0.851603 0.817777
85.795586 -272.563873 0.519256 0.819165
85.795708 -272.563782 0.183677 0.694667
86.327881 -272.075775 -0.000001 0.230704
87.268112 -271.213593 -0.000002 0.198726
85.760811 -272.501373 4.496348 0.729061
85.760941 -272.501251 4.152409 0.736889
85.761070 -272.501129 3.813308 0.765530
85.761200 -272.501007 3.478237 0.731685
85.761322 -272.500916 3.146415 0.770367
85.761444 -272.500793 2.817094 0.732464
85.761566 -272.500702 2.489547 0.817777
85.761688 -272.500580 2.163063 0.791150
85.761810 -272.500458 1.836939 0.754147
85.761925 -272.500366 1.510476 0.793515
85.762047 -272.500244 1.182972 0.791897
85.762169 -272.500153 0.853716 0.692348
85.762291 -272.500031 0.521982 0.857755
85.762413 -272.499939 0.187020 0.677455
86.284355 -272.027985 -0.000001 0.194430
87.230583 -271.172363 -0.000002 0.188039
85.727638 -272.437744 4.491882 0.680995
85.727768 -272.437622 4.148558 0.710414
85.727898 -272.437500 3.810065 0.673106
85.728020 -272.437378 3.475593 0.845991
85.728142 -272.437286 3.144365 0.723278
85.728271 -272.437164 2.815632 0.679210
85.728394 -272.437073 2.488672 0.780224
85.728508 -272.436951 2.162771 0.829450
85.728630 -272.436859 1.837231 0.696590
85.728752 -272.436737 1.511352 0.699458
85.728874 -272.436646 1.184434 0.779706
85.728996 -272.436523 0.855766 0.700816
85.729118 -272.436401 0.524625 0.801846
85.729233 -272.436310 0.190262 0.767163
86.241165 -271.979858 -0.000000 0.225654
87.193344 -271.130890 -0.000001 0.227736
85.694580 -272.374329 4.487554 0.758206
85.694710 -272.374207 4.144826 0.777127
85.694839 -272.374084 3.806921 0.701930
85.694962 -272.373993 3.473030 0.845457
85.695084 -272.373871 3.142377 0.762432
85.695213 -272.373779 2.814216 0.742290
85.695335 -272.373657 2.487823 0.750271
85.695450 -272.373566 2.162489 0.762020
85.695572 -272.373444 1.837514 0.681392
85.695694 -272.373352 1.512200 0.713985
85.695816 -272.373230 1.185850 0.772885
85.695938 -272.373138 0.857753 0.756466
85.696060 -272.373016 0.527187 0.798825
85.696182 -272.372925 0.193405 0.790646
86.198311 -271.931458 0.000000 0.210467
87.156395 -271.089172 -0.000001 0.200174
85.661629 -272.311127 4.483362 0.701839
85.661758 -272.311005 4.141211 0.779141
85.661888 -272.310913 3.803876 0.720302
85.662018 -272.310791 3.470548 0.742901
85.662140 -272.310699 3.140451 0.770611
85.662262 -272.310577 2.812844 0.732357
85.662384 -272.310486 2.487001 0.740719
85.662506 -272.310364 2.162215 0.769970
85.662628 -272.310272 1.837788 0.748791
85.662750 -272.310150 1.513023 0.701427
85.662872 -272.310059 1.187222 0.819394
85.662994 -272.309937 0.859678 0.776699
85.663116 -272.309845 0.529669 0.787594
85.663239 -272.309753 0.196449 0.803891
86.155800 -271.882751 0.000000 0.230788
87.119736 -271.047180 -0.000000 0.218282
85.628792 -272.248138 4.479303 0.715572
85.628922 -272.248047 4.137712 0.754360
85.629051 -272.247925 3.800928 0.790906
85.629181 -272.247833 3.468144 0.731685
85.629303 -272.247711 3.138588 0.763104
85.629425 -272.247620 2.811516 0.739895
85.629547 -272.247498 2.486205 0.695811
85.629669 -272.247406 2.161950 0.769024
85.629791 -272.247284 1.838053 0.744961
85.629913 -272.247192 1.513818 0.734295
85.630035 -272.247070 1.188550 0.835096
85.630157 -272.246979 0.861541 0.802350
85.630287 -272.246887 0.532071 0.687129
85.630402 -272.246765 0.199395 0.765637
86.113625 -271.833771 0.000001 0.219084
87.083374 -271.004913 0.000000 0.199432
85.596054 -272.185364 4.475380 0.860319
85.596191 -272.185272 4.134328 0.743420
85.596321 -272.185150 3.798078 0.696010
85.596443 -272.185059 3.465821 0.865064
85.596573 -272.184937 3.136786 0.742535
85.596695 -272.184845 2.810231 0.867597
85.596817 -272.184723 2.485436 0.722972
85.596939 -272.184631 2.161694 0.740017
85.597061 -272.184509 1.838309 0.673106
85.597183 -272.184418 1.514588 0.711315
85.597305 -272.184326 1.189834 0.725872
85.597427 -272.184204 0.863343 0.779736
85.597557 -272.184113 0.534394 0.696635
85.597672 -272.184021 0.202245 0.855024
86.071793 -271.784485 0.000002 0.198260
87.047310 -270.962402 0.000001 0.228825
85.563423 -272.122772 4.471589 0.749706
85.563560 -272.122681 4.131060 0.713420
85.563690 -272.122559 3.795324 0.799191
85.563820 -272.122467 3.463576 0.781567
85.563942 -272.122345 3.135046 0.591012
85.564064 -272.122253 2.808991 0.806165
85.564186 -272.122162 2.484692 0.720851
85.564308 -272.122040 2.161446 0.692332
85.564438 -272.121948 1.838556 0.703166
85.564560 -272.121857 1.515331 0.650111
85.564682 -272.121735 1.191075 0.709514
85.564804 -272.121643 0.865083 0.702800
85.564926 -272.121552 0.536638 0.652796
85.565048 -272.121429 0.204998 0.786038
86.030312 -271.734894 0.000002 0.237682
87.011536 -270.919678 0.000001 0.249338
85.530899 -272.060394 4.467928 0.816022
85.531029 -272.060272 4.127904 0.613962
85.531158 -272.060181 3.792666 0.673548
85.531281 -272.060059 3.461409 0.710430
85.531410 -272.059967 3.133365 0.655970
85.531532 -272.059875 2.807793 0.718517
85.531662 -272.059753 2.483975 0.740169
85.531784 -272.059662 2.161207 0.685344
85.531906 -272.059570 1.838796 0.723674
85.532028 -272.059448 1.516048 0.630701
85.532150 -272.059357 1.192272 0.772564
85.532272 -272.059265 0.866763 0.673030
85.532394 -272.059143 0.538804 0.635035
85.532516 -272.059052 0.207655 0.770947
85.989174 -271.685028 0.000002 0.224326
86.976067 -270.876678 0.000002 0.242924
85.498459 -271.998169 4.464399 0.790097
85.498589 -271.998077 4.124862 0.693324
85.498718 -271.997955 3.790102 0.722072
85.498848 -271.997864 3.459319 0.652857
85.498978 -271.997772 3.131744 0.767926
85.499100 -271.997650 2.806638 0.782940
85.499222 -271.997559 2.483283 0.664240
85.499344 -271.997467 2.160976 0.765682
85.499466 -271.997345 1.839026 0.729244
85.499596 -271.997253 1.516740 0.632197
85.499718 -271.997162 1.193427 0.886030
85.499840 -271.997070 0.868383 0.726818
85.499962 -271.996948 0.540894 0.611811
85.500084 -271.996857 0.210217 0.742931
85.948387 -271.634857 0.000003 0.182833
86.940895 -270.833405 0.000002 0.222387
85.466110 -271.936127 4.461000 0.779492
85.466240 -271.936035 4.121931 0.677668
85.466370 -271.935913 3.787633 0.718120
85.466499 -271.935822 3.457307 0.713527
85.466629 -271.935730 3.130183 0.723461
85.466751 -271.935608 2.805525 0.701244
85.466873 -271.935516 2.482616 0.712352
85.467003 -271.935425 2.160755 0.728786
85.467125 -271.935333 1.839248 0.720439
85.467247 -271.935242 1.517407 0.643061
85.467369 -271.935120 1.194539 0.791745
85.467499 -271.935028 0.869944 0.813550
85.467621 -271.934937 0.542905 0.657374
85.467743 -271.934845 0.212685 0.715221
85.907951 -271.584412 0.000003 0.192324
86.906036 -270.789917 0.000003 0.248178
85.433853 -271.874268 4.457730 0.702129
85.433983 -271.874146 4.119111 0.749187
85.434113 -271.874054 3.785258 0.764279
85.434242 -271.873962 3.455371 0.759106
85.434372 -271.873871 3.128682 0.759411
85.434494 -271.873749 2.804455 0.656443
85.434616 -271.873657 2.481975 0.766262
85.434746 -271.873566 2.160541 0.674174
85.434868 -271.873474 1.839462 0.591119
85.434990 -271.873383 1.518048 0.725399
85.435120 -271.873260 1.195609 0.730007
85.435242 -271.873169 0.871445 0.761959
85.435364 -271.873077 0.544841 0.759579
85.435486 -271.872986 0.215060 0.711315
85.867867 -271.533691 0.000004 0.208600
86.871475 -270.746185 0.000003 0.241811
85.401672 -271.812561 4.454588 0.704112
85.401810 -271.812439 4.116403 0.692119
85.401939 -271.812347 3.782976 0.722271
85.402069 -271.812256 3.453510 0.743496
85.402199 -271.812134 3.127239 0.655039
85.402321 -271.812042 2.803427 0.846265
85.402443 -271.811951 2.481359 0.715557
85.402573 -271.811859 2.160336 0.691295
85.402695 -271.811768 1.839667 0.595666
85.402817 -271.811676 1.518664 0.700252
85.402939 -271.811584 1.196637 0.736278
85.403069 -271.811462 0.872888 0.714916
85.403191 -271.811371 0.546701 0.706325
85.403320 -271.811279 0.217341 0.660502
85.828140 -271.482697 0.000004 0.210981
86.837219 -270.702209 0.000003 0.216786
85.369576 -271.751007 4.451574 0.758831
85.369713 -271.750885 4.113803 0.669200
85.369843 -271.750793 3.780786 0.758831
85.369972 -271.750702 3.451725 0.711711
85.370102 -271.750610 3.125855 0.590448
85.370232 -271.750488 2.802440 0.793805
85.370354 -271.750397 2.480768 0.793683
85.370476 -271.750305 2.160139 0.826429
85.370605 -271.750214 1.839864 0.663890
85.370728 -271.750122 1.519255 0.710903
85.370850 -271.750031 1.197624 0.804562
85.370979 -271.749939 0.874272 0.715770
85.371101 -271.749847 0.548486 0.719722
85.371231 -271.749725 0.219530 0.628687
85.788765 -271.431427 0.000005 0.241045
86.803268 -270.658020 0.000004 0.269923
85.337563 -271.689575 4.448687 0.717205
85.337692 -271.689484 4.111314 0.794018
85.337830 -271.689392 3.778689 0.715892
85.337959 -271.689301 3.450015 0.691890
85.338089 -271.689209 3.124528 0.570794
85.338211 -271.689087 2.801495 0.811261
85.338333 -271.688995 2.480202 0.668452
85.338463 -271.688904 2.159950 0.741405
85.338585 -271.688812 1.840052 0.782315
85.338715 -271.688721 1.519821 0.664057
85.338837 -271.688629 1.198569 0.648310
85.338959 -271.688538 0.875598 0.716274
85.339088 -271.688446 0.550195 0.701656
85.339211 -271.688354 0.221626 0.677974
85.749748 -271.379883 0.000005 0.211269
86.769630 -270.613556 0.000005 0.288940
85.305618 -271.628326 4.445924 0.785336
85.305748 -271.628235 4.108932 0.812665
85.305885 -271.628113 3.776682 0.729641
85.306015 -271.628021 3.448379 0.697810
85.306145 -271.627930 3.123260 0.766629
85.306267 -271.627838 2.800591 0.835019
85.306396 -271.627747 2.479660 0.646250
85.306519 -271.627655 2.159770 0.723873
85.306648 -271.627563 1.840233 0.817838
85.306770 -271.627472 1.520363 0.603510
85.306900 -271.627380 1.199473 0.746288
85.307022 -271.627289 0.876865 0.833814
85.307152 -271.627197 0.551830 0.694957
85.307274 -271.627106 0.223632 0.690059
85.711098 -271.328064 0.000006 0.217947
86.736305 -270.568878 0.000005 0.198236
85.273743 -271.567200 4.443287 0.762615
85.273880 -271.567078 4.106658 0.865736
85.274010 -271.566986 3.774767 0.616266
85.274139 -271.566895 3.446818 0.628870
85.274269 -271.566803 3.122049 0.787350
85.274399 -271.566711 2.799728 0.851759
85.274521 -271.566620 2.479143 0.653239
85.274651 -271.566528 2.159598 0.745754
85.274773 -271.566437 1.840405 0.896651
85.274902 -271.566345 1.520880 0.764752
85.275024 -271.566254 1.200335 0.775814
85.275154 -271.566162 0.878076 0.758267
85.275276 -271.566071 0.553391 0.716426
85.275406 -271.565979 0.225547 0.677470
85.672813 -271.275970 0.000007 0.241320
86.703285 -270.523956 0.000005 0.227138
85.241936 -271.506195 4.440775 0.647486
85.242073 -271.506104 4.104492 0.818631
85.242203 -271.505981 3.772943 0.711391
85.242332 -271.505890 3.445330 0.646372
85.242462 -271.505798 3.120896 0.709026
85.242592 -271.505707 2.798906 0.778103
85.242722 -271.505615 2.478651 0.594919
85.242844 -271.505524 2.159434 0.709026
85.242973 -271.505432 1.840569 0.841917
85.243095 -271.505341 1.521372 0.747845
85.243225 -271.505249 1.201157 0.691829
85.243347 -271.505188 0.879230 0.722652
85.243477 -271.505096 0.554878 0.716594
85.243599 -271.505005 0.227371 0.661234
85.634888 -271.223602 0.000007 0.210551
86.670586 -270.478821 0.000006 0.222483
85.210190 -271.445313 4.438387 0.669108
85.210327 -271.445221 4.102433 0.732097
85.210464 -271.445129 3.771207 0.716335
85.210594 -271.445038 3.443916 0.667643
85.210724 -271.444946 3.119799 0.837369
85.210854 -271.444855 2.798124 0.806516
85.210976 -271.444763 2.478182 0.663157
85.211105 -271.444672 2.159278 0.797604
85.211227 -271.444580 1.840725 0.798062
85.211357 -271.444489 1.521841 0.682948
85.211487 -271.444397 1.201939 0.754421
85.211609 -271.444305 0.880326 0.732738
85.211739 -271.444214 0.556292 0.716030
85.211868 -271.444122 0.229105 0.707088
85.597328 -271.170990 0.000007 0.256399
86.638206 -270.433441 0.000006 0.270713
85.178513 -271.384552 4.436121 0.697490
85.178650 -271.384460 4.100480 0.743664
85.178780 -271.384369 3.769562 0.794980
85.178909 -271.384277 3.442575 0.624384
85.179039 -271.384186 3.118759 0.774624
85.179169 -271.384094 2.797383 0.796857
85.179298 -271.384003 2.477738 0.648173
85.179428 -271.383911 2.159130 0.717922
85.179550 -271.383820 1.840873 0.794263
85.179680 -271.383728 1.522285 0.641428
85.179810 -271.383636 1.202680 0.745556
85.179932 -271.383545 0.881366 0.776837
85.180061 -271.383453 0.557632 0.811810
85.180191 -271.383362 0.230749 0.622568
85.560143 -271.118103 0.000008 0.212370
86.606140 -270.387848 0.000007 0.245138
85.146881 -271.323883 4.433979 0.891798
85.147018 -271.323792 4.098633 0.795407
85.147156 -271.323700 3.768006 0.762753
85.147285 -271.323608 3.441307 0.653223
85.147415 -271.323517 3.117775 0.749966
85.147545 -271.323425 2.796681 0.731975
85.147675 -271.323364 2.477318 0.873091
85.147804 -271.323273 2.158990 0.776425
85.147926 -271.323181 1.841013 0.691829
85.148056 -271.323090 1.522705 0.734997
85.148186 -271.322998 1.203382 0.871321
85.148308 -271.322906 0.882349 0.826139
85.148438 -271.322815 0.558900 0.761456
85.148567 -271.322723 0.232305 0.703136
85.523315 -271.064972 0.000008 0.231817
86.574387 -270.342041 0.000007 0.246466
85.115311 -271.263336 4.431959 0.672648
85.115448 -271.263245 4.096891 0.718456
85.115585 -271.263153 3.766539 0.746883
85.115715 -271.263062 3.440110 0.627405
85.115845 -271.262970 3.116848 0.702358
85.115974 -271.262878 2.796021 0.820554
85.116104 -271.262817 2.476922 0.759548
85.116234 -271.262726 2.158858 0.741070
85.116364 -271.262634 1.841145 0.632853
85.116486 -271.262543 1.523101 0.670222
85.116615 -271.262451 1.204042 0.681758
85.116745 -271.262360 0.883277 0.846891
85.116867 -271.262299 0.560096 0.769604
85.117004 -271.262207 0.233772 0.637263
85.486870 -271.011597 0.000009 0.221549
86.542961 -270.295990 0.000008 0.264633
85.083794 -271.202881 4.430060 0.676432
85.083931 -271.202789 4.095254 0.625513
85.084061 -271.202698 3.765160 0.846860
85.084198 -271.202606 3.438986 0.627558
85.084328 -271.202515 3.115976 0.725841
85.084457 -271.202454 2.795399 0.835248
85.084587 -271.202362 2.476550 0.739178
85.084717 -271.202271 2.158734 0.739635
85.084846 -271.202179 1.841269 0.685252
85.084969 -271.202087 1.523473 0.630854
85.085098 -271.202026 1.204664 0.651850
85.085228 -271.201935 0.884148 0.751217
85.085358 -271.201843 0.561220 0.798947
85.085480 -271.201752 0.235150 0.636118
85.450798 -270.957947 0.000009 0.221429
86.511856 -270.249756 0.000008 0.277128
85.052322 -271.142517 4.428282 0.656214
85.052460 -271.142426 4.093722 0.608820
85.052589 -271.142334 3.763869 0.747387
85.052727 -271.142273 3.437934 0.739559
85.052856 -271.142181 3.115160 0.707332
85.052986 -271.142090 2.794818 0.818586
85.053116 -271.141998 2.476201 0.777752
85.053246 -271.141907 2.158618 0.752300
85.053375 -271.141846 1.841385 0.745968
85.053497 -271.141754 1.523821 0.708751
85.053627 -271.141663 1.205245 0.683162
85.053757 -271.141571 0.884964 0.744366
85.053886 -271.141479 0.562272 0.735927
85.054016 -271.141418 0.236441 0.740841
85.415100 -270.904053 0.000009 0.232212
86.481079 -270.203278 0.000009 0.211963
85.020889 -271.082245 4.426626 0.718044
85.021027 -271.082153 4.092294 0.746593
85.021164 -271.082062 3.762666 0.777279
85.021301 -271.081970 3.436953 0.698787
85.021431 -271.081909 3.114399 0.733166
85.021561 -271.081818 2.794276 0.782254
85.021690 -271.081726 2.475876 0.771710
85.021820 -271.081635 2.158509 0.773724
85.021950 -271.081573 1.841493 0.724117
85.022079 -271.081482 1.524146 0.649531
85.022202 -271.081390 1.205787 0.662699
85.022331 -271.081329 0.885725 0.766613
85.022461 -271.081238 0.563253 0.780102
85.022591 -271.081146 0.237643 0.700786
85.379776 -270.849884 0.000010 0.207212
86.450623 -270.156586 0.000010 0.208001
84.989502 -271.022064 4.425090 0.739025
84.989639 -271.021973 4.090969 0.774975
84.989777 -271.021881 3.761550 0.804730
84.989914 -271.021790 3.436044 0.849592
84.990044 -271.021698 3.113694 0.764141
84.990173 -271.021637 2.793773 0.797711
84.990303 -271.021545 2.475575 0.765011
84.990433 -271.021454 2.158409 0.727565
84.990562 -271.021362 1.841593 0.690242
84.990692 -271.021301 1.524448 0.689342
84.990822 -271.021210 1.206290 0.733349
84.990952 -271.021118 0.886430 0.844434
84.991081 -271.021057 0.564162 0.796277
84.991211 -271.020966 0.238759 0.798917
85.344833 -270.795502 0.000011 0.255550
86.420494 -270.109680 0.000010 0.261570
84.958153 -270.961914 4.423674 0.719310
84.958290 -270.961853 4.089748 0.802274
84.958427 -270.961761 3.760521 0.704067
84.958565 -270.961670 3.435205 0.705608
84.958694 -270.961578 3.113043 0.721126
84.958832 -270.961517 2.793309 0.842329
84.958954 -270.961426 2.475297 0.748623
84.959091 -270.961334 2.158317 0.755474
84.959221 -270.961273 1.841686 0.761349
84.959351 -270.961182 1.524725 0.644114
84.959473 -270.961090 1.206753 0.731548
84.959610 -270.961029 0.887080 0.879774
84.959732 -270.960938 0.565000 0.705013
84.959869 -270.960846 0.239787 0.695918
85.310272 -270.740875 0.000011 0.217097
86.390694 -270.062592 0.000011 0.254197
84.926842 -270.901886 4.422378 0.739132
84.926979 -270.901794 4.088631 0.883589
84.927116 -270.901703 3.759580 0.723568
84.927254 -270.901611 3.434437 0.720989
84.927383 -270.901550 3.112448 0.788052
84.927513 -270.901459 2.792885 0.820539
84.927643 -270.901367 2.475043 0.689937
84.927780 -270.901306 2.158232 0.719921
84.927910 -270.901215 1.841770 0.869642
84.928040 -270.901123 1.524979 0.712703
84.928169 -270.901062 1.207177 0.704799
84.928299 -270.900970 0.887675 0.864103
84.928429 -270.900879 0.565768 0.741482
84.928558 -270.900818 0.240728 0.719707
85.276093 -270.686005 0.000011 0.247890
86.361221 -270.015259 0.000011 0.230980
84.895561 -270.841888 4.421201 0.667445
84.895699 -270.841797 4.087616 0.826993
84.895836 -270.841705 3.758725 0.661112
84.895973 -270.841614 3.433741 0.805158
84.896103 -270.841553 3.111908 0.774945
84.896240 -270.841461 2.792500 0.803403
84.896362 -270.841400 2.474812 0.628855
84.896500 -270.841309 2.158155 0.714870
84.896629 -270.841217 1.841847 0.726711
84.896759 -270.841156 1.525210 0.710826
84.896889 -270.841064 1.207563 0.639124
84.897018 -270.841003 0.888216 0.822675
84.897148 -270.840912 0.566464 0.695369
84.897285 -270.840820 0.241583 0.793896
85.242294 -270.630890 0.000012 0.252893
86.332085 -269.967743 0.000011 0.213160
84.864304 -270.781952 4.420143 0.672206
84.864441 -270.781860 4.086704 0.796246
84.864586 -270.781769 3.757956 0.710155
84.864716 -270.781677 3.433114 0.712352
84.864853 -270.781616 3.111422 0.611154
84.864983 -270.781525 2.792153 0.782269
84.865120 -270.781464 2.474605 0.693980
84.865250 -270.781372 2.158086 0.655695
84.865379 -270.781281 1.841916 0.688258
84.865509 -270.781219 1.525418 0.658915
84.865639 -270.781128 1.207909 0.628367
84.865768 -270.781067 0.888702 0.793484
84.865906 -270.780975 0.567091 0.741878
84.866035 -270.780914 0.242352 0.700893
85.208885 -270.575531 0.000012 0.212166
86.303276 -269.920044 0.000012 0.247447
84.833076 -270.722046 4.419204 0.778012
84.833221 -270.721954 4.085894 0.804776
84.833359 -270.721893 3.757274 0.717159
84.833488 -270.721802 3.432558 0.756207
84.833626 -270.721710 3.110991 0.642390
84.833755 -270.721649 2.791846 0.855085
84.833893 -270.721558 2.474421 0.675456
84.834023 -270.721497 2.158025 0.852201
84.834152 -270.721405 1.841978 0.726131
84.834282 -270.721344 1.525602 0.718120
84.834412 -270.721252 1.208216 0.726467
84.834549 -270.721191 0.889132 0.811215
84.834679 -270.721100 0.567647 0.662196
84.834808 -270.721039 0.243033 0.781262
85.175858 -270.519958 0.000013 0.234809
86.274803 -269.872101 0.000013 0.231123
84.801872 -270.662201 4.418383 0.781445
84.802017 -270.662109 4.085186 0.830671
84.802155 -270.662048 3.756678 0.671305
84.802284 -270.661957 3.432072 0.633097
84.802422 -270.661896 3.110614 0.747250
84.802551 -270.661804 2.791578 0.733486
84.802689 -270.661713 2.474260 0.721477
84.802826 -270.661652 2.157971 0.743420
84.802956 -270.661560 1.842031 0.725490
84.803085 -270.661499 1.525763 0.626596
84.803215 -270.661407 1.208485 0.773892
84.803345 -270.661346 0.889509 0.850828
84.803482 -270.661255 0.568132 0.648676
84.803612 -270.661194 0.243629 0.652155
85.143227 -270.464172 0.000013 0.216810
86.246658 -269.824005 0.000013 0.240841
84.770691 -270.602386 4.417681 0.777493
84.770828 -270.602325 4.084581 0.804730
84.770966 -270.602234 3.756168 0.677028
84.771103 -270.602142 3.431656 0.643305
84.771240 -270.602081 3.110291 0.786038
84.771370 -270.601990 2.791348 0.773495
84.771507 -270.601929 2.474122 0.709636
84.771637 -270.601837 2.157925 0.802640
84.771774 -270.601776 1.842077 0.729488
84.771904 -270.601685 1.525900 0.751629
84.772034 -270.601624 1.208714 0.733913
84.772163 -270.601532 0.889832 0.820340
84.772301 -270.601471 0.568548 0.661067
84.772430 -270.601379 0.244139 0.633433
85.110985 -270.408142 0.000014 0.271527
86.218857 -269.775696 0.000013 0.227904
84.739517 -270.542603 4.417096 0.679606
84.739655 -270.542542 4.084078 0.812741
84.739799 -270.542450 3.755744 0.746532
84.739937 -270.542389 3.431310 0.601724
84.740074 -270.542297 3.110023 0.746426
84.740204 -270.542236 2.791156 0.710475
84.740341 -270.542145 2.474007 0.720516
84.740471 -270.542084 2.157887 0.644755
84.740608 -270.541992 1.842115 0.696620
84.740738 -270.541931 1.526015 0.638773
84.740868 -270.541870 1.208906 0.689982
84.741005 -270.541779 0.890100 0.826795
84.741135 -270.541718 0.568894 0.748119
84.741272 -270.541626 0.244563 0.636240
85.079132 -270.351868 0.000015 0.236545
86.191391 -269.727173 0.000014 0.189296
84.708359 -270.482880 4.416631 0.635111
84.708504 -270.482788 4.083675 0.782437
84.708641 -270.482697 3.755405 0.778515
84.708786 -270.482635 3.431035 0.693370
84.708916 -270.482544 3.109809 0.799573
84.709053 -270.482483 2.791004 0.708492
84.709183 -270.482422 2.473916 0.685832
84.709320 -270.482330 2.157857 0.659678
84.709457 -270.482269 1.842146 0.578988
84.709587 -270.482178 1.526106 0.727886
84.709717 -270.482117 1.209058 0.627024
84.709854 -270.482056 0.890314 0.778149
84.709984 -270.481964 0.569170 0.742458
84.710121 -270.481903 0.244901 0.723201
85.047676 -270.295410 0.000015 0.246945
86.164268 -269.678467 0.000014 0.210934
84.677216 -270.423126 4.416283 0.681392
84.677361 -270.423065 4.083375 0.712306
84.677498 -270.422974 3.755153 0.805753
84.677635 -270.422913 3.430829 0.726482
84.677773 -270.422821 3.109650 0.669200
84.677910 -270.422760 2.790890 0.735592
84.678047 -270.422668 2.473848 0.686275
84.678177 -270.422607 2.157834 0.658900
84.678314 -270.422546 1.842169 0.594278
84.678444 -270.422455 1.526174 0.635721
84.678581 -270.422394 1.209172 0.681712
84.678711 -270.422333 0.890473 0.737881
84.678848 -270.422241 0.569376 0.760647
84.678978 -270.422180 0.245154 0.741817
85.016609 -270.238708 0.000016 0.269409
86.137489 -269.629578 0.000015 0.269911
84.646080 -270.363403 4.416053 0.736965
84.646225 -270.363342 4.083177 0.743435
84.646362 -270.363251 3.754985 0.695872
84.646500 -270.363190 3.430692 0.750134
84.646637 -270.363129 3.109543 0.614328
84.646774 -270.363037 2.790815 0.711940
84.646912 -270.362976 2.473803 0.646220
84.647041 -270.362885 2.157819 0.797101
84.647179 -270.362823 1.842183 0.645319
84.647308 -270.362762 1.526219 0.715663
84.647446 -270.362671 1.209247 0.744976
84.647583 -270.362610 0.890579 0.777798
84.647713 -270.362549 0.569512 0.689311
84.647850 -270.362457 0.245321 0.739101
84.985947 -270.181793 0.000016 0.268583
86.111046 -269.580536 0.000015 0.175557
84.614944 -270.303711 4.415940 0.666773
84.615089 -270.303619 4.083079 0.810895
84.615234 -270.303558 3.754904 0.705211
84.615372 -270.303497 3.430626 0.732296
84.615509 -270.303406 3.109492 0.649882
84.615646 -270.303345 2.790778 0.790204
84.615776 -270.303284 2.473781 0.649363
84.615913 -270.303192 2.157812 0.729458
84.616051 -270.303131 1.842191 0.789792
84.616180 -270.303070 1.526241 0.611337
84.616318 -270.302979 1.209284 0.663111
84.616455 -270.302917 0.890631 0.790509
84.616585 -270.302856 0.569578 0.696483
84.616722 -270.302765 0.245403 0.707530
84.955673 -270.124664 0.000017 0.195926
86.084946 -269.531281 0.000015 0.210802
84.583817 -270.243988 4.415945 0.724071
84.583954 -270.243927 4.083085 0.779126
84.584099 -270.243866 3.754908 0.701183
84.584236 -270.243774 3.430629 0.617395
84.584381 -270.243713 3.109494 0.793103
84.584511 -270.243652 2.790780 0.798154
84.584648 -270.243561 2.473782 0.655375
84.584785 -270.243500 2.157812 0.680323
84.584923 -270.243439 1.842190 0.835142
84.585052 -270.243347 1.526240 0.667918
84.585190 -270.243286 1.209282 0.709255
84.585327 -270.243225 0.890628 0.771756
84.585457 -270.243164 0.569575 0.720088
84.585602 -270.243073 0.245399 0.636225
84.925804 -270.067322 0.000017 0.202496
86.059189 -269.481842 0.000016 0.259308
84.552681 -270.184296 4.416068 0.797436
84.552826 -270.184204 4.083191 0.758953
84.552963 -270.184143 3.754997 0.703487
84.553108 -270.184082 3.430702 0.667811
84.553246 -270.183990 3.109551 0.824643
84.553383 -270.183929 2.790820 0.771450
84.553520 -270.183868 2.473806 0.669429
84.553658 -270.183807 2.157820 0.709270
84.553787 -270.183716 1.842183 0.880369
84.553925 -270.183655 1.526216 0.780514
84.554062 -270.183594 1.209242 0.786160
84.554199 -270.183533 0.890572 0.749554
84.554337 -270.183441 0.569502 0.701396
84.554474 -270.183380 0.245309 0.638285
84.896339 -270.009796 0.000018 0.205321
86.033783 -269.432220 0.000017 0.243402
84.521545 -270.124573 4.416310 0.675029
84.521690 -270.124512 4.083399 0.717235
84.521828 -270.124420 3.755172 0.709468
84.521973 -270.124359 3.430845 0.643244
84.522110 -270.124298 3.109662 0.755505
84.522247 -270.124237 2.790899 0.709041
84.522385 -270.124146 2.473853 0.605447
84.522522 -270.124084 2.157836 0.695735
84.522659 -270.124023 1.842167 0.757031
84.522797 -270.123962 1.526169 0.757961
84.522926 -270.123871 1.209163 0.686809
84.523064 -270.123810 0.890461 0.697673
84.523201 -270.123749 0.569359 0.735653
84.523338 -270.123688 0.245134 0.617197
84.867271 -269.952057 0.000018 0.279964
86.008720 -269.382446 0.000017 0.282789
84.490395 -270.064850 4.416669 0.719814
84.490540 -270.064758 4.083708 0.729137
84.490685 -270.064697 3.755433 0.748211
84.490822 -270.064636 3.431057 0.733608
84.490967 -270.064575 3.109827 0.768704
84.491104 -270.064484 2.791016 0.728527
84.491241 -270.064423 2.473923 0.675563
84.491379 -270.064362 2.157859 0.772625
84.491516 -270.064301 1.842143 0.786709
84.491653 -270.064240 1.526099 0.686137
84.491783 -270.064148 1.209046 0.756649
84.491920 -270.064087 0.890296 0.745937
84.492058 -270.064026 0.569147 0.734798
84.492195 -270.063965 0.244874 0.718364
84.838608 -269.894104 0.000018 0.237574
85.984009 -269.332458 0.000018 0.200246
84.459236 -270.005096 4.417146 0.714458
84.459381 -270.005005 4.084119 0.786740
84.459526 -270.004944 3.755779 0.808255
84.459671 -270.004883 3.431340 0.623514
84.459808 -270.004822 3.110045 0.818570
84.459946 -270.004761 2.791172 0.728511
84.460083 -270.004669 2.474017 0.644343
84.460228 -270.004608 2.157890 0.701122
84.460358 -270.004547 1.842112 0.779217
84.460495 -270.004486 1.526005 0.657145
84.460632 -270.004425 1.208889 0.740353
84.460770 -270.004364 0.890078 0.793912
84.460907 -270.004272 0.568865 0.809308
84.461052 -270.004211 0.244528 0.636469
84.810349 -269.835968 0.000019 0.229472
85.959641 -269.282318 0.000018 0.190301
84.428070 -269.945313 4.417739 0.804028
84.428215 -269.945251 4.084632 0.856214
84.428360 -269.945160 3.756211 0.778378
84.428497 -269.945099 3.431691 0.737057
84.428642 -269.945038 3.110318 0.792157
84.428780 -269.944977 2.791367 0.765515
84.428917 -269.944916 2.474134 0.792905
84.429062 -269.944855 2.157929 0.726970
84.429199 -269.944763 1.842073 0.672984
84.429329 -269.944702 1.525888 0.735302
84.429466 -269.944641 1.208695 0.758419
84.429604 -269.944580 0.889804 0.884565
84.429749 -269.944519 0.568513 0.778271
84.429886 -269.944458 0.244096 0.686625
84.782501 -269.777618 0.000019 0.228981
85.935631 -269.232025 0.000019 0.188625
84.396881 -269.885498 4.418453 0.703593
84.397026 -269.885437 4.085246 0.834348
84.397171 -269.885376 3.756729 0.777432
84.397316 -269.885284 3.432114 0.648600
84.397461 -269.885223 3.110646 0.703517
84.397598 -269.885162 2.791600 0.823621
84.397736 -269.885101 2.474274 0.752438
84.397873 -269.885040 2.157976 0.734386
84.398010 -269.884979 1.842027 0.651987
84.398148 -269.884918 1.525749 0.666392
84.398285 -269.884857 1.208462 0.640024
84.398422 -269.884766 0.889477 0.814878
84.398560 -269.884705 0.568091 0.775860
84.398705 -269.884644 0.243578 0.650935
84.755058 -269.719086 0.000020 0.191881
85.911964 -269.181549 0.000019 0.211376
84.365677 -269.825653 4.419284 0.697490
84.365822 -269.825592 4.085963 0.731502
84.365967 -269.825500 3.757333 0.753170
84.366112 -269.825439 3.432606 0.642756
84.366249 -269.825378 3.111028 0.752621
84.366394 -269.825317 2.791873 0.832593
84.366531 -269.825256 2.474437 0.723491
84.366669 -269.825195 2.158030 0.743038
84.366806 -269.825134 1.841972 0.658763
84.366943 -269.825073 1.525586 0.646738
84.367081 -269.825012 1.208190 0.638193
84.367226 -269.824951 0.889095 0.815091
84.367363 -269.824890 0.567598 0.745907
84.367500 -269.824829 0.242974 0.661570
84.728027 -269.660370 0.000021 0.202759
85.888657 -269.130920 0.000020 0.219586
84.334442 -269.765747 4.420234 0.654444
84.334587 -269.765686 4.086782 0.795865
84.334732 -269.765625 3.758023 0.735378
84.334877 -269.765564 3.433168 0.715724
84.335022 -269.765503 3.111464 0.705165
84.335159 -269.765442 2.792183 0.806485
84.335304 -269.765381 2.474623 0.747234
84.335442 -269.765320 2.158092 0.777020
84.335587 -269.765228 1.841910 0.743908
84.335716 -269.765167 1.525399 0.814588
84.335861 -269.765106 1.207879 0.667857
84.335999 -269.765045 0.888659 0.779370
84.336136 -269.764984 0.567036 0.699443
84.336281 -269.764923 0.242284 0.748898
84.701401 -269.601440 0.000021 0.234678
85.865700 -269.080139 0.000020 0.240039
84.303185 -269.705811 4.421303 0.718288
84.303329 -269.705750 4.087704 0.766995
84.303482 -269.705688 3.758799 0.774929
84.303627 -269.705627 3.433801 0.689754
84.303764 -269.705566 3.111954 0.738842
84.303909 -269.705505 2.792533 0.762142
84.304054 -269.705444 2.474832 0.770321
84.304192 -269.705383 2.158162 0.804074
84.304329 -269.705322 1.841841 0.704326
84.304466 -269.705261 1.525190 0.699809
84.304611 -269.705200 1.207529 0.663310
84.304749 -269.705139 0.888168 0.776028
84.304886 -269.705078 0.566403 0.778576
84.305031 -269.704987 0.241508 0.721813
84.675194 -269.542358 0.000022 0.234654
85.843102 -269.029175 0.000021 0.246861
84.271896 -269.645813 4.422491 0.749004
84.272049 -269.645752 4.088729 0.829908
84.272194 -269.645691 3.759662 0.788525
84.272339 -269.645630 3.434505 0.784024
84.272484 -269.645569 3.112500 0.778775
84.272629 -269.645508 2.792922 0.809110
84.272766 -269.645447 2.475065 0.740597
84.272911 -269.645386 2.158240 0.699626
84.273048 -269.645325 1.841763 0.694835
84.273186 -269.645264 1.524957 0.656504
84.273323 -269.645203 1.207140 0.718853
84.273468 -269.645142 0.887623 0.809766
84.273605 -269.645081 0.565700 0.783581
84.273750 -269.645020 0.240646 0.777981
84.649399 -269.483063 0.000022 0.210275
85.820862 -268.978058 0.000021 0.214727
84.240578 -269.585754 4.423799 0.712520
84.240730 -269.585693 4.089855 0.833600
84.240875 -269.585632 3.760612 0.675471
84.241028 -269.585571 3.435279 0.694881
84.241165 -269.585510 3.113100 0.742626
84.241310 -269.585449 2.793350 0.720378
84.241455 -269.585388 2.475322 0.729305
84.241592 -269.585327 2.158325 0.758862
84.241737 -269.585266 1.841678 0.719951
84.241875 -269.585205 1.524701 0.647074
84.242012 -269.585144 1.206712 0.680003
84.242157 -269.585083 0.887023 0.870527
84.242294 -269.585022 0.564926 0.695796
84.242439 -269.584961 0.239696 0.662715
84.624016 -269.423615 0.000023 0.236222
85.798973 -268.926788 0.000022 0.234091
84.209229 -269.525635 4.425225 0.734951
84.209373 -269.525543 4.091086 0.920974
84.209526 -269.525482 3.761648 0.737728
84.209671 -269.525421 3.436124 0.719570
84.209816 -269.525391 3.113756 0.802533
84.209961 -269.525330 2.793817 0.818235
84.210098 -269.525269 2.475601 0.662181
84.210243 -269.525208 2.158418 0.723445
84.210388 -269.525146 1.841584 0.811933
84.210526 -269.525085 1.524421 0.692531
84.210663 -269.525024 1.206246 0.707347
84.210808 -269.524963 0.886368 0.843549
84.210945 -269.524902 0.564081 0.724086
84.211090 -269.524841 0.238660 0.713649
84.599045 -269.363983 0.000023 0.177352
85.777451 -268.875397 0.000022 0.259367
84.177834 -269.465424 4.426772 0.649653
84.177986 -269.465363 4.092420 0.804807
84.178131 -269.465302 3.762772 0.658808
84.178284 -269.465240 3.437039 0.772335
84.178429 -269.465179 3.114466 0.857435
84.178574 -269.465118 2.794323 0.772595
84.178719 -269.465057 2.475905 0.643183
84.178856 -269.464996 2.158519 0.756130
84.179001 -269.464935 1.841483 0.736599
84.179138 -269.464874 1.524118 0.717311
84.179276 -269.464844 1.205739 0.620295
84.179420 -269.464783 0.885657 0.798352
84.179565 -269.464722 0.563166 0.640070
84.179703 -269.464661 0.237537 0.762585
84.574493 -269.304199 0.000023 0.226085
85.756279 -268.823822 0.000023 0.249626
84.146400 -269.405121 4.428440 0.667536
84.146553 -269.405060 4.093857 0.838666
84.146698 -269.404999 3.763983 0.677760
84.146851 -269.404968 3.438027 0.714839
84.146996 -269.404907 3.115232 0.596811
84.147141 -269.404846 2.794869 0.711620
84.147285 -269.404785 2.476232 0.633906
84.147430 -269.404724 2.158628 0.631373
84.147568 -269.404663 1.841374 0.693431
84.147713 -269.404602 1.523791 0.670222
84.147850 -269.404541 1.205194 0.586969
84.147995 -269.404510 0.884892 0.704250
84.148132 -269.404449 0.562178 0.674403
84.148285 -269.404388 0.236326 0.730205
84.550369 -269.244202 0.000024 0.255262
85.735474 -268.772095 0.000023 0.220783
84.114922 -269.344757 4.430227 0.762081
84.115074 -269.344696 4.095399 0.779690
84.115219 -269.344635 3.765282 0.641505
84.115372 -269.344604 3.439086 0.774655
84.115517 -269.344543 3.116053 0.614694
84.115662 -269.344482 2.795454 0.800717
84.115814 -269.344421 2.476582 0.708080
84.115952 -269.344360 2.158745 0.667033
84.116096 -269.344299 1.841258 0.873503
84.116241 -269.344238 1.523440 0.654017
84.116379 -269.344208 1.204608 0.736019
84.116524 -269.344147 0.884071 0.735729
84.116661 -269.344086 0.561120 0.674907
84.116806 -269.344025 0.235028 0.761166
84.526649 -269.184082 0.000024 0.261953
85.715027 -268.720245 0.000024 0.190109
84.083397 -269.284302 4.432137 0.724636
84.083549 -269.284241 4.097045 0.842786
84.083702 -269.284180 3.766669 0.660410
84.083847 -269.284119 3.440217 0.657496
84.084000 -269.284088 3.116930 0.715694
84.084137 -269.284027 2.796079 0.727733
84.084290 -269.283966 2.476957 0.738750
84.084427 -269.283905 2.158870 0.748180
84.084572 -269.283844 1.841133 0.743328
84.084717 -269.283813 1.523066 0.626841
84.084854 -269.283752 1.203984 0.772061
84.084999 -269.283691 0.883194 0.838010
84.085144 -269.283630 0.559990 0.674907
84.085289 -269.283569 0.233641 0.652888
84.503357 -269.123749 0.000025 0.229161
85.694939 -268.668243 0.000024 0.201575
84.051819 -269.223755 4.434168 0.803067
84.051971 -269.223694 4.098797 0.768231
84.052124 -269.223633 3.768144 0.673457
84.052269 -269.223572 3.441419 0.657206
84.052422 -269.223511 3.117863 0.728801
84.052567 -269.223480 2.796744 0.791592
84.052711 -269.223419 2.477355 0.834760
84.052856 -269.223358 2.159002 0.781796
84.053001 -269.223297 1.841000 0.756130
84.053146 -269.223236 1.522667 0.698787
