# This PCD file was generated using the MATLABÂ® pcwrite function
# from Computer Vision ToolboxÂ®.
# .PCD v.7 - Point Cloud Data file format
VERSION .7
FIELDS x y z intensity
SIZE 4 4 4 4
TYPE F F F F
COUNT 1 1 1 1
WIDTH 1156
HEIGHT 1
VIEWPOINT 0 0 0 1 0 0 0
POINTS 1156
DATA ascii
185.830414 -381.216522 5.547260 1.000000
186.689072 -388.372589 3.937338 0.395514
185.830414 -381.216522 3.514817 1.000000
185.830414 -381.216522 2.504578 1.000000
185.830414 -381.216492 1.495421 1.000000
185.830414 -381.216492 0.485182 1.000000
186.597992 -387.613525 -0.000023 0.226037
187.432632 -394.569397 -0.000115 0.209844
187.897552 -398.444092 -0.000112 0.199660
188.194443 -400.918396 0.000011 0.322637
188.400726 -402.637512 -0.000000 0.336690
188.552704 -403.904114 -0.000005 0.336049
187.301315 -392.324677 6.917310 0.408133
187.170990 -391.170471 6.490759 0.400015
187.199249 -391.420776 5.737499 0.396109
187.247330 -391.846558 4.983357 0.396139
187.207779 -391.496277 4.354272 0.397406
186.901215 -388.781219 3.902044 0.408362
186.032776 -381.090118 3.519835 1.000000
186.032776 -381.090118 2.506250 1.000000
186.032776 -381.090088 1.493750 1.000000
186.032776 -381.090088 0.480164 1.000000
186.767136 -387.593811 -0.000024 0.229651
187.553192 -394.555359 -0.000117 0.233852
187.991058 -398.433197 -0.000113 0.250894
188.270676 -400.909546 0.000011 0.336965
188.464935 -402.630066 -0.000000 0.337667
188.608078 -403.897675 -0.000005 0.328801
187.257614 -390.609741 7.345525 0.413214
187.370941 -391.680450 6.376575 0.405158
187.342255 -391.409363 5.736732 0.399969
186.979660 -387.983826 5.557266 0.401099
187.258148 -390.614899 4.454435 0.396078
186.916672 -387.388763 4.015404 0.402258
186.236496 -380.962860 3.524962 1.000000
186.236496 -380.962860 2.507957 1.000000
186.236496 -380.962830 1.492043 1.000000
186.236496 -380.962830 0.475037 1.000000
186.936417 -387.575317 -0.000024 0.219203
187.673843 -394.542145 -0.000118 0.229879
188.084625 -398.422974 -0.000114 0.232990
188.346954 -400.901184 0.000011 0.330114
188.529205 -402.623016 -0.000000 0.341238
188.663483 -403.891602 -0.000005 0.342184
187.378021 -390.313263 7.416337 0.395041
187.425491 -390.793762 6.565886 0.396078
187.378754 -390.320679 5.933125 0.406928
187.536423 -391.916534 4.968523 0.398795
187.497650 -391.524139 4.347572 0.391867
187.321960 -389.745728 3.819764 0.399878
186.441605 -380.834717 3.530198 1.000000
186.441605 -380.834717 2.509702 1.000000
186.441605 -380.834717 1.490298 1.000000
186.441605 -380.834717 0.469801 1.000000
187.105820 -387.557953 -0.000025 0.218605
187.794601 -394.529785 -0.000119 0.234151
188.178268 -398.413361 -0.000115 0.216977
188.423294 -400.893372 0.000011 0.335576
188.593521 -402.616455 0.000000 0.330816
188.718933 -403.885925 -0.000006 0.335119
187.481812 -389.792175 7.543807 0.412238
187.585876 -390.926361 6.534091 0.404242
186.648132 -380.705719 7.687356 1.000000
187.606018 -391.145966 5.081332 0.396017
187.637222 -391.485992 4.350419 0.403067
187.397385 -388.872070 3.890491 0.397528
186.648132 -380.705719 3.535545 1.000000
186.648132 -380.705719 2.511483 1.000000
186.648132 -380.705719 1.488517 1.000000
186.648132 -380.705719 0.464454 1.000000
187.275345 -387.541809 -0.000026 0.229292
187.915421 -394.518250 -0.000120 0.214320
188.271988 -398.404449 -0.000116 0.261893
188.499680 -400.886108 0.000011 0.336583
188.657867 -402.610321 0.000000 0.335058
188.774429 -403.880646 -0.000005 0.339879
187.859726 -392.422852 6.879079 0.396078
187.734573 -390.945404 6.527173 0.397482
186.856110 -380.575806 7.707578 1.000000
187.753281 -391.166290 5.076406 0.396536
187.774094 -391.411957 4.357519 0.398444
187.538925 -388.635895 3.908761 0.398199
186.856110 -380.575806 3.541005 1.000000
186.856110 -380.575775 2.513301 1.000000
186.856110 -380.575775 1.486698 1.000000
186.856110 -380.575775 0.458994 1.000000
187.444962 -387.526825 -0.000026 0.215589
188.036331 -394.507568 -0.000121 0.242289
188.365753 -398.396149 -0.000117 0.233313
188.576111 -400.879364 0.000011 0.335454
188.722275 -402.604645 0.000000 0.334447
188.829956 -403.875763 -0.000005 0.339940
187.982986 -392.253723 6.918813 0.394232
187.902985 -391.224030 6.464248 0.396979
187.065598 -380.444946 7.728227 1.000000
187.946442 -391.783447 4.982843 0.398550
187.848175 -390.518433 4.459287 0.392432
187.065598 -380.444946 4.581324 1.000000
187.065598 -380.444946 3.546580 1.000000
187.065598 -380.444946 2.515159 1.000000
187.065598 -380.444946 1.484841 1.000000
187.065598 -380.444946 0.453419 1.000000
187.614700 -387.513062 -0.000026 0.228514
188.157318 -394.497742 -0.000122 0.223990
188.459579 -398.388519 -0.000118 0.208504
188.652603 -400.873138 0.000011 0.328191
188.786713 -402.599396 0.000000 0.320989
188.885513 -403.871246 -0.000005 0.336782
187.894150 -389.051880 7.720283 0.403677
188.024216 -390.892365 6.533750 0.396078
187.926727 -389.512970 6.071162 0.396078
188.046326 -391.205353 5.067264 0.400580
188.031998 -391.002533 4.402183 0.401770
187.853607 -388.478119 3.919662 0.404318
187.276611 -380.313110 3.552271 1.000000
187.276611 -380.313110 2.517055 1.000000
187.276611 -380.313110 1.482946 1.000000
187.276611 -380.313110 0.447729 1.000000
187.784515 -387.500458 -0.000027 0.236832
188.278351 -394.488770 -0.000123 0.241093
188.553452 -398.381561 -0.000119 0.238256
188.732986 -400.922180 0.009990 1.000000
188.851181 -402.594604 -0.000000 0.342596
188.941101 -403.867126 -0.000005 0.345449
188.227966 -391.786469 7.031239 0.412146
188.172745 -390.918976 6.525862 0.400854
187.489182 -380.180328 7.770822 1.000000
188.207474 -391.464508 5.027306 0.406241
187.489182 -380.180328 5.648569 1.000000
188.034393 -388.745514 3.896791 0.396078
187.489182 -380.180328 3.558080 1.000000
187.489182 -380.180328 2.518989 1.000000
187.489182 -380.180328 1.481011 1.000000
187.489182 -380.180328 0.441920 1.000000
187.954422 -387.489044 -0.000028 0.212920
188.399460 -394.480621 -0.000124 0.214464
188.647369 -398.375244 -0.000120 0.243187
188.809174 -400.917084 0.009992 1.000000
188.915680 -402.590271 0.000000 0.331945
188.996719 -403.863373 -0.000005 0.339590
188.223999 -389.237030 7.668750 0.404150
188.204300 -388.889374 6.963019 0.418051
187.703384 -380.046539 7.792781 1.000000
188.343689 -391.349792 5.043078 0.402472
187.703384 -380.046539 5.662453 1.000000
188.242355 -389.561157 3.829010 0.376379
187.703384 -380.046539 3.564009 1.000000
187.703384 -380.046539 2.520964 1.000000
187.703384 -380.046539 1.479036 1.000000
187.703384 -380.046539 0.435990 1.000000
188.124405 -387.478790 -0.000029 0.230728
188.520630 -394.473328 -0.000124 0.231829
188.741333 -398.369598 -0.000120 0.233206
188.885391 -400.912476 0.009991 1.000000
188.980209 -402.586395 0.000000 0.317922
189.052353 -403.860046 -0.000005 0.331655
188.501938 -391.649109 7.061706 0.396429
187.919220 -379.911713 8.902554 1.000000
187.919220 -379.911713 7.815197 1.000000
188.490662 -391.422089 5.031214 0.401434
187.919220 -379.911713 5.676624 1.000000
187.919220 -379.911713 4.620515 1.000000
188.404846 -389.693512 3.088920 0.393332
188.411041 -389.818085 2.360673 0.395834
188.409653 -389.790222 1.638870 0.372000
188.412750 -389.852722 0.918911 0.372290
188.416748 -389.933075 0.202201 0.368338
188.641830 -394.466888 -0.000126 0.223105
188.835342 -398.364594 -0.000121 0.230070
188.958908 -400.853638 0.000011 0.339178
189.044769 -402.582977 0.000000 0.328817
189.108017 -403.857086 -0.000005 0.342840
188.525452 -388.889893 7.751858 0.396078
188.562363 -389.755157 6.772415 0.374243
188.559692 -389.692474 6.032038 0.378592
188.560181 -389.704132 5.285301 0.399634
188.592178 -390.454407 4.461497 0.385107
188.562302 -389.753876 3.811926 0.362036
188.565231 -389.822266 3.082238 0.383200
188.564911 -389.814972 2.360608 0.392477
188.563812 -389.789276 1.638971 0.398550
188.567764 -389.881897 0.920694 0.371283
188.570023 -389.934937 0.202932 0.363684
188.763077 -394.461273 -0.000127 0.237993
188.929367 -398.360229 -0.000122 0.229053
189.035568 -400.850128 0.000011 0.340459
189.109344 -402.579987 0.000000 0.325200
189.163712 -403.854523 -0.000005 0.330999
188.798813 -392.057343 6.956376 0.404013
188.734070 -390.241547 6.665995 0.399084
188.355988 -379.638885 7.861410 1.000000
188.639481 -387.588806 5.598382 0.422034
188.355988 -379.638855 5.705844 1.000000
188.355988 -379.638855 4.641342 1.000000
188.715286 -389.714905 3.087221 0.362173
188.355988 -379.638855 2.527137 1.000000
188.355988 -379.638855 1.472864 1.000000
188.717300 -389.771332 0.915553 0.372015
188.717590 -389.779602 0.190681 0.380468
188.884369 -394.456512 -0.000127 0.211999
189.023438 -398.356567 -0.000123 0.242541
189.112213 -400.846405 -0.000119 0.204255
189.173950 -402.577454 -0.000000 0.340780
189.219406 -403.852325 -0.000005 0.337545
188.937454 -392.072876 6.951368 0.401068
188.901840 -390.830841 6.537620 0.408667
188.577011 -379.500793 7.885227 1.000000
188.881866 -390.134216 5.219844 0.405051
188.814896 -387.798004 4.765994 0.403021
188.836121 -388.538361 3.910732 0.378058
188.577011 -379.500793 3.588969 1.000000
188.577011 -379.500793 2.529278 1.000000
188.577011 -379.500793 1.470722 1.000000
188.577011 -379.500793 0.411031 1.000000
188.804901 -387.449738 -0.000030 0.226588
189.005676 -394.452606 -0.000128 0.212836
189.117523 -398.353516 -0.000124 0.220663
189.188919 -400.843933 -0.000121 0.234977
189.238556 -402.575378 0.000000 0.336858
189.275116 -403.850525 -0.000005 0.332067
189.077438 -392.163086 6.927892 0.397498
189.047073 -390.762604 6.551561 0.409949
188.799850 -379.361603 7.909526 1.000000
189.034882 -390.200439 5.209451 0.396078
188.979324 -387.637939 4.783924 0.409979
188.989746 -388.118958 3.944795 0.396078
188.799850 -379.361603 3.595529 1.000000
188.799850 -379.361603 2.531463 1.000000
188.799850 -379.361603 1.468537 1.000000
188.799850 -379.361603 0.404470 1.000000
188.975143 -387.445465 -0.000031 0.230453
189.127029 -394.449554 -0.000129 0.232320
189.211624 -398.351135 -0.000124 0.218749
189.265640 -400.841980 -0.000121 0.238244
189.303192 -402.573761 -0.000000 0.339452
189.330841 -403.849121 -0.000005 0.335164
189.177856 -389.649750 7.556897 0.407706
189.198608 -391.061371 6.486452 0.397848
189.024551 -379.221252 7.934317 1.000000
189.201645 -391.267914 5.050683 0.401083
189.155334 -388.118225 4.728312 0.399588
189.157608 -388.272552 3.931951 0.418235
189.024551 -379.221252 3.602223 1.000000
189.024551 -379.221252 2.533693 1.000000
189.024551 -379.221252 1.466307 1.000000
189.024551 -379.221252 0.397777 1.000000
189.145401 -387.442352 -0.000031 0.225762
189.248383 -394.447327 -0.000130 0.226588
189.305740 -398.349426 -0.000125 0.204136
189.342361 -400.840576 -0.000122 0.233589
189.367828 -402.572571 0.000000 0.329641
189.386581 -403.848114 -0.000004 0.333028
189.349854 -391.868439 7.000690 0.413428
189.343933 -391.101410 6.477450 0.394476
189.338028 -390.335907 5.911414 0.397436
189.251160 -379.079681 6.858450 1.000000
189.318604 -387.819244 4.762496 0.392081
189.320923 -388.118958 3.944395 0.387549
189.251160 -379.079681 3.609052 1.000000
189.251160 -379.079681 2.535968 1.000000
189.251160 -379.079681 1.464032 1.000000
189.251160 -379.079681 0.390948 1.000000
189.315689 -387.440430 -0.000032 0.229125
189.369751 -394.445953 -0.000130 0.229197
189.399872 -398.348358 -0.000126 0.206146
189.419098 -400.839722 -0.000123 0.210239
189.432465 -402.571869 0.000000 0.331640
189.442307 -403.847504 -0.000005 0.337438
189.486969 -388.802094 7.768627 0.401129
189.486526 -388.191162 7.105872 0.396979
189.479706 -378.936920 7.985413 1.000000
189.488968 -391.502441 5.015566 0.403403
189.486313 -387.915039 4.751395 0.396246
189.485992 -387.470367 3.997517 0.396857
189.479706 -378.936920 3.616017 1.000000
189.479706 -378.936920 2.538288 1.000000
189.479706 -378.936920 1.461712 1.000000
189.479706 -378.936920 0.383982 1.000000
189.485962 -387.439697 -0.000032 0.237490
189.491135 -394.445465 -0.000130 0.255454
189.494003 -398.347961 -0.000127 0.220771
189.495834 -400.839386 -0.000123 0.227916
189.497116 -402.571594 0.000000 0.336004
189.498047 -403.847260 -0.000005 0.335103
189.637451 -390.451782 7.355504 0.396078
189.638535 -390.277252 6.655411 0.404440
189.646210 -389.049500 6.145445 0.399069
189.637329 -390.471832 5.168503 0.395453
189.633255 -391.123047 4.382389 0.400595
189.633804 -391.035736 3.705207 0.397848
189.710251 -378.792908 3.623124 1.000000
189.710251 -378.792908 2.540655 1.000000
189.710251 -378.792908 1.459345 1.000000
189.710251 -378.792908 0.376875 1.000000
189.656250 -387.440186 -0.000033 0.233852
189.612503 -394.445770 -0.000131 0.228466
189.588135 -398.348236 -0.000127 0.236437
189.572586 -400.839600 -0.000124 0.261426
189.561768 -402.571777 0.000000 0.320943
189.553802 -403.847412 -0.000005 0.343679
189.942856 -378.647614 10.312913 1.000000
189.776566 -391.219543 6.452197 0.398535
189.942856 -378.647614 8.038582 1.000000
189.774200 -391.398895 5.031187 0.399496
189.785263 -390.562012 4.447096 0.405158
189.794678 -389.849915 3.802563 0.395590
189.785889 -390.514771 3.047327 0.403159
189.942856 -378.647614 2.543070 1.000000
189.942856 -378.647614 1.456930 1.000000
189.942856 -378.647614 0.369626 1.000000
189.826538 -387.441833 -0.000033 0.226911
189.733887 -394.446960 -0.000132 0.227856
189.682266 -398.349121 -0.000128 0.261510
189.649323 -400.840332 -0.000125 0.215015
189.626404 -402.572388 0.000000 0.338140
189.609528 -403.847961 -0.000005 0.342535
189.933441 -390.579987 7.324369 0.372992
189.944885 -390.013428 6.713260 0.396719
189.975159 -388.515625 6.243373 0.410422
189.924927 -391.001373 5.090524 0.374823
190.177551 -378.501007 5.835173 1.000000
189.918625 -391.312622 3.682814 0.406424
190.177551 -378.501007 3.637767 1.000000
190.177551 -378.501007 2.545532 1.000000
190.177551 -378.501007 1.454468 1.000000
190.177551 -378.501007 0.362233 1.000000
189.996796 -387.444672 -0.000033 0.233804
189.855240 -394.448975 -0.000133 0.253886
189.776382 -398.350708 -0.000129 0.219514
189.726044 -400.841614 -0.000125 0.212956
189.691040 -402.573486 0.000000 0.331014
189.665268 -403.848877 -0.000005 0.342000
190.081284 -390.601929 7.319756 0.397757
190.104477 -389.749115 6.771151 0.406882
190.068268 -391.080444 5.777221 0.398383
190.085205 -390.457855 5.171688 0.399023
190.414398 -378.353058 5.852835 1.000000
190.062103 -391.307343 3.683525 0.400992
190.414398 -378.353058 3.645309 1.000000
190.414398 -378.353058 2.548045 1.000000
190.414398 -378.353058 1.451955 1.000000
190.414398 -378.353058 0.354690 1.000000
190.167038 -387.448700 -0.000034 0.231411
189.976593 -394.451843 -0.000133 0.226827
189.870499 -398.352936 -0.000129 0.238974
189.802765 -400.843445 -0.000126 0.208097
189.755676 -402.575012 0.000000 0.331518
189.720993 -403.850220 -0.000004 0.342901
190.223297 -390.787262 7.274439 0.409522
190.653458 -378.203735 9.267193 1.000000
190.209335 -391.195801 5.757029 0.399039
190.653458 -378.203735 6.991157 1.000000
190.653458 -378.203735 5.870849 1.000000
190.201263 -391.432007 3.673659 0.399359
190.232300 -390.523926 3.047396 0.398108
190.653458 -378.203735 2.550607 1.000000
190.653458 -378.203735 1.449393 1.000000
190.653458 -378.203735 0.346997 1.000000
190.337250 -387.453918 -0.000035 0.228514
190.097916 -394.455566 -0.000134 0.227569
189.964584 -398.355804 -0.000130 0.206134
189.879471 -400.845795 -0.000126 0.248884
189.818710 -402.623260 0.010001 1.000000
189.776718 -403.851929 -0.000004 0.337575
190.894760 -378.052979 10.468301 1.000000
190.348053 -391.330902 6.431505 0.389899
190.374329 -390.692749 5.849627 0.398169
190.401413 -390.034698 5.236022 0.401679
190.346268 -391.374207 4.355441 0.398886
190.338745 -391.556793 3.663858 0.399664
190.894760 -378.052979 3.660848 1.000000
190.894760 -378.053009 2.553220 1.000000
190.894760 -378.053009 1.446779 1.000000
190.894760 -378.053009 0.339151 1.000000
190.507416 -387.460327 -0.000035 0.239872
190.219208 -394.460144 -0.000134 0.222183
190.058655 -398.359344 -0.000131 0.245281
189.956161 -400.848663 -0.000127 0.198188
189.882996 -402.625671 0.009999 1.000000
189.832413 -403.854034 -0.000004 0.342947
190.519180 -390.755280 7.285492 0.390127
190.491562 -391.328613 6.433384 0.395651
190.554062 -390.031250 5.971331 0.396078
190.611740 -388.833771 5.415378 0.402853
191.138382 -377.900818 5.907964 1.000000
190.478195 -391.606079 3.660333 0.396078
191.138382 -377.900818 3.668851 1.000000
191.138382 -377.900818 2.555886 1.000000
191.138382 -377.900818 1.444114 1.000000
191.138382 -377.900818 0.331148 1.000000
190.677536 -387.467896 -0.000036 0.237275
190.340454 -394.465546 -0.000135 0.239333
190.152695 -398.363556 -0.000131 0.249973
190.032822 -400.852112 -0.000127 0.214572
189.947250 -402.628540 0.009996 1.000000
189.888107 -403.856506 -0.000005 0.335149
190.665161 -390.783630 7.280288 0.400687
190.640808 -391.225037 6.457384 0.414511
190.702164 -390.112854 5.957895 0.411246
190.712280 -389.929565 5.253817 0.405676
191.384369 -377.747162 5.927077 1.000000
190.777222 -388.752258 3.895287 0.397482
191.384369 -377.747162 3.677014 1.000000
191.384369 -377.747162 2.558605 1.000000
191.384369 -377.747162 1.441395 1.000000
191.384369 -377.747162 0.322986 1.000000
190.847595 -387.476685 -0.000036 0.236018
190.461685 -394.471802 -0.000135 0.211448
190.246704 -398.368408 -0.000131 0.244611
190.109467 -400.856049 -0.000127 0.217277
190.014038 -402.585632 -0.000000 0.340688
189.943771 -403.859375 -0.000004 0.314092
190.898880 -389.396088 7.630688 0.396933
190.792313 -391.110016 6.484100 0.400931
190.843872 -390.280670 5.928920 0.411399
191.632797 -377.591980 7.088795 1.000000
191.632797 -377.591980 5.946573 1.000000
191.632797 -377.591980 4.812921 1.000000
191.632797 -377.591980 3.685339 1.000000
191.632797 -377.591980 2.561378 1.000000
191.632797 -377.591980 1.438622 1.000000
191.632797 -377.591980 0.314661 1.000000
191.017593 -387.486664 -0.000036 0.233996
190.582855 -394.478912 -0.000135 0.227186
190.340683 -398.373932 -0.000131 0.234977
190.186066 -400.860535 -0.000128 0.275967
190.078583 -402.589417 0.000000 0.339666
189.999420 -403.862640 -0.000004 0.336202
191.883713 -377.435242 10.636470 1.000000
191.067352 -389.234711 6.892156 0.388617
191.883713 -377.435242 8.273614 1.000000
191.883713 -377.435242 7.114435 1.000000
191.883713 -377.435242 5.966456 1.000000
191.096817 -388.808746 3.892288 0.396078
191.883713 -377.435242 3.693830 1.000000
191.883713 -377.435242 2.564207 1.000000
191.883713 -377.435242 1.435793 1.000000
191.883713 -377.435242 0.306169 1.000000
191.187515 -387.497833 -0.000037 0.237765
190.703964 -394.486877 -0.000136 0.230513
190.434616 -398.380096 -0.000132 0.227712
190.262650 -400.865570 -0.000129 0.212669
190.143082 -402.593658 0.000000 0.343740
190.055038 -403.866302 -0.000004 0.346029
192.137177 -377.276886 10.680630 1.000000
192.137177 -377.276917 9.484766 1.000000
192.137177 -377.276886 8.305693 1.000000
192.137177 -377.276886 7.140585 1.000000
192.137177 -377.276917 5.986737 1.000000
192.137177 -377.276886 4.841549 1.000000
192.137177 -377.276886 3.702491 1.000000
192.137177 -377.276917 2.567091 1.000000
192.137177 -377.276917 1.432908 1.000000
192.137177 -377.276917 0.297508 1.000000
191.357361 -387.510162 -0.000037 0.238615
190.825027 -394.495667 -0.000136 0.232751
190.528503 -398.386902 -0.000132 0.234187
190.339188 -400.871124 -0.000129 0.222303
190.207611 -402.597778 -0.000126 0.215876
190.110626 -403.870331 -0.000004 0.330037
192.393265 -377.116943 10.725669 1.000000
191.342773 -389.738373 6.788206 0.399786
192.393265 -377.116943 8.338411 1.000000
192.393265 -377.116943 7.167259 1.000000
192.393265 -377.116943 6.007425 1.000000
192.393265 -377.116943 4.856293 1.000000
192.393265 -377.116943 3.711325 1.000000
192.393265 -377.116943 2.570035 1.000000
192.393265 -377.116943 1.429966 1.000000
192.393265 -377.116943 0.288675 1.000000
191.527115 -387.523682 -0.000038 0.230549
190.946030 -394.505310 -0.000137 0.212047
190.622330 -398.394379 -0.000133 0.239010
190.415680 -400.877228 -0.000129 0.209976
190.272064 -402.602905 -0.000126 0.296073
190.166199 -403.874786 -0.000004 0.339773
192.652039 -376.955292 10.771608 1.000000
192.652039 -376.955292 9.563213 1.000000
192.652039 -376.955292 8.371782 1.000000
192.652039 -376.955292 7.194463 1.000000
192.652039 -376.955292 6.028523 1.000000
192.652039 -376.955292 4.871331 1.000000
192.652039 -376.955292 3.720335 1.000000
192.652039 -376.955292 2.573036 1.000000
192.652039 -376.955292 1.426965 1.000000
192.652039 -376.955292 0.279665 1.000000
191.696762 -387.538391 -0.000039 0.237849
191.066940 -394.515778 -0.000137 0.224541
190.716110 -398.402527 -0.000133 0.247495
190.492142 -400.883881 -0.000129 0.226061
190.336472 -402.608490 -0.000126 0.206134
190.221725 -403.879578 -0.000004 0.349462
192.913559 -376.791931 10.818468 1.000000
192.913559 -376.791931 9.603615 1.000000
192.913559 -376.791931 8.405823 1.000000
192.913559 -376.791931 7.222213 1.000000
192.913559 -376.791931 6.050045 1.000000
192.913559 -376.791931 4.886670 1.000000
192.913559 -376.791931 3.729526 1.000000
192.913559 -376.791931 2.576096 1.000000
192.913559 -376.791931 1.423903 1.000000
192.913559 -376.791931 0.270474 1.000000
191.866302 -387.554291 -0.000039 0.228885
191.187805 -394.527130 -0.000137 0.231805
190.809845 -398.411316 -0.000133 0.221752
190.568542 -400.891022 -0.000130 0.236114
190.400833 -402.614532 -0.000127 0.229675
190.277237 -403.884796 -0.000004 0.321675
193.177902 -376.626801 10.866265 1.000000
193.177902 -376.626801 9.644827 1.000000
193.177902 -376.626801 8.440541 1.000000
193.177902 -376.626801 7.250517 1.000000
193.177902 -376.626801 6.071995 1.000000
193.177902 -376.626801 4.902315 1.000000
193.177902 -376.626801 3.738899 1.000000
193.177902 -376.626801 2.579219 1.000000
193.177902 -376.626801 1.420781 1.000000
193.177902 -376.626801 0.261100 1.000000
192.035736 -387.571381 -0.000039 0.233242
191.308563 -394.539307 -0.000138 0.227042
190.903503 -398.420746 -0.000134 0.245652
190.644897 -400.898712 -0.000130 0.235994
190.465164 -402.621002 -0.000127 0.195172
190.332687 -403.890381 -0.000004 0.334310
193.445145 -376.459869 10.915019 1.000000
193.445145 -376.459869 9.686868 1.000000
193.445145 -376.459869 8.475958 1.000000
193.445145 -376.459869 7.279390 1.000000
193.445145 -376.459869 6.094386 1.000000
193.445145 -376.459869 4.918275 1.000000
193.445145 -376.459869 3.748461 1.000000
193.445145 -376.459869 2.582404 1.000000
193.445145 -376.459869 1.417596 1.000000
193.445145 -376.459869 0.251539 1.000000
192.205048 -387.589630 -0.000040 0.227808
191.429245 -394.552307 -0.000138 0.205165
190.997086 -398.430847 -0.000134 0.291525
190.721191 -400.906952 -0.000130 0.233625
190.529449 -402.627930 -0.000128 0.241882
190.388107 -403.896362 -0.000004 0.329458
193.715347 -376.291077 10.964750 1.000000
193.715347 -376.291077 9.729750 1.000000
193.715347 -376.291077 8.512083 1.000000
193.715347 -376.291077 7.308841 1.000000
193.715347 -376.291077 6.117227 1.000000
193.715347 -376.291077 4.934554 1.000000
193.715347 -376.291077 3.758215 1.000000
193.715347 -376.291077 2.585653 1.000000
193.715347 -376.291077 1.414347 1.000000
193.715347 -376.291077 0.241785 1.000000
192.374222 -387.609070 -0.000040 0.218940
191.549835 -394.566162 -0.000138 0.228383
191.090607 -398.441589 -0.000134 0.229089
190.797440 -400.915710 -0.000130 0.199085
190.593674 -402.635315 -0.000127 0.269756
190.443481 -403.902740 -0.000004 0.339651
193.988602 -376.120361 11.015487 1.000000
193.988602 -376.120361 9.773493 1.000000
193.988602 -376.120392 8.548937 1.000000
193.988602 -376.120361 7.338885 1.000000
193.988602 -376.120361 6.140528 1.000000
193.988602 -376.120361 4.951162 1.000000
193.988602 -376.120361 3.768165 1.000000
193.988602 -376.120392 2.588968 1.000000
193.988602 -376.120392 1.411033 1.000000
193.988602 -376.120392 0.231834 1.000000
192.543259 -387.629700 -0.000040 0.235791
191.670319 -394.580872 -0.000139 0.236581
191.184052 -398.453003 -0.000134 0.230345
190.873611 -400.925018 -0.000131 0.247232
190.657852 -402.643158 -0.000128 0.269097
190.498825 -403.909485 -0.000004 0.338552
194.264984 -375.947754 11.067240 1.000000
194.264969 -375.947754 9.818115 1.000000
194.264984 -375.947754 8.586532 1.000000
194.264984 -375.947754 7.369533 1.000000
194.264969 -375.947754 6.164295 1.000000
194.264969 -375.947754 4.968102 1.000000
194.264984 -375.947754 3.778316 1.000000
194.264984 -375.947754 2.592348 1.000000
194.264984 -375.947754 1.407652 1.000000
194.264984 -375.947754 0.221684 1.000000
192.712143 -387.651489 -0.000040 0.223320
191.790695 -394.596436 -0.000138 0.244085
191.277405 -398.465057 -0.000134 0.267984
190.949722 -400.934845 -0.000131 0.233134
190.721970 -402.651428 -0.000128 0.240913
190.554108 -403.916626 -0.000003 0.340566
194.544556 -375.773102 11.120040 1.000000
194.544556 -375.773102 9.863644 1.000000
194.544556 -375.773102 8.624887 1.000000
194.544556 -375.773102 7.400801 1.000000
194.544556 -375.773102 6.188545 1.000000
194.544556 -375.773102 4.985387 1.000000
194.544556 -375.773102 3.788670 1.000000
194.544556 -375.773102 2.595797 1.000000
194.544556 -375.773102 1.404202 1.000000
194.544556 -375.773102 0.211329 1.000000
192.880875 -387.674500 -0.000041 0.216618
191.910965 -394.612793 -0.000138 0.224577
191.370682 -398.477753 -0.000134 0.255729
191.025757 -400.945190 -0.000131 0.220161
190.786026 -402.660156 -0.000128 0.260014
190.603806 -403.963715 0.010005 1.000000
194.827438 -375.596405 11.173907 1.000000
194.827438 -375.596375 9.910089 1.000000
194.827438 -375.596375 8.664016 1.000000
194.827438 -375.596375 7.432700 1.000000
194.827438 -375.596405 6.213284 1.000000
194.827438 -375.596375 5.003021 1.000000
194.827438 -375.596405 3.799235 1.000000
194.827438 -375.596405 2.599316 1.000000
194.827438 -375.596405 1.400683 1.000000
194.827438 -375.596405 0.200764 1.000000
193.049438 -387.698639 -0.000041 0.232212
192.031113 -394.630035 -0.000139 0.235348
191.463867 -398.491119 -0.000135 0.209031
191.101730 -400.956085 -0.000131 0.211580
190.850021 -402.669342 -0.000128 0.227389
190.658707 -403.971588 0.010003 1.000000
195.113678 -375.417572 11.228870 1.000000
195.113678 -375.417603 9.957478 1.000000
195.113678 -375.417603 8.703939 1.000000
195.113678 -375.417603 7.465248 1.000000
195.113678 -375.417603 6.238528 1.000000
195.113678 -375.417603 5.021011 1.000000
195.113678 -375.417603 3.810014 1.000000
195.113678 -375.417603 2.602907 1.000000
195.113678 -375.417603 1.397092 1.000000
195.113678 -375.417603 0.189985 1.000000
193.217834 -387.723999 -0.000041 0.218976
192.151138 -394.648071 -0.000139 0.245353
191.556946 -398.505127 -0.000135 0.206529
191.177612 -400.967499 -0.000131 0.220891
190.913956 -402.678955 -0.000128 0.196225
190.713547 -403.979828 0.010001 1.000000
195.403397 -375.236603 11.284946 1.000000
195.403397 -375.236603 10.005832 1.000000
195.403397 -375.236603 8.744677 1.000000
195.403397 -375.236603 7.498456 1.000000
195.403397 -375.236633 6.264282 1.000000
195.403397 -375.236633 5.039368 1.000000
195.403397 -375.236633 3.821013 1.000000
195.403381 -375.236633 2.606571 1.000000
195.403381 -375.236633 1.393429 1.000000
195.403397 -375.236633 0.178987 1.000000
193.386047 -387.750488 -0.000041 0.230202
192.271042 -394.666992 -0.000139 0.251696
191.649933 -398.519775 -0.000134 0.207702
191.253418 -400.979462 -0.000131 0.196955
190.977814 -402.689026 -0.000128 0.269014
190.768341 -403.988464 0.009999 1.000000
195.696655 -375.053436 11.342167 1.000000
195.696655 -375.053406 10.055169 1.000000
195.696655 -375.053406 8.786242 1.000000
195.696655 -375.053406 7.532343 1.000000
195.696655 -375.053436 6.290561 1.000000
195.696655 -375.053406 5.058100 1.000000
195.696655 -375.053436 3.832235 1.000000
195.696655 -375.053436 2.610309 1.000000
195.696655 -375.053436 1.389691 1.000000
195.696655 -375.053436 0.167763 1.000000
193.554062 -387.778168 -0.000042 0.234917
192.390808 -394.686707 -0.000139 0.235492
191.742828 -398.535095 -0.000135 0.237430
191.329132 -400.991943 -0.000131 0.232464
191.041611 -402.699524 -0.000128 0.257153
190.823059 -403.997467 0.009997 1.000000
195.993576 -374.867950 11.400559 1.000000
195.993576 -374.867950 10.105516 1.000000
195.993576 -374.867950 8.828659 1.000000
195.993576 -374.867950 7.566923 1.000000
195.993576 -374.867950 6.317379 1.000000
195.993576 -374.867950 5.077214 1.000000
195.993576 -374.867950 3.843689 1.000000
195.993576 -374.867950 2.614124 1.000000
195.993576 -374.867950 1.385876 1.000000
195.993576 -374.867950 0.156311 1.000000
193.721893 -387.807037 -0.000042 0.215266
192.510437 -394.707275 -0.000139 0.229304
191.835602 -398.551025 -0.000135 0.234091
191.404770 -401.004944 -0.000131 0.215828
191.105331 -402.710480 -0.000128 0.226300
190.884628 -403.967560 -0.000003 0.336706
196.294250 -374.680145 11.460150 1.000000
196.294250 -374.680115 10.156898 1.000000
196.294250 -374.680145 8.871944 1.000000
196.294250 -374.680115 7.602211 1.000000
196.294250 -374.680115 6.344747 1.000000
196.294250 -374.680115 5.096720 1.000000
196.294250 -374.680145 3.855375 1.000000
196.294250 -374.680145 2.618017 1.000000
196.294250 -374.680145 1.381983 1.000000
196.294250 -374.680145 0.144625 1.000000
193.889740 -387.835846 -0.000144 0.225498
192.629913 -394.728699 -0.000139 0.230740
191.928253 -398.567657 -0.000134 0.222004
191.480301 -401.018463 -0.000132 0.257321
191.168961 -402.721893 -0.000128 0.209186
190.939499 -403.977386 -0.000003 0.319951
196.598770 -374.489899 11.520970 1.000000
196.598770 -374.489899 10.209340 1.000000
196.598770 -374.489899 8.916124 1.000000
196.598770 -374.489899 7.638227 1.000000
196.598770 -374.489899 6.372680 1.000000
196.598770 -374.489899 5.116629 1.000000
196.598770 -374.489899 3.867303 1.000000
196.598770 -374.489899 2.621990 1.000000
196.598770 -374.489899 1.378010 1.000000
196.598770 -374.489899 0.132696 1.000000
194.057159 -387.867065 -0.000144 0.233062
192.749237 -394.750946 -0.000139 0.206577
192.020798 -398.584900 -0.000135 0.221992
191.555756 -401.032532 -0.000131 0.200438
191.232529 -402.733734 -0.000128 0.204411
190.994293 -403.987579 -0.000003 0.339712
196.907242 -374.297211 11.583045 1.000000
196.907242 -374.297211 10.262864 1.000000
196.907242 -374.297211 8.961216 1.000000
196.907242 -374.297211 7.674986 1.000000
196.907242 -374.297211 6.401189 1.000000
196.907242 -374.297211 5.136948 1.000000
196.907242 -374.297211 3.879478 1.000000
196.907242 -374.297211 2.626045 1.000000
196.907242 -374.297211 1.373955 1.000000
196.907242 -374.297211 0.120522 1.000000
194.224335 -387.899414 -0.000144 0.229137
192.868393 -394.774017 -0.000138 0.248752
192.113205 -398.602783 -0.000135 0.238160
191.631088 -401.047119 -0.000132 0.229747
191.296005 -402.746033 -0.000128 0.241081
191.049118 -403.997711 -0.000125 0.235348
197.219772 -374.101990 11.646408 1.000000
197.219788 -374.101990 10.317497 1.000000
197.219772 -374.101990 9.007243 1.000000
197.219772 -374.101990 7.712510 1.000000
197.219772 -374.101990 6.430290 1.000000
197.219788 -374.101990 5.157691 1.000000
197.219772 -374.101990 3.891905 1.000000
197.219772 -374.101990 2.630184 1.000000
197.219772 -374.101990 1.369815 1.000000
197.219772 -374.101990 0.108094 1.000000
194.391296 -387.932983 -0.000143 0.224170
192.987396 -394.797913 -0.000138 0.223751
192.205505 -398.621338 -0.000134 0.227006
191.706329 -401.062225 -0.000131 0.206290
191.359390 -402.758759 -0.000128 0.242744
191.103775 -404.008698 -0.000125 0.215637
194.784821 -386.896790 8.384417 0.609613
194.783936 -386.901001 7.503957 0.642084
194.783066 -386.905121 6.636150 0.421653
194.782196 -386.909210 5.778905 0.576196
194.781342 -386.913269 4.930222 0.687785
194.780487 -386.917297 4.088179 0.636683
194.779633 -386.921295 3.250915 0.688197
194.778793 -386.925262 2.416607 0.567391
194.777954 -386.929260 1.583459 0.486656
194.777100 -386.933228 0.749684 0.521355
194.558029 -387.967682 -0.000144 0.231877
193.106232 -394.822662 -0.000139 0.223596
192.297668 -398.640503 -0.000135 0.225534
191.781464 -401.077881 -0.000131 0.269516
191.422684 -402.771942 -0.000128 0.214093
191.158340 -404.020050 -0.000125 0.225869
194.920624 -387.108398 8.339766 0.563165
194.919724 -387.112518 7.465472 0.480400
194.918823 -387.116608 6.603738 0.592798
194.917938 -387.120636 5.752490 0.472023
194.917068 -387.124634 4.909742 0.537621
194.916199 -387.128571 4.073586 0.551431
194.915344 -387.132507 3.242175 0.572763
194.914474 -387.136444 2.413697 0.553643
194.913620 -387.140350 1.586369 0.504021
194.912766 -387.144257 0.758415 0.642054
194.724503 -388.003540 -0.000143 0.231973
193.224884 -394.848206 -0.000138 0.234223
192.389679 -398.660339 -0.000134 0.207092
191.856476 -401.094055 -0.000131 0.228251
191.485886 -402.785553 -0.000128 0.201180
191.212845 -404.031799 -0.000125 0.248584
187.242676 -421.818787 4.564951 0.525567
187.242676 -421.818787 4.211597 0.478798
187.242676 -421.818787 3.863204 0.552483
187.242676 -421.818787 3.518939 0.507973
187.242676 -421.818787 3.178000 0.653162
187.211578 -421.956085 2.851163 0.652216
187.211578 -421.956085 2.509967 0.158373
187.211578 -421.956085 2.169868 0.690272
187.211578 -421.956085 1.830132 0.691279
187.211578 -421.956085 1.490033 0.690196
187.211578 -421.956085 1.148837 0.112047
187.211578 -421.956085 0.805805 0.670588
187.211578 -421.956085 0.460179 0.664866
187.211578 -421.956085 0.111181 0.606210
187.459030 -420.863251 0.000005 0.212370
187.740738 -419.619049 0.000003 0.248178
187.188965 -421.734497 4.547393 0.623590
187.188965 -421.734497 4.196457 0.521538
187.188965 -421.734497 3.850451 0.689097
187.188965 -421.734497 3.508542 0.479393
187.188965 -421.734497 3.169937 0.626902
187.157135 -421.870636 2.845336 0.674250
187.157135 -421.870636 2.506476 0.148440
187.157135 -421.870636 2.168705 0.711376
187.157135 -421.870636 1.831295 0.701961
187.157135 -421.870636 1.493524 0.700816
187.157135 -421.870636 1.154664 0.521477
187.157135 -421.870636 0.813980 0.675044
187.157135 -421.870636 0.470721 0.659358
187.157135 -421.870636 0.124111 0.612421
187.396027 -420.848755 0.000005 0.194454
187.686417 -419.606537 0.000004 0.200127
187.135971 -421.651367 4.530196 0.639460
187.135971 -421.651367 4.181631 0.582025
187.135971 -421.651367 3.837959 0.558251
187.135971 -421.651367 3.498358 0.482170
187.135971 -421.651367 3.162040 0.561593
187.103424 -421.786346 2.839629 0.472297
187.103424 -421.786346 2.503057 0.087480
187.103424 -421.786346 2.167566 0.713726
187.103424 -421.786346 1.832434 0.706203
187.103424 -421.786346 1.496943 0.694469
187.103424 -421.786346 1.160371 0.681743
187.103424 -421.786346 0.821987 0.662745
187.103424 -421.786346 0.481045 0.660731
187.103424 -421.786346 0.136776 0.618204
187.333130 -420.833801 0.000005 0.264526
187.632172 -419.593658 0.000003 0.240961
187.083694 -421.569336 4.513352 0.485618
187.083694 -421.569336 4.167107 0.598779
187.083694 -421.569336 3.825723 0.691478
187.083694 -421.569336 3.488383 0.497520
187.083694 -421.569336 3.154303 0.541970
187.050430 -421.703186 2.834038 0.639231
187.050430 -421.703186 2.499708 0.565835
187.050430 -421.703186 2.166450 0.712673
187.050430 -421.703186 1.833550 0.709804
187.050430 -421.703186 1.500292 0.691722
187.050430 -421.703186 1.165961 0.680858
187.050430 -421.703186 0.829830 0.666712
187.050430 -421.703186 0.491158 0.662745
187.050430 -421.703186 0.149181 0.621759
187.270325 -420.818420 0.000005 0.228024
187.578033 -419.580414 0.000004 0.200103
187.032104 -421.488373 4.496852 0.664668
187.032104 -421.488373 4.152880 0.724575
187.032120 -421.488373 3.813737 0.585077
187.032104 -421.488373 3.478612 0.531838
187.032104 -421.488373 3.146725 0.550072
186.998138 -421.621094 2.828562 0.713481
186.998138 -421.621094 2.496427 0.703822
186.998138 -421.621094 2.165358 0.722942
186.998138 -421.621094 1.834643 0.705882
186.998138 -421.621094 1.503573 0.694179
186.998138 -421.621094 1.171437 0.678431
186.998138 -421.621094 0.837513 0.667826
186.998138 -421.621094 0.501065 0.654963
186.998138 -421.621094 0.161333 0.630289
187.207642 -420.802612 0.000005 0.220161
187.523987 -419.566772 0.000003 0.246143
186.981201 -421.408478 4.480685 0.688960
186.981201 -421.408478 4.138941 0.630442
186.981201 -421.408478 3.801995 0.472587
186.981201 -421.408478 3.469039 0.688716
186.981201 -421.408478 3.139301 0.581262
186.946518 -421.540100 2.823198 0.717647
186.946518 -421.540100 2.493212 0.709804
186.946518 -421.540100 2.164287 0.711574
186.946518 -421.540100 1.835713 0.701961
186.946518 -421.540100 1.506788 0.690196
186.946518 -421.540100 1.176802 0.682353
186.946518 -421.540100 0.845040 0.666758
186.946518 -421.540100 0.510770 0.653758
186.946518 -421.540100 0.173238 0.626413
187.145081 -420.786377 0.000005 0.198595
187.470032 -419.552765 0.000003 0.233996
186.930939 -421.329590 4.464847 0.480995
186.930939 -421.329590 4.125284 0.584070
186.930939 -421.329620 3.790490 0.641886
186.930939 -421.329620 3.459661 0.770336
186.930939 -421.329620 3.132027 0.648997
186.895569 -421.460144 2.817941 0.723537
186.895569 -421.460144 2.490063 0.709804
186.895569 -421.460144 2.163238 0.722545
186.895569 -421.460144 1.836762 0.702052
186.895569 -421.460144 1.509937 0.694072
186.895569 -421.460144 1.182058 0.690196
186.895569 -421.460144 0.852415 0.672084
186.895569 -421.460144 0.520279 0.642084
186.895569 -421.460144 0.184902 0.637568
187.082611 -420.769684 0.000004 0.192335
187.416183 -419.538391 0.000004 0.214189
186.881302 -421.251709 4.449327 0.530373
186.881302 -421.251709 4.111902 0.646571
186.881302 -421.251740 3.779217 0.506615
186.881302 -421.251740 3.450470 0.522515
186.881302 -421.251740 3.124901 0.718441
186.845261 -421.381195 2.812792 0.833875
186.845261 -421.381195 2.486977 0.717647
186.845261 -421.381195 2.162210 0.717647
186.845261 -421.381195 1.837790 0.705882
186.845261 -421.381195 1.513022 0.697932
186.845261 -421.381195 1.187208 0.678584
186.845261 -421.381195 0.859641 0.662852
186.845261 -421.381195 0.529596 0.654902
186.845261 -421.381195 0.196330 0.632303
187.020279 -420.752563 0.000004 0.246203
187.362427 -419.523621 0.000004 0.233876
186.832306 -421.174805 4.434119 0.366735
186.832306 -421.174805 4.098790 0.685283
186.832291 -421.174805 3.768170 0.485557
186.832291 -421.174835 3.441466 0.498405
186.832291 -421.174835 3.117917 0.495567
186.795578 -421.303223 2.807745 0.915785
186.795578 -421.303223 2.483954 0.716320
186.795578 -421.303223 2.161203 0.606271
186.795578 -421.303223 1.838797 0.686564
186.795578 -421.303223 1.516046 0.679515
186.795578 -421.303223 1.192255 0.668101
186.795578 -421.303223 0.866721 0.663478
186.795578 -421.303223 0.538725 0.640513
186.795578 -421.303223 0.207529 0.589578
186.958054 -420.735016 0.000004 0.259463
187.308777 -419.508484 0.000003 0.204148
186.783890 -421.098846 4.419218 0.300343
186.783890 -421.098846 4.085940 0.668788
186.783890 -421.098846 3.757345 0.488991
186.783890 -421.098877 3.432642 0.544961
186.783890 -421.098877 3.111073 0.538109
186.746506 -421.226196 2.802799 0.964828
186.746506 -421.226196 2.480991 0.743435
186.746506 -421.226196 2.160216 0.709804
186.746506 -421.226196 1.839784 0.707088
186.746506 -421.226196 1.519009 0.698039
186.746506 -421.226196 1.197201 0.674510
186.746506 -421.226196 0.873659 0.670649
186.746506 -421.226196 0.547673 0.654841
186.746506 -421.226196 0.218503 0.631495
186.895966 -420.717010 0.000005 0.184461
187.255249 -419.492950 0.000003 0.201934
186.736069 -421.023804 4.404613 0.215686
186.736069 -421.023804 4.073348 0.506935
186.736069 -421.023804 3.746736 0.583535
186.736069 -421.023834 3.423993 0.604868
186.736069 -421.023834 3.104366 0.531609
186.698029 -421.150146 2.797953 0.982895
186.698029 -421.150146 2.478087 0.770367
186.698029 -421.150146 2.159248 0.717144
186.698029 -421.150146 1.840751 0.705882
186.698029 -421.150146 1.521913 0.702464
186.698029 -421.150146 1.202047 0.678325
186.698029 -421.150146 0.880459 0.667643
186.698029 -421.150146 0.556440 0.657008
186.698029 -421.150146 0.229258 0.639109
186.834000 -420.698608 0.000005 0.221118
187.201813 -419.477081 0.000003 0.242457
186.688828 -420.949646 4.390299 0.224537
186.688828 -420.949646 4.061007 0.695720
186.688828 -420.949677 3.736339 0.576303
186.688812 -420.949677 3.415517 0.459876
186.688812 -420.949677 3.097793 0.587900
186.650131 -421.074951 2.793203 0.972473
186.650131 -421.074951 2.475241 0.778515
186.650131 -421.074951 2.158300 0.709804
186.650131 -421.074951 1.841699 0.701961
186.650131 -421.074951 1.524759 0.698039
186.650131 -421.074951 1.206797 0.674510
186.650131 -421.074951 0.887124 0.668666
186.650131 -421.074951 0.565033 0.655146
186.650131 -421.074982 0.239799 0.642298
186.772156 -420.679749 0.000004 0.251732
187.148499 -419.460815 0.000003 0.184305
186.642136 -420.876373 4.376270 0.240604
186.642136 -420.876373 4.048910 0.703304
186.642136 -420.876404 3.726149 0.496956
186.642120 -420.876404 3.407209 0.550210
186.642120 -420.876404 3.091351 0.514336
186.602798 -421.000702 2.788548 0.965301
186.602798 -421.000671 2.472452 0.778271
186.602798 -421.000671 2.157372 0.713756
186.602798 -421.000671 1.842629 0.701610
186.602798 -421.000671 1.527548 0.690196
186.602798 -421.000671 1.211452 0.671763
186.602798 -421.000671 0.893655 0.668818
186.602798 -421.000671 0.573456 0.650324
186.602798 -421.000671 0.250130 0.631373
186.710464 -420.660461 0.000004 0.209461
187.095291 -419.444183 0.000003 0.201012
186.595993 -420.803955 4.362520 0.249195
186.595993 -420.803955 4.037053 0.626459
186.595978 -420.803986 3.716160 0.535821
186.595978 -420.803986 3.399066 0.443870
186.595978 -420.804016 3.085036 0.575280
186.556030 -420.927277 2.783984 0.984543
186.556030 -420.927277 2.469718 0.790600
186.556030 -420.927277 2.156461 0.705882
186.556030 -420.927277 1.843539 0.701961
186.556030 -420.927277 1.530282 0.685206
186.556030 -420.927277 1.216015 0.678813
186.556030 -420.927277 0.900057 0.666667
186.556030 -420.927277 0.581711 0.651423
186.556030 -420.927277 0.260257 0.620066
186.648895 -420.640747 0.000004 0.239968
187.042206 -419.427185 0.000003 0.267266
186.550369 -420.732361 4.349040 0.470741
186.550369 -420.732361 4.025432 0.685924
186.550369 -420.732391 3.706369 0.604242
186.550354 -420.732391 3.391085 0.598474
186.550354 -420.732422 3.078845 0.636500
186.550354 -420.732422 2.768948 0.583337
186.550354 -420.732422 2.460709 0.635538
186.550354 -420.732422 2.153460 0.462928
186.550354 -420.732422 1.846540 0.630106
186.550354 -420.732422 1.539291 0.619120
186.550354 -420.732422 1.231052 0.489952
186.550354 -420.732422 0.921154 0.532296
186.550354 -420.732422 0.608913 0.576516
186.550354 -420.732422 0.293624 1.000000
186.587463 -420.620575 0.000004 0.215050
186.989243 -419.409821 0.000004 0.255406
186.505264 -420.661591 4.335828 0.515496
186.505264 -420.661591 4.014039 0.473060
186.505264 -420.661591 3.696771 0.632502
186.505249 -420.661621 3.383260 0.556207
186.505249 -420.661621 3.072776 0.624872
186.505249 -420.661621 2.764622 0.557977
186.505249 -420.661621 2.458117 0.652491
186.505249 -420.661621 2.152597 0.453758
186.505249 -420.661621 1.847403 0.624704
186.505249 -420.661621 1.541883 0.664973
186.505249 -420.661621 1.235377 0.710307
186.505249 -420.661621 0.927223 0.456779
186.505249 -420.661621 0.616738 0.561776
186.505249 -420.661621 0.303222 1.000000
186.526169 -420.600006 0.000004 0.241918
186.936401 -419.392090 0.000003 0.196476
186.460663 -420.591583 4.322875 0.716670
186.460663 -420.591583 4.002871 0.754208
186.460663 -420.591614 3.687362 0.637354
186.460663 -420.591614 3.375588 0.514015
186.460648 -420.591614 3.066827 0.582956
186.460648 -420.591644 2.760382 0.559838
186.460648 -420.591614 2.455577 0.570245
186.460648 -420.591614 2.151751 0.471687
186.460648 -420.591614 1.848249 0.619837
186.460648 -420.591614 1.544423 0.591592
186.460648 -420.591644 1.239617 0.507317
186.460648 -420.591644 0.933172 0.508431
186.460648 -420.591644 0.624409 0.500038
186.460648 -420.591644 0.312631 1.000000
186.460648 -420.591644 -0.002882 1.000000
186.883682 -419.373962 0.000003 0.207080
186.416550 -420.522369 4.310178 0.548653
186.416550 -420.522369 3.991923 0.582544
186.416550 -420.522369 3.678137 0.518547
186.416550 -420.522369 3.368068 0.650782
186.416550 -420.522400 3.060995 0.670558
186.416534 -420.522400 2.756225 0.573373
186.416534 -420.522400 2.453087 0.545769
186.416534 -420.522400 2.150921 0.618448
186.416534 -420.522400 1.849079 0.633051
186.416534 -420.522400 1.546913 0.590036
186.416534 -420.522400 1.243774 0.497795
186.416534 -420.522400 0.939003 0.578943
186.416534 -420.522400 0.631928 0.605585
186.416534 -420.522400 0.321855 1.000000
186.416534 -420.522400 0.008067 1.000000
186.831085 -419.355499 0.000003 0.235157
186.372925 -420.453888 4.297730 0.581765
186.372925 -420.453888 3.981189 0.614282
186.372925 -420.453888 3.669094 0.642588
186.372910 -420.453888 3.360695 0.635187
186.372910 -420.453918 3.055277 0.775341
186.372910 -420.453918 2.752150 0.608316
186.372910 -420.453918 2.450645 0.629435
186.372910 -420.453918 2.150108 0.639292
186.372910 -420.453918 1.849892 0.753826
186.372910 -420.453918 1.549355 0.599191
186.372910 -420.453918 1.247849 0.587289
186.372910 -420.453918 0.944721 0.639872
186.372910 -420.453918 0.639300 0.593606
186.372910 -420.453918 0.330897 1.000000
186.372910 -420.453918 0.018800 1.000000
186.778625 -419.336639 0.000003 0.218294
186.329758 -420.386139 4.285526 0.477791
186.329758 -420.386139 3.970666 0.591852
186.329758 -420.386139 3.660229 0.706996
186.329758 -420.386139 3.353467 0.561044
186.329742 -420.386139 3.049671 0.634577
186.329742 -420.386169 2.748154 0.598352
186.329742 -420.386169 2.448251 0.686320
186.329742 -420.386169 2.149311 0.583673
186.329742 -420.386169 1.850690 0.705684
186.329742 -420.386169 1.551748 0.601968
186.329742 -420.386169 1.251844 0.694453
186.329742 -420.386169 0.950326 0.573999
186.329742 -420.386169 0.646528 0.713161
186.329727 -420.386200 0.339761 1.000000
186.329727 -420.386200 0.029322 1.000000
186.726303 -419.317444 0.000003 0.226145
186.287033 -420.319092 4.273561 0.419577
186.287033 -420.319092 3.960351 0.574441
186.287033 -420.319092 3.651537 0.709606
186.287033 -420.319092 3.346382 0.551278
186.287033 -420.319122 3.044176 0.622232
186.287033 -420.319122 2.744237 0.568902
186.287033 -420.319122 2.445904 0.589212
186.287018 -420.319153 2.148529 0.547326
186.287018 -420.319153 1.851471 0.601389
186.287018 -420.319153 1.554095 0.583566
186.287018 -420.319153 1.255761 0.728725
186.287018 -420.319122 0.955821 0.523949
186.287033 -420.319122 0.653614 0.582650
186.287018 -420.319153 0.348453 1.000000
186.287018 -420.319153 0.039639 1.000000
186.674103 -419.297882 0.000003 0.260002
186.244766 -420.252777 4.261831 0.584344
186.244766 -420.252777 3.950236 0.532525
186.244766 -420.252777 3.643016 0.602152
186.244766 -420.252777 3.339435 0.573129
186.244766 -420.252777 3.038788 0.575845
186.244766 -420.252777 2.740397 0.493309
186.244751 -420.252777 2.443603 0.604944
186.244751 -420.252808 2.147762 0.556710
186.244751 -420.252808 1.852238 0.655451
186.244751 -420.252808 1.556396 0.537087
186.244751 -420.252808 1.259601 0.715145
186.244751 -420.252808 0.961209 0.593088
186.244751 -420.252808 0.660561 0.604349
186.244751 -420.252808 0.356974 1.000000
186.244751 -420.252808 0.049753 1.000000
186.622055 -419.277924 0.000003 0.217145
186.202927 -420.187103 4.250331 0.657954
186.202927 -420.187103 3.940320 0.502205
186.202927 -420.187103 3.634662 0.539544
186.202927 -420.187103 3.332624 0.559609
186.202927 -420.187103 3.033506 0.585611
186.202927 -420.187103 2.736632 0.530312
186.202927 -420.187134 2.441347 0.577020
186.202911 -420.187134 2.147011 0.531792
186.202911 -420.187134 1.852989 0.630930
186.202911 -420.187134 1.558652 0.540093
186.202911 -420.187134 1.263366 0.734249
186.202911 -420.187134 0.966491 0.563439
186.202911 -420.187134 0.667372 0.572351
186.202911 -420.187164 0.365329 1.000000
186.202911 -420.187164 0.059669 1.000000
186.570145 -419.257629 0.000003 0.215876
186.161499 -420.122101 4.239056 0.572000
186.161499 -420.122101 3.930598 0.730617
186.161514 -420.122101 3.626471 0.748379
186.161499 -420.122101 3.325947 0.589212
186.161514 -420.122101 3.028327 0.613001
186.161499 -420.122101 2.732940 0.737072
186.161499 -420.122101 2.439136 0.727077
186.161499 -420.122131 2.146274 0.559594
