# This PCD file was generated using the MATLABÂ® pcwrite function
# from Computer Vision ToolboxÂ®.
# .PCD v.7 - Point Cloud Data file format
VERSION .7
FIELDS x y z intensity
SIZE 4 4 4 4
TYPE F F F F
COUNT 1 1 1 1
WIDTH 1288
HEIGHT 1
VIEWPOINT 0 0 0 1 0 0 0
POINTS 1288
DATA ascii
nan nan nan 0.000000
nan nan nan 0.000000
nan nan nan 0.000000
nan nan nan 0.000000
nan nan nan 0.000000
-98.178894 -79.158524 -0.000039 0.231949
-91.266060 -93.941902 -0.000025 0.228933
-88.298157 -100.288895 -0.000018 0.233134
-86.645195 -103.823822 -0.000015 0.215027
-85.589920 -106.080566 -0.000013 0.228814
-84.856476 -107.649078 -0.000011 0.256471
-84.316101 -108.804688 -0.000010 0.215015
nan nan nan 0.000000
nan nan nan 0.000000
nan nan nan 0.000000
nan nan nan 0.000000
nan nan nan 0.000000
nan nan nan 0.000000
nan nan nan 0.000000
nan nan nan 0.000000
nan nan nan 0.000000
-97.921013 -79.039047 -0.000038 0.231255
-91.111557 -93.870308 -0.000025 0.225175
-88.188034 -100.237877 -0.000018 0.216415
-86.559784 -103.784256 -0.000015 0.205751
-85.520302 -106.048302 -0.000013 0.192695
-84.797813 -107.621902 -0.000011 0.236533
-84.265526 -108.781250 -0.000010 0.205249
nan nan nan 0.000000
nan nan nan 0.000000
nan nan nan 0.000000
nan nan nan 0.000000
nan nan nan 0.000000
nan nan nan 0.000000
nan nan nan 0.000000
nan nan nan 0.000000
nan nan nan 0.000000
-97.662300 -78.921356 -0.000038 0.228837
-90.956551 -93.799805 -0.000025 0.235097
-88.077553 -100.187614 -0.000018 0.219945
-86.474106 -103.745270 -0.000015 0.243175
-85.450447 -106.016525 -0.000013 0.241200
-84.738968 -107.595131 -0.000011 0.204734
-84.214783 -108.758171 -0.000010 0.228012
nan nan nan 0.000000
nan nan nan 0.000000
nan nan nan 0.000000
nan nan nan 0.000000
nan nan nan 0.000000
nan nan nan 0.000000
nan nan nan 0.000000
nan nan nan 0.000000
nan nan nan 0.000000
-97.402771 -78.805466 -0.000038 0.230405
-90.801064 -93.730377 -0.000025 0.237562
-87.966728 -100.138123 -0.000019 0.235061
-86.388161 -103.706894 -0.000015 0.224038
-85.380379 -105.985237 -0.000013 0.225307
-84.679939 -107.568771 -0.000011 0.251708
-84.163887 -108.735443 -0.000010 0.216403
nan nan nan 0.000000
nan nan nan 0.000000
nan nan nan 0.000000
nan nan nan 0.000000
nan nan nan 0.000000
nan nan nan 0.000000
nan nan nan 0.000000
nan nan nan 0.000000
nan nan nan 0.000000
-97.142448 -78.691406 -0.000039 0.228646
-90.645088 -93.662025 -0.000025 0.229005
-87.855553 -100.089417 -0.000018 0.222985
-86.301941 -103.669113 -0.000015 0.250595
-85.310097 -105.954437 -0.000013 0.212382
-84.620728 -107.542824 -0.000012 0.193808
-84.112831 -108.713074 -0.000010 0.187285
nan nan nan 0.000000
nan nan nan 0.000000
nan nan nan 0.000000
nan nan nan 0.000000
nan nan nan 0.000000
nan nan nan 0.000000
nan nan nan 0.000000
nan nan nan 0.000000
nan nan nan 0.000000
-96.881332 -78.579163 -0.000039 0.230992
-90.488640 -93.594788 -0.000024 0.226994
-87.744049 -100.041489 -0.000018 0.239609
-86.215469 -103.631943 -0.000015 0.268918
-85.239594 -105.924133 -0.000013 0.217947
-84.561333 -107.517296 -0.000011 0.208564
-84.061615 -108.691055 -0.000010 0.237394
nan nan nan 0.000000
nan nan nan 0.000000
-90.361725 -93.456787 6.452426 0.397223
nan nan nan 0.000000
nan nan nan 0.000000
nan nan nan 0.000000
nan nan nan 0.000000
nan nan nan 0.000000
nan nan nan 0.000000
-96.619438 -78.468735 -0.000039 0.228395
-90.331734 -93.528633 -0.000024 0.226719
-87.632210 -99.994339 -0.000018 0.228383
-86.128731 -103.595375 -0.000015 0.208648
-85.168884 -105.894325 -0.000013 0.219838
-84.501762 -107.492180 -0.000012 0.211424
-84.010254 -108.669403 -0.000010 0.230980
nan nan nan 0.000000
nan nan nan 0.000000
-90.238533 -93.306801 6.469084 0.405112
nan nan nan 0.000000
nan nan nan 0.000000
nan nan nan 0.000000
nan nan nan 0.000000
nan nan nan 0.000000
nan nan nan 0.000000
-96.356781 -78.360138 -0.000039 0.229735
-90.174362 -93.463570 -0.000024 0.231674
-87.520050 -99.947968 -0.000018 0.231829
-86.041740 -103.559410 -0.000015 0.207989
-85.097969 -105.865005 -0.000013 0.202652
-84.442017 -107.467476 -0.000012 0.197661
-83.958740 -108.648102 -0.000011 0.237383
nan nan nan 0.000000
nan nan nan 0.000000
nan nan nan 0.000000
nan nan nan 0.000000
-110.841873 -41.493401 11.240071 1.000000
-110.841873 -41.493408 8.585863 1.000000
-110.841873 -41.493401 5.945868 1.000000
-110.841881 -41.493401 3.314350 1.000000
-110.841881 -41.493401 0.685650 1.000000
-96.093361 -78.253403 -0.000039 0.229041
-90.016541 -93.399605 -0.000025 0.227330
-87.407562 -99.902374 -0.000019 0.234319
-85.954506 -103.524055 -0.000015 0.237933
-85.026855 -105.836182 -0.000013 0.199504
-84.382103 -107.443192 -0.000012 0.252737
-83.907082 -108.627167 -0.000010 0.265950
nan nan nan 0.000000
nan nan nan 0.000000
nan nan nan 0.000000
nan nan nan 0.000000
-110.198441 -41.597481 11.201621 1.000000
-110.198441 -41.597488 8.558458 1.000000
-110.198441 -41.597481 5.929448 1.000000
-110.198441 -41.597481 3.308881 1.000000
-110.198441 -41.597481 0.691119 1.000000
-95.829224 -78.148468 -0.000039 0.229364
-89.858276 -93.336746 -0.000025 0.223667
-87.294762 -99.857574 -0.000018 0.229867
-85.867027 -103.489311 -0.000016 0.243007
-84.955536 -105.807861 -0.000013 0.230238
-84.322021 -107.419334 -0.000012 0.211364
-83.855278 -108.606590 -0.000011 0.225893
nan nan nan 0.000000
nan nan nan 0.000000
-89.765442 -93.103989 6.471606 0.399573
nan nan nan 0.000000
-89.419075 -94.003426 4.716269 0.397696
-109.560318 -41.700722 8.531595 1.000000
-109.560318 -41.700714 5.913354 1.000000
-109.560318 -41.700729 3.303518 1.000000
-109.560318 -41.700722 0.696480 1.000000
-95.564346 -78.045395 -0.000039 0.228538
-89.699585 -93.275002 -0.000025 0.228802
-87.181648 -99.813560 -0.000019 0.224074
-85.779305 -103.455177 -0.000016 0.234738
-84.884026 -105.780029 -0.000013 0.210239
-84.261772 -107.395889 -0.000012 0.200976
-83.803329 -108.586380 -0.000011 0.247914
nan nan nan 0.000000
nan nan nan 0.000000
-89.243088 -94.002945 6.284912 0.403052
nan nan nan 0.000000
-108.927368 -41.803101 11.126998 1.000000
-108.927368 -41.803116 8.505267 1.000000
-108.927368 -41.803108 5.897580 1.000000
-108.927368 -41.803116 3.298265 1.000000
-108.927368 -41.803116 0.701734 1.000000
-95.298759 -77.944199 -0.000039 0.228694
-89.540459 -93.214363 -0.000025 0.231590
-87.068237 -99.770340 -0.000019 0.233996
-85.691345 -103.421661 -0.000015 0.213519
-84.812317 -105.752701 -0.000013 0.241057
-84.201363 -107.372871 -0.000012 0.216487
-83.751236 -108.566528 -0.000011 0.227018
nan nan nan 0.000000
-89.640457 -92.451729 7.430025 0.413092
-89.358192 -93.216385 6.426324 0.396078
-89.420158 -93.048531 5.635009 0.404532
-108.299469 -41.904671 11.090797 1.000000
-108.299469 -41.904686 8.479467 1.000000
-108.299477 -41.904671 5.882122 1.000000
-108.299469 -41.904678 3.293118 1.000000
-108.299469 -41.904678 0.706884 1.000000
-95.032471 -77.844849 -0.000038 0.229747
-89.380920 -93.154839 -0.000025 0.233182
-86.954521 -99.727905 -0.000019 0.230740
-85.603157 -103.388748 -0.000015 0.234498
-84.740425 -105.725876 -0.000014 0.211903
-84.140793 -107.350266 -0.000012 0.248800
-83.699013 -108.547043 -0.000011 0.246418
nan nan nan 0.000000
-89.331276 -92.791039 7.338280 0.396033
-88.956619 -93.828201 6.296690 0.406149
-89.140762 -93.318420 5.583187 0.397604
-89.021133 -93.649612 4.738401 0.401389
-107.676506 -42.005440 8.454185 1.000000
-107.676498 -42.005463 5.866972 1.000000
-107.676498 -42.005470 3.288071 1.000000
-107.676498 -42.005455 0.711929 1.000000
-94.765488 -77.747368 -0.000039 0.229663
-89.220963 -93.096420 -0.000025 0.236593
-86.840515 -99.686279 -0.000019 0.242660
-85.514740 -103.356461 -0.000016 0.206996
-84.668343 -105.699554 -0.000014 0.283291
-84.080070 -107.328094 -0.000012 0.198487
-83.646652 -108.527924 -0.000011 0.259547
nan nan nan 0.000000
-89.178635 -92.705109 7.344666 0.404303
-88.775833 -93.845024 6.282739 0.402533
nan nan nan 0.000000
-107.058350 -42.105446 11.020564 1.000000
-89.857849 -90.782913 4.196233 0.400900
-107.058350 -42.105453 5.852129 1.000000
-107.058350 -42.105446 3.283128 1.000000
-107.058350 -42.105446 0.716874 1.000000
-94.497841 -77.651726 -0.000039 0.227186
-89.060600 -93.039124 -0.000025 0.220065
-86.726219 -99.645447 -0.000019 0.227126
-85.426094 -103.324791 -0.000016 0.225570
-84.596077 -105.673737 -0.000014 0.197565
-84.019188 -107.306343 -0.000012 0.195818
-83.594162 -108.509171 -0.000011 0.204303
nan nan nan 0.000000
-88.948257 -92.842834 7.300171 0.406851
-88.617493 -93.800133 6.280946 0.402152
-88.910072 -92.953362 5.622846 0.396765
-88.837639 -93.162979 4.784154 0.396536
-106.444885 -42.204689 8.405133 1.000000
-106.444885 -42.204689 5.837584 1.000000
-106.444878 -42.204697 3.278281 1.000000
-106.444878 -42.204697 0.721719 1.000000
-94.229523 -77.557968 -0.000039 0.232153
-88.899841 -92.982956 -0.000025 0.230692
-86.611633 -99.605408 -0.000019 0.219251
-85.337234 -103.293739 -0.000016 0.212896
-84.523636 -105.648422 -0.000014 0.209210
-83.958160 -107.285011 -0.000012 0.237538
-83.541542 -108.490776 -0.000011 0.196297
-88.402199 -93.924286 7.846430 0.402014
-88.678497 -93.106178 7.227513 0.407843
-88.426407 -93.852615 6.260669 0.397360
-88.816696 -92.696960 5.654360 0.404196
-88.536819 -93.525681 4.733481 0.399496
-105.836021 -42.303185 8.381353 1.000000
-105.836021 -42.303185 5.823338 1.000000
-105.836021 -42.303177 3.273537 1.000000
-105.836021 -42.303177 0.726465 1.000000
-93.960571 -77.466095 -0.000039 0.227270
-88.738701 -92.927902 -0.000025 0.236066
-86.496788 -99.566162 -0.000019 0.226324
-85.248161 -103.263313 -0.000016 0.202819
-84.451019 -105.623619 -0.000014 0.243462
-83.896980 -107.264114 -0.000012 0.198104
-83.488792 -108.472755 -0.000011 0.209102
-88.306961 -93.692909 7.893851 0.397070
nan nan nan 0.000000
-88.448257 -93.264687 6.363400 0.404105
-89.039780 -91.472023 5.837190 0.409400
-88.172844 -94.099358 4.657621 0.393423
-89.262024 -90.798492 4.179229 0.396307
-105.231621 -42.400963 5.809378 1.000000
-105.231621 -42.400955 3.268885 1.000000
-105.231628 -42.400948 0.731114 1.000000
-93.690979 -77.376083 -0.000039 0.230633
-88.577179 -92.873978 -0.000025 0.217995
-86.381660 -99.527725 -0.000019 0.221274
-85.158875 -103.233505 -0.000015 0.231004
-84.378235 -105.599319 -0.000014 0.199791
-83.835663 -107.243645 -0.000012 0.207846
-83.435921 -108.455109 -0.000011 0.199109
-88.033073 -94.007271 7.797718 0.396628
-88.121056 -93.734222 7.060969 0.419608
-88.179665 -93.552345 6.298486 0.399939
-88.843407 -91.492599 5.825258 0.401511
-87.881172 -94.478638 4.605735 0.398932
-104.631577 -42.498024 8.335234 1.000000
-104.631577 -42.498024 5.795707 1.000000
-104.631577 -42.498032 3.264332 1.000000
-104.631577 -42.498024 0.735669 1.000000
-93.420753 -77.287964 -0.000039 0.227964
-88.415283 -92.821182 -0.000025 0.229998
-86.266266 -99.490097 -0.000019 0.232045
-85.069382 -103.204323 -0.000015 0.217576
-84.305275 -105.575523 -0.000014 0.228203
-83.774200 -107.223602 -0.000013 0.197769
-83.382919 -108.437828 -0.000011 0.245114
-87.979172 -93.640106 7.881256 0.396078
-87.585251 -94.892433 6.787499 0.407340
-88.259583 -92.748650 6.442244 0.397086
-87.903984 -93.879143 5.445654 0.400519
-87.763046 -94.327194 4.618214 0.399939
-88.054588 -93.400360 3.945800 0.397604
-104.035820 -42.594391 5.782312 1.000000
-104.035812 -42.594406 3.259872 1.000000
-104.035820 -42.594383 0.740130 1.000000
-93.149933 -77.201744 -0.000039 0.227485
-88.253021 -92.769516 -0.000025 0.214356
-86.150612 -99.453278 -0.000019 0.243402
-84.979691 -103.175758 -0.000016 0.241380
-84.232162 -105.552246 -0.000014 0.198750
-83.712593 -107.203987 -0.000012 0.204435
-83.329811 -108.420914 -0.000011 0.219921
-87.854942 -93.486191 7.908839 0.402884
-88.042801 -92.874092 7.233112 0.407813
nan nan nan 0.000000
-87.704041 -93.977890 5.422864 0.398810
-87.654640 -94.138870 4.635203 0.399298
-87.896339 -93.351311 3.945790 0.403021
-103.444199 -42.690109 5.769197 1.000000
-103.444206 -42.690102 3.255504 1.000000
-103.444206 -42.690086 0.744498 1.000000
-92.878502 -77.117409 -0.000039 0.231698
-88.090401 -92.718994 -0.000025 0.225271
-86.034706 -99.417267 -0.000019 0.232057
-84.889801 -103.147827 -0.000016 0.257632
-84.158875 -105.529472 -0.000014 0.232440
-83.650856 -107.184799 -0.000012 0.247483
-83.276573 -108.404373 -0.000011 0.227198
-87.694199 -93.448944 7.906090 0.415579
-88.439980 -90.956970 7.654254 0.412543
-87.859131 -92.897835 6.394914 0.396078
-87.511589 -94.059097 5.403056 0.396338
-87.930588 -92.659065 4.807331 0.396918
-87.738121 -93.302177 3.945883 0.400900
-102.856659 -42.785156 5.756358 1.000000
-102.856659 -42.785156 3.251225 1.000000
-102.856659 -42.785141 0.748774 1.000000
-92.606506 -77.034958 -0.000039 0.226947
-87.927437 -92.669601 -0.000025 0.226839
-85.918556 -99.382057 -0.000019 0.234426
-84.799721 -103.120529 -0.000016 0.210551
-84.085442 -105.507217 -0.000014 0.197003
-83.588989 -107.166046 -0.000013 0.198690
-83.223228 -108.388199 -0.000011 0.261773
-88.269699 -90.888062 8.562120 0.404608
-87.092667 -94.923340 6.750250 0.396765
nan nan nan 0.000000
-87.473755 -93.616821 5.464382 0.397772
-87.274826 -94.298828 4.605046 0.403174
-88.110413 -91.434143 4.101426 0.406165
-102.273071 -42.879555 5.743786 1.000000
-102.273071 -42.879547 3.247039 1.000000
-102.273071 -42.879547 0.752962 1.000000
-92.333931 -76.954422 -0.000039 0.230142
-87.764130 -92.621338 -0.000025 0.225642
-85.802155 -99.347672 -0.000019 0.223823
-84.709450 -103.093857 -0.000016 0.234115
-84.011848 -105.485474 -0.000014 0.266752
-83.526993 -107.147728 -0.000013 0.268379
-83.169769 -108.372406 -0.000011 0.211532
-87.538147 -92.793640 8.052725 0.393240
-87.108856 -94.304565 6.879645 0.408286
nan nan nan 0.000000
-88.363342 -89.889297 6.032238 0.400900
-101.693359 -42.973328 10.738040 1.000000
-88.169876 -90.570229 4.170847 0.401175
-101.693359 -42.973335 5.731481 1.000000
-101.693359 -42.973335 3.242938 1.000000
-101.693359 -42.973320 0.757062 1.000000
-92.060806 -76.875793 -0.000039 0.227808
-87.600487 -92.574234 -0.000025 0.234510
-85.685524 -99.314087 -0.000019 0.220173
-84.618996 -103.067818 -0.000016 0.203729
-83.938110 -105.464241 -0.000014 0.225857
-83.464867 -107.129845 -0.000012 0.277511
-83.116211 -108.356987 -0.000011 0.214751
-87.274467 -93.114136 7.957597 0.403586
-87.824898 -91.124138 7.582802 0.407355
nan nan nan 0.000000
nan nan nan 0.000000
-101.117409 -43.066490 10.709834 1.000000
-87.761070 -91.354881 4.099848 0.398901
-101.117409 -43.066505 5.719436 1.000000
-101.117409 -43.066498 3.238927 1.000000
-101.117409 -43.066498 0.761074 1.000000
-91.787140 -76.799057 -0.000039 0.231710
-87.436523 -92.528267 -0.000025 0.226683
-85.568657 -99.281319 -0.000019 0.231554
-84.528358 -103.042404 -0.000015 0.205907
-83.864220 -105.443527 -0.000014 0.227820
-83.402618 -107.112396 -0.000013 0.226935
-83.062531 -108.341942 -0.000011 0.235587
-86.804985 -94.219833 7.659444 0.412390
-86.880623 -93.938766 6.942651 0.403113
-87.398788 -92.013153 6.526878 0.383520
-87.317986 -92.313446 5.644315 0.364660
-100.545143 -43.159065 10.682228 1.000000
-100.545135 -43.159073 8.188263 1.000000
-100.545135 -43.159081 5.707645 1.000000
-87.352211 -92.186241 2.404183 0.388632
-87.358162 -92.164139 1.595441 0.366491
-87.334869 -92.250687 0.789860 0.386664
-87.272240 -92.483444 -0.000025 0.233289
-85.451569 -99.249374 -0.000019 0.231219
-84.437553 -103.017624 -0.000015 0.220460
-83.790192 -105.423325 -0.000014 0.238017
-83.340248 -107.095375 -0.000013 0.258494
-83.008759 -108.327263 -0.000011 0.213435
-86.862854 -93.375435 7.867599 0.389471
-87.414604 -91.266487 7.530086 0.406073
-87.190369 -92.123566 6.497733 0.367330
-87.209816 -92.049225 5.678082 0.369436
-87.196106 -92.101631 4.846274 0.371664
-87.186447 -92.138565 4.025552 0.397559
-87.173332 -92.188690 3.211048 0.390860
-87.175323 -92.181091 2.403523 0.402975
-87.181076 -92.159088 1.596105 0.392523
-87.153404 -92.264862 0.792819 0.372259
-87.107643 -92.439766 -0.000025 0.225451
-85.334251 -99.218246 -0.000019 0.231782
-84.346565 -102.993484 -0.000016 0.211568
-83.716019 -105.403641 -0.000014 0.259379
-83.277763 -107.078796 -0.000013 0.202329
-82.954880 -108.312973 -0.000012 0.199253
-86.804527 -92.941071 7.969307 0.408286
-86.672379 -93.460983 7.031100 0.414572
nan nan nan 0.000000
nan nan nan 0.000000
-86.798981 -92.962891 4.738924 0.363745
-99.411270 -43.342491 8.150180 1.000000
-87.025002 -92.073647 3.214701 0.371466
-99.411270 -43.342499 3.227398 1.000000
-99.411270 -43.342506 0.772600 1.000000
-87.012207 -92.124001 0.787851 0.385107
-86.942757 -92.397240 -0.000025 0.235384
-85.216728 -99.187935 -0.000019 0.258901
-84.255424 -102.969978 -0.000016 0.230764
-83.641716 -105.384483 -0.000014 0.249422
-83.215164 -107.062653 -0.000013 0.244551
-82.900902 -108.299049 -0.000011 0.234570
-86.519707 -93.400879 7.840248 0.402121
-86.876350 -91.955544 7.357208 0.390311
-86.507233 -93.451431 6.232938 0.405844
-87.196014 -90.660088 5.877292 0.396536
-86.674774 -92.772438 4.756706 0.398962
-98.849503 -43.433372 8.131759 1.000000
-98.849495 -43.433380 5.673796 1.000000
-98.849495 -43.433395 3.223723 1.000000
-98.849503 -43.433372 0.776277 1.000000
-90.687302 -76.511353 -0.000038 0.230836
-86.777565 -92.355865 -0.000025 0.225139
-85.098991 -99.158455 -0.000019 0.223452
-84.164116 -102.947113 -0.000016 0.244192
-83.567276 -105.365837 -0.000014 0.213219
-83.152458 -107.046944 -0.000013 0.218892
-82.846832 -108.285507 -0.000012 0.210826
-86.920380 -91.027740 8.441579 0.404410
-86.496475 -92.798698 7.160877 0.397955
-86.410637 -93.157333 6.280787 0.405402
-86.480911 -92.863731 5.534604 0.396384
-86.300308 -93.618256 4.651980 0.406561
-86.960541 -90.859955 4.122756 0.402060
-98.291061 -43.523720 5.663003 1.000000
-98.291069 -43.523705 3.220128 1.000000
-98.291069 -43.523697 0.779871 1.000000
-90.411133 -76.444214 -0.000038 0.230788
-86.612099 -92.315651 -0.000025 0.233469
-84.981056 -99.129784 -0.000019 0.226982
-84.072647 -102.924873 -0.000016 0.195028
-83.492714 -105.347717 -0.000014 0.226947
-83.089638 -107.031677 -0.000013 0.223416
-82.792664 -108.272339 -0.000011 0.246550
-86.258949 -93.084373 7.902146 0.396078
-86.521385 -91.953156 7.339863 0.396078
-86.185143 -93.402534 6.227949 0.411795
-86.565857 -91.761482 5.696639 0.409766
-86.171654 -93.460678 4.666229 0.416098
-86.743240 -90.996864 4.107741 0.397238
-97.735855 -43.613525 5.652452 1.000000
-97.735855 -43.613525 3.216615 1.000000
-97.735855 -43.613518 0.783386 1.000000
-90.134483 -76.379005 -0.000038 0.231614
-86.446350 -92.276581 -0.000025 0.234020
-84.862915 -99.101944 -0.000019 0.247495
-83.981026 -102.903282 -0.000016 0.248022
-83.418022 -105.330109 -0.000014 0.253778
-83.026711 -107.016846 -0.000013 0.236521
-82.738411 -108.259552 -0.000012 0.233828
-86.500839 -91.257126 8.361856 0.416876
nan nan nan 0.000000
-86.019844 -93.398239 6.222016 0.407355
-86.499283 -91.264069 5.766376 0.407126
-86.716591 -90.296738 5.035036 0.407309
-97.183823 -43.702812 8.078924 1.000000
-86.185593 -92.660431 3.177063 0.399145
-97.183823 -43.702827 3.213178 1.000000
-97.183823 -43.702820 0.786821 1.000000
-89.857391 -76.315750 -0.000038 0.230190
-86.280334 -92.238678 -0.000025 0.230226
-84.744591 -99.074921 -0.000019 0.234103
-83.889259 -102.882332 -0.000016 0.250392
-83.343208 -105.313034 -0.000014 0.229053
-82.963684 -107.002457 -0.000013 0.260421
-82.684067 -108.247147 -0.000012 0.200450
-86.393768 -90.914902 8.439771 0.396078
-85.993652 -92.755989 7.145697 0.405081
-85.877380 -93.291000 6.235475 0.406195
-85.913162 -93.126358 5.477877 0.413703
-85.754608 -93.855927 4.611349 0.398917
-86.475632 -90.538223 4.139625 0.402701
-85.979736 -92.820023 3.167225 0.408209
-96.634865 -43.791641 3.209821 1.000000
-96.634872 -43.791618 0.790179 1.000000
-89.579865 -76.254410 -0.000038 0.226193
-86.114059 -92.201942 -0.000025 0.215709
-84.626076 -99.048737 -0.000019 0.239202
-83.797348 -102.862022 -0.000016 0.223141
-83.268280 -105.296478 -0.000014 0.207319
-82.900558 -106.988510 -0.000013 0.208372
-82.629639 -108.235115 -0.000012 0.272018
-86.149399 -91.205177 8.355875 0.411032
-85.822090 -92.763611 7.136343 0.405112
nan nan nan 0.000000
-85.675087 -93.463539 5.421583 0.399527
-89.855034 -73.561447 6.993084 0.409888
-85.705887 -93.316917 3.903625 0.406928
-96.088913 -43.879944 5.622211 1.000000
-96.088913 -43.879944 3.206541 1.000000
-96.088913 -43.879951 0.793458 1.000000
-89.301918 -76.195023 -0.000038 0.231782
-85.947533 -92.166351 -0.000025 0.234953
-84.507385 -99.023376 -0.000019 0.226767
-83.705299 -102.842346 -0.000016 0.210730
-83.193237 -105.280441 -0.000014 0.249099
-82.837334 -106.974998 -0.000013 0.208719
-82.575127 -108.223473 -0.000012 0.225618
-85.972939 -91.184074 8.352118 0.401785
-86.070763 -90.701569 7.583369 0.396078
nan nan nan 0.000000
-85.568520 -93.178749 5.459762 0.392828
-85.494408 -93.544312 4.640280 0.407706
-85.458527 -93.721283 3.867053 0.398947
-89.716904 -72.717850 4.171457 0.409461
-95.545891 -43.967796 3.203338 1.000000
-95.545898 -43.967781 0.796662 1.000000
-89.023567 -76.137589 -0.000038 0.227521
-85.780762 -92.131943 -0.000024 0.216295
-84.388512 -98.998840 -0.000019 0.219203
-83.613113 -102.823326 -0.000016 0.252546
-83.118088 -105.264931 -0.000014 0.239788
-82.774025 -106.961929 -0.000013 0.203466
-82.520531 -108.212204 -0.000012 0.199791
nan nan nan 0.000000
-85.354515 -93.424774 6.976323 0.410498
-85.291306 -93.748131 6.132454 0.397482
-85.615891 -92.087730 5.619858 0.402564
-85.591583 -92.212074 4.792775 0.398291
-85.237213 -94.024841 3.839099 0.405982
-89.385345 -72.805534 4.164050 0.400061
-95.005722 -44.055176 3.200209 1.000000
-95.005722 -44.055161 0.799791 1.000000
-88.744820 -76.082092 -0.000038 0.232954
-85.613754 -92.098686 -0.000024 0.219634
-84.269478 -98.975143 -0.000019 0.232368
-83.520798 -102.804939 -0.000016 0.209198
-83.042824 -105.249939 -0.000014 0.210359
-82.710617 -106.949310 -0.000013 0.298407
-82.465866 -108.201317 -0.000012 0.241152
nan nan nan 0.000000
-85.212830 -93.307945 6.995337 0.410163
-85.492279 -91.823471 6.483278 0.396582
-85.493820 -91.815315 5.656130 0.396170
-85.426239 -92.174316 4.793456 0.405447
-85.071266 -94.059959 3.833707 0.402014
-89.073471 -72.799950 4.161432 0.405341
-94.468330 -44.142105 3.197154 1.000000
-94.468323 -44.142097 0.802845 1.000000
-88.465691 -76.028519 -0.000038 0.225834
-85.446518 -92.066597 -0.000025 0.233266
-84.150284 -98.952271 -0.000019 0.248058
-83.428352 -102.787209 -0.000016 0.240231
-82.967468 -105.235481 -0.000014 0.262144
-82.647133 -106.937126 -0.000013 0.291453
-82.411125 -108.190811 -0.000012 0.218521
nan nan nan 0.000000
-85.197655 -92.485329 7.169458 0.383856
nan nan nan 0.000000
-85.440178 -91.145653 5.752370 0.392721
-85.608681 -90.214867 5.018938 0.397360
-88.651718 -73.405380 5.552451 0.413077
-85.154831 -92.721893 3.164039 0.396536
-93.933624 -44.228592 3.194173 1.000000
-93.933617 -44.228615 0.805825 1.000000
-88.186188 -75.976929 -0.000037 0.233050
-85.279053 -92.035683 -0.000025 0.219443
-84.030930 -98.930237 -0.000019 0.224062
-83.335785 -102.770119 -0.000016 0.204698
-82.892006 -105.221550 -0.000014 0.211711
-82.583557 -106.925385 -0.000013 0.194705
-82.356308 -108.180695 -0.000011 0.265962
nan nan nan 0.000000
-85.005341 -92.615982 7.134417 0.407843
-88.588928 -72.000519 10.132956 0.395880
-85.331352 -90.740540 5.808719 0.396323
-85.554871 -89.454681 5.103964 0.399268
-88.336967 -73.449997 5.544340 0.396201
-85.165184 -91.696457 3.213730 0.396078
-93.401558 -44.314674 3.191266 1.000000
-93.401566 -44.314659 0.808734 1.000000
-87.906342 -75.927269 -0.000038 0.229747
-85.111389 -92.005936 -0.000024 0.233002
-83.911423 -98.909027 -0.000019 0.231279
-83.243103 -102.753677 -0.000016 0.198272
-82.816444 -105.208145 -0.000014 0.285828
-82.519905 -106.914093 -0.000013 0.228538
-82.301422 -108.170952 -0.000011 0.223428
nan nan nan 0.000000
-84.842842 -92.581474 7.135874 0.407294
-88.271828 -72.005020 10.122467 0.409064
-88.291443 -71.887344 8.639368 0.400900
-85.365341 -89.446060 5.101283 0.411154
-92.872047 -44.400337 7.954913 1.000000
-85.030922 -91.452835 3.224422 0.393683
-92.872055 -44.400314 3.188432 1.000000
-92.872055 -44.400314 0.811570 1.000000
-87.626144 -75.879593 -0.000037 0.230944
-84.943512 -91.977356 -0.000025 0.235647
-83.791771 -98.888657 -0.000019 0.251289
-83.150314 -102.737885 -0.000015 0.268128
-82.740799 -105.195267 -0.000014 0.212118
-82.456169 -106.903244 -0.000013 0.240171
-82.246468 -108.161598 -0.000012 0.188446
nan nan nan 0.000000
nan nan nan 0.000000
-84.912140 -91.092842 6.596188 0.396002
-84.962685 -90.775894 5.794556 0.396307
-87.689514 -73.677551 6.934698 0.413779
-87.988907 -71.800232 5.673084 0.373831
-87.934258 -72.142929 4.183652 0.379721
-87.978203 -71.867401 2.731930 0.369894
-87.973755 -71.895279 1.268532 0.369757
-87.345634 -75.833832 -0.000037 0.230034
-84.775452 -91.949944 -0.000025 0.231925
-83.671982 -98.869125 -0.000019 0.216654
-83.057411 -102.722733 -0.000016 0.227114
-82.665062 -105.182915 -0.000014 0.236150
-82.392365 -106.892838 -0.000012 0.213614
-82.191452 -108.152626 -0.000012 0.262395
nan nan nan 0.000000
nan nan nan 0.000000
-87.715576 -71.517868 10.194059 0.408835
-84.521339 -92.487312 5.533636 0.394308
-87.464302 -73.167450 6.988689 0.409827
-84.756744 -90.941948 4.081452 0.399420
-91.820435 -44.570442 5.551451 1.000000
-91.820435 -44.570427 3.182970 1.000000
-91.820435 -44.570427 0.817028 1.000000
-87.064804 -75.790070 -0.000037 0.227114
-84.607193 -91.923721 -0.000024 0.222973
-83.552055 -98.850433 -0.000019 0.219754
-82.964401 -102.708229 -0.000016 0.245126
-82.589241 -105.171097 -0.000014 0.216487
-82.328491 -106.882881 -0.000013 0.261785
-82.136375 -108.144043 -0.000012 0.195100
nan nan nan 0.000000
-84.361725 -92.429253 7.152354 0.396353
-87.237953 -72.619492 9.983008 0.398428
-87.193748 -72.923950 8.462347 0.426932
-87.243477 -72.581429 7.051636 0.407385
-87.240501 -72.601913 5.598857 0.405310
-87.578339 -70.275116 4.271733 0.405554
-91.298203 -44.654915 3.180347 1.000000
-91.298203 -44.654915 0.819653 1.000000
-86.783676 -75.748260 -0.000037 0.230692
-84.438759 -91.898666 -0.000024 0.233158
-83.432007 -98.832581 -0.000019 0.232428
-82.871300 -102.694382 -0.000016 0.223536
-82.513344 -105.159805 -0.000014 0.257034
-82.264542 -106.873367 -0.000013 0.254185
-82.081245 -108.135841 -0.000012 0.243259
nan nan nan 0.000000
nan nan nan 0.000000
-84.378204 -91.092209 6.582007 0.396078
-86.954033 -72.436386 8.528969 0.407080
-86.915627 -72.714584 7.031180 0.401999
-87.163681 -70.918015 5.734683 0.414572
-87.247910 -70.307953 4.267861 0.400458
-90.778244 -44.739021 3.177792 1.000000
-90.778244 -44.739006 0.822209 1.000000
-86.502266 -75.708405 -0.000037 0.227330
-84.270157 -91.874786 -0.000024 0.227760
-83.311836 -98.815552 -0.000019 0.247400
-82.778099 -102.681183 -0.000015 0.209880
-82.437363 -105.149048 -0.000014 0.225546
-82.200531 -106.864304 -0.000013 0.220101
-82.026047 -108.128029 -0.000011 0.213435
nan nan nan 0.000000
nan nan nan 0.000000
nan nan nan 0.000000
-86.554413 -73.121490 8.420347 0.400168
-86.648605 -72.402237 7.062698 0.396078
-86.661827 -72.301300 5.616785 0.415824
-90.260513 -44.822777 5.528428 1.000000
-90.260513 -44.822792 3.175303 1.000000
-90.260513 -44.822784 0.824697 1.000000
-86.220581 -75.670509 -0.000036 0.230441
-84.101387 -91.852089 -0.000024 0.217396
-83.191544 -98.799377 -0.000018 0.215685
-82.684814 -102.668633 -0.000016 0.255251
-82.361313 -105.138817 -0.000014 0.258111
-82.136467 -106.855682 -0.000013 0.267171
-81.970810 -108.120590 -0.000012 0.274878
nan nan nan 0.000000
nan nan nan 0.000000
nan nan nan 0.000000
-86.511528 -71.009613 8.730299 0.406149
-86.261375 -73.029091 6.985530 0.406760
-86.247459 -73.141464 5.544152 0.393545
-89.744926 -44.906197 5.521161 1.000000
-89.744926 -44.906181 3.172883 1.000000
-89.744926 -44.906181 0.827117 1.000000
-85.938637 -75.634598 -0.000036 0.231219
-83.932465 -91.830559 -0.000024 0.230010
-83.071144 -98.784035 -0.000019 0.234953
-82.591438 -102.656731 -0.000016 0.210395
-82.285187 -105.129120 -0.000014 0.250643
-82.072334 -106.847511 -0.000013 0.243809
-81.915512 -108.113548 -0.000012 0.220915
nan nan nan 0.000000
nan nan nan 0.000000
nan nan nan 0.000000
nan nan nan 0.000000
-86.128929 -71.554962 7.152081 0.413138
-86.079002 -71.982498 5.636852 0.404517
-89.231438 -44.989258 5.514097 1.000000
-89.231445 -44.989258 3.170527 1.000000
-89.231445 -44.989250 0.829471 1.000000
-85.656448 -75.600632 -0.000036 0.227820
-83.763397 -91.810219 -0.000024 0.217121
-82.950645 -98.769531 -0.000019 0.238902
-82.497986 -102.645493 -0.000015 0.238663
-82.209000 -105.119949 -0.000014 0.224302
-82.008148 -106.839790 -0.000013 0.217504
-81.860168 -108.106888 -0.000012 0.238077
nan nan nan 0.000000
nan nan nan 0.000000
nan nan nan 0.000000
nan nan nan 0.000000
-85.719437 -72.420532 7.047836 0.421942
-85.916107 -70.627991 5.745708 0.388235
-88.719994 -45.071999 5.507231 1.000000
-88.719994 -45.071983 3.168243 1.000000
-88.719994 -45.071983 0.831758 1.000000
-85.374039 -75.568657 -0.000036 0.231387
-83.594193 -91.791061 -0.000024 0.217396
-82.830040 -98.755875 -0.000019 0.228718
-82.404457 -102.634895 -0.000015 0.233792
-82.132751 -105.111313 -0.000014 0.199373
-81.943909 -106.832512 -0.000013 0.249853
-81.804779 -108.100616 -0.000012 0.233086
nan nan nan 0.000000
nan nan nan 0.000000
nan nan nan 0.000000
nan nan nan 0.000000
-85.490921 -71.646881 7.133564 0.409171
-85.610519 -70.481781 5.754985 0.400763
-88.210510 -45.154419 5.500563 1.000000
-88.210510 -45.154404 3.166021 1.000000
-88.210510 -45.154411 0.833980 1.000000
-85.091408 -75.538651 -0.000036 0.224134
-83.424858 -91.773071 -0.000024 0.228335
-82.709351 -98.743065 -0.000018 0.235013
-82.310852 -102.624962 -0.000016 0.213124
-82.056442 -105.103210 -0.000014 0.239429
-81.879623 -106.825684 -0.000013 0.234139
-81.749352 -108.094734 -0.000012 0.203825
nan nan nan 0.000000
nan nan nan 0.000000
nan nan nan 0.000000
nan nan nan 0.000000
-85.139656 -72.047623 7.083702 0.401251
-87.702942 -45.236504 7.831819 1.000000
-87.702942 -45.236519 5.494087 1.000000
-87.702950 -45.236526 3.163863 1.000000
-87.702950 -45.236526 0.836136 1.000000
-84.808571 -75.510620 -0.000036 0.227234
-83.255402 -91.756279 -0.000024 0.221022
-82.588570 -98.731094 -0.000018 0.229185
-82.217186 -102.615669 -0.000016 0.276254
-81.980080 -105.095642 -0.000014 0.247639
-81.815292 -106.819313 -0.000013 0.212310
-81.693878 -108.089233 -0.000011 0.219550
nan nan nan 0.000000
nan nan nan 0.000000
nan nan nan 0.000000
nan nan nan 0.000000
-87.197220 -45.318314 10.167429 1.000000
-87.197212 -45.318336 7.821337 1.000000
-87.197212 -45.318336 5.487805 1.000000
-87.197212 -45.318329 3.161772 1.000000
-87.197212 -45.318329 0.838228 1.000000
-84.525543 -75.484558 -0.000036 0.227461
-83.085831 -91.740669 -0.000023 0.220233
-82.467705 -98.719963 -0.000018 0.237394
-82.123451 -102.607040 -0.000015 0.206936
-81.903671 -105.088608 -0.000014 0.197912
-81.750916 -106.813385 -0.000013 0.265459
-81.638374 -108.084122 -0.000011 0.209234
nan nan nan 0.000000
nan nan nan 0.000000
nan nan nan 0.000000
nan nan nan 0.000000
-86.693283 -45.399849 10.153172 1.000000
-86.693283 -45.399849 7.811175 1.000000
-86.693283 -45.399857 5.481718 1.000000
-86.693283 -45.399849 3.159745 1.000000
-86.693283 -45.399849 0.840256 1.000000
-84.242348 -75.460480 -0.000036 0.231135
-82.916153 -91.726242 -0.000023 0.222028
-82.346771 -98.709671 -0.000019 0.223739
-82.029655 -102.599068 -0.000015 0.203298
-81.827209 -105.082108 -0.000014 0.225032
-81.686501 -106.807907 -0.000012 0.189906
-81.582832 -108.079399 -0.000011 0.212525
nan nan nan 0.000000
nan nan nan 0.000000
nan nan nan 0.000000
nan nan nan 0.000000
-86.191078 -45.481094 10.139357 1.000000
-86.191078 -45.481094 7.801330 1.000000
-86.191078 -45.481079 5.475821 1.000000
-86.191078 -45.481094 3.157780 1.000000
-86.191078 -45.481094 0.842220 1.000000
-83.958992 -75.438354 -0.000036 0.234331
-82.746376 -91.712997 -0.000023 0.223524
-82.225769 -98.700233 -0.000018 0.232440
-81.935814 -102.591743 -0.000015 0.210634
-81.750702 -105.076134 -0.000013 0.202065
-81.622047 -106.802872 -0.000013 0.252630
-81.527252 -108.075058 -0.000012 0.200366
nan nan nan 0.000000
nan nan nan 0.000000
nan nan nan 0.000000
nan nan nan 0.000000
-85.690559 -45.562065 10.125990 1.000000
-85.690559 -45.562057 7.791800 1.000000
-85.690559 -45.562050 5.470111 1.000000
-85.690559 -45.562050 3.155879 1.000000
-85.690559 -45.562057 0.844122 1.000000
-83.675484 -75.418243 -0.000035 0.234235
-82.576523 -91.700928 -0.000024 0.221681
-82.104698 -98.691643 -0.000018 0.208157
-81.841919 -102.585075 -0.000015 0.248860
-81.674164 -105.070702 -0.000014 0.224182
-81.557564 -106.798294 -0.000012 0.205751
-81.471657 -108.071114 -0.000011 0.233409
nan nan nan 0.000000
nan nan nan 0.000000
nan nan nan 0.000000
nan nan nan 0.000000
-85.191650 -45.642761 10.113061 1.000000
-85.191650 -45.642761 7.782584 1.000000
-85.191650 -45.642769 5.464589 1.000000
-85.191650 -45.642769 3.154039 1.000000
-85.191650 -45.642769 0.845962 1.000000
-83.391846 -75.400108 -0.000035 0.228490
-82.406578 -91.690063 -0.000023 0.227581
-81.983574 -98.683891 -0.000018 0.236796
-81.747986 -102.579071 -0.000015 0.233385
-81.597580 -105.065804 -0.000013 0.248752
-81.493042 -106.794174 -0.000012 0.216367
-81.416023 -108.067558 -0.000011 0.204148
nan nan nan 0.000000
nan nan nan 0.000000
nan nan nan 0.000000
nan nan nan 0.000000
-84.694305 -45.723213 10.100564 1.000000
-84.694298 -45.723221 7.773680 1.000000
-84.694298 -45.723221 5.459253 1.000000
-84.694298 -45.723221 3.152261 1.000000
-84.694298 -45.723221 0.847739 1.000000
-83.108086 -75.383926 -0.000035 0.229268
-82.236572 -91.680374 -0.000024 0.225822
-81.862404 -98.676987 -0.000018 0.233134
-81.654007 -102.573715 -0.000015 0.208372
-81.520966 -105.061432 -0.000014 0.217839
-81.428497 -106.790489 -0.000012 0.234821
-81.360374 -108.064384 -0.000011 0.224302
nan nan nan 0.000000
nan nan nan 0.000000
nan nan nan 0.000000
nan nan nan 0.000000
-84.198456 -45.803436 10.088499 1.000000
-84.198456 -45.803429 7.765079 1.000000
-84.198456 -45.803429 5.454103 1.000000
-84.198456 -45.803429 3.150544 1.000000
-84.198456 -45.803429 0.849455 1.000000
-82.824219 -75.369751 -0.000034 0.230549
-82.066498 -91.671875 -0.000022 0.225427
-81.741180 -98.670929 -0.000018 0.220999
-81.559998 -102.569016 -0.000015 0.209665
-81.444328 -105.057602 -0.000014 0.218940
-81.363930 -106.787262 -0.000013 0.222159
-81.304703 -108.061600 -0.000011 0.225343
nan nan nan 0.000000
nan nan nan 0.000000
nan nan nan 0.000000
nan nan nan 0.000000
-83.704063 -45.883408 10.076867 1.000000
-83.704063 -45.883400 7.756787 1.000000
-83.704063 -45.883408 5.449133 1.000000
-83.704063 -45.883392 3.148891 1.000000
-83.704063 -45.883392 0.851109 1.000000
-82.540260 -75.357559 -0.000034 0.222650
-81.896362 -91.664566 -0.000023 0.226073
-81.619919 -98.665726 -0.000018 0.215242
-81.465958 -102.564980 -0.000015 0.220963
-81.367661 -105.054306 -0.000014 0.222842
-81.299347 -106.784492 -0.000012 0.204938
-81.249008 -108.059204 -0.000011 0.229891
nan nan nan 0.000000
nan nan nan 0.000000
nan nan nan 0.000000
nan nan nan 0.000000
-83.211067 -45.963150 10.065657 1.000000
-83.211067 -45.963158 7.748798 1.000000
-83.211067 -45.963150 5.444347 1.000000
-83.211067 -45.963158 3.147296 1.000000
-83.211067 -45.963158 0.852704 1.000000
-82.256218 -75.347328 -0.000034 0.226994
-81.726189 -91.658447 -0.000023 0.229520
-81.498627 -98.661354 -0.000018 0.227509
-81.371887 -102.561584 -0.000015 0.212023
-81.290977 -105.051552 -0.000013 0.215182
-81.234734 -106.782166 -0.000012 0.191725
-81.193306 -108.057205 -0.000011 0.224433
nan nan nan 0.000000
nan nan nan 0.000000
nan nan nan 0.000000
nan nan nan 0.000000
-82.719421 -46.042686 10.054872 1.000000
-82.719421 -46.042694 7.741110 1.000000
-82.719421 -46.042694 5.439741 1.000000
-82.719414 -46.042679 3.145761 1.000000
-82.719414 -46.042679 0.854238 1.000000
-81.972122 -75.339096 -0.000034 0.236258
-81.555969 -91.653503 -0.000022 0.215421
-81.377304 -98.657829 -0.000018 0.234283
-81.277794 -102.558861 -0.000015 0.210981
-81.214272 -105.049324 -0.000013 0.224361
-81.170120 -106.780289 -0.000012 0.196022
-81.137589 -108.055588 -0.000011 0.204866
nan nan nan 0.000000
nan nan nan 0.000000
nan nan nan 0.000000
nan nan nan 0.000000
-82.229050 -46.122002 10.044508 1.000000
-82.229050 -46.122009 7.733726 1.000000
-82.229050 -46.122002 5.435315 1.000000
-82.229057 -46.122009 3.144287 1.000000
-82.229057 -46.122009 0.855713 1.000000
-81.687973 -75.332832 -0.000034 0.234319
-81.385727 -91.649757 -0.000022 0.224541
-81.255966 -98.655167 -0.000018 0.225977
-81.183693 -102.556793 -0.000015 0.239357
-81.137550 -105.047638 -0.000013 0.222016
-81.105484 -106.778870 -0.000012 0.253168
-81.081856 -108.054359 -0.000011 0.202436
nan nan nan 0.000000
nan nan nan 0.000000
nan nan nan 0.000000
nan nan nan 0.000000
-81.739922 -46.201141 10.034559 1.000000
-81.739922 -46.201141 7.726634 1.000000
-81.739922 -46.201149 5.431067 1.000000
-81.739922 -46.201149 3.142872 1.000000
-81.739922 -46.201149 0.857128 1.000000
-81.403778 -75.328560 -0.000034 0.225738
-81.215454 -91.647209 -0.000022 0.232763
-81.134605 -98.653343 -0.000017 0.216546
-81.089569 -102.555374 -0.000015 0.223201
-81.060822 -105.046486 -0.000013 0.210850
-81.040840 -106.777893 -0.000012 0.193568
-81.026123 -108.053520 -0.000011 0.239130
nan nan nan 0.000000
nan nan nan 0.000000
nan nan nan 0.000000
nan nan nan 0.000000
-81.251984 -46.280067 10.025027 1.000000
-81.251984 -46.280060 7.719842 1.000000
-81.251984 -46.280075 5.426996 1.000000
-81.251976 -46.280067 3.141516 1.000000
-81.251976 -46.280067 0.858484 1.000000
-81.119568 -75.326279 -0.000034 0.226839
-81.045174 -91.645828 -0.000022 0.221597
-81.013237 -98.652367 -0.000017 0.229484
-80.995445 -102.554619 -0.000014 0.210168
-80.984093 -105.045868 -0.000013 0.223955
-80.976196 -106.777374 -0.000012 0.194202
-80.970383 -108.053070 -0.000011 0.199528
nan nan nan 0.000000
nan nan nan 0.000000
nan nan nan 0.000000
nan nan nan 0.000000
-80.765167 -46.358826 10.015906 1.000000
-80.765167 -46.358826 7.713340 1.000000
-80.765167 -46.358818 5.423101 1.000000
-80.765167 -46.358803 3.140220 1.000000
-80.765167 -46.358803 0.859780 1.000000
-80.835350 -75.325989 -0.000034 0.235587
-80.874886 -91.645660 -0.000022 0.227952
-80.891861 -98.652237 -0.000017 0.242983
-80.901314 -102.554520 -0.000015 0.230956
-80.907356 -105.045792 -0.000013 0.216618
-80.911545 -106.777306 -0.000012 0.200629
-80.914642 -108.053017 -0.000011 0.194418
nan nan nan 0.000000
nan nan nan 0.000000
nan nan nan 0.000000
nan nan nan 0.000000
-80.279442 -46.437393 10.007197 1.000000
-80.279442 -46.437393 7.707134 1.000000
-80.279442 -46.437393 5.419384 1.000000
-80.279442 -46.437401 3.138979 1.000000
-80.279442 -46.437408 0.861019 1.000000
-80.551140 -75.327667 -0.000034 0.223021
-80.704605 -91.646667 -0.000022 0.244168
-80.770493 -98.652954 -0.000017 0.220723
-80.807190 -102.555077 -0.000015 0.234020
-80.830620 -105.046234 -0.000013 0.242325
-80.846901 -106.777695 -0.000012 0.212453
-80.858894 -108.053345 -0.000011 0.227677
nan nan nan 0.000000
nan nan nan 0.000000
nan nan nan 0.000000
nan nan nan 0.000000
-79.794739 -46.515808 9.998899 1.000000
-79.794739 -46.515808 7.701217 1.000000
-79.794739 -46.515808 5.415838 1.000000
-79.794739 -46.515800 3.137801 1.000000
-79.794739 -46.515800 0.862200 1.000000
-80.266937 -75.331352 -0.000033 0.224625
-80.534332 -91.648865 -0.000022 0.225678
-80.649132 -98.654526 -0.000017 0.236952
-80.713066 -102.556290 -0.000015 0.269241
-80.753891 -105.047234 -0.000013 0.242062
-80.782257 -106.778526 -0.000011 0.239034
-80.803162 -108.054062 -0.000011 0.229998
nan nan nan 0.000000
nan nan nan 0.000000
nan nan nan 0.000000
nan nan nan 0.000000
-79.311035 -46.594048 9.991006 1.000000
-79.311035 -46.594048 7.695591 1.000000
-79.311028 -46.594055 5.412467 1.000000
-79.311035 -46.594048 3.136678 1.000000
-79.311035 -46.594048 0.863323 1.000000
-79.982780 -75.336990 -0.000033 0.233098
-80.364082 -91.652252 -0.000022 0.230250
-80.527786 -98.656937 -0.000017 0.216953
-80.618958 -102.558167 -0.000014 0.235480
-80.677170 -105.048759 -0.000013 0.260480
-80.717621 -106.779808 -0.000011 0.192467
-80.747429 -108.055168 -0.000011 0.218737
nan nan nan 0.000000
nan nan nan 0.000000
nan nan nan 0.000000
nan nan nan 0.000000
-78.828239 -46.672142 9.983518 1.000000
-78.828239 -46.672142 7.690252 1.000000
-78.828239 -46.672150 5.409270 1.000000
-78.828239 -46.672157 3.135611 1.000000
-78.828239 -46.672157 0.864388 1.000000
-79.698662 -75.344635 -0.000033 0.233996
-80.193855 -91.656815 -0.000022 0.240530
-80.406456 -98.660194 -0.000017 0.231351
-80.524864 -102.560692 -0.000014 0.213770
-80.600456 -105.050819 -0.000013 0.250092
-80.653000 -106.781548 -0.000012 0.270916
-80.691704 -108.056671 -0.000011 0.213531
nan nan nan 0.000000
nan nan nan 0.000000
nan nan nan 0.000000
nan nan nan 0.000000
-78.346336 -46.750099 9.976427 1.000000
-78.346329 -46.750107 7.685199 1.000000
-78.346329 -46.750114 5.406241 1.000000
-78.346329 -46.750122 3.134604 1.000000
-78.346329 -46.750122 0.865396 1.000000
-79.414604 -75.354248 -0.000033 0.227198
-80.023659 -91.662582 -0.000021 0.225211
-80.285149 -98.664299 -0.000017 0.214632
-80.430786 -102.563873 -0.000014 0.232428
-80.523766 -105.053413 -0.000013 0.218964
-80.588387 -106.783737 -0.000012 0.227868
-80.635994 -108.058556 -0.000011 0.220759
nan nan nan 0.000000
nan nan nan 0.000000
nan nan nan 0.000000
nan nan nan 0.000000
-77.865250 -46.827934 9.969739 1.000000
-77.865257 -46.827934 7.680434 1.000000
-77.865250 -46.827934 5.403387 1.000000
-77.865250 -46.827942 3.133652 1.000000
-77.865250 -46.827942 0.866348 1.000000
-79.130615 -75.365845 -0.000032 0.226839
-79.853516 -91.669540 -0.000021 0.227784
-80.163879 -98.669250 -0.000017 0.243725
-80.336739 -102.567719 -0.000014 0.235444
-80.447090 -105.056541 -0.000013 0.241452
-80.523788 -106.786369 -0.000012 0.228802
-80.580299 -108.060829 -0.000011 0.217480
nan nan nan 0.000000
nan nan nan 0.000000
nan nan nan 0.000000
nan nan nan 0.000000
-77.384972 -46.905624 9.963452 1.000000
-77.384972 -46.905632 7.675951 1.000000
-77.384972 -46.905632 5.400702 1.000000
-77.384972 -46.905617 3.132757 1.000000
-77.384972 -46.905617 0.867242 1.000000
-78.846725 -75.379440 -0.000032 0.232165
-79.683426 -91.677673 -0.000021 0.238759
-80.042648 -98.675056 -0.000016 0.229460
-80.242722 -102.572220 -0.000014 0.215050
-80.370445 -105.060211 -0.000013 0.215577
-80.459221 -106.789459 -0.000011 0.241499
-80.524620 -108.063492 -0.000010 0.190971
nan nan nan 0.000000
nan nan nan 0.000000
nan nan nan 0.000000
nan nan nan 0.000000
-76.905403 -46.983192 9.957563 1.000000
-76.905403 -46.983215 7.671753 1.000000
-76.905403 -46.983208 5.398186 1.000000
-76.905403 -46.983192 3.131921 1.000000
-76.905403 -46.983192 0.868080 1.000000
-78.562927 -75.394989 -0.000032 0.222435
-79.513390 -91.686996 -0.000021 0.229328
-79.921455 -98.681702 -0.000017 0.231578
-80.148727 -102.577370 -0.000014 0.236605
-80.293823 -105.064415 -0.000013 0.199145
-80.394669 -106.792999 -0.000012 0.196249
-80.468964 -108.066544 -0.000011 0.232165
nan nan nan 0.000000
nan nan nan 0.000000
nan nan nan 0.000000
nan nan nan 0.000000
-76.426537 -47.060661 9.952067 1.000000
-76.426537 -47.060677 7.667837 1.000000
-76.426537 -47.060669 5.395841 1.000000
-76.426537 -47.060677 3.131137 1.000000
-76.426537 -47.060677 0.868863 1.000000
-78.279251 -75.412560 -0.000031 0.228849
-79.343430 -91.697510 -0.000021 0.229220
-79.800323 -98.689194 -0.000016 0.219263
-80.054779 -102.583183 -0.000014 0.238101
-80.217232 -105.069153 -0.000013 0.230860
-80.330139 -106.796997 -0.000011 0.255095
-80.413330 -108.069984 -0.000010 0.204758
nan nan nan 0.000000
nan nan nan 0.000000
nan nan nan 0.000000
nan nan nan 0.000000
-75.948296 -47.138039 9.946967 1.000000
-75.948296 -47.138039 7.664203 1.000000
-75.948296 -47.138039 5.393661 1.000000
-75.948296 -47.138039 3.130412 1.000000
-75.948296 -47.138039 0.869587 1.000000
-77.995705 -75.432083 -0.000031 0.231171
-79.173546 -91.709213 -0.000021 0.236389
-79.679230 -98.697533 -0.000016 0.248237
-79.960876 -102.589645 -0.000014 0.227808
-80.140678 -105.074425 -0.000012 0.214141
-80.265648 -106.801430 -0.000011 0.199205
-80.357719 -108.073814 -0.000011 0.229113
nan nan nan 0.000000
nan nan nan 0.000000
nan nan nan 0.000000
nan nan nan 0.000000
-75.470650 -47.215294 9.942260 1.000000
-75.470642 -47.215302 7.660849 1.000000
-75.470650 -47.215302 5.391652 1.000000
-75.470642 -47.215302 3.129743 1.000000
-75.470642 -47.215302 0.870256 1.000000
-77.712296 -75.453583 -0.000031 0.234546
-79.003746 -91.722092 -0.000021 0.234163
-79.558205 -98.706711 -0.000016 0.226348
-79.867012 -102.596764 -0.000014 0.238208
-80.064163 -105.080231 -0.000012 0.235922
-80.201180 -106.806328 -0.000011 0.256615
-80.302132 -108.078033 -0.000010 0.209055
nan nan nan 0.000000
nan nan nan 0.000000
nan nan nan 0.000000
nan nan nan 0.000000
-74.993546 -47.292465 9.937952 1.000000
-77.525192 -76.589684 5.246589 0.354620
-74.993546 -47.292480 5.389810 1.000000
-74.993546 -47.292473 3.129129 1.000000
-74.993546 -47.292473 0.870870 1.000000
-77.429054 -75.477066 -0.000031 0.230609
-78.834045 -91.736176 -0.000021 0.241499
-79.437256 -98.716743 -0.000016 0.209904
-79.773209 -102.604546 -0.000014 0.222650
-79.987686 -105.086571 -0.000012 0.246406
-80.136757 -106.811668 -0.000011 0.265507
-80.246582 -108.082642 -0.000010 0.185514
nan nan nan 0.000000
nan nan nan 0.000000
nan nan nan 0.000000
nan nan nan 0.000000
-74.516930 -47.369583 9.934024 1.000000
-77.245522 -76.567818 5.250428 0.455756
-74.516937 -47.369583 5.388135 1.000000
-74.516937 -47.369576 3.128572 1.000000
-74.516937 -47.369576 0.871428 1.000000
-77.145973 -75.502533 -0.000031 0.229352
-78.664436 -91.751427 -0.000020 0.223679
-79.316368 -98.727615 -0.000016 0.252713
-79.679459 -102.612976 -0.000013 0.232081
-79.911255 -105.093445 -0.000012 0.211364
-80.072365 -106.817459 -0.000011 0.234462
-80.191063 -108.087631 -0.000010 0.236772
nan nan nan 0.000000
nan nan nan 0.000000
nan nan nan 0.000000
nan nan nan 0.000000
-74.040779 -47.446609 9.930490 1.000000
-77.071823 -77.607071 5.166987 0.391897
-74.040779 -47.446617 5.386625 1.000000
-74.040771 -47.446609 3.128069 1.000000
-74.040771 -47.446609 0.871931 1.000000
-76.863083 -75.529984 -0.000031 0.229197
-78.494949 -91.767860 -0.000020 0.233577
-79.195564 -98.739334 -0.000016 0.233289
-79.585770 -102.622070 -0.000013 0.243917
-79.834877 -105.100845 -0.000012 0.253336
-80.008018 -106.823700 -0.000011 0.218246
-80.135582 -108.093010 -0.000010 0.209497
nan nan nan 0.000000
nan nan nan 0.000000
nan nan nan 0.000000
nan nan nan 0.000000
-73.565010 -47.523567 9.927347 1.000000
-76.736511 -77.011017 5.218443 0.385229
-73.565010 -47.523575 5.385285 1.000000
-73.565010 -47.523575 3.127623 1.000000
-73.565010 -47.523575 0.872378 1.000000
-76.580383 -75.559387 -0.000031 0.221489
-78.325577 -91.785477 -0.000020 0.240291
-79.074844 -98.751892 -0.000016 0.217767
-79.492142 -102.631805 -0.000013 0.230716
-79.758553 -105.108795 -0.000012 0.250727
-79.943718 -106.830383 -0.000011 0.238759
-80.080139 -108.098778 -0.000010 0.248225
nan nan nan 0.000000
nan nan nan 0.000000
nan nan nan 0.000000
nan nan nan 0.000000
-76.198441 -74.722977 6.783970 0.415946
-76.544151 -77.739105 5.160848 0.390249
-76.447968 -76.899979 3.935291 0.423926
-73.089607 -47.600487 3.127230 1.000000
-73.089607 -47.600487 0.872770 1.000000
-76.297905 -75.590775 -0.000030 0.229627
-78.156326 -91.804283 -0.000020 0.234438
-78.954216 -98.765289 -0.000016 0.225666
-79.398590 -102.642197 -0.000013 0.263891
-79.682289 -105.117264 -0.000012 0.247735
-79.879463 -106.837524 -0.000011 0.209090
-80.024742 -108.104935 -0.000010 0.223667
nan nan nan 0.000000
nan nan nan 0.000000
nan nan nan 0.000000
-76.311569 -78.055687 7.675636 0.409735
-75.935387 -74.964661 6.759911 0.399969
-75.970772 -75.255402 5.368612 0.393378
-76.198792 -77.129013 3.925553 0.363821
-72.614502 -47.677330 3.126894 1.000000
-72.614502 -47.677330 0.873107 1.000000
-76.015648 -75.624123 -0.000030 0.231303
-77.987213 -91.824265 -0.000020 0.244456
-78.833679 -98.779541 -0.000015 0.225403
