# This PCD file was generated using the MATLAB® pcwrite function
# from Computer Vision Toolbox®.
# .PCD v.7 - Point Cloud Data file format
VERSION .7
FIELDS x y z intensity
SIZE 4 4 4 4
TYPE F F F F
COUNT 1 1 1 1
WIDTH 1180
HEIGHT 1
VIEWPOINT 0 0 0 1 0 0 0
POINTS 1180
DATA ascii
123.719414 -298.110077 -0.000016 0.224481
124.526657 -301.928009 -0.000008 0.336202
125.042000 -304.365387 -0.000006 0.343267
125.400185 -306.059448 -0.000004 0.338384
125.664085 -307.307556 -0.000003 0.333989
119.199333 -275.362549 12.163965 0.878264
119.199799 -275.364838 10.763250 0.759579
119.200241 -275.367004 9.382376 0.628397
119.200684 -275.369141 8.018000 0.770047
119.201126 -275.371277 6.666960 0.769177
119.201553 -275.373413 5.326200 0.767895
119.201981 -275.375519 3.992759 0.693034
119.202415 -275.377625 2.663744 0.714229
119.202850 -275.379761 1.336292 0.742535
119.172546 -275.231323 0.000009 0.231458
122.436775 -291.220520 -0.000009 0.225810
123.838242 -298.085388 -0.000017 0.226109
124.618813 -301.908844 -0.000009 0.338582
125.117134 -304.349762 -0.000006 0.341726
125.463486 -306.046295 -0.000004 0.337575
125.718658 -307.296234 -0.000003 0.337911
119.454071 -275.189941 12.193804 0.727489
119.454529 -275.192261 10.788978 0.695155
119.454956 -275.194427 9.404048 0.730953
119.455383 -275.196625 8.035667 0.706462
119.455811 -275.198761 6.680661 0.743923
119.456230 -275.200897 5.335963 0.703151
119.456650 -275.203033 3.998608 0.749828
119.457069 -275.205139 2.665692 0.701961
119.457489 -275.207275 1.334344 0.696620
119.451218 -275.175415 0.000008 0.227353
122.603737 -291.187042 -0.000010 0.223117
123.957245 -298.061493 -0.000018 0.224601
124.711105 -301.890320 -0.000009 0.337957
125.192375 -304.334686 -0.000006 0.340810
125.526871 -306.033600 -0.000004 0.335821
125.773315 -307.285278 -0.000003 0.331609
119.710320 -275.016357 12.224322 0.923873
119.710754 -275.018646 10.815291 0.753277
119.711174 -275.020844 9.426212 0.708995
119.711594 -275.023041 8.053734 0.743999
119.711998 -275.025208 6.694670 0.743709
119.712410 -275.027374 5.345948 0.743954
119.712814 -275.029510 4.004590 0.754131
119.713226 -275.031677 2.667684 0.708812
119.713631 -275.033813 1.332352 0.764767
119.730263 -275.121490 0.000008 0.231291
122.770927 -291.154724 -0.000010 0.237610
124.076416 -298.038483 -0.000019 0.220616
124.803520 -301.872467 -0.000009 0.340185
125.267715 -304.320129 -0.000006 0.338903
125.590340 -306.021332 -0.000004 0.334813
125.828041 -307.274689 -0.000003 0.341482
119.968124 -274.841675 12.255527 0.924865
119.968544 -274.843994 10.842192 0.728573
119.968948 -274.846222 9.448873 0.770336
119.969353 -274.848419 8.072206 0.766583
119.969749 -274.850616 6.708993 0.759793
119.970146 -274.852783 5.356156 0.737331
119.970543 -274.854950 4.010705 0.764218
119.970932 -274.857117 2.669721 0.762829
119.971329 -274.859253 1.330315 0.753353
120.009682 -275.069489 0.000007 0.230286
122.938339 -291.123566 -0.000011 0.222219
124.195740 -298.016266 -0.000019 0.222949
124.896065 -301.855255 -0.000009 0.333623
125.343155 -304.306091 -0.000006 0.339940
125.653900 -306.009491 -0.000004 0.336980
125.882843 -307.264496 -0.000002 0.344884
120.227509 -274.665955 12.287420 0.925658
120.227921 -274.668274 10.869690 0.727291
120.228310 -274.670532 9.472036 0.721721
120.228699 -274.672729 8.091089 0.774853
120.229080 -274.674927 6.723637 0.728145
120.229469 -274.677124 5.366590 0.715236
120.229851 -274.679321 4.016957 0.711681
120.230232 -274.681488 2.671803 0.758434
120.230614 -274.683655 1.328234 0.699748
120.289452 -275.019470 0.000007 0.232954
123.105965 -291.093597 -0.000011 0.223296
124.315216 -297.994904 -0.000020 0.230884
124.988724 -301.838684 -0.000009 0.341070
125.418694 -304.292572 -0.000006 0.342107
125.717537 -305.998108 -0.000004 0.329503
125.937714 -307.254669 -0.000002 0.343709
120.488533 -274.489105 12.320022 0.924987
120.488922 -274.491455 10.897799 0.780331
120.489304 -274.493713 9.495712 0.736049
120.489677 -274.495941 8.110388 0.696590
120.490051 -274.498169 6.738601 0.674006
120.490425 -274.500366 5.377255 0.764172
120.490791 -274.502563 4.023347 0.722591
120.491165 -274.504761 2.673932 0.708980
120.491531 -274.506958 1.326106 0.702922
120.569565 -274.971375 0.000006 0.229005
123.273796 -291.064758 -0.000012 0.237299
124.434837 -297.974365 -0.000020 0.208313
125.081497 -301.822754 -0.000008 0.339269
125.494324 -304.279602 -0.000006 0.341466
125.781258 -305.987183 -0.000004 0.336156
125.992653 -307.245270 -0.000003 0.340780
120.751221 -274.311127 12.353333 0.682063
120.751602 -274.313477 10.926518 0.794812
120.751968 -274.315765 9.519905 0.711437
120.752335 -274.317993 8.130110 0.705943
120.752686 -274.320251 6.753895 0.714565
120.753052 -274.322479 5.388155 0.738048
120.753403 -274.324677 4.029875 0.711559
120.753761 -274.326904 2.676105 0.722881
120.754120 -274.329102 1.323931 0.728283
120.850014 -274.925232 0.000006 0.233804
123.441826 -291.037140 -0.000013 0.219514
124.554596 -297.954651 -0.000021 0.238005
125.174377 -301.807495 -0.000008 0.335286
125.570045 -304.267151 -0.000006 0.334722
125.845047 -305.976685 -0.000004 0.343221
126.047653 -307.236206 -0.000002 0.332036
121.015633 -274.131958 12.387373 0.908232
121.015999 -274.134338 10.955865 0.697215
121.016350 -274.136658 9.544628 0.785168
121.016701 -274.138916 8.150262 0.777600
121.017044 -274.141174 6.769521 0.806836
121.017395 -274.143402 5.399292 0.739742
121.017731 -274.145630 4.036547 0.792203
121.018082 -274.147858 2.678328 0.796887
121.018417 -274.150085 1.321709 0.766751
121.130775 -274.881073 0.000005 0.232272
123.610039 -291.010681 -0.000014 0.218437
124.674492 -297.935791 -0.000021 0.226923
125.267365 -301.792877 -0.000009 0.340978
125.645851 -304.255219 -0.000006 0.332448
125.908913 -305.966644 -0.000004 0.338979
126.102722 -307.227539 -0.000002 0.324895
121.281799 -273.951630 12.422143 0.926650
121.282150 -273.954041 10.985845 0.792599
121.282486 -273.956360 9.569880 0.809674
121.282822 -273.958618 8.170849 0.742016
121.283150 -273.960907 6.785485 0.741451
121.283485 -273.963165 5.410667 0.796124
121.283813 -273.965424 4.043363 0.799115
121.284149 -273.967651 2.680597 0.724117
121.284477 -273.969910 1.319440 0.748028
121.411835 -274.838837 0.000004 0.223512
123.778435 -290.985382 -0.000014 0.237071
124.794518 -297.917786 -0.000022 0.215888
125.360443 -301.778900 -0.000009 0.343236
125.721733 -304.243835 -0.000006 0.339864
125.972839 -305.957062 -0.000004 0.334691
126.157845 -307.219269 -0.000002 0.340795
121.549767 -273.770081 12.457661 0.925444
121.550102 -273.772491 11.016465 0.746090
121.550430 -273.774841 9.595673 0.686870
121.550743 -273.777100 8.191875 0.669383
121.551064 -273.779419 6.801790 0.681178
121.551384 -273.781708 5.422287 0.787411
121.551704 -273.783966 4.050324 0.723857
121.552017 -273.786224 2.682915 0.694484
121.552330 -273.788513 1.317122 0.696590
121.693192 -274.798584 0.000004 0.231638
123.947014 -290.961273 -0.000015 0.214308
124.914673 -297.900574 -0.000022 0.208971
125.453629 -301.765564 -0.000009 0.330358
125.797699 -304.232971 -0.000006 0.336660
126.036835 -305.947906 -0.000004 0.341650
126.213028 -307.211395 -0.000002 0.338613
121.819572 -273.587280 12.493934 0.771084
121.819893 -273.589722 11.047738 0.741131
121.820206 -273.592072 9.622019 0.759228
121.820511 -273.594360 8.213348 0.748882
121.820816 -273.596680 6.818441 0.739971
121.821121 -273.598999 5.434155 0.769070
121.821426 -273.601257 4.057433 0.775647
121.821724 -273.603546 2.685283 0.717556
121.822029 -273.605835 1.314754 0.725292
121.974808 -274.760315 0.000003 0.224134
124.115738 -290.938324 -0.000016 0.229077
125.034935 -297.884247 -0.000023 0.245449
125.546898 -301.752899 -0.000009 0.341268
125.873734 -304.222626 -0.000006 0.338018
126.100899 -305.939209 -0.000004 0.333654
126.268257 -307.203888 -0.000002 0.326146
122.091286 -273.403198 12.530972 0.898848
122.091583 -273.405640 11.079675 0.779797
122.091888 -273.408020 9.648920 0.724758
122.092178 -273.410309 8.235278 0.749126
122.092468 -273.412659 6.835447 0.774227
122.092758 -273.414978 5.446273 0.767163
122.093048 -273.417297 4.064693 0.774762
122.093338 -273.419586 2.687702 0.785336
122.093628 -273.421875 1.312337 0.788937
122.256699 -274.723999 0.000003 0.229843
124.284637 -290.916565 -0.000016 0.230980
125.155312 -297.868713 -0.000024 0.229125
125.640259 -301.740875 -0.000008 0.341588
125.949844 -304.212830 -0.000006 0.337896
126.165016 -305.930939 -0.000004 0.336522
126.323547 -307.196747 -0.000003 0.328252
122.364922 -273.217773 12.568798 0.929488
122.365211 -273.220245 11.112282 0.725780
122.365501 -273.222656 9.676386 0.723064
122.365768 -273.224945 8.257670 0.706386
122.366051 -273.227325 6.852810 0.740551
122.366325 -273.229645 5.458649 0.755413
122.366600 -273.231995 4.072106 0.738613
122.366875 -273.234314 2.690170 0.741939
122.367149 -273.236633 1.309868 0.748501
122.538834 -274.689667 0.000002 0.228407
124.453674 -290.895996 -0.000017 0.214679
125.275795 -297.854065 -0.000025 0.241152
125.733696 -301.729523 -0.000006 0.337011
126.026016 -304.203552 -0.000005 0.338918
126.229187 -305.923126 -0.000004 0.331731
126.378876 -307.190033 -0.000003 0.343877
122.640549 -273.031036 12.607409 1.000000
122.640823 -273.033478 11.145578 0.735973
122.641098 -273.035919 9.704430 0.215473
122.641357 -273.038269 8.280529 0.647059
122.641617 -273.040649 6.870537 0.775036
122.641876 -273.042999 5.471280 0.234363
122.642143 -273.045349 4.079674 0.739055
122.642403 -273.047699 2.692691 0.693126
122.642662 -273.050049 1.307348 0.689662
122.821190 -274.657257 0.000001 0.230262
124.622849 -290.876587 -0.000017 0.228311
125.396378 -297.840240 -0.000025 0.217336
125.827225 -301.718872 0.000003 0.336522
126.102257 -304.194824 -0.000005 0.339559
126.293419 -305.915771 -0.000004 0.330755
126.434258 -307.183685 -0.000002 0.342916
122.918213 -272.842896 12.646831 1.000000
122.918472 -272.845398 11.179557 0.612421
122.918732 -272.847839 9.733057 0.519936
122.918976 -272.850189 8.303862 0.677058
122.919220 -272.852570 6.888632 0.714046
122.919472 -272.854980 5.484176 0.504494
122.919716 -272.857330 4.087399 0.800626
122.919960 -272.859711 2.695263 0.693706
122.920212 -272.862061 1.304775 0.704280
123.103783 -274.626862 0.000000 0.228694
124.792168 -290.858368 -0.000018 0.224876
125.517059 -297.827240 -0.000026 0.241930
125.920815 -301.708832 0.000010 0.337560
126.178551 -304.186615 -0.000005 0.336599
126.357697 -305.908844 -0.000004 0.342245
126.489677 -307.177704 -0.000002 0.338766
123.197960 -272.653351 12.687067 1.000000
123.198204 -272.655853 11.214247 0.601816
123.198441 -272.658325 9.762278 0.322148
123.226158 -272.944183 8.285434 0.752880
123.226578 -272.948517 6.874116 0.637461
123.226997 -272.952820 5.473673 0.744503
123.227417 -272.957092 4.081011 0.279576
123.210686 -272.784546 2.696012 0.769726
123.211105 -272.788910 1.304059 0.651942
123.386566 -274.598450 -0.000000 0.227748
124.961594 -290.841339 -0.000018 0.222614
125.637817 -297.815125 -0.000026 0.214045
126.014473 -301.699432 0.000009 0.335195
126.254906 -304.178955 -0.000005 0.334615
126.422020 -305.902405 -0.000004 0.338842
126.545143 -307.172150 -0.000002 0.343114
123.479836 -272.462311 12.728143 0.790066
123.480072 -272.464905 11.249648 0.924758
123.480293 -272.467346 9.792105 0.780652
123.569473 -273.459076 8.204651 0.745022
123.569855 -273.463318 6.811474 0.752453
123.570236 -273.467621 5.429024 0.742763
123.570618 -273.471832 4.054264 0.758999
123.555275 -273.301239 2.687069 0.491539
123.555656 -273.305481 1.313001 0.642313
123.669548 -274.571991 -0.000001 0.233373
125.131142 -290.825500 -0.000019 0.223081
125.758667 -297.803833 -0.000026 0.227724
126.108185 -301.690613 0.000000 0.334585
126.331306 -304.171814 -0.000005 0.332967
126.486389 -305.896362 -0.000004 0.334829
126.600647 -307.166962 -0.000002 0.337179
123.763908 -272.269836 12.770049 0.704570
123.764122 -272.272430 11.285777 0.928115
123.764328 -272.274933 9.822538 0.791913
123.904083 -273.960876 8.126219 0.690105
123.904434 -273.965149 6.750643 0.758663
123.904778 -273.969238 5.385684 0.749874
123.905113 -273.973328 4.028305 0.759991
123.905457 -273.977417 2.675551 0.747402
123.905785 -273.981476 1.324515 0.760388
123.952713 -274.547516 -0.000001 0.221262
125.300797 -290.810822 -0.000019 0.233972
125.879585 -297.793365 -0.000026 0.232212
126.201965 -301.682526 0.000003 0.331640
126.407761 -304.165192 -0.000005 0.343465
126.550797 -305.890808 -0.000004 0.341207
126.656181 -307.162170 -0.000002 0.338857
124.050232 -272.075836 12.812813 0.817411
124.050423 -272.078461 11.322649 0.718868
124.050613 -272.080963 9.853597 0.768231
124.230370 -274.450287 8.050018 0.694041
124.230659 -274.454224 6.691588 0.740764
124.230980 -274.458374 5.343590 0.742351
124.231277 -274.462280 4.003091 0.578195
124.231583 -274.466309 2.667154 0.743084
124.231888 -274.470306 1.332911 0.567239
124.236038 -274.524994 -0.000002 0.228897
125.470551 -290.797333 -0.000020 0.225678
126.000580 -297.783752 -0.000028 0.226935
126.295799 -301.675079 0.000005 0.337667
126.484253 -304.159119 -0.000005 0.320562
126.615242 -305.885681 -0.000003 0.336767
126.711746 -307.157745 -0.000002 0.333440
124.338837 -271.880310 12.856450 0.894621
124.339020 -271.882935 11.360271 0.912200
124.339195 -271.885468 9.885288 0.783688
124.548637 -274.927582 7.975996 0.748714
124.548912 -274.931580 6.634171 0.718868
124.549179 -274.935516 5.302684 0.746822
124.549446 -274.939392 3.978586 0.730282
124.549721 -274.943268 2.658993 0.732021
124.549988 -274.947235 1.341072 0.738338
124.550255 -274.951141 0.021992 1.000000
125.640388 -290.785065 -0.000020 0.223715
126.121635 -297.774994 -0.000028 0.222231
126.389679 -301.668274 0.000004 0.336889
126.560791 -304.153595 -0.000005 0.344274
126.679718 -305.881042 -0.000004 0.334783
126.767342 -307.153717 -0.000002 0.336568
124.629807 -271.683167 12.900974 0.808667
124.629967 -271.685791 11.398660 0.914641
124.630127 -271.688354 9.917627 0.752056
124.859238 -275.393494 7.904027 0.436744
124.859482 -275.397369 6.578372 0.701701
124.859711 -275.401154 5.262925 0.716487
124.859947 -275.404968 3.954767 0.381125
124.860184 -275.408783 2.651062 0.696666
124.860420 -275.412598 1.349002 0.303731
124.860657 -275.416443 0.045797 1.000000
125.810318 -290.773956 -0.000021 0.237969
126.242752 -297.767090 -0.000028 0.219574
126.483612 -301.662140 0.000004 0.341741
126.637360 -304.148590 -0.000005 0.333532
126.744232 -305.876831 -0.000003 0.335836
126.822968 -307.150085 -0.000002 0.341878
124.923180 -271.484375 12.946403 0.925780
124.923325 -271.487061 11.437826 0.785306
124.923462 -271.489624 9.950619 0.769436
125.162453 -275.848206 7.834070 0.749111
125.162659 -275.852020 6.524124 0.704417
125.162872 -275.855804 5.224261 0.734569
125.163071 -275.859467 3.931610 0.668040
125.163277 -275.863220 2.643349 0.724727
125.163483 -275.866943 1.356712 0.709819
125.163689 -275.870728 0.068944 1.000000
125.980316 -290.764008 -0.000021 0.228024
126.363914 -297.760010 -0.000029 0.235887
126.577576 -301.656677 0.000006 0.339681
126.713966 -304.144135 -0.000005 0.336873
126.808769 -305.873047 -0.000003 0.330220
126.878616 -307.146851 -0.000002 0.326528
nan nan nan 0.000000
125.219154 -271.286621 11.477782 0.899458
125.463081 -276.386322 9.055765 0.606729
125.458580 -276.292297 7.766033 0.222354
125.458763 -276.296051 6.471365 0.734493
125.458939 -276.299683 5.186666 0.646082
125.459114 -276.303314 3.909088 0.390967
125.459290 -276.306946 2.635848 0.722850
125.459465 -276.310699 1.364213 0.213962
125.459641 -276.314392 0.091457 1.000000
126.150375 -290.755280 -0.000022 0.236868
126.485130 -297.753784 -0.000029 0.225618
126.671577 -301.651764 -0.000006 0.342611
126.790604 -304.140198 -0.000005 0.331899
126.873329 -305.869751 -0.000003 0.324910
126.934280 -307.143982 -0.000002 0.343160
nan nan nan 0.000000
125.517502 -271.084442 11.518549 0.908370
125.749725 -276.770905 8.983547 0.609888
125.747894 -276.726196 7.699831 0.754314
125.748047 -276.729828 6.420037 0.744015
125.748192 -276.733459 5.150085 0.745098
125.748337 -276.737030 3.887172 0.745632
125.748482 -276.740631 2.628550 0.750484
125.748634 -276.744202 1.371509 0.757900
125.748779 -276.747772 0.113355 1.000000
126.320496 -290.747742 -0.000022 0.237311
126.606384 -297.748413 -0.000030 0.230166
126.765610 -301.647583 -0.000011 0.337987
126.867264 -304.136780 -0.000005 0.337163
126.937912 -305.866882 -0.000003 0.336889
126.989967 -307.141510 -0.000001 0.334859
nan nan nan 0.000000
125.818459 -270.880554 11.560132 0.916594
126.030540 -277.146698 8.913309 0.756268
126.030663 -277.150360 7.635390 0.206073
126.030785 -277.153931 6.370066 0.727657
126.030907 -277.157471 5.114476 0.505852
126.031021 -277.160919 3.865845 0.557717
126.031136 -277.164337 2.621449 0.762051
126.031258 -277.167847 1.378609 0.205966
126.031380 -277.171387 0.134669 1.000000
126.490662 -290.741394 -0.000022 0.234307
126.727669 -297.743866 -0.000030 0.208851
126.859680 -301.644135 0.000000 0.339330
126.943947 -304.133942 -0.000005 0.339040
127.002518 -305.864471 -0.000003 0.343374
127.045670 -307.139435 -0.000002 0.345083
nan nan nan 0.000000
126.122055 -270.674866 11.602545 0.926833
126.307022 -277.561432 8.836355 0.729885
126.307114 -277.564972 7.572672 0.721965
126.307205 -277.568420 6.321443 0.716930
126.307304 -277.571838 5.079826 0.756924
126.307396 -277.575287 3.845084 0.707271
126.307487 -277.578735 2.614533 0.739193
126.307579 -277.582153 1.385523 0.750591
126.307663 -277.585541 0.155419 1.000000
126.660873 -290.736206 -0.000023 0.243654
126.848984 -297.740173 -0.000031 0.238448
126.953766 -301.641327 0.000007 0.330739
127.020645 -304.131622 -0.000004 0.330983
127.067139 -305.862488 -0.000003 0.335515
127.101387 -307.137756 -0.000002 0.340414
nan nan nan 0.000000
126.428391 -270.467316 11.645815 0.756329
126.577438 -277.967072 8.761416 0.745113
126.577499 -277.970490 7.511596 0.223087
126.577568 -277.973846 6.274088 0.723903
126.577637 -277.977173 5.046082 0.362127
126.577705 -277.980591 3.824869 0.632486
126.577774 -277.983948 2.607801 0.718822
126.577835 -277.987274 1.392254 0.202152
126.577904 -277.990601 0.175623 1.000000
126.831116 -290.732208 -0.000024 0.227892
126.970329 -297.737335 -0.000031 0.232260
127.047867 -301.639160 0.000010 0.338552
127.097366 -304.129852 0.000005 0.337972
127.131767 -305.860992 -0.000003 0.334188
127.157112 -307.136444 -0.000002 0.339071
nan nan nan 0.000000
126.737511 -270.257843 11.689956 0.821759
126.841988 -278.363892 8.688430 0.751156
126.842033 -278.367279 7.452105 0.742733
126.842079 -278.370544 6.227956 0.761730
126.842117 -278.373840 5.013206 0.751873
126.842163 -278.377136 3.805178 0.761547
126.842209 -278.380402 2.601242 0.765682
126.842247 -278.383667 1.398811 0.755322
126.842293 -278.386932 0.195303 1.000000
127.001381 -290.729431 -0.000024 0.233182
127.091682 -297.735352 -0.000031 0.217887
127.141983 -301.637604 0.000009 0.342321
127.174095 -304.128632 0.000012 0.338399
127.196404 -305.859924 -0.000003 0.334554
127.212852 -307.135529 -0.000002 0.308797
nan nan nan 0.000000
127.049477 -270.046448 11.734977 0.774395
127.100906 -278.752289 8.617323 0.750851
127.100929 -278.755554 7.394149 0.304845
127.100945 -278.758728 6.183022 0.765286
127.100967 -278.762024 4.981181 0.354360
127.100983 -278.765198 3.785995 0.706111
127.101006 -278.768402 2.594855 0.763882
127.101021 -278.771606 1.405199 0.250721
127.101044 -278.774780 0.214477 1.000000
127.171661 -290.727814 -0.000025 0.235456
127.213051 -297.734192 -0.000032 0.207822
127.236107 -301.636688 0.000007 0.334844
127.250824 -304.127899 0.000008 0.330571
127.261055 -305.859314 -0.000003 0.334997
127.268585 -307.135010 -0.000002 0.347539
nan nan nan 0.000000
127.364380 -269.833099 11.780893 0.925063
127.354393 -279.132507 8.548029 0.727733
127.354393 -279.135681 7.337674 0.703975
127.354385 -279.138855 6.139222 0.720958
127.354385 -279.141998 4.949974 0.731197
127.354385 -279.145142 3.767299 0.703975
127.354378 -279.148254 2.588629 0.711589
127.354378 -279.151367 1.411423 0.725048
127.354370 -279.154510 0.233161 1.000000
127.341949 -290.727386 -0.000025 0.235133
127.334427 -297.733917 -0.000032 0.232440
127.330162 -301.703918 0.010010 1.000000
127.327560 -304.127716 0.000005 0.334340
127.325699 -305.859161 -0.000003 0.335210
127.324333 -307.134888 -0.000002 0.323674
nan nan nan 0.000000
127.682274 -269.617706 11.827725 0.810285
127.602631 -279.504883 8.480477 0.727886
127.602608 -279.507904 7.282625 0.480339
127.602585 -279.511078 6.096533 0.775479
127.602562 -279.514191 4.919549 0.442817
127.602531 -279.517212 3.749076 0.733379
127.602509 -279.520325 2.582558 0.762676
127.602486 -279.523376 1.417492 0.360098
127.602463 -279.526398 0.251375 1.000000
127.512230 -290.728180 -0.000025 0.232715
127.455795 -297.734467 -0.000032 0.212442
127.423813 -301.704285 0.010004 1.000000
127.404289 -304.128052 0.000007 0.340734
127.390350 -305.859467 -0.000003 0.332570
127.380074 -307.135132 -0.000002 0.340978
nan nan nan 0.000000
nan nan nan 0.000000
127.845825 -279.869598 8.414632 0.742916
127.845779 -279.872650 7.228942 0.765988
127.845734 -279.875702 6.054909 0.758801
127.845688 -279.878723 4.889891 0.755901
127.845642 -279.881775 3.731305 0.750835
127.845596 -279.884766 2.576640 0.753643
127.845551 -279.887787 1.423409 0.753368
127.845505 -279.890717 0.269133 1.000000
127.682510 -290.730133 -0.000025 0.237634
127.577164 -297.735870 -0.000033 0.223655
127.517471 -301.705353 0.010000 1.000000
127.481026 -304.128937 0.000006 0.332464
127.454994 -305.860199 -0.000003 0.339391
127.435806 -307.135773 -0.000001 0.338048
nan nan nan 0.000000
nan nan nan 0.000000
128.084122 -280.226990 8.350411 0.701366
128.084061 -280.230103 7.176584 0.642100
128.084000 -280.233063 6.014313 0.727794
128.083923 -280.235992 4.860963 0.664256
128.083862 -280.238922 3.713979 0.711437
128.083801 -280.241943 2.570869 0.699382
128.083740 -280.244843 1.429179 0.599023
128.083664 -280.247711 0.286452 1.000000
127.852768 -290.733276 -0.000026 0.226276
127.698509 -297.738098 -0.000034 0.217265
127.611115 -301.707062 0.009996 1.000000
127.557747 -304.130371 0.000007 0.339956
127.519630 -305.861420 -0.000003 0.339467
127.491539 -307.136810 -0.000001 0.339422
nan nan nan 0.000000
nan nan nan 0.000000
128.317719 -280.577332 8.287770 0.739910
128.317642 -280.580292 7.125539 0.522362
128.317551 -280.583252 5.974726 0.766537
128.317459 -280.586182 4.832748 0.801648
128.317383 -280.589050 3.697076 0.731929
128.317291 -280.591949 2.565241 0.775448
128.317215 -280.594818 1.434806 0.673945
128.317139 -280.597656 0.303345 1.000000
128.022995 -290.737640 -0.000026 0.238484
127.819847 -297.741211 -0.000033 0.201970
127.706696 -301.642029 -0.000008 0.336889
127.634460 -304.132294 0.000000 0.335851
127.584251 -305.863068 -0.000003 0.339162
127.547264 -307.138214 -0.000002 0.339406
nan nan nan 0.000000
nan nan nan 0.000000
128.546753 -280.920898 8.226646 0.714092
128.546646 -280.923767 7.075714 0.778180
128.546539 -280.926666 5.936096 0.736095
128.546448 -280.929535 4.805218 0.709941
128.546341 -280.932373 3.680585 0.732204
128.546249 -280.935120 2.559750 0.776104
128.546143 -280.937927 1.440296 0.735912
128.546036 -280.940765 0.319828 1.000000
128.193192 -290.743164 -0.000027 0.226228
127.941154 -297.745148 -0.000034 0.233349
127.800774 -301.645050 -0.000013 0.336019
127.711159 -304.134766 -0.000005 0.338170
127.648865 -305.865143 -0.000003 0.335912
127.602974 -307.140045 -0.000002 0.333837
nan nan nan 0.000000
nan nan nan 0.000000
128.771393 -281.257874 8.166992 0.361852
128.771271 -281.260712 7.027088 0.304067
128.771149 -281.263550 5.898391 0.704356
128.771027 -281.266296 4.778351 0.250065
128.770920 -281.269043 3.664492 0.688045
128.770798 -281.271851 2.554389 0.753399
128.770676 -281.274597 1.445656 0.229770
128.770554 -281.277313 0.335913 0.697993
128.363358 -290.749878 -0.000027 0.241703
128.062439 -297.749939 -0.000034 0.223260
127.894829 -301.648773 -0.000011 0.334829
127.787827 -304.137817 0.000003 0.333730
127.713463 -305.867706 -0.000002 0.339055
127.658676 -307.142242 -0.000001 0.340581
nan nan nan 0.000000
nan nan nan 0.000000
128.991776 -281.588470 8.108763 0.745907
128.991638 -281.591248 6.979631 0.741466
128.991501 -281.593994 5.861595 0.760845
128.991364 -281.596680 4.752131 0.765011
128.991226 -281.599396 3.648784 0.744900
128.991089 -281.602112 2.549158 0.751278
128.990967 -281.604797 1.450886 0.748974
128.990829 -281.607483 0.351614 0.730709
128.533463 -290.757782 -0.000028 0.237454
128.183670 -297.755554 -0.000034 0.239764
127.988853 -301.653198 -0.000006 0.340383
127.864479 -304.141418 0.000006 0.337896
127.778046 -305.870697 -0.000003 0.330541
127.714355 -307.144836 -0.000002 0.328130
nan nan nan 0.000000
nan nan nan 0.000000
129.208054 -281.912842 8.051928 0.739742
129.207901 -281.915588 6.933301 0.773419
129.207748 -281.918304 5.825667 0.724804
129.207596 -281.920990 4.726524 0.708583
129.207443 -281.923645 3.633444 0.714748
129.207291 -281.926300 2.544049 0.785763
129.207138 -281.928955 1.455994 0.760662
129.206985 -281.931641 0.366948 0.726177
128.703506 -290.766876 -0.000027 0.225558
128.304871 -297.762024 -0.000035 0.238603
128.082840 -301.658264 -0.000001 0.323003
127.941109 -304.145477 0.000003 0.338674
127.842598 -305.874176 -0.000003 0.337743
127.770020 -307.147797 -0.000001 0.341100
nan nan nan 0.000000
129.412567 -282.352753 9.091373 1.000000
129.420349 -282.231262 7.996425 0.764569
129.420181 -282.233917 6.888068 0.754681
129.420013 -282.236572 5.790595 0.712398
129.419846 -282.239197 4.701530 0.747662
129.419678 -282.241852 3.618470 0.747799
129.419510 -282.244446 2.539063 0.748791
129.419342 -282.247070 1.460980 0.760876
129.419174 -282.249695 0.381916 0.704982
128.873474 -290.777161 -0.000028 0.232548
128.426025 -297.769379 -0.000035 0.226312
128.176804 -301.663971 0.000004 0.338262
128.017700 -304.150116 0.000002 0.334264
127.907127 -305.878082 -0.000002 0.341695
127.825661 -307.151184 -0.000001 0.338079
nan nan nan 0.000000
129.623169 -282.623260 9.036146 0.607828
129.628799 -282.543884 7.942226 0.656046
129.628616 -282.546570 6.843879 0.735348
129.628433 -282.549103 5.756336 0.724910
129.628250 -282.551697 4.677114 0.701976
129.628067 -282.554260 3.603846 0.749828
129.627884 -282.556854 2.534191 0.774685
129.627701 -282.559418 1.465851 0.731487
129.627518 -282.562012 0.396534 0.747723
129.043381 -290.788605 -0.000028 0.238519
128.547104 -297.777802 -0.000004 0.339254
128.270721 -301.670288 0.000003 0.340887
128.094269 -304.155273 0.000001 0.330282
127.971634 -305.882416 -0.000003 0.339040
127.881279 -307.154907 -0.000001 0.340734
nan nan nan 0.000000
129.830566 -282.888947 8.982251 0.604318
129.833527 -282.850952 7.889277 0.785794
129.833328 -282.853546 6.800725 0.708980
129.833130 -282.856079 5.722866 0.670115
129.832932 -282.858643 4.653264 0.735515
129.832733 -282.861176 3.589558 0.711345
129.832535 -282.863708 2.529432 0.775586
129.832336 -282.866211 1.470609 0.690455
129.832138 -282.868713 0.410814 0.695659
129.213196 -290.801270 -0.000028 0.219646
128.661377 -297.873535 0.010003 1.000000
128.364594 -301.677246 -0.000004 0.338674
128.170792 -304.160980 -0.000001 0.334981
128.036102 -305.887238 -0.000000 0.332311
127.936867 -307.159058 -0.000001 0.327016
nan nan nan 0.000000
130.040482 -283.083984 8.943951 0.728679
130.040405 -283.084778 7.849926 0.733562
130.040344 -283.085571 6.768913 0.772564
130.040283 -283.086365 5.698400 0.779080
130.040207 -283.087158 4.635972 0.755642
130.040146 -283.087921 3.579283 0.712123
130.040085 -283.088684 2.526039 0.779904
130.040009 -283.089447 1.473974 0.756176
130.039948 -283.090210 0.420830 0.756893
129.382919 -290.815094 -0.000029 0.223871
128.781738 -297.883362 0.010003 1.000000
128.458405 -301.684845 -0.000010 0.337301
128.247284 -304.167175 -0.000005 0.320226
128.100525 -305.892548 0.000011 0.341955
127.992424 -307.163605 -0.000002 0.332341
nan nan nan 0.000000
130.281189 -282.917786 8.984297 0.727947
130.281113 -282.918579 7.883914 0.720790
130.281036 -282.919434 6.796615 0.742657
130.280960 -282.920227 5.719882 0.584283
130.280899 -282.920990 4.651283 0.742992
130.280823 -282.921783 3.588457 0.742016
130.280746 -282.922546 2.529094 0.739376
130.280685 -282.923340 1.470918 0.723110
130.280609 -282.924103 0.411659 0.670970
129.552551 -290.830109 -0.000029 0.233325
128.902039 -297.893890 0.009989 1.000000
128.552170 -301.693146 -0.000014 0.324498
128.323715 -304.173950 -0.000007 0.334081
128.164932 -305.898224 0.000007 0.333394
128.047943 -307.168518 -0.000001 0.341466
nan nan nan 0.000000
130.524734 -282.749573 9.025467 0.655756
130.524643 -282.750427 7.918591 0.717418
130.524567 -282.751282 6.824882 0.759960
130.524475 -282.752106 5.741800 0.725933
130.524399 -282.752899 4.666904 0.691691
130.524323 -282.753693 3.597815 0.712718
130.524246 -282.754486 2.532212 0.729763
130.524170 -282.755280 1.467802 0.736858
130.524094 -282.756073 0.402302 0.742641
129.722061 -290.846313 -0.000029 0.221070
129.030823 -297.819000 0.000001 0.337621
128.645874 -301.702179 -0.000003 0.335714
128.400101 -304.181244 -0.000007 0.331151
128.229279 -305.904388 0.000008 0.333883
128.103439 -307.173828 -0.000001 0.337835
nan nan nan 0.000000
130.771149 -282.579559 9.067428 0.607279
130.771072 -282.580322 7.953961 0.747280
130.770981 -282.581146 6.853720 0.485771
130.770889 -282.581970 5.764164 0.503380
130.770813 -282.582825 4.682841 0.761852
130.770721 -282.583618 3.607363 0.778241
130.770630 -282.584412 2.535392 0.738415
130.770554 -282.585205 1.464621 0.742977
130.770462 -282.586029 0.392755 0.685008
129.891464 -290.863708 -0.000029 0.231351
129.151581 -297.831238 -0.000014 0.339345
128.739502 -301.711761 -0.000004 0.343114
128.476440 -304.189117 -0.000002 0.332570
128.293594 -305.910980 0.000008 0.323919
128.158890 -307.179504 -0.000001 0.336645
nan nan nan 0.000000
131.020569 -282.407349 9.110279 0.735607
131.020477 -282.408142 7.990051 0.726818
131.020370 -282.408997 6.883138 0.605600
131.020279 -282.409851 5.786978 0.676051
131.020187 -282.410675 4.699102 0.731121
131.020096 -282.411469 3.617105 0.756100
131.020004 -282.412292 2.538636 0.751644
131.019913 -282.413086 1.461376 0.712581
131.019821 -282.413910 0.383014 0.711101
130.060730 -290.882294 -0.000029 0.228861
129.272217 -297.844513 -0.000012 0.335485
128.833069 -301.722015 -0.000009 0.330770
128.552719 -304.197510 0.000001 0.341543
128.357849 -305.917999 0.000001 0.342321
128.214294 -307.185577 -0.000002 0.330266
nan nan nan 0.000000
131.273026 -282.233032 9.153995 0.924437
131.272919 -282.233856 8.026878 0.666346
131.272827 -282.234741 6.913159 0.246845
131.272720 -282.235596 5.810260 0.237522
131.272614 -282.236420 4.715694 0.748180
131.272522 -282.237244 3.627046 0.743450
131.272415 -282.238068 2.541948 0.719997
131.272324 -282.238892 1.458066 0.752026
131.272232 -282.239685 0.373075 0.679881
130.229874 -290.902039 -0.000030 0.226875
129.392776 -297.858643 -0.000008 0.334615
128.926559 -301.732941 -0.000008 0.338354
128.628937 -304.206390 0.000002 0.336675
128.422073 -305.925507 0.000002 0.339345
128.269653 -307.192047 -0.000001 0.330236
nan nan nan 0.000000
131.528625 -282.056580 9.198605 0.908141
131.528519 -282.057434 8.064457 0.665324
131.528397 -282.058319 6.943790 0.513207
131.528290 -282.059174 5.834015 0.509850
131.528183 -282.060028 4.732625 0.669383
131.528076 -282.060852 3.637190 0.655299
131.527969 -282.061676 2.545327 0.707591
131.527863 -282.062500 1.454687 0.759060
131.527756 -282.063293 0.362932 0.723537
130.398865 -290.922974 -0.000030 0.221154
129.513214 -297.873627 0.000002 0.339635
129.019974 -301.744568 -0.000001 0.331319
128.705093 -304.215820 -0.000003 0.333791
128.486221 -305.933472 0.000005 0.329397
128.324982 -307.198914 -0.000001 0.337560
nan nan nan 0.000000
131.787445 -281.877899 9.244129 0.709453
131.787323 -281.878754 8.102808 0.786465
131.787201 -281.879669 6.975051 0.296223
131.787079 -281.880524 5.858259 0.319402
131.786972 -281.881378 4.749903 0.676112
131.786865 -281.882202 3.647542 0.796078
131.786743 -281.883057 2.548774 0.738598
131.786636 -281.883881 1.451239 0.731624
131.786530 -281.884705 0.352582 0.703716
130.567719 -290.945068 -0.000031 0.229029
129.633545 -297.889465 0.000010 0.331731
129.113312 -301.756775 -0.000001 0.335668
128.781174 -304.225708 -0.000012 0.335531
128.550323 -305.941833 -0.000000 0.328374
128.380249 -307.206146 -0.000001 0.348272
nan nan nan 0.000000
132.049561 -281.696930 9.290590 0.816724
132.049438 -281.697815 8.141945 0.747478
132.049316 -281.698730 7.006955 0.302892
132.049194 -281.699615 5.883000 0.272068
132.049072 -281.700470 4.767537 0.764004
132.048950 -281.701324 3.658106 0.753048
132.048828 -281.702148 2.552294 0.771572
132.048706 -281.703003 1.447720 0.752850
132.048584 -281.703827 0.342018 0.725689
130.736404 -290.968353 -0.000031 0.228981
129.753769 -297.906128 0.000018 0.340185
129.206543 -301.769684 0.000003 0.334905
128.857193 -304.236267 -0.000004 0.339834
128.614365 -305.950684 -0.000002 0.327382
128.435471 -307.213776 -0.000001 0.336400
nan nan nan 0.000000
132.315094 -281.513611 9.338011 0.725719
132.314957 -281.514526 8.181892 0.750240
132.314819 -281.515442 7.039520 0.698558
132.314682 -281.516327 5.908254 0.746303
132.314560 -281.517212 4.785536 0.635126
132.314438 -281.518066 3.668890 0.658579
132.314301 -281.518921 2.555885 0.676310
132.314178 -281.519775 1.444129 0.769268
132.314056 -281.520630 0.331237 0.587930
130.904922 -290.992828 -0.000031 0.216475
129.873886 -297.923523 0.000012 0.337728
129.299698 -301.783173 0.000001 0.337652
128.933136 -304.247284 -0.000007 0.336446
128.678345 -305.959961 -0.000004 0.321798
128.490631 -307.221771 -0.000001 0.336736
nan nan nan 0.000000
132.584091 -281.327911 9.386412 0.898573
132.583954 -281.328796 8.222669 0.720226
132.583817 -281.329742 7.072761 0.723613
132.583664 -281.330658 5.934031 0.770825
132.583527 -281.331543 4.803907 0.673808
132.583389 -281.332397 3.679896 0.687861
132.583267 -281.333282 2.559551 0.735576
132.583130 -281.334137 1.440463 0.779065
132.582993 -281.334991 0.320231 0.668788
131.073257 -291.018463 -0.000031 0.226001
129.993881 -297.941711 0.000003 0.338476
129.392746 -301.797394 0.000004 0.340414
129.008987 -304.258820 -0.000006 0.332921
128.742264 -305.969696 -0.000006 0.346120
128.545731 -307.230164 -0.000001 0.326940
nan nan nan 0.000000
132.856705 -281.139709 9.435823 0.827512
132.856552 -281.140625 8.264295 0.679561
132.856400 -281.141571 7.106695 0.783413
132.856247 -281.142487 5.960348 0.697398
132.856094 -281.143402 4.822663 0.703243
132.855957 -281.144257 3.691133 0.797391
132.855820 -281.145142 2.563294 0.762112
132.855667 -281.145996 1.436721 0.730892
132.855530 -281.146881 0.308997 0.710201
131.241425 -291.045288 -0.000031 0.233182
130.113739 -297.960815 0.000001 0.332967
129.485703 -301.812195 0.000001 0.340627
129.084763 -304.270935 -0.000002 0.330724
128.806091 -305.979889 -0.000001 0.340398
128.600784 -307.238953 -0.000001 0.341924
nan nan nan 0.000000
133.132980 -280.949005 9.486264 0.926894
133.132828 -280.949890 8.306789 0.764721
133.132660 -280.950836 7.141337 0.732128
133.132507 -280.951782 5.987212 0.724605
133.132339 -280.952698 4.841810 0.726070
133.132202 -280.953583 3.702604 0.731472
133.132050 -280.954468 2.567114 0.736538
133.131897 -280.955353 1.432900 0.774899
133.131744 -280.956238 0.297528 0.745266
131.409393 -291.073273 -0.000031 0.218725
130.233459 -297.980774 0.000001 0.336660
129.578568 -301.827637 -0.000005 0.338537
129.160461 -304.283539 -0.000006 0.338369
128.869858 -305.990540 0.000002 0.336172
128.649063 -307.287506 0.010005 1.000000
nan nan nan 0.000000
133.413055 -280.755646 9.537767 0.856214
133.412888 -280.756561 8.350177 0.701808
133.412720 -280.757507 7.176707 0.774929
133.412552 -280.758453 6.014643 0.713802
133.412384 -280.759399 4.861360 0.689540
133.412231 -280.760315 3.714314 0.780987
133.412064 -280.761200 2.571015 0.766506
133.411911 -280.762054 1.428999 0.741970
133.411743 -280.762970 0.285818 0.711498
131.577179 -291.102448 -0.000031 0.224242
130.353027 -298.001556 0.000002 0.336217
129.671295 -301.843750 -0.000005 0.337301
129.236069 -304.296692 -0.000003 0.345388
128.933563 -306.001587 -0.000002 0.335744
128.703705 -307.296967 0.009997 1.000000
nan nan nan 0.000000
133.697021 -280.559601 9.590355 0.919661
133.696838 -280.560547 8.394479 0.773190
133.696671 -280.561493 7.212822 0.695781
133.696503 -280.562439 6.042650 0.810758
133.696320 -280.563385 4.881322 0.640253
133.696152 -280.564331 3.726274 0.753841
133.695984 -280.565216 2.574998 0.826032
133.695816 -280.566101 1.425016 0.738460
133.695648 -280.567017 0.273860 0.699260
131.744736 -291.132782 -0.000032 0.221489
130.472458 -298.023193 0.000002 0.333516
129.763916 -301.860504 -0.000005 0.338399
129.311569 -304.310394 0.000001 0.338582
128.997177 -306.013092 -0.000006 0.332448
128.758286 -307.306854 0.009995 1.000000
nan nan nan 0.000000
133.984985 -280.360840 9.644056 0.729259
133.984802 -280.361755 8.439719 0.751263
133.984619 -280.362732 7.249701 0.717632
133.984436 -280.363647 6.071254 0.749065
133.984253 -280.364624 4.901706 0.705699
133.984070 -280.365570 3.738485 0.744884
133.983887 -280.366486 2.579066 0.662104
133.983719 -280.367401 1.420949 0.811368
133.983536 -280.368317 0.261651 0.750011
131.912079 -291.164276 -0.000032 0.221441
130.591736 -298.045654 0.000003 0.337423
129.856430 -301.877930 -0.000005 0.336385
129.386978 -304.324615 0.000005 0.332250
129.051971 -306.070557 0.010001 1.000000
128.812790 -307.317108 0.009998 1.000000
nan nan nan 0.000000
134.277069 -280.159180 9.698904 0.858717
134.276886 -280.160126 8.485923 0.697292
134.276688 -280.161072 7.287368 0.712291
134.276505 -280.162048 6.100462 0.713924
134.276306 -280.163025 4.922524 0.735637
134.276108 -280.164001 3.750958 0.764096
134.275925 -280.164917 2.583221 0.749813
134.275742 -280.165833 1.416794 0.710506
134.275558 -280.166748 0.249180 0.770291
132.079208 -291.196960 -0.000032 0.229663
130.710861 -298.068939 0.000003 0.335637
129.948807 -301.895996 -0.000004 0.340124
129.462280 -304.339325 0.000005 0.335348
129.115112 -306.082855 0.009994 1.000000
128.875015 -307.288635 0.000010 0.339254
nan nan nan 0.000000
134.573395 -279.954620 9.754921 0.897475
134.573196 -279.955566 8.533114 0.738888
134.572998 -279.956543 7.325840 0.715587
134.572800 -279.957489 6.130298 0.715541
134.572586 -279.958496 4.943788 0.735164
134.572388 -279.959473 3.763696 0.724849
134.572189 -279.960388 2.587464 0.737408
134.572006 -279.961334 1.412552 0.732906
134.571808 -279.962280 0.236443 0.686809
132.246109 -291.230774 -0.000031 0.222782
130.829803 -298.093048 0.000003 0.338094
130.041061 -301.914703 -0.000004 0.344213
129.537491 -304.354553 0.000001 0.330068
129.178146 -306.095642 0.009998 1.000000
128.929642 -307.299713 0.000004 0.324758
nan nan nan 0.000000
134.874084 -279.747009 9.812147 0.912993
134.873871 -279.747986 8.581322 0.733639
134.873672 -279.748962 7.365140 0.663279
134.873459 -279.749939 6.160775 0.777798
134.873245 -279.750946 4.965508 0.777890
134.873016 -279.751953 3.776710 0.655650
134.872818 -279.752899 2.591799 0.782147
134.872620 -279.753845 1.408218 0.731991
134.872421 -279.754791 0.223432 0.716060
132.412766 -291.265778 -0.000031 0.227401
130.948593 -298.117981 -0.000000 0.329244
130.133179 -301.934052 -0.000004 0.335912
129.612595 -304.370300 -0.000002 0.341283
129.241089 -306.108917 0.010006 1.000000
128.984207 -307.311127 -0.000003 0.341390
nan nan nan 0.000000
135.179245 -279.536346 9.870607 0.915236
135.179031 -279.537323 8.630569 0.760128
135.178802 -279.538300 7.405287 0.753735
135.178589 -279.539276 6.191909 0.767346
135.178375 -279.540314 4.987699 0.805173
135.178131 -279.541351 3.790004 0.709941
135.177933 -279.542297 2.596226 0.773037
135.177719 -279.543243 1.403790 0.743618
135.177505 -279.544220 0.210141 0.710857
132.579163 -291.301941 -0.000032 0.227665
131.067200 -298.143707 -0.000004 0.340520
130.225159 -301.954041 -0.000003 0.339071
129.687576 -304.386627 0.000005 0.343969
129.313950 -306.077301 -0.000005 0.335988
129.038666 -307.322968 0.000000 0.344717
nan nan nan 0.000000
135.489044 -279.322479 9.930346 1.000000
135.488800 -279.323486 8.680889 0.658289
135.488586 -279.324463 7.446310 0.271901
135.488358 -279.325470 6.223722 0.704936
135.488129 -279.326477 5.010374 0.393942
135.487869 -279.327545 3.803587 0.665751
135.487656 -279.328491 2.600751 0.740200
135.487427 -279.329468 1.399266 0.756252
135.487213 -279.330475 0.196560 0.663447
132.745270 -291.339447 -0.000018 0.338186
131.185623 -298.170288 -0.000007 0.335302
130.317001 -301.974670 -0.000003 0.336934
129.762436 -304.403473 0.000007 0.328038
129.377029 -306.091492 -0.000001 0.343221
129.093094 -307.335022 -0.000046 0.262300
nan nan nan 0.000000
135.803574 -279.105316 9.991388 1.000000
135.803314 -279.106354 8.732309 0.773892
135.803101 -279.107300 7.488230 0.244694
135.802856 -279.108337 6.256230 0.741619
135.802612 -279.109375 5.033542 0.356527
135.802353 -279.110474 3.817467 0.722042
135.802124 -279.111450 2.605373 0.756390
135.801895 -279.112427 1.394643 0.736370
135.801651 -279.113434 0.182682 0.684337
132.883087 -291.496979 0.010011 1.000000
131.303864 -298.197693 -0.000010 0.333394
130.408691 -301.995941 -0.000003 0.336858
129.837204 -304.420776 0.000001 0.342657
129.440002 -306.106140 0.000003 0.346227
129.147400 -307.347626 -0.000046 0.247424
nan nan nan 0.000000
136.123016 -278.884705 10.053783 0.924575
136.122742 -278.885864 8.784861 0.720851
136.122513 -278.886810 7.531070 0.734493
136.122269 -278.887848 6.289454 0.738857
136.122009 -278.888885 5.057221 0.713161
136.121735 -278.889984 3.831654 0.781201
136.121490 -278.890991 2.610098 0.760525
136.121246 -278.891998 1.389918 0.766705
136.121002 -278.893005 0.168498 0.687831
133.047897 -291.536346 0.010004 1.000000
131.421906 -298.225922 -0.000014 0.335714
130.500229 -302.017853 -0.000002 0.339422
129.911835 -304.438629 -0.000004 0.337865
129.502869 -306.121185 0.000007 0.335897
129.201614 -307.360596 -0.000046 0.270557
nan nan nan 0.000000
136.447510 -278.660675 10.117549 0.884367
136.447205 -278.661865 8.838575 0.766751
136.446960 -278.662842 7.574859 0.628061
136.446701 -278.663879 6.323410 0.710597
136.446442 -278.664948 5.081422 0.692988
136.446167 -278.666016 3.846156 0.675364
136.445908 -278.667053 2.614928 0.776211
136.445648 -278.668091 1.385089 0.709499
136.445389 -278.669128 0.154002 0.783825
133.242096 -291.458313 -0.000022 0.337896
131.539749 -298.255005 -0.000015 0.335378
130.591614 -302.040405 -0.000003 0.334874
129.986343 -304.456970 -0.000009 0.344091
129.565689 -306.136444 -0.000045 0.205644
129.255737 -307.373962 -0.000046 0.194023
nan nan nan 0.000000
136.777176 -278.433105 10.182733 0.916228
136.776871 -278.434296 8.893484 0.793378
136.776611 -278.435272 7.619621 0.726894
136.776337 -278.436340 6.358123 0.665339
136.776062 -278.437408 5.106161 0.779080
136.775787 -278.438477 3.860977 0.750576
136.775513 -278.439545 2.619865 0.792721
136.775238 -278.440582 1.380153 0.707759
136.774979 -278.441650 0.139182 0.792065
133.407120 -291.500305 -0.000017 0.336461
131.657379 -298.284882 -0.000015 0.335286
130.682846 -302.063599 -0.000002 0.339300
130.060715 -304.475891 -0.000008 0.336385
129.628342 -306.152374 -0.000045 0.263054
129.309753 -307.387665 -0.000046 0.188996
nan nan nan 0.000000
122.114105 -334.721558 6.380200 0.373587
122.955925 -331.549194 5.092980 0.403708
121.981033 -335.223022 5.085311 0.400244
122.779236 -332.215057 4.034770 0.402930
113.722763 -366.344025 6.345550 1.000000
113.722763 -366.344025 4.603601 1.000000
113.722763 -366.344025 2.867248 1.000000
113.722763 -366.344025 1.132752 1.000000
116.874283 -354.467621 0.000040 0.337972
122.415443 -333.585968 0.433417 0.342794
122.856743 -331.922974 -0.000006 0.249877
123.857597 -328.151276 -0.000009 0.193257
124.496567 -325.743347 -0.000010 0.260564
124.940674 -324.069763 -0.000011 0.227102
125.267868 -322.836731 -0.000011 0.245904
122.273949 -333.597839 6.797824 0.382956
122.883507 -331.363770 5.636715 0.407691
113.363846 -366.253876 11.644359 1.000000
122.290863 -333.535858 4.831695 0.383719
122.571793 -332.506226 4.073318 0.399222
122.319809 -333.429749 3.556251 0.396170
122.317253 -333.439117 2.932893 0.343938
122.307800 -333.473755 2.311330 0.382315
122.318962 -333.432861 1.689364 0.383368
122.322777 -333.418884 1.068138 0.403098
122.315071 -333.447113 0.442272 0.374075
122.739540 -331.891418 -0.000007 0.235898
123.766701 -328.126801 -0.000009 0.241727
124.422462 -325.723419 -0.000010 0.247783
124.878242 -324.052948 -0.000011 0.198295
125.214043 -322.822235 -0.000012 0.218916
122.242668 -333.214081 6.707263 0.381109
122.163040 -333.498077 6.122486 0.362112
122.597908 -331.946991 5.179957 0.399130
122.681252 -331.649719 4.546599 0.393835
122.181267 -333.433075 4.188063 0.368551
122.230133 -333.258789 3.544701 0.370779
122.186844 -333.413177 2.933373 0.377935
122.193138 -333.390717 2.310520 0.340063
122.207695 -333.338806 1.690362 0.375540
122.194252 -333.386749 1.067976 0.407965
122.177132 -333.447815 0.439202 0.408576
122.622559 -331.859070 -0.000007 0.235982
123.675980 -328.101715 -0.000009 0.265938
124.348503 -325.702942 -0.000010 0.221645
124.815933 -324.035706 -0.000011 0.226456
125.160316 -322.807373 -0.000012 0.194633
nan nan nan 0.000000
122.513313 -331.799835 5.748986 0.402502
112.645691 -366.073425 11.648021 1.000000
121.695679 -334.639740 5.013200 0.398306
122.344482 -332.386230 4.067085 0.411704
112.645683 -366.073425 6.347710 1.000000
112.645683 -366.073425 4.604896 1.000000
122.044350 -333.428711 2.311784 0.374777
122.069138 -333.342590 1.689683 0.366033
122.017975 -333.520325 1.059298 0.384588
121.984627 -333.636139 0.420034 0.379171
122.505806 -331.825897 -0.000006 0.232524
123.585434 -328.075989 -0.000009 0.211089
124.274689 -325.681976 -0.000010 0.248572
124.753746 -324.018066 -0.000011 0.218437
125.106697 -322.792145 -0.000012 0.198008
nan nan nan 0.000000
122.559914 -331.214478 5.624803 0.395758
122.206169 -332.411652 5.280930 0.392950
121.615990 -334.408997 4.983649 0.396811
121.408852 -335.110016 4.398039 0.395346
112.286362 -365.983154 6.348855 1.000000
112.286362 -365.983154 4.605582 1.000000
112.286354 -365.983185 2.867908 1.000000
112.286354 -365.983185 1.132093 1.000000
115.779381 -354.161774 -0.000013 0.339193
120.403862 -338.511169 -0.000003 0.216953
122.389290 -331.791931 -0.000007 0.231183
123.495071 -328.049622 -0.000009 0.204770
124.201027 -325.660492 -0.000010 0.235898
124.691681 -323.999939 -0.000011 0.245377
125.053185 -322.776550 -0.000012 0.249889
121.768768 -333.420807 6.790222 0.381735
122.425690 -331.253418 5.641166 0.396582
122.088036 -332.367432 5.279387 0.393057
121.558235 -334.115417 4.944388 0.383459
121.522072 -334.234741 4.297838 0.396292
111.926834 -365.892853 6.350212 1.000000
111.926834 -365.892853 4.606395 1.000000
111.926834 -365.892853 2.868178 1.000000
111.926834 -365.892853 1.131822 1.000000
115.507111 -354.080231 -0.000010 0.337911
120.240730 -338.462372 -0.000003 0.232188
122.273018 -331.757111 -0.000007 0.227844
123.404900 -328.022644 -0.000009 0.206793
124.127510 -325.638489 -0.000010 0.252390
124.629753 -323.981415 -0.000011 0.241488
124.999779 -322.760559 -0.000012 0.229771
121.108704 -335.095123 7.239672 0.393774
122.307167 -331.238190 5.645535 0.391363
111.567062 -365.802460 11.657062 1.000000
121.422897 -334.083984 4.945820 0.391379
121.411369 -334.121094 4.289076 0.393713
111.567062 -365.802460 6.351782 1.000000
111.567055 -365.802490 4.607336 1.000000
111.567062 -365.802460 2.868490 1.000000
111.567062 -365.802460 1.131509 1.000000
115.235428 -353.996765 -0.000006 0.338186
120.077934 -338.412384 -0.000003 0.227282
122.156990 -331.721497 -0.000007 0.247256
123.314911 -327.995026 -0.000009 0.222483
124.054146 -325.615967 -0.000010 0.255705
124.567947 -323.962433 -0.000011 0.215050
124.946487 -322.744202 -0.000012 0.254437
nan nan nan 0.000000
122.066513 -331.605621 5.736834 0.415610
121.382469 -333.753998 5.558417 0.364706
120.879684 -335.333069 5.146748 0.397543
121.626320 -332.988129 4.157324 0.401038
111.180176 -365.796295 6.360820 1.000000
111.180176 -365.796295 4.612750 1.000000
