# This PCD file was generated using the MATLAB® pcwrite function
# from Computer Vision Toolbox®.
# .PCD v.7 - Point Cloud Data file format
VERSION .7
FIELDS x y z intensity
SIZE 4 4 4 4
TYPE F F F F
COUNT 1 1 1 1
WIDTH 1170
HEIGHT 1
VIEWPOINT 0 0 0 1 0 0 0
POINTS 1170
DATA ascii
96.141113 -312.055908 9.472967 0.653422
96.146225 -312.057007 8.294802 0.747707
96.151276 -312.058105 7.130939 0.754788
96.156250 -312.059174 5.978673 0.774746
96.161194 -312.060242 4.835386 0.785443
96.166092 -312.061310 3.698553 0.744381
96.171013 -312.062347 2.565697 0.686000
96.175964 -312.063446 1.434385 0.682902
96.180817 -312.064484 0.302188 1.000000
106.120598 -314.211060 0.000065 0.219921
112.968971 -315.690033 0.000063 0.230692
116.783150 -316.513733 0.000062 0.206111
119.218178 -317.039581 0.000061 0.258123
120.910614 -317.405090 0.000061 0.258266
122.157532 -317.674377 0.000060 0.203142
96.493431 -311.887085 10.589820 0.733837
96.498505 -311.888214 9.405344 0.338796
96.503555 -311.889343 8.237841 0.487846
96.508469 -311.890411 7.084524 0.740322
96.513351 -311.891510 5.942685 0.353521
96.518204 -311.892609 4.809741 0.314275
96.523026 -311.893677 3.683192 0.735668
96.527832 -311.894745 2.560582 0.714931
96.532654 -311.895813 1.439498 0.235660
96.537476 -311.896912 0.317535 1.000000
106.157120 -314.044739 0.000065 0.226037
112.995003 -315.571472 0.000063 0.221334
116.803337 -316.421783 0.000062 0.240949
119.234634 -316.964630 0.000061 0.218832
120.924484 -317.341949 0.000061 0.192060
122.169487 -317.619934 0.000060 0.270318
96.844559 -311.722351 10.513176 0.729503
96.849548 -311.723511 9.339278 0.748516
96.854507 -311.724640 8.182198 0.775616
96.859344 -311.725769 7.039172 0.770336
96.864143 -311.726868 5.907521 0.761181
96.868896 -311.727966 4.784687 0.754208
96.873611 -311.729065 3.668185 0.711467
96.878334 -311.730133 2.555586 0.678141
96.883057 -311.731232 1.444494 0.687922
96.887756 -311.732330 0.332527 1.000000
106.194809 -313.878693 0.000064 0.234869
113.021858 -315.453125 0.000063 0.221717
116.824165 -316.329987 0.000062 0.222578
119.251617 -316.889801 0.000062 0.247400
120.938789 -317.278900 0.000060 0.193700
122.181816 -317.565582 0.000060 0.262838
97.189514 -311.560547 10.438297 0.784360
97.194458 -311.561737 9.274718 0.782422
97.199272 -311.562866 8.127834 0.756252
97.204010 -311.563995 6.994867 0.772396
97.208710 -311.565125 5.873171 0.789334
97.213379 -311.566223 4.760211 0.773037
97.218018 -311.567352 3.653524 0.753185
97.222641 -311.568451 2.550704 0.736522
97.227303 -311.569550 1.449375 0.712886
97.231857 -311.570618 0.347175 1.000000
106.233650 -313.712891 0.000064 0.227018
113.049538 -315.334961 0.000062 0.234414
116.845642 -316.238373 0.000062 0.213423
119.269119 -316.815094 0.000061 0.249865
120.953537 -317.215973 0.000060 0.184137
122.194534 -317.511292 0.000059 0.241200
97.528450 -311.401550 10.365128 0.773846
97.533279 -311.402740 9.211656 0.245792
97.537933 -311.403900 8.074734 0.768322
97.542610 -311.405029 6.951586 0.743175
97.547272 -311.406189 5.839608 0.365667
97.551804 -311.407288 4.736299 0.274723
97.556381 -311.408417 3.639200 0.708598
97.560944 -311.409546 2.545932 0.704143
97.565506 -311.410645 1.454144 0.235203
97.569992 -311.411743 0.361487 0.744656
106.273651 -313.547394 0.000064 0.228897
113.078049 -315.216980 0.000062 0.216906
116.867752 -316.146851 0.000062 0.223955
119.287148 -316.740509 0.000061 0.209354
120.968719 -317.153137 0.000060 0.228239
122.207626 -317.457123 0.000059 0.239968
97.861557 -311.245300 10.293621 0.766674
97.866272 -311.246490 9.150024 0.777707
97.870903 -311.247650 8.022814 0.788785
97.875504 -311.248810 6.909269 0.777646
97.880051 -311.249969 5.806803 0.756130
97.884567 -311.251099 4.712919 0.734462
97.888977 -311.252228 3.625200 0.721874
97.893456 -311.253357 2.541271 0.713985
97.897942 -311.254486 1.458805 0.712947
97.902344 -311.255585 0.375477 0.715053
106.314804 -313.382141 0.000064 0.227078
113.107384 -315.099213 0.000062 0.231470
116.890495 -316.055542 0.000062 0.224290
119.305695 -316.666046 0.000061 0.301435
120.984344 -317.090393 0.000060 0.212920
122.221100 -317.403015 0.000059 0.255370
98.189087 -311.091675 10.223713 0.767803
98.193665 -311.092865 9.089775 0.760143
98.198235 -311.094055 7.972065 0.740734
98.202751 -311.095215 6.867910 0.706950
98.207191 -311.096375 5.774740 0.686305
98.211594 -311.097534 4.690072 0.687724
98.215988 -311.098663 3.611513 0.675700
98.220375 -311.099823 2.536714 0.680629
98.224770 -311.100952 1.463362 0.690593
98.229080 -311.102081 0.389151 0.701091
106.357109 -313.217194 0.000064 0.236748
113.137535 -314.981659 0.000062 0.221956
116.913879 -315.964355 0.000061 0.253216
119.324753 -316.591736 0.000060 0.236605
121.000404 -317.027771 0.000059 0.209318
122.234947 -317.349030 0.000059 0.259260
98.511078 -310.940613 10.155388 0.743679
98.515640 -310.941833 9.030861 0.275395
98.520180 -310.943024 7.922437 0.719676
98.524559 -310.944214 6.827472 0.709728
98.528900 -310.945374 5.743388 0.320043
98.533188 -310.946503 4.667737 0.263203
98.537537 -310.947693 3.598132 0.711513
98.541847 -310.948822 2.532257 0.717433
98.546104 -310.949982 1.467815 0.224384
98.550369 -310.951111 0.402520 0.728557
106.400566 -313.052551 0.000064 0.224852
113.168503 -314.864288 0.000061 0.242313
116.937897 -315.873352 0.000061 0.206553
119.344345 -316.517548 0.000061 0.248237
121.016907 -316.965271 0.000059 0.233541
122.249176 -317.295135 0.000059 0.217899
98.827850 -310.792023 10.088559 0.726040
98.832321 -310.793243 8.973259 0.693904
98.836708 -310.794464 7.873936 0.679820
98.841049 -310.795654 6.787936 0.670192
98.845314 -310.796814 5.712735 0.686778
98.849533 -310.798004 4.645894 0.685039
98.853729 -310.799133 3.585053 0.683223
98.857986 -310.800323 2.527901 0.646418
98.862221 -310.801483 1.472170 0.639612
98.866402 -310.802643 0.415592 0.654994
106.445168 -312.888245 0.000063 0.227473
113.200294 -314.747162 0.000061 0.215649
116.962555 -315.782501 0.000061 0.203502
119.364441 -316.443481 0.000060 0.261713
121.033836 -316.902893 0.000059 0.263676
122.263771 -317.241333 0.000058 0.212681
99.139481 -310.645844 10.023207 0.734203
99.143845 -310.647095 8.916933 0.720378
99.148163 -310.648315 7.826494 0.730739
99.152420 -310.649506 6.749272 0.746319
99.156631 -310.650696 5.682755 0.746166
99.160820 -310.651886 4.624527 0.745647
99.164978 -310.653076 3.572252 0.721370
99.169128 -310.654236 2.523639 0.693721
99.173279 -310.655396 1.476431 0.687144
99.177399 -310.656586 0.428381 0.711070
106.490921 -312.724213 0.000063 0.235157
113.232910 -314.630280 0.000062 0.244372
116.987846 -315.691833 0.000061 0.252366
119.385056 -316.369568 0.000060 0.254102
121.051208 -316.840607 0.000059 0.260074
122.278748 -317.187653 0.000058 0.270270
99.446075 -310.502014 9.959303 0.695949
99.450386 -310.503265 8.861840 0.532174
99.454620 -310.504486 7.780095 0.688884
99.458824 -310.505707 6.711454 0.691356
99.462936 -310.506897 5.653436 0.441657
99.466995 -310.508087 4.603641 0.493385
99.471077 -310.509277 3.559742 0.714122
99.475204 -310.510468 2.519472 0.620584
99.479187 -310.511627 1.480596 0.330266
99.483337 -310.512817 0.440885 0.725002
106.537811 -312.560516 0.000063 0.219503
113.266335 -314.513580 0.000061 0.217073
117.013771 -315.601349 0.000060 0.231411
119.406189 -316.295807 0.000059 0.286271
121.069008 -316.778473 0.000059 0.241835
122.294098 -317.134064 0.000058 0.251445
99.747856 -310.360443 9.896786 0.759365
99.752106 -310.361694 8.807949 0.487724
99.756256 -310.362946 7.734707 0.753994
99.760353 -310.364166 6.674466 0.757137
99.764404 -310.365356 5.624757 0.666789
99.768440 -310.366577 4.583201 0.652522
99.772430 -310.367737 3.547500 0.758190
99.776428 -310.368927 2.515397 0.728725
99.780411 -310.370117 1.484671 0.693690
99.784454 -310.371338 0.453116 0.752636
106.585846 -312.397156 0.000063 0.240841
113.300568 -314.397156 0.000061 0.236305
117.040321 -315.511047 0.000060 0.213375
119.427834 -316.222198 0.000059 0.218761
121.087242 -316.716461 0.000058 0.260133
122.309822 -317.080597 0.000058 0.247076
100.044998 -310.221069 9.835608 0.670085
100.049088 -310.222321 8.755234 0.664775
100.053200 -310.223572 7.690301 0.665522
100.057243 -310.224823 6.638273 0.670161
100.061234 -310.226044 5.596694 0.673625
100.065170 -310.227234 4.563206 0.680507
100.069107 -310.228424 3.535523 0.697932
100.073029 -310.229645 2.511408 0.706035
100.076935 -310.230835 1.488658 0.725093
100.080910 -310.232056 0.465083 0.739635
106.635025 -312.234131 0.000062 0.226049
113.335617 -314.280975 0.000061 0.247711
117.067505 -315.420929 0.000060 0.252486
119.449997 -316.148712 0.000059 0.199696
121.105911 -316.654541 0.000058 0.252534
122.325920 -317.027222 0.000058 0.251768
100.337440 -310.083801 9.775784 0.734905
100.341537 -310.085083 8.703649 0.738308
100.345573 -310.086334 7.646854 0.743053
100.349564 -310.087585 6.602862 0.746868
100.353516 -310.088837 5.569234 0.704952
100.357422 -310.090057 4.543636 0.583078
100.361275 -310.091278 3.523802 0.766690
100.365105 -310.092468 2.507505 0.650965
100.368935 -310.093658 1.492560 0.652277
100.372818 -310.094879 0.476792 0.753429
106.685333 -312.071442 0.000062 0.229316
113.371475 -314.165009 0.000061 0.230166
117.095314 -315.331024 0.000060 0.257058
119.472664 -316.075409 0.000059 0.208552
121.125015 -316.592804 0.000058 0.225367
122.342392 -316.973969 0.000057 0.253695
100.625610 -309.948639 9.717205 0.633158
100.629601 -309.949921 8.653158 0.231662
100.633545 -309.951202 7.604336 0.750866
100.637444 -309.952454 6.568211 0.753887
100.641342 -309.953705 5.542367 0.188434
100.645187 -309.954926 4.524491 0.657557
100.648972 -309.956146 3.512333 0.646723
100.652740 -309.957367 2.503687 0.672847
100.656517 -309.958557 1.496378 0.224598
100.660324 -309.959778 0.488251 0.684672
106.736778 -311.909119 0.000062 0.237179
113.408150 -314.049316 0.000060 0.231602
117.123749 -315.241302 0.000059 0.196823
119.495850 -316.002258 0.000059 0.253132
121.144547 -316.531158 0.000058 0.250200
122.359230 -316.920837 0.000057 0.223727
100.909470 -309.815521 9.659873 0.729091
100.913383 -309.816803 8.603741 0.745098
100.917252 -309.818054 7.562715 0.736675
100.921089 -309.819336 6.534290 0.714656
100.924881 -309.820587 5.516071 0.717479
100.928642 -309.821808 4.505756 0.713466
100.932381 -309.823029 3.501111 0.705745
100.936089 -309.824249 2.499949 0.763363
100.939796 -309.825470 1.500115 0.749447
100.943550 -309.826721 0.499466 0.743893
106.789352 -311.747162 0.000062 0.227449
113.445618 -313.933868 0.000060 0.229065
117.152817 -315.151764 0.000059 0.267805
119.519539 -315.929291 0.000058 0.218916
121.164505 -316.469696 0.000057 0.210108
122.376442 -316.867828 0.000057 0.266333
101.189110 -309.684326 9.603769 0.764736
101.192978 -309.685608 8.555376 0.770642
101.196777 -309.686890 7.521980 0.778592
101.200554 -309.688171 6.501089 0.771099
101.204285 -309.689423 5.490329 0.751842
101.207962 -309.690643 4.487414 0.770855
101.211571 -309.691864 3.490128 0.762768
101.215240 -309.693085 2.496292 0.706264
101.218895 -309.694336 1.503772 0.734035
101.222618 -309.695587 0.510445 0.774441
106.843063 -311.585571 0.000061 0.225546
113.483910 -313.818695 0.000060 0.226659
117.182503 -315.062439 0.000059 0.226552
119.543747 -315.856476 0.000058 0.214727
121.184898 -316.408325 0.000057 0.234869
122.394020 -316.814941 0.000056 0.216271
101.464706 -309.555023 9.548841 0.479713
101.468475 -309.556305 8.508035 0.486748
101.472198 -309.557587 7.482111 0.682078
101.475922 -309.558868 6.468592 0.709972
101.479607 -309.560150 5.465132 0.557153
101.483253 -309.561401 4.469458 0.717327
101.486870 -309.562653 3.479368 0.675441
101.490479 -309.563873 2.492708 0.694377
101.494003 -309.565094 1.507353 0.535271
101.497650 -309.566345 0.521192 0.753384
106.897903 -311.424377 0.000061 0.225139
113.522987 -313.703796 0.000059 0.221717
117.212814 -314.973328 0.000059 0.213806
119.568459 -315.783813 0.000058 0.213734
121.205711 -316.347137 0.000057 0.229388
122.411972 -316.762146 0.000056 0.199959
101.736389 -309.427582 9.495058 0.363912
101.740120 -309.428894 8.461669 0.345510
101.743774 -309.430176 7.443060 0.724483
101.747391 -309.431458 6.436774 0.720989
101.751007 -309.432739 5.440460 0.194430
101.754623 -309.433990 4.451876 0.728817
101.758156 -309.435242 3.468838 0.746639
101.761688 -309.436493 2.489201 0.708339
101.765198 -309.437714 1.510859 0.318975
101.768753 -309.438965 0.531713 0.776776
106.953857 -311.263550 0.000061 0.229185
113.562866 -313.589172 0.000059 0.229939
117.243744 -314.884430 0.000058 0.249410
119.593666 -315.711334 0.000057 0.242122
121.226959 -316.286072 0.000057 0.227198
122.430290 -316.709503 0.000056 0.220508
102.004227 -309.301941 9.442402 0.761837
102.007881 -309.303253 8.416281 0.763439
102.011536 -309.304565 7.404820 0.758953
102.015121 -309.305847 6.405602 0.693477
102.018623 -309.307129 5.416300 0.765499
102.022125 -309.308380 4.434664 0.723934
102.025658 -309.309631 3.458525 0.699962
102.029129 -309.310883 2.485767 0.666163
102.032608 -309.312134 1.514293 0.689525
102.036034 -309.313385 0.542017 0.719570
107.010933 -311.103119 0.000060 0.238591
113.603554 -313.474823 0.000059 0.221370
117.275299 -314.795746 0.000058 0.191725
119.619392 -315.639038 0.000057 0.291465
121.248627 -316.225159 0.000056 0.195639
122.448975 -316.657013 0.000055 0.233864
102.268326 -309.178040 9.390840 0.729122
102.271889 -309.179352 8.371841 0.755734
102.275406 -309.180634 7.367405 0.767056
102.278923 -309.181946 6.375110 0.748714
102.282425 -309.183228 5.392652 0.743709
102.285896 -309.184509 4.417810 0.731868
102.289383 -309.185791 3.448429 0.702281
102.292847 -309.187042 2.482404 0.761517
102.296265 -309.188324 1.517655 0.723598
102.299606 -309.189545 0.552106 0.751202
107.069130 -310.943085 0.000060 0.228957
113.645035 -313.360779 0.000059 0.243127
117.307465 -314.707306 0.000057 0.246502
119.645615 -315.566925 0.000057 0.212585
121.270721 -316.164429 0.000056 0.232248
122.468025 -316.604614 0.000055 0.222997
102.528793 -309.055817 9.340347 0.545571
102.532295 -309.057129 8.328316 0.523537
102.535782 -309.058441 7.330740 0.759655
102.539215 -309.059753 6.345232 0.782406
102.542664 -309.061035 5.369484 0.541497
102.546127 -309.062347 4.401298 0.753063
102.549500 -309.063599 3.438542 0.765942
102.552841 -309.064880 2.479113 0.719173
102.556274 -309.066162 1.520947 0.463905
102.559570 -309.067383 0.561987 0.794171
107.128448 -310.783478 0.000060 0.221741
113.687309 -313.247009 0.000058 0.220855
117.340248 -314.619080 0.000057 0.208229
119.672348 -315.494995 0.000056 0.207834
121.293236 -316.103821 0.000055 0.230298
122.487442 -316.552368 0.000055 0.206613
102.785698 -308.935272 9.290900 0.238315
102.789223 -308.936615 8.285674 0.391760
102.792656 -308.937927 7.294826 0.721508
102.796036 -308.939240 6.315959 0.678782
102.799416 -308.940521 5.346790 0.283818
102.802788 -308.941803 4.385128 0.720027
102.806129 -308.943085 3.428855 0.712749
102.809448 -308.944366 2.475887 0.699260
102.812790 -308.945648 1.524172 0.478752
102.816040 -308.946899 0.571666 0.739818
107.188873 -310.624268 0.000060 0.231554
113.730377 -313.133545 0.000058 0.248405
117.373650 -314.531067 0.000057 0.218916
119.699577 -315.423279 0.000056 0.197242
121.316177 -316.043396 0.000055 0.245102
122.507217 -316.500244 0.000054 0.253180
103.039261 -308.816315 9.242446 0.731136
103.042725 -308.817688 8.243907 0.741253
103.046097 -308.819000 7.259646 0.714168
103.049454 -308.820313 6.287282 0.795514
103.052765 -308.821625 5.324557 0.778149
103.056053 -308.822906 4.369289 0.728374
103.059326 -308.824188 3.419369 0.735561
103.062599 -308.825470 2.472727 0.805844
103.065880 -308.826752 1.527330 0.732219
103.069084 -308.828003 0.581146 0.785870
107.250412 -310.465515 0.000060 0.233325
113.774231 -313.020386 0.000057 0.218964
117.407669 -314.443298 0.000056 0.215769
119.727303 -315.351715 0.000055 0.245580
121.339539 -315.983093 0.000055 0.212453
122.527359 -316.448273 0.000054 0.214572
103.289452 -308.698944 9.194986 0.742489
103.292847 -308.700317 8.203000 0.739879
103.296196 -308.701660 7.225188 0.714931
103.299492 -308.702972 6.259199 0.669688
103.302734 -308.704254 5.302784 0.716014
103.305962 -308.705566 4.353776 0.732784
103.309204 -308.706848 3.410075 0.750774
103.312439 -308.708130 2.469632 0.610269
103.315643 -308.709412 1.530424 0.672862
103.318779 -308.710663 0.590431 0.748226
107.313049 -310.307159 0.000059 0.216355
113.818886 -312.907501 0.000057 0.222279
117.442291 -314.355774 0.000056 0.205452
119.755531 -315.280365 0.000055 0.188518
121.363319 -315.923004 0.000054 0.225726
122.547867 -316.396454 0.000054 0.219143
103.536392 -308.583099 9.148497 0.511635
103.539719 -308.584442 8.162926 0.585260
103.543015 -308.585785 7.191435 0.753582
103.546280 -308.587128 6.231688 0.819593
103.549484 -308.588440 5.281451 0.554589
103.552673 -308.589722 4.338573 0.722286
103.555824 -308.591034 3.400970 0.707500
103.558960 -308.592285 2.466601 0.709331
103.562157 -308.593597 1.533455 0.509041
103.565269 -308.594879 0.599531 0.739910
107.376801 -310.149261 0.000059 0.221980
113.864319 -312.794983 0.000057 0.253778
117.477531 -314.268494 0.000056 0.237742
119.784256 -315.209198 0.000055 0.210203
121.387520 -315.863037 0.000054 0.237945
122.568733 -316.344757 0.000053 0.250009
103.780167 -308.468719 9.102945 0.186603
103.783463 -308.470093 8.123659 0.557122
103.786682 -308.471436 7.158366 0.755215
103.789886 -308.472748 6.204736 0.761227
103.793045 -308.474060 5.260554 0.202045
103.796173 -308.475372 4.323682 0.739757
103.799301 -308.476685 3.392050 0.754208
103.802406 -308.477966 2.463630 0.684184
103.805527 -308.479248 1.536425 0.241321
103.808640 -308.480560 0.608447 0.750332
107.441650 -309.991821 0.000059 0.223500
113.910538 -312.682739 0.000056 0.223033
117.513374 -314.181458 0.000055 0.247292
119.813477 -315.138245 0.000054 0.259655
121.412140 -315.803284 0.000053 0.245557
122.589966 -316.293213 0.000053 0.204351
104.020844 -308.355774 9.058323 0.710170
104.024086 -308.357147 8.085191 0.702876
104.027283 -308.358490 7.125961 0.715755
104.030434 -308.359833 6.178326 0.795560
104.033539 -308.361145 5.240078 0.755917
104.036629 -308.362457 4.309092 0.654597
104.039688 -308.363770 3.383310 0.719524
104.042763 -308.365051 2.460720 0.680308
104.045822 -308.366364 1.539335 0.705272
104.048904 -308.367676 0.617181 0.685863
107.507584 -309.834839 0.000058 0.230836
113.957542 -312.570862 0.000056 0.230585
117.549828 -314.094666 0.000055 0.263664
119.843201 -315.067505 0.000054 0.207511
121.437180 -315.743683 0.000053 0.282322
122.611549 -316.241821 0.000052 0.171428
104.258530 -308.244232 9.014593 0.749432
104.261726 -308.245605 8.047495 0.740673
104.264877 -308.246979 7.094212 0.763851
104.267967 -308.248322 6.152450 0.710048
104.271049 -308.249634 5.220011 0.756786
104.274094 -308.250977 4.294792 0.730465
104.277122 -308.252258 3.374744 0.705150
104.280136 -308.253571 2.457867 0.699809
104.283150 -308.254883 1.542187 0.749096
104.286186 -308.256195 0.625740 0.742672
107.574631 -309.678284 0.000057 0.232595
114.005318 -312.459290 0.000055 0.229735
117.586884 -314.008148 0.000055 0.240123
119.873413 -314.996979 0.000054 0.212789
121.462631 -315.684235 0.000053 0.233852
122.633492 -316.190582 0.000052 0.266620
104.493324 -308.134064 8.971735 0.709499
104.496490 -308.135468 8.010544 0.759274
104.499573 -308.136841 7.063094 0.746899
104.502617 -308.138153 6.127089 0.708965
104.505623 -308.139496 5.200352 0.695796
104.508621 -308.140808 4.280782 0.772503
104.511620 -308.142120 3.366351 0.762463
104.514610 -308.143463 2.455072 0.616220
104.517570 -308.144745 1.544981 0.574807
104.520531 -308.146057 0.634127 0.764752
107.642761 -309.522247 0.000057 0.228634
114.053886 -312.348053 0.000056 0.225678
117.624542 -313.921906 0.000054 0.267793
119.904114 -314.926666 0.000053 0.233816
121.488495 -315.625000 0.000052 0.202963
122.655800 -316.139496 0.000052 0.276470
104.725281 -308.025238 8.929731 0.264027
104.728416 -308.026642 7.974334 0.731563
104.731461 -308.028015 7.032592 0.676005
104.734459 -308.029358 6.102229 0.713039
104.737411 -308.030701 5.181077 0.228916
104.740356 -308.032013 4.267048 0.627985
104.743294 -308.033325 3.358126 0.686519
104.746231 -308.034668 2.452333 0.392737
104.749161 -308.035980 1.547720 0.215610
104.752075 -308.037262 0.642346 0.667857
107.711975 -309.366669 0.000057 0.236892
114.103218 -312.237183 0.000055 0.223165
117.662811 -313.835907 0.000054 0.270534
119.935303 -314.856537 0.000053 0.230932
121.514771 -315.565948 0.000052 0.239561
122.678452 -316.088593 0.000051 0.190684
104.954483 -307.917725 8.888563 0.618265
104.957565 -307.919128 7.938846 0.741650
104.960571 -307.920502 7.002700 0.742306
104.963531 -307.921875 6.077864 0.727886
104.966446 -307.923187 5.162185 0.707347
104.969337 -307.924530 4.253589 0.758938
104.972221 -307.925842 3.350063 0.738399
104.975105 -307.927155 2.449648 0.711971
104.978020 -307.928497 1.550405 0.741024
104.980881 -307.929810 0.650404 0.744152
107.782288 -309.211578 0.000057 0.234295
114.153328 -312.126617 0.000055 0.252773
117.701675 -313.750153 0.000054 0.222112
119.966980 -314.786652 0.000053 0.205919
121.541466 -315.507050 0.000052 0.226252
122.701469 -316.037811 0.000051 0.258506
105.180939 -307.811432 8.848224 0.745724
105.183937 -307.812836 7.904084 0.702205
105.186890 -307.814209 6.973422 0.747738
105.189812 -307.815582 6.054002 0.738735
105.192703 -307.816925 5.143681 0.768368
105.195572 -307.818268 4.240399 0.741482
105.198418 -307.819580 3.342163 0.727123
105.201263 -307.820923 2.447017 0.737133
105.204117 -307.822235 1.553035 0.718578
105.206940 -307.823547 0.658298 0.733654
107.853668 -309.056976 0.000057 0.227162
114.204208 -312.016449 0.000054 0.224637
117.741127 -313.664703 0.000053 0.206290
119.999153 -314.716980 0.000052 0.185322
121.568558 -315.448364 0.000051 0.218665
122.724838 -315.987213 0.000051 0.210670
105.404778 -307.706390 8.808681 0.670848
105.407730 -307.707794 7.869998 0.693950
105.410645 -307.709167 6.944712 0.742885
105.413528 -307.710541 6.030600 0.661936
105.416389 -307.711914 5.125535 0.772839
105.419220 -307.713257 4.227468 0.667933
105.422035 -307.714600 3.334417 0.703365
105.424843 -307.715912 2.444437 0.692241
105.427635 -307.717255 1.555613 0.742412
105.430428 -307.718567 0.666039 0.653986
107.926125 -308.902893 0.000056 0.227102
114.255852 -311.906616 0.000054 0.241476
117.781181 -313.579529 0.000052 0.231722
120.031799 -314.647552 0.000052 0.242433
121.596069 -315.389862 0.000050 0.190086
122.748550 -315.936768 0.000050 0.247292
105.626106 -307.602570 8.769911 0.727092
105.629028 -307.603973 7.836573 0.750042
105.631897 -307.605377 6.916559 0.752621
105.634735 -307.606750 6.007656 0.747646
105.637550 -307.608093 5.107744 0.737331
105.640312 -307.609436 4.214793 0.745678
105.643082 -307.610779 3.326824 0.731151
105.645844 -307.612122 2.441909 0.703624
105.648598 -307.613434 1.558141 0.761364
105.651352 -307.614777 0.673626 0.738964
107.999657 -308.749298 0.000055 0.230250
114.308266 -311.797150 0.000053 0.211544
117.821823 -313.494629 0.000052 0.260516
120.064941 -314.578339 0.000051 0.230441
121.623993 -315.331543 0.000050 0.232500
122.772629 -315.886475 0.000050 0.271838
105.844933 -307.499939 8.731906 0.742855
105.847778 -307.501312 7.803818 0.730678
105.850609 -307.502716 6.888971 0.721904
105.853394 -307.504089 5.985171 0.738338
105.856163 -307.505432 5.090312 0.784802
105.858902 -307.506805 4.202370 0.746563
105.861633 -307.508148 3.319383 0.741390
105.864357 -307.509460 2.439431 0.743618
105.867073 -307.510803 1.560619 0.730312
105.869789 -307.512146 0.681063 0.740948
108.074265 -308.596222 0.000055 0.231746
114.361435 -311.688049 0.000052 0.258039
117.863068 -313.410034 0.000052 0.218126
120.098557 -314.509369 0.000050 0.220388
121.652313 -315.273438 0.000050 0.211735
122.797043 -315.836395 0.000049 0.198176
106.061325 -307.398407 8.694649 0.706813
106.064140 -307.399811 7.771699 0.677577
106.066895 -307.401184 6.861926 0.702632
106.069641 -307.402588 5.963127 0.675044
106.072372 -307.403931 5.073220 0.785473
106.075073 -307.405304 4.190190 0.689433
106.077759 -307.406647 3.312088 0.697429
106.080444 -307.407990 2.437001 0.669215
106.083122 -307.409332 1.563048 0.727611
106.085785 -307.410645 0.688353 0.671077
108.149933 -308.443695 0.000054 0.238998
114.415375 -311.579315 0.000052 0.226803
117.904900 -313.325714 0.000051 0.186746
120.132660 -314.440613 0.000050 0.227772
121.681046 -315.215546 0.000050 0.245054
122.821815 -315.786438 0.000049 0.204806
106.275345 -307.298004 8.658127 0.713664
106.278076 -307.299408 7.740227 0.674449
106.280800 -307.300781 6.835413 0.714382
106.283524 -307.302185 5.941517 0.743145
106.286240 -307.303558 5.056460 0.728725
106.288864 -307.304901 4.178250 0.773556
106.291519 -307.306244 3.304935 0.725017
106.294159 -307.307587 2.434619 0.678218
106.296806 -307.308929 1.565429 0.747387
106.299423 -307.310272 0.695500 0.756115
108.226669 -308.291687 0.000054 0.228083
114.470062 -311.470978 0.000052 0.218186
117.947311 -313.241669 0.000051 0.266201
120.167236 -314.372131 0.000050 0.266225
121.710175 -315.157837 0.000049 0.201635
122.846939 -315.736694 0.000048 0.198487
106.487000 -307.198669 8.622335 0.749050
106.489746 -307.200104 7.709360 0.767361
106.492455 -307.201508 6.809412 0.720012
106.495125 -307.202881 5.920326 0.742840
106.497780 -307.204254 5.040033 0.733074
106.500404 -307.205627 4.166542 0.784939
106.503021 -307.206970 3.297921 0.751308
106.505585 -307.208313 2.432284 0.758450
106.508186 -307.209656 1.567764 0.775845
106.510757 -307.210968 0.702506 0.728206
108.304466 -308.140198 0.000054 0.243582
114.525513 -311.363007 0.000051 0.243606
117.990311 -313.157959 0.000050 0.251780
120.202293 -314.303864 0.000049 0.214787
121.739708 -315.100311 0.000049 0.260492
122.872406 -315.687103 0.000048 0.236593
106.696411 -307.100403 8.587244 0.706706
106.699112 -307.101807 7.679111 0.699001
106.701782 -307.103210 6.783934 0.662608
106.704422 -307.104614 5.899561 0.721263
106.707031 -307.105988 5.023932 0.745251
106.709625 -307.107361 4.155068 0.746456
106.712196 -307.108704 3.291049 0.735363
106.714760 -307.110046 2.429996 0.709911
106.717323 -307.111420 1.570053 0.704875
106.719833 -307.112732 0.709375 0.685283
108.383316 -307.989288 0.000053 0.223847
114.581718 -311.255432 0.000051 0.211460
118.033905 -313.074524 0.000050 0.220651
120.237831 -314.235840 0.000049 0.195208
121.769638 -315.043030 0.000048 0.230597
122.898216 -315.637695 0.000048 0.237550
106.903618 -307.003143 8.552842 0.682124
106.906281 -307.004578 7.649454 0.718212
106.908920 -307.005981 6.758955 0.763073
106.911514 -307.007385 5.879201 0.717311
106.914085 -307.008759 5.008147 0.794095
106.916641 -307.010132 4.143820 0.791379
106.919159 -307.011475 3.284312 0.745586
106.921677 -307.012817 2.427752 0.722026
106.924202 -307.014160 1.572295 0.727825
106.926720 -307.015503 0.716109 0.789029
108.463211 -307.838898 0.000052 0.234139
114.638664 -311.148254 0.000051 0.251983
118.078064 -312.991394 0.000049 0.220687
120.273834 -314.168091 0.000048 0.220089
121.799973 -314.985931 0.000047 0.293476
122.924370 -315.588470 0.000047 0.212430
106.957802 -306.824677 8.562153 0.763088
106.958557 -306.825104 7.657950 0.721904
106.959305 -306.825500 6.766500 0.702617
106.960037 -306.825897 5.885666 0.756405
106.960777 -306.826294 5.013400 0.756527
106.961502 -306.826691 4.147734 0.757626
106.962219 -306.827087 3.286758 0.772946
106.962944 -306.827484 2.428599 0.764874
106.963661 -306.827881 1.571414 0.751629
106.964386 -306.828278 0.713363 0.759014
108.544159 -307.689087 0.000052 0.229484
114.696365 -311.041473 0.000050 0.214213
118.122810 -312.908600 0.000049 0.240530
120.310310 -314.100586 0.000048 0.228562
121.830704 -314.929047 0.000047 0.227701
122.950867 -315.539429 0.000046 0.205919
106.818466 -306.538391 8.627274 0.752575
106.819221 -306.538818 7.714100 0.705501
106.819977 -306.539246 6.813802 0.691310
106.820724 -306.539642 5.924224 0.725093
106.821472 -306.540070 5.043302 0.752728
106.822205 -306.540466 4.169045 0.749813
106.822945 -306.540894 3.299525 0.732479
106.823677 -306.541290 2.432852 0.706004
106.824402 -306.541687 1.567162 0.700435
106.825142 -306.542114 0.700598 0.674311
108.626152 -307.539856 0.000051 0.230549
114.754799 -310.935120 0.000049 0.246143
118.168137 -312.826080 0.000048 0.215864
120.347260 -314.033325 0.000047 0.217959
121.861832 -314.872406 0.000047 0.255466
122.977707 -315.490601 0.000046 0.278145
106.676361 -306.246399 8.694017 0.715938
106.677124 -306.246826 7.771646 0.696803
106.677879 -306.247253 6.862284 0.672465
106.678619 -306.247650 5.963749 0.761639
106.679375 -306.248077 5.073954 0.765591
106.680122 -306.248505 4.190890 0.740719
106.680862 -306.248932 3.312613 0.725887
106.681610 -306.249359 2.437212 0.702647
106.682350 -306.249756 1.562803 0.707088
106.683098 -306.250183 0.687512 0.768963
108.709190 -307.391205 0.000051 0.237406
114.813980 -310.829163 0.000049 0.237406
118.214035 -312.743927 0.000047 0.191546
120.384682 -313.966339 0.000047 0.215529
121.893356 -314.815948 0.000046 0.233026
123.004883 -315.441925 0.000045 0.218258
106.531319 -305.948395 8.762467 0.343481
106.532089 -305.948853 7.830663 0.298650
106.532852 -305.949280 6.912000 0.226535
106.533607 -305.949707 6.004278 0.275837
106.534370 -305.950165 5.105383 0.750866
106.535133 -305.950592 4.213290 0.756344
106.535889 -305.951019 3.326033 0.717906
106.536652 -305.951447 2.441680 0.774884
106.537407 -305.951874 1.558334 0.740368
106.538155 -305.952332 0.674096 0.747387
108.793259 -307.243103 0.000051 0.231423
114.873901 -310.723602 0.000048 0.238005
118.260506 -312.662079 0.000047 0.244061
120.422562 -313.899597 0.000046 0.220568
121.925278 -314.759735 0.000046 0.236078
123.032402 -315.393463 0.000045 0.218892
106.383255 -305.644226 8.832669 0.532708
106.384048 -305.644684 7.891190 0.532753
106.384819 -305.645142 6.962989 0.550011
106.385605 -305.645599 6.045840 0.519570
106.386368 -305.646057 5.137614 0.792950
106.387146 -305.646484 4.236263 0.769192
106.387917 -305.646942 3.339795 0.749950
106.388687 -305.647400 2.446264 0.741711
106.389458 -305.647827 1.553750 0.744396
106.390228 -305.648285 0.660336 0.779873
108.878349 -307.095612 0.000050 0.231411
114.934555 -310.618469 0.000048 0.226982
118.307549 -312.580536 0.000047 0.229783
120.460907 -313.833130 0.000046 0.232093
121.957581 -314.703735 0.000045 0.210036
123.060265 -315.345154 0.000044 0.230082
106.232086 -305.333679 8.904685 0.463233
106.232880 -305.334137 7.953280 0.438270
106.233681 -305.334625 7.015294 0.532494
106.234482 -305.335083 6.088476 0.441398
106.235252 -305.335541 5.170680 0.753033
106.236038 -305.335999 4.259828 0.724987
106.236832 -305.336487 3.353913 0.739834
106.237610 -305.336945 2.450967 0.687373
106.238396 -305.337402 1.549048 0.696361
106.239182 -305.337860 0.646221 0.674784
108.964485 -306.948730 0.000050 0.224517
114.995949 -310.513794 0.000048 0.208337
118.355156 -312.499329 0.000046 0.211604
120.499725 -313.766937 0.000045 0.262730
121.990280 -314.647980 0.000045 0.255167
123.088455 -315.297089 0.000044 0.198343
106.077682 -305.016479 8.978578 0.347738
106.078499 -305.016968 8.016989 0.241367
106.079315 -305.017456 7.068960 0.332982
106.080132 -305.017944 6.132225 0.259083
106.080917 -305.018402 5.204606 0.800595
106.081726 -305.018890 4.284006 0.683162
106.082520 -305.019379 3.368398 0.734066
106.083313 -305.019867 2.455792 0.716258
106.084106 -305.020325 1.544223 0.727031
106.084908 -305.020813 0.631737 0.753841
109.051636 -306.802429 0.000049 0.234259
115.058060 -310.409515 0.000047 0.233373
118.403328 -312.418457 0.000045 0.224170
120.538994 -313.701019 0.000045 0.219622
122.023369 -314.592438 0.000044 0.242289
123.116982 -315.249207 0.000044 0.199696
105.919937 -304.692383 9.054419 0.449729
105.920776 -304.692902 8.082374 0.527657
105.921616 -304.693420 7.124039 0.526131
105.922440 -304.693939 6.177123 0.518639
105.923233 -304.694397 5.239427 0.756725
105.924049 -304.694916 4.308824 0.712657
105.924866 -304.695404 3.383267 0.727596
105.925667 -304.695892 2.460744 0.759106
105.926476 -304.696381 1.539271 0.708217
105.927292 -304.696899 0.616873 0.778836
109.139809 -306.656769 0.000048 0.231698
115.120903 -310.305695 0.000046 0.231219
118.452065 -312.337952 0.000045 0.232236
120.578728 -313.635376 0.000044 0.217624
122.056839 -314.537140 0.000043 0.205189
123.145844 -315.201508 0.000043 0.282980
105.758713 -304.361176 9.132277 0.678614
105.759575 -304.361725 8.149498 0.593240
105.760429 -304.362244 7.180586 0.741848
105.761269 -304.362762 6.223219 0.590341
105.762070 -304.363281 5.275174 0.665660
105.762901 -304.363770 4.334301 0.724315
105.763725 -304.364288 3.398530 0.749310
105.764557 -304.364807 2.465827 0.713588
105.765373 -304.365326 1.534188 0.689662
105.766205 -304.365814 0.601613 0.712764
109.228989 -306.511719 0.000048 0.227689
115.184471 -310.202301 0.000046 0.214895
118.501366 -312.257751 0.000044 0.234510
120.618919 -313.570007 0.000044 0.203932
122.090698 -314.482056 0.000043 0.234678
123.175041 -315.154022 0.000042 0.310003
105.593887 -304.022583 9.212222 0.728099
105.594772 -304.023132 8.218426 0.669749
105.595627 -304.023651 7.238654 0.698955
105.596489 -304.024200 6.270554 0.710811
105.597313 -304.024719 5.311880 0.677424
105.598160 -304.025269 4.360461 0.708507
105.598991 -304.025787 3.414204 0.714015
105.599838 -304.026306 2.471048 0.685634
105.600677 -304.026855 1.528968 0.728222
105.601517 -304.027374 0.585943 0.722698
109.319183 -306.367279 0.000047 0.222973
115.248756 -310.099365 0.000045 0.234079
118.551224 -312.177917 0.000044 0.230034
120.659561 -313.504913 0.000044 0.219658
122.124939 -314.427216 0.000042 0.251708
123.204567 -315.106750 0.000041 0.230202
105.425323 -303.676270 9.294343 0.753414
105.426201 -303.676819 8.289233 0.777798
105.427086 -303.677399 7.298300 0.779461
105.427963 -303.677948 6.319176 0.773434
105.428810 -303.678497 5.349585 0.769879
105.429657 -303.679016 4.387336 0.742779
105.430511 -303.679565 3.430303 0.714366
105.431381 -303.680115 2.476410 0.709300
105.432228 -303.680664 1.523606 0.779812
105.433083 -303.681213 0.569847 0.742306
109.410385 -306.223480 0.000046 0.231518
115.313759 -309.996857 0.000044 0.249697
118.601639 -312.098450 0.000044 0.224613
120.700661 -313.440125 0.000043 0.246562
122.159561 -314.372650 0.000042 0.249422
123.234421 -315.059662 0.000041 0.213172
105.252869 -303.321960 9.378719 0.781262
105.253746 -303.322510 8.361984 0.775555
105.254654 -303.323120 7.359587 0.752194
105.255547 -303.323700 6.369133 0.748623
105.256424 -303.324249 5.388324 0.755688
105.257278 -303.324829 4.414945 0.742763
105.258156 -303.325378 3.446844 0.749126
105.259026 -303.325958 2.481920 0.739635
105.259888 -303.326508 1.518097 0.704479
105.260773 -303.327087 0.553309 0.753307
109.502594 -306.080322 0.000046 0.221166
115.379478 -309.894836 0.000044 0.225056
118.652603 -312.019318 0.000043 0.224170
120.742210 -313.375610 0.000042 0.240973
122.194572 -314.318298 0.000041 0.211089
123.264603 -315.012817 0.000040 0.198212
105.076370 -302.959351 9.465434 0.746883
105.077255 -302.959930 8.436752 0.727687
105.078171 -302.960541 7.422573 0.692775
105.079079 -302.961121 6.420477 0.665599
105.079987 -302.961731 5.428141 0.683085
105.080856 -302.962311 4.443323 0.707759
105.081741 -302.962891 3.463845 0.698573
105.082626 -302.963470 2.487582 0.696544
105.083511 -302.964050 1.512435 0.727214
105.084412 -302.964630 0.536312 0.737133
109.595787 -305.937805 0.000046 0.237933
115.445908 -309.793243 0.000044 0.203741
118.704117 -311.940521 0.000042 0.228263
120.784210 -313.311401 0.000042 0.192539
122.229950 -314.264191 0.000041 0.185921
123.295113 -314.966156 0.000040 0.269839
104.895668 -302.588074 9.554587 0.738415
104.896561 -302.588684 8.513618 0.729366
104.897491 -302.589294 7.487326 0.741238
104.898415 -302.589935 6.473264 0.738033
104.899330 -302.590546 5.469076 0.718639
104.900223 -302.591125 4.472496 0.718761
104.901131 -302.591736 3.481322 0.697093
104.902039 -302.592346 2.493404 0.719097
104.902939 -302.592957 1.506614 0.712016
104.903854 -302.593567 0.518837 0.748730
109.689987 -305.795959 0.000045 0.224589
115.513046 -309.692139 0.000044 0.217779
118.756187 -311.862122 0.000042 0.245090
120.826660 -313.247467 0.000041 0.228814
122.265709 -314.210327 0.000040 0.225989
123.325943 -314.919739 0.000040 0.207714
104.710587 -302.207825 9.646273 0.775845
104.711487 -302.208435 8.592668 0.775799
104.712418 -302.209076 7.553924 0.762097
104.713371 -302.209717 6.527550 0.747982
104.714310 -302.210358 5.511172 0.733669
104.715225 -302.210999 4.502499 0.757717
104.716148 -302.211609 3.499297 0.760235
104.717072 -302.212250 2.499390 0.753124
104.717987 -302.212860 1.500628 0.709590
104.718925 -302.213501 0.500868 0.748577
109.785172 -305.654755 0.000045 0.233684
115.580887 -309.591492 0.000043 0.224182
118.808800 -311.784058 0.000041 0.218832
120.869553 -313.183838 0.000041 0.239190
122.301849 -314.156738 0.000040 0.261558
123.357101 -314.873505 0.000039 0.249338
104.520943 -301.818237 9.740591 0.712123
104.521866 -301.818848 8.673986 0.711009
104.522789 -301.819489 7.622432 0.707485
104.523773 -301.820190 6.583394 0.695781
104.524719 -301.820831 5.554480 0.680018
104.525665 -301.821472 4.533363 0.669612
104.526604 -301.822144 3.517788 0.672160
104.527542 -301.822784 2.505549 0.680079
104.528488 -301.823425 1.494469 0.683513
104.529442 -301.824097 0.482381 0.698039
109.881332 -305.514221 0.000044 0.231243
115.649422 -309.491333 0.000042 0.226193
118.861954 -311.706390 0.000041 0.208109
120.912880 -313.120514 0.000040 0.252438
122.338356 -314.103363 0.000039 0.240231
123.388580 -314.827515 0.000038 0.215541
104.326546 -301.418854 9.837654 0.716060
104.327492 -301.419525 8.757673 0.716976
104.328438 -301.420166 7.692930 0.717830
104.329422 -301.420868 6.640863 0.718685
104.330399 -301.421539 5.599045 0.720333
104.331360 -301.422211 4.565125 0.689769
104.332321 -301.422882 3.536816 0.686198
104.333282 -301.423584 2.511887 0.740642
104.334244 -301.424255 1.488132 0.731044
104.335220 -301.424927 0.463356 0.719890
109.978470 -305.374359 0.000043 0.233325
115.718666 -309.391663 0.000041 0.246837
118.915657 -311.629089 0.000041 0.222794
120.956657 -313.057495 0.000039 0.201431
122.375237 -314.050293 0.000038 0.220639
123.420380 -314.781738 0.000038 0.225451
104.127197 -301.009308 9.937580 0.747204
104.128174 -301.010010 8.843822 0.750820
104.129135 -301.010681 7.765501 0.758358
104.130112 -301.011383 6.700028 0.754803
104.131126 -301.012115 5.644924 0.751308
104.132111 -301.012817 4.597821 0.743755
104.133095 -301.013489 3.556406 0.742229
104.134071 -301.014191 2.518412 0.736584
104.135056 -301.014893 1.481608 0.714092
104.136047 -301.015594 0.443773 0.695033
110.076591 -305.235199 0.000043 0.222865
115.788597 -309.292450 0.000041 0.208755
118.969894 -311.552155 0.000040 0.212657
121.000877 -312.994781 0.000039 0.232727
122.412483 -313.997437 0.000038 0.203813
123.452499 -314.736176 0.000037 0.212154
103.922684 -300.589172 10.040481 0.706111
103.923706 -300.589905 8.932536 0.413031
103.924675 -300.590607 7.840238 0.700069
103.925636 -300.591309 6.760957 0.692912
103.926682 -300.592041 5.692173 0.476600
103.927689 -300.592773 4.631495 0.651728
103.928711 -300.593506 3.576578 0.701595
103.929710 -300.594238 2.525130 0.706538
103.930710 -300.594971 1.474890 0.711910
103.931732 -300.595703 0.423605 0.717388
110.175682 -305.096710 0.000043 0.222901
115.859222 -309.193756 0.000040 0.233936
119.024658 -311.475586 0.000039 0.214895
121.045525 -312.932373 0.000038 0.225367
122.450104 -313.944855 0.000037 0.213973
123.484932 -314.690826 0.000037 0.254401
103.712791 -300.157990 10.146491 0.765576
103.713821 -300.158752 9.023935 0.202548
103.714813 -300.159454 7.917234 0.724758
103.715820 -300.160187 6.823717 0.714443
103.716843 -300.160950 5.740848 0.251347
103.717873 -300.161682 4.666186 0.653574
103.718948 -300.162476 3.597358 0.704524
103.719978 -300.163239 2.532052 0.704952
103.721008 -300.164001 1.467969 0.705653
103.722046 -300.164734 0.402830 0.706676
110.275726 -304.958923 0.000042 0.243247
115.930534 -309.095551 0.000040 0.226827
119.079964 -311.399445 0.000038 0.252821
121.090614 -312.870270 0.000038 0.213686
122.488091 -313.892548 0.000037 0.273920
123.517685 -314.645721 0.000036 0.220867
103.497276 -299.715240 10.255739 0.773754
103.498337 -299.716034 9.118126 0.754299
103.499336 -299.716766 7.996582 0.724743
103.500381 -299.717529 6.888398 0.721004
103.501427 -299.718323 5.791005 0.715221
103.502472 -299.719086 4.701934 0.714687
103.503586 -299.719910 3.618774 0.714992
103.504623 -299.720703 2.539185 0.717922
103.505684 -299.721466 1.460837 0.720562
103.506744 -299.722260 0.381419 0.720577
110.376740 -304.821838 0.000041 0.223667
116.002525 -308.997833 0.000039 0.228454
119.135803 -311.323669 0.000038 0.238172
121.136131 -312.808502 0.000037 0.231207
122.526436 -313.840515 0.000036 0.236652
123.550751 -314.600861 0.000035 0.255729
103.275894 -299.260437 10.368369 0.744762
103.276985 -299.261261 9.215229 0.769650
103.278015 -299.262054 8.078381 0.768261
103.279083 -299.262848 6.955078 0.735332
103.280151 -299.263641 5.842713 0.714702
103.281227 -299.264465 4.738787 0.705425
103.282341 -299.265289 3.640852 0.698390
103.283401 -299.266113 2.546539 0.700053
103.284485 -299.266907 1.453484 0.699702
103.285568 -299.267731 0.359345 0.687999
110.478706 -304.685455 0.000041 0.225810
116.075195 -308.900635 0.000038 0.243019
119.192162 -311.248260 0.000037 0.222112
121.182076 -312.747040 0.000036 0.224230
122.565147 -313.788727 0.000036 0.252486
123.584122 -314.556213 0.000035 0.184772
103.048370 -298.793030 10.484538 0.722484
103.049500 -298.793884 9.315384 0.734173
103.050560 -298.794708 8.162750 0.751812
103.051651 -298.795532 7.023851 0.761913
103.052757 -298.796387 5.896045 0.762158
103.053833 -298.797211 4.776797 0.748974
103.054962 -298.798065 3.663624 0.742504
103.056061 -298.798920 2.554124 0.744900
103.057167 -298.799774 1.445900 0.756802
103.058273 -298.800598 0.336579 0.765133
110.581612 -304.549805 0.000039 0.219203
116.148560 -308.803955 0.000038 0.209509
119.249054 -311.173279 0.000036 0.224888
121.228455 -312.685913 0.000036 0.198870
122.604218 -313.737244 0.000035 0.192312
123.617813 -314.511810 0.000034 0.200139
102.814430 -298.312439 10.604403 0.743786
102.815598 -298.313354 9.418722 0.777844
102.816689 -298.314209 8.249802 0.743862
102.817810 -298.315063 7.094811 0.693645
102.818932 -298.315948 5.951076 0.711467
102.820038 -298.316803 4.816014 0.708751
102.821198 -298.317688 3.687120 0.691707
102.822311 -298.318542 2.561949 0.674784
102.823448 -298.319427 1.438075 0.682857
102.824577 -298.320313 0.313089 0.694759
110.685471 -304.414856 0.000039 0.231291
116.222580 -308.707764 0.000037 0.218437
119.306465 -311.098694 0.000036 0.227330
121.275253 -312.625092 0.000035 0.278169
122.643646 -313.686005 0.000034 0.248130
123.651810 -314.467621 0.000033 0.208372
102.573799 -297.818085 10.728124 0.612314
102.574982 -297.819000 9.525393 0.778149
102.576103 -297.819885 8.339662 0.774563
102.577263 -297.820801 7.168058 0.752636
102.578400 -297.821716 6.007877 0.732143
102.579529 -297.822601 4.856498 0.752468
102.580704 -297.823517 3.711375 0.756207
102.581863 -297.824432 2.570026 0.729320
102.583008 -297.825317 1.429997 0.707515
102.584183 -297.826233 0.288842 0.710094
110.790268 -304.280640 0.000038 0.216989
116.297272 -308.612091 0.000036 0.238639
119.364388 -311.024506 0.000036 0.227425
121.322479 -312.564606 0.000034 0.212992
122.683434 -313.635040 0.000034 0.250798
123.686111 -314.423706 0.000033 0.206769
102.326134 -297.309265 10.855895 0.839551
102.327324 -297.310211 9.635559 0.715297
102.328476 -297.311127 8.432464 0.690837
102.329666 -297.312073 7.243707 0.717357
102.330833 -297.313019 6.066541 0.744717
102.331985 -297.313934 4.898307 0.731868
102.333191 -297.314880 3.736423 0.695445
102.334366 -297.315826 2.578370 0.677607
102.335548 -297.316772 1.421656 0.721431
102.336739 -297.317719 0.263801 0.746090
110.896004 -304.147156 0.000038 0.226671
116.372635 -308.516968 0.000036 0.228466
119.422836 -310.950714 0.000035 0.226576
121.370125 -312.504456 0.000034 0.194430
122.723572 -313.584381 0.000033 0.213973
123.720726 -314.380005 0.000032 0.222818
102.071060 -296.785278 10.987920 0.881529
102.072304 -296.786285 9.749378 0.732754
102.073502 -296.787231 8.528341 0.750912
102.074707 -296.788208 7.321864 0.765057
102.075897 -296.789185 6.127151 0.753948
102.077080 -296.790131 4.941504 0.752468
102.078300 -296.791138 3.762301 0.738735
102.079514 -296.792114 2.586988 0.751461
102.080727 -296.793091 1.413037 0.705165
102.081940 -296.794067 0.237928 0.715129
111.002670 -304.014435 0.000037 0.224864
116.448662 -308.422363 0.000035 0.215960
119.481796 -310.877350 0.000034 0.250607
121.418198 -312.444641 0.000033 0.229400
122.764069 -313.533966 0.000032 0.226887
123.755646 -314.336548 0.000031 0.238172
101.808281 -296.245422 11.124381 0.895689
101.809547 -296.246460 9.867031 0.738643
101.810791 -296.247467 8.627449 0.740597
101.812019 -296.248474 7.402655 0.766690
101.813248 -296.249481 6.189801 0.774350
101.814453 -296.250488 4.986153 0.762219
101.815697 -296.251495 3.789051 0.736339
101.816940 -296.252533 2.595899 0.714321
101.818184 -296.253540 1.404128 0.733547
101.819427 -296.254578 0.211186 0.734539
111.110252 -303.882446 0.000037 0.230094
116.525345 -308.328278 0.000035 0.227952
119.541260 -310.804382 0.000033 0.252378
121.466675 -312.385162 0.000032 0.238986
122.804909 -313.483887 0.000032 0.220077
123.790863 -314.293335 0.000031 0.229927
101.537384 -295.688904 11.265509 0.848386
101.538673 -295.689972 9.988710 0.707362
101.539963 -295.691040 8.729948 0.725032
101.541222 -295.692078 7.486206 0.731701
101.542465 -295.693115 6.254594 0.776043
101.543716 -295.694153 5.032331 0.769650
101.544983 -295.695221 3.816715 0.750011
101.546257 -295.696289 2.605113 0.704845
101.547531 -295.697327 1.394915 0.709163
101.548813 -295.698395 0.183529 0.726833
111.218758 -303.751190 0.000036 0.227270
116.602676 -308.234741 0.000034 0.215769
119.601242 -310.731842 0.000033 0.223560
121.515572 -312.326019 0.000032 0.226360
122.846107 -313.434052 0.000031 0.227270
123.826378 -314.250397 0.000030 0.197374
nan nan nan 0.000000
101.259293 -295.115967 10.114610 0.738216
101.260605 -295.117065 8.836004 0.757305
101.261902 -295.118164 7.572658 0.757534
101.263184 -295.119263 6.321636 0.768292
101.264458 -295.120331 5.080111 0.779293
101.265747 -295.121429 3.845341 0.757870
101.267052 -295.122528 2.614647 0.726665
101.268364 -295.123627 1.385382 0.755032
101.269676 -295.124725 0.154912 0.754086
111.328178 -303.620728 0.000036 0.219658
116.680664 -308.141754 0.000034 0.240386
119.661728 -310.659729 0.000032 0.263831
121.564880 -312.267242 0.000031 0.207487
122.887642 -313.384521 0.000030 0.205704
123.862198 -314.207672 0.000030 0.227222
nan nan nan 0.000000
100.970955 -294.523560 10.244946 0.751339
100.972290 -294.524719 8.945801 0.738491
100.973625 -294.525848 7.662160 0.729015
100.974945 -294.526978 6.391042 0.742382
100.976242 -294.528107 5.129575 0.767102
100.977562 -294.529236 3.874975 0.753063
100.978905 -294.530365 2.624516 0.741650
100.980247 -294.531525 1.375512 0.713771
100.981606 -294.532684 0.125286 0.730785
111.438499 -303.491028 0.000035 0.219562
116.759308 -308.049286 0.000033 0.232212
119.722710 -310.588013 0.000032 0.251911
121.614594 -312.208771 0.000031 0.206134
122.929527 -313.335266 0.000030 0.225690
123.898315 -314.165222 0.000029 0.185442
nan nan nan 0.000000
nan nan nan 0.000000
nan nan nan 0.000000
93.239822 -287.453186 9.216108 0.402472
92.775681 -287.049896 7.667129 0.403403
94.188934 -288.277832 5.885736 0.416648
83.304413 -278.820618 5.036475 0.732906
83.305969 -278.821960 3.011401 0.718288
83.307495 -278.823273 0.988631 0.713756
99.231140 -292.658844 0.000040 0.227437
111.549728 -303.362091 0.000034 0.223871
116.838577 -307.957397 0.000032 0.231375
119.784195 -310.516754 0.000031 0.206541
121.664719 -312.150665 0.000030 0.273454
122.971756 -313.286316 0.000029 0.206864
123.934723 -314.123016 0.000028 0.215840
nan nan nan 0.000000
nan nan nan 0.000000
nan nan nan 0.000000
