# This PCD file was generated using the MATLABÂ® pcwrite function
# from Computer Vision ToolboxÂ®.
# .PCD v.7 - Point Cloud Data file format
VERSION .7
FIELDS x y z intensity
SIZE 4 4 4 4
TYPE F F F F
COUNT 1 1 1 1
WIDTH 1157
HEIGHT 1
VIEWPOINT 0 0 0 1 0 0 0
POINTS 1157
DATA ascii
206.185852 -404.643799 7.456117 0.492592
206.186340 -404.652313 6.230466 0.852659
206.186813 -404.660797 5.014569 0.623148
206.187302 -404.669189 3.805742 0.533684
206.187775 -404.677551 2.601347 0.862638
206.188263 -404.685974 1.398790 0.679576
206.188736 -404.694458 0.195500 1.000000
206.892853 -417.012604 -0.000127 0.217229
207.292740 -424.008179 -0.000119 0.261570
207.515442 -427.904327 -0.000115 0.271299
207.660797 -430.447205 0.010008 1.000000
207.756470 -432.120941 -0.000004 0.323995
207.829269 -433.394592 -0.000002 0.339178
206.463455 -405.052673 11.107460 0.605127
206.463898 -405.061340 9.850922 0.606821
206.464325 -405.069824 8.612619 0.553628
206.464752 -405.078247 7.389549 0.587610
206.465164 -405.086578 6.178862 0.634394
206.465576 -405.094788 4.977810 0.600992
206.465988 -405.102997 3.783728 0.579400
206.466400 -405.111176 2.594017 0.553918
206.466812 -405.119354 1.406117 0.580941
206.467224 -405.127655 0.217486 1.000000
207.062912 -417.003479 -0.000128 0.227150
207.413940 -424.001678 -0.000120 0.208624
207.609436 -427.899261 -0.000115 0.247519
207.734283 -430.388123 -0.000008 0.338293
207.821030 -432.117493 -0.000004 0.336034
207.884933 -433.391602 -0.000002 0.340566
206.735855 -405.477234 10.998049 0.579553
206.736221 -405.485657 9.756636 0.529137
206.736572 -405.493988 8.533215 0.540627
206.736923 -405.502197 7.324849 0.606317
206.737289 -405.510315 6.128708 0.604395
206.737625 -405.518372 4.942078 0.624628
206.737976 -405.526367 3.762329 0.567697
206.738327 -405.534332 2.586893 0.567437
206.738663 -405.542328 1.413238 0.622965
206.739014 -405.550476 0.238856 1.000000
207.233017 -416.995514 -0.000128 0.223560
207.535187 -423.996002 -0.000121 0.240961
207.703476 -427.894867 -0.000116 0.250344
207.810928 -430.384552 -0.000008 0.343435
207.885605 -432.114471 -0.000004 0.332799
207.940613 -433.389008 -0.000002 0.332082
207.001801 -405.891724 10.891662 0.466636
207.002090 -405.899902 9.664955 0.547616
207.002380 -405.908081 8.456012 0.554925
207.002670 -405.916138 7.261935 0.537423
207.002960 -405.924072 6.079936 0.535698
207.003250 -405.931946 4.907331 0.522225
207.003525 -405.939758 3.741519 0.559350
207.003815 -405.947510 2.579965 0.564645
207.004089 -405.955292 1.420163 0.636622
207.004379 -405.963257 0.259636 1.000000
207.403183 -416.988770 -0.000129 0.218150
207.656464 -423.991180 -0.000121 0.221992
207.797531 -427.891144 -0.000117 0.204674
207.887589 -430.380920 -0.000113 0.227892
207.950195 -432.111908 -0.000004 0.338689
207.996307 -433.386780 -0.000002 0.342977
207.261520 -406.296539 10.788187 0.534218
207.261765 -406.304535 9.575779 0.515404
207.261993 -406.312531 8.380915 0.550408
207.262222 -406.320374 7.200744 0.559258
207.262451 -406.328186 6.032495 0.492653
207.262680 -406.335907 4.873528 0.572747
207.262894 -406.343506 3.721278 0.568612
207.263123 -406.351105 2.573225 0.509941
207.263336 -406.358673 1.426898 0.543984
207.263565 -406.366455 0.279849 1.000000
207.573380 -416.983185 -0.000130 0.229998
207.777771 -423.987213 -0.000122 0.230609
207.891617 -427.888062 -0.000118 0.222112
207.964279 -430.378418 -0.000114 0.215254
208.014816 -432.109802 -0.000003 0.336782
208.052017 -433.384979 -0.000002 0.328359
207.515305 -406.692017 10.687526 0.557366
207.515472 -406.699890 9.489010 0.307774
207.515656 -406.707703 8.307850 0.523980
207.515823 -406.715363 7.141205 0.577111
207.515991 -406.722992 5.986341 0.229068
207.516159 -406.730530 4.840649 0.606027
207.516327 -406.737976 3.701585 0.595850
207.516495 -406.745392 2.566669 0.348898
207.516647 -406.752808 1.433453 0.255970
207.516815 -406.760406 0.299516 1.000000
207.743622 -416.978821 -0.000130 0.230681
207.899124 -423.984100 -0.000123 0.221513
207.985718 -427.885651 -0.000118 0.246071
208.041000 -430.376434 -0.000115 0.238555
208.079437 -432.108154 -0.000003 0.335988
208.107742 -433.383545 -0.000001 0.330419
207.763336 -407.078644 10.589537 0.700130
207.763458 -407.086304 9.404566 0.251759
207.763565 -407.093933 8.236740 0.569879
207.763687 -407.101440 7.083262 0.573953
207.763794 -407.108887 5.941424 0.248341
207.763916 -407.116241 4.808647 0.581384
207.764023 -407.123535 3.682420 0.581537
207.764130 -407.130768 2.560288 0.486244
207.764236 -407.138062 1.439832 0.482506
207.764359 -407.145477 0.318658 1.000000
207.913895 -416.975616 -0.000130 0.215792
208.020477 -423.981812 -0.000124 0.222040
208.079834 -427.883881 -0.000119 0.223775
208.117722 -430.375000 -0.000116 0.236784
208.144073 -432.106934 -0.000003 0.331777
208.163483 -433.382507 -0.000001 0.339620
208.005859 -407.456665 10.494143 0.622797
208.005920 -407.464142 9.322352 0.545586
208.005981 -407.471558 8.167514 0.560708
208.006042 -407.478912 7.026849 0.536065
208.006104 -407.486176 5.897694 0.531441
208.006165 -407.493408 4.777492 0.533333
208.006226 -407.500519 3.663761 0.540185
208.006271 -407.507629 2.554075 0.612818
208.006332 -407.514771 1.446042 0.571221
208.006393 -407.522003 0.337293 1.000000
208.084183 -416.973633 -0.000131 0.221597
208.141846 -423.980408 -0.000124 0.232524
208.173965 -427.882782 -0.000119 0.215792
208.194458 -430.374115 -0.000116 0.280120
208.208725 -432.106171 -0.000003 0.333577
208.219223 -433.381836 -0.000002 0.322316
208.243057 -407.826355 10.401259 0.516274
208.243057 -407.833679 9.242298 0.505867
208.243073 -407.840942 8.100101 0.504814
208.243088 -407.848114 6.971916 0.520958
208.243088 -407.855225 5.855111 0.583215
208.243103 -407.862274 4.747151 0.557656
208.243103 -407.869293 3.645589 0.513252
208.243118 -407.876251 2.548025 0.547204
208.243118 -407.883209 1.452089 0.571160
208.243134 -407.890259 0.355440 1.000000
208.254471 -416.972809 -0.000132 0.232428
208.263214 -423.979797 -0.000124 0.240159
208.268097 -427.882324 -0.000120 0.243546
208.271210 -430.373749 -0.000117 0.254664
208.273361 -432.105865 -0.000003 0.328878
208.274963 -433.381592 -0.000002 0.329381
208.475128 -408.188049 10.310786 0.614740
208.475098 -408.195251 9.164317 0.617960
208.475052 -408.202362 8.034434 0.617288
208.475006 -408.209381 6.918405 0.570687
208.474976 -408.216339 5.813628 0.549737
208.474930 -408.223236 4.717599 0.491737
208.474899 -408.230103 3.627891 0.597803
208.474854 -408.236938 2.542131 0.642329
208.474823 -408.243713 1.457981 0.520012
208.474777 -408.250610 0.373117 1.000000
208.424774 -416.973175 -0.000132 0.215565
208.384598 -423.980103 -0.000125 0.210431
208.362228 -427.882538 -0.000120 0.236760
208.347946 -430.373901 -0.000117 0.222219
208.338013 -432.106018 -0.000002 0.332738
208.330704 -433.381714 -0.000001 0.339300
208.702271 -408.542053 10.222637 0.631708
208.702194 -408.549133 9.088344 0.664195
208.702103 -408.556091 7.970453 0.648341
208.702011 -408.562958 6.866269 0.614878
208.701920 -408.569763 5.773211 0.581353
208.701843 -408.576508 4.688804 0.616968
208.701752 -408.583221 3.610645 0.639109
208.701675 -408.589905 2.536389 0.560632
208.701584 -408.596588 1.463720 0.501305
208.701492 -408.603302 0.390341 1.000000
208.595062 -416.974762 -0.000133 0.228371
208.505966 -423.981201 -0.000125 0.220352
208.456360 -427.883392 -0.000121 0.202329
208.424683 -430.374603 -0.000118 0.220735
208.402664 -432.106628 -0.000002 0.339864
208.386444 -433.382233 -0.000001 0.344930
208.924667 -408.888702 10.136724 0.618296
208.924530 -408.895599 9.014303 0.637385
208.924393 -408.902374 7.908104 0.618936
208.924271 -408.909149 6.815459 0.634806
208.924133 -408.915802 5.733822 0.723949
208.924011 -408.922424 4.660740 0.562676
208.923874 -408.928986 3.593839 0.597574
208.923752 -408.935547 2.530792 0.704921
208.923615 -408.942047 1.469314 0.638819
208.923492 -408.948639 0.407127 1.000000
208.765335 -416.977509 -0.000132 0.236353
208.627335 -423.983154 -0.000126 0.233780
208.550476 -427.884918 -0.000121 0.235025
208.501419 -430.375854 -0.000118 0.213471
208.467300 -432.107666 -0.000002 0.338308
208.442169 -433.383118 -0.000001 0.335561
209.142471 -409.228149 10.052983 0.567163
209.142288 -409.234894 8.942127 0.632868
209.142105 -409.241547 7.847330 0.547417
209.141937 -409.248138 6.765933 0.551095
209.141754 -409.254700 5.695428 0.498390
209.141586 -409.261139 4.633386 0.521050
209.141418 -409.267578 3.577456 0.547662
209.141251 -409.273987 2.525339 0.422110
209.141068 -409.280396 1.474766 0.413993
209.140900 -409.286835 0.423490 1.000000
208.935577 -416.981445 -0.000133 0.212573
208.748688 -423.985962 -0.000126 0.235982
208.644592 -427.887085 -0.000122 0.218342
208.578125 -430.377625 -0.000119 0.228658
208.531937 -432.109161 -0.000001 0.336233
208.497894 -433.384430 -0.000001 0.340658
209.355835 -409.560699 9.971333 0.232578
209.355621 -409.567322 8.871752 0.673686
209.355392 -409.573822 7.788068 0.520623
209.355179 -409.580292 6.717643 0.714626
209.354965 -409.586700 5.657990 0.213611
209.354752 -409.593018 4.606713 0.571374
209.354538 -409.599304 3.561482 0.575036
209.354324 -409.605591 2.520020 0.367422
209.354111 -409.611877 1.480083 0.239902
209.353912 -409.618195 0.439445 1.000000
209.105804 -416.986572 -0.000134 0.222052
208.870010 -423.989624 -0.000127 0.238172
208.738678 -427.889923 -0.000122 0.222806
208.654831 -430.379944 -0.000119 0.234343
208.594986 -432.157379 0.009996 1.000000
208.553619 -433.386108 -0.000001 0.334737
209.564941 -409.886597 9.891705 0.205509
209.564667 -409.893097 8.803118 0.578668
209.564423 -409.899445 7.730269 0.631464
209.564163 -409.905762 6.670548 0.719127
209.563904 -409.912048 5.621480 0.492973
209.563644 -409.918243 4.580700 0.568521
209.563400 -409.924408 3.545903 0.567437
209.563156 -409.930573 2.514832 0.551659
209.562897 -409.936707 1.485268 0.467475
209.562653 -409.942932 0.455006 1.000000
209.275986 -416.992889 -0.000134 0.233876
208.991302 -423.994141 -0.000127 0.220448
208.832748 -427.893433 -0.000123 0.215745
208.731522 -430.382782 -0.000120 0.216690
208.659271 -432.159790 0.010000 1.000000
208.609314 -433.388184 -0.000001 0.340017
209.769913 -410.206055 9.814028 0.656504
209.769608 -410.212433 8.736166 0.556527
209.769302 -410.218719 7.673880 0.536141
209.769012 -410.224884 6.624593 0.580179
209.768723 -410.231018 5.585861 0.635142
209.768433 -410.237091 4.555325 0.599710
209.768143 -410.243134 3.530705 0.619913
209.767853 -410.249146 2.509772 0.526452
209.767563 -410.255157 1.490327 0.566323
209.767288 -410.261261 0.470186 1.000000
209.446121 -417.000397 -0.000134 0.215362
209.112564 -423.999481 -0.000128 0.228443
208.926788 -427.897583 -0.000123 0.251744
208.808197 -430.386169 -0.000120 0.205321
208.723526 -432.162659 0.010005 1.000000
208.665009 -433.390625 -0.000001 0.337087
209.970901 -410.519257 9.738247 0.623117
209.970566 -410.525513 8.670857 0.591440
209.970230 -410.531677 7.618878 0.713085
209.969894 -410.537750 6.579770 0.617578
209.969559 -410.543762 5.551107 0.532815
209.969238 -410.549744 4.530561 0.575799
209.968918 -410.555695 3.515874 0.577279
209.968582 -410.561615 2.504833 0.579553
209.968262 -410.567444 1.495262 0.629129
209.967941 -410.573395 0.484998 1.000000
209.616196 -417.009094 -0.000135 0.225666
209.233780 -424.005676 -0.000128 0.230860
209.020798 -427.902374 -0.000124 0.258003
208.884827 -430.390106 -0.000120 0.221393
208.790298 -432.119659 -0.000002 0.342321
208.720673 -433.393463 -0.000001 0.330236
210.168045 -410.826477 9.664286 0.545129
210.167664 -410.832611 8.607113 0.544808
210.167282 -410.838654 7.565194 0.639094
210.166916 -410.844604 6.536022 0.542428
210.166550 -410.850525 5.517194 0.643137
210.166199 -410.856384 4.506400 0.615946
210.165833 -410.862213 3.501402 0.565240
210.165482 -410.868011 2.500015 0.550225
210.165131 -410.873718 1.500079 0.654215
210.164764 -410.879578 0.499453 1.000000
209.786194 -417.018982 -0.000135 0.233445
209.354950 -424.012726 -0.000128 0.245138
209.114777 -427.907837 -0.000123 0.253264
208.961441 -430.394531 -0.000121 0.206948
208.854843 -432.123444 -0.000001 0.339483
208.776321 -433.396729 -0.000000 0.322759
210.361450 -411.127899 9.592093 0.577020
210.361038 -411.133911 8.544887 0.493645
210.360626 -411.139862 7.512792 0.500465
210.360229 -411.145691 6.493320 0.619486
210.359833 -411.151489 5.484089 0.586328
210.359436 -411.157227 4.482814 0.546227
210.359055 -411.162933 3.487277 0.581949
210.358658 -411.168640 2.495312 0.645716
210.358276 -411.174255 1.504781 0.584909
210.357880 -411.179993 0.513562 1.000000
209.956131 -417.030060 -0.000135 0.218569
209.476074 -424.020630 -0.000128 0.224050
209.208710 -427.913971 -0.000124 0.231315
209.038025 -430.399536 -0.000121 0.240973
208.919357 -432.127625 -0.000001 0.336919
208.831955 -433.400330 -0.000001 0.345159
210.551270 -411.423737 9.521608 0.522042
210.550812 -411.429626 8.484138 0.513832
210.550385 -411.435425 7.461635 0.603876
210.549942 -411.441162 6.451630 0.543145
210.549515 -411.446838 5.451770 0.502235
210.549088 -411.452484 4.459787 0.573068
210.548660 -411.458069 3.473487 0.544884
210.548233 -411.463654 2.490719 0.618158
210.547821 -411.469177 1.509371 0.623041
210.547394 -411.474823 0.527338 0.602777
210.125992 -417.042328 -0.000136 0.226611
209.597137 -424.029358 -0.000129 0.215649
209.302597 -427.920746 -0.000124 0.204303
209.114563 -430.405060 -0.000121 0.243690
208.983871 -432.131744 -0.000118 0.212059
208.887543 -433.404358 -0.000001 0.325414
210.737595 -411.714142 9.452772 0.693339
210.737106 -411.719940 8.424810 0.525750
210.736649 -411.725555 7.411684 0.657389
210.736176 -411.731140 6.410933 0.482155
210.735718 -411.736755 5.420215 0.483070
210.735260 -411.742310 4.437302 0.592050
210.734802 -411.747803 3.460018 0.657526
210.734360 -411.753296 2.486236 0.685222
210.733902 -411.758759 1.513855 0.654521
210.733444 -411.764252 0.540791 0.676600
210.295761 -417.055756 -0.000136 0.241152
209.718140 -424.038940 -0.000129 0.222722
209.396439 -427.928162 -0.000125 0.207762
209.191071 -430.411102 -0.000122 0.236102
209.048325 -432.136841 -0.000119 0.267386
208.943115 -433.408752 -0.000000 0.336812
210.920547 -411.999268 9.385555 0.456275
210.920044 -412.004944 8.366873 0.707073
210.919540 -412.010498 7.362891 0.549386
210.919052 -412.015961 6.371170 0.349920
210.918549 -412.021454 5.389390 0.327169
210.918060 -412.026917 4.415340 0.635019
210.930817 -411.884918 3.454134 0.984161
210.930328 -411.890320 2.484277 0.709804
210.929840 -411.895691 1.515812 0.682353
210.929367 -411.901093 0.546662 0.643137
210.465424 -417.070404 -0.000136 0.224649
209.839066 -424.049377 -0.000129 0.242660
209.490234 -427.936279 -0.000124 0.267123
209.267517 -430.417694 -0.000121 0.262312
209.112732 -432.142395 -0.000119 0.269229
208.998657 -433.413544 -0.000000 0.350790
211.100250 -412.279327 9.319891 0.219104
211.099701 -412.284882 8.310276 0.522988
211.099182 -412.290344 7.315226 0.584497
211.098663 -412.295715 6.332325 0.346624
211.098145 -412.301086 5.359277 0.252857
211.097626 -412.306458 4.393885 0.545312
211.111237 -412.165771 3.441221 0.920745
211.110718 -412.171051 2.479976 0.702708
211.110214 -412.176331 1.520110 0.691676
211.109711 -412.181610 0.559562 0.643137
210.634979 -417.086212 -0.000136 0.235133
209.959930 -424.060638 -0.000129 0.223476
209.583954 -427.945007 -0.000125 0.239752
209.343933 -430.424835 -0.000122 0.243450
209.177109 -432.148407 -0.000119 0.274854
209.054153 -433.418732 -0.000000 0.308583
211.276779 -412.554443 9.255735 0.249607
211.276215 -412.559906 8.254980 0.536858
211.275665 -412.565277 7.268653 0.539101
211.275116 -412.570557 6.294372 0.376898
211.274567 -412.575836 5.329855 0.346426
211.274017 -412.581085 4.372922 0.639750
211.288498 -412.441681 3.428602 0.732372
211.287949 -412.446869 2.475775 0.618479
211.287415 -412.452057 1.524310 0.667369
211.286880 -412.457245 0.572166 0.631266
210.804428 -417.103210 -0.000136 0.238519
210.080704 -424.072754 -0.000130 0.217600
209.677612 -427.954407 -0.000125 0.225642
209.420288 -430.432495 -0.000122 0.197553
209.241440 -432.154846 -0.000119 0.219742
209.109619 -433.424286 -0.000000 0.328359
211.450272 -412.824768 9.193041 0.694469
211.449677 -412.830139 8.200947 0.604410
211.449081 -412.835419 7.223148 0.617823
211.448517 -412.840637 6.257285 0.862409
211.447937 -412.845825 5.301103 0.702235
211.447357 -412.850952 4.352437 0.647242
211.462692 -412.712799 3.416273 0.750301
211.462128 -412.717926 2.471669 0.716503
211.461548 -412.722992 1.528414 0.679683
211.460983 -412.728119 0.584484 0.650935
210.973755 -417.121399 -0.000136 0.222854
210.201385 -424.085693 -0.000130 0.220364
209.771225 -427.964447 -0.000125 0.272185
209.496597 -430.440674 -0.000123 0.255191
209.305725 -432.161743 -0.000120 0.259200
209.165039 -433.430237 -0.000000 0.319982
211.620773 -413.090515 9.131769 0.573831
211.620163 -413.095764 8.148136 0.598459
211.619537 -413.100983 7.178669 0.611978
211.618942 -413.106110 6.221037 0.496025
211.618347 -413.111176 5.273002 0.582940
211.617752 -413.116211 4.332417 0.451179
211.633896 -412.979309 3.404221 0.853284
211.633301 -412.984314 2.467657 0.706142
211.632721 -412.989319 1.532425 0.674281
211.632126 -412.994354 0.596522 0.642695
211.142944 -417.140747 -0.000136 0.239824
210.321976 -424.099487 -0.000130 0.235539
209.864746 -427.975159 -0.000125 0.274471
209.572830 -430.449402 -0.000123 0.200402
209.369949 -432.169098 -0.000120 0.236425
209.220413 -433.436584 0.000000 0.346731
211.788422 -413.351746 9.071872 0.650385
211.787781 -413.356934 8.096508 0.542031
211.787140 -413.362030 7.135191 0.630716
211.786514 -413.367065 6.185605 0.551202
211.785889 -413.372070 5.245533 0.520562
211.785263 -413.377014 4.312844 0.645335
211.802231 -413.241333 3.392440 0.395666
211.801620 -413.246277 2.463734 0.701961
211.801010 -413.251160 1.536347 0.682017
211.800385 -413.256104 0.608291 0.645487
211.311996 -417.161285 -0.000136 0.236581
210.442474 -424.114136 -0.000130 0.222542
209.958191 -427.986511 -0.000126 0.191474
209.649017 -430.458649 -0.000123 0.192156
209.434128 -432.176910 -0.000120 0.207595
209.275757 -433.443298 0.000000 0.338094
211.953278 -413.608673 9.013313 0.585107
211.952606 -413.613739 8.046036 0.609751
211.951950 -413.618774 7.092686 0.531228
211.951294 -413.623718 6.150965 0.533898
211.950653 -413.628632 5.218676 0.574807
211.949997 -413.633514 4.293709 0.593713
211.967773 -413.498993 3.380923 0.314595
211.967133 -413.503845 2.459899 0.690898
211.966492 -413.508667 1.540181 0.601419
211.965851 -413.513519 0.619797 0.622034
211.480911 -417.183014 -0.000136 0.226516
210.562851 -424.129639 -0.000130 0.231375
210.051544 -427.998505 -0.000126 0.218090
209.725128 -430.468445 -0.000123 0.211795
209.498245 -432.185150 -0.000120 0.225690
209.331039 -433.450409 0.000000 0.337621
212.115448 -413.861359 8.956051 0.573510
212.114746 -413.866364 7.996680 0.731289
212.114059 -413.871307 7.051119 0.656107
212.113388 -413.876190 6.117089 0.574014
212.112717 -413.880981 5.192414 0.584192
212.112045 -413.885803 4.274997 0.642451
212.130615 -413.752472 3.369659 0.195041
212.129944 -413.757202 2.456148 0.709117
212.129288 -413.761963 1.543930 0.676326
212.128616 -413.766724 0.631048 0.662501
211.649658 -417.205902 -0.000136 0.240841
210.683136 -424.145935 -0.000130 0.242445
210.144836 -428.011169 -0.000126 0.208600
209.801178 -430.478760 -0.000123 0.276781
209.562317 -432.193848 -0.000120 0.223452
209.380768 -433.497406 0.009994 1.000000
212.274994 -414.109985 8.900049 0.552697
212.274261 -414.114899 7.948410 0.698451
212.273560 -414.119751 7.010469 0.736934
212.272858 -414.124512 6.083964 0.662287
212.272156 -414.129303 5.166730 0.510674
212.271469 -414.134003 4.256699 0.629496
212.290817 -414.001831 3.358645 0.714580
212.290131 -414.006500 2.452481 0.709804
212.289459 -414.011169 1.547596 0.688334
212.288757 -414.015869 0.642052 0.662501
211.818253 -417.229980 -0.000137 0.233696
210.803299 -424.163116 -0.000130 0.242648
210.238022 -428.024475 -0.000126 0.240315
209.877136 -430.489624 -0.000123 0.197111
209.626328 -432.202972 -0.000121 0.239561
209.435684 -433.505280 0.009995 1.000000
212.431992 -414.354614 8.845287 0.537957
212.431244 -414.359436 7.901209 0.576822
212.430511 -414.364197 6.970715 0.664057
212.429794 -414.368927 6.051563 0.584405
212.429077 -414.373627 5.141611 0.537072
212.428360 -414.378235 4.238801 0.546227
212.448471 -414.247223 3.347871 0.716854
212.447769 -414.251831 2.448893 0.716533
212.447067 -414.256409 1.551183 0.682918
212.446350 -414.261047 0.652815 0.656519
211.986649 -417.255249 -0.000136 0.228048
210.923325 -424.181122 -0.000130 0.220651
210.331116 -428.038422 -0.000126 0.245281
209.953033 -430.501007 -0.000123 0.183455
209.690262 -432.212585 -0.000120 0.226228
209.490524 -433.513489 0.009997 1.000000
212.586533 -414.595428 8.791698 0.595758
212.585770 -414.600159 7.855026 0.697353
212.585007 -414.604858 6.931821 0.583047
212.584259 -414.609528 6.019865 0.530816
212.583527 -414.614105 5.117036 0.489219
212.582794 -414.618683 4.221291 0.583261
212.603668 -414.488770 3.337332 0.762234
212.602936 -414.493286 2.445384 0.692927
212.602203 -414.497833 1.554691 0.665843
212.601486 -414.502350 0.663344 0.645441
212.154892 -417.281677 -0.000136 0.225905
211.043243 -424.199951 -0.000130 0.243187
210.424103 -428.053040 -0.000126 0.207427
210.028839 -430.512909 -0.000123 0.255370
209.754120 -432.222595 -0.000120 0.198463
209.545319 -433.522125 0.010001 1.000000
212.738663 -414.832550 8.739273 0.525719
212.737885 -414.837158 7.809841 0.592905
212.737122 -414.841766 6.893768 0.535500
212.736343 -414.846344 5.988854 0.255177
212.735580 -414.850891 5.092994 0.328206
212.734833 -414.855377 4.204160 0.523507
212.756454 -414.726593 3.327020 0.923812
212.755707 -414.731049 2.441950 0.705882
212.754959 -414.735504 1.558124 0.682658
212.754211 -414.739960 0.673645 0.652262
212.322937 -417.309296 -0.000136 0.229783
211.163010 -424.219635 -0.000130 0.210251
210.516998 -428.068298 -0.000126 0.238687
210.104568 -430.525360 -0.000123 0.249697
209.817917 -432.233093 -0.000120 0.208959
209.600037 -433.531128 0.010005 1.000000
212.888489 -415.066010 8.687972 0.560204
212.887695 -415.070557 7.765625 0.665782
212.886902 -415.075073 6.856532 0.601587
212.886108 -415.079590 5.958509 0.180331
212.885330 -415.084045 5.069468 0.534463
212.884552 -415.088440 4.187398 0.616846
212.906906 -414.960785 3.316930 0.938674
212.906143 -414.965149 2.438591 0.701961
212.905365 -414.969543 1.561483 0.674510
212.904602 -414.973938 0.683726 0.630091
212.490784 -417.338074 -0.000136 0.232212
211.282639 -424.240143 -0.000129 0.222315
210.609772 -428.084229 -0.000126 0.189451
210.180206 -430.538330 -0.000123 0.253623
209.881653 -432.244019 -0.000120 0.212765
209.661591 -433.501160 0.000001 0.332677
213.036041 -415.295959 8.637770 0.596368
213.035233 -415.300446 7.722352 0.576730
213.034424 -415.304871 6.820092 0.622400
213.033615 -415.309296 5.928813 0.513497
213.032822 -415.313690 5.046444 0.714855
213.032028 -415.318024 4.170993 0.547463
213.031235 -415.322327 3.300518 0.595468
213.030457 -415.326599 2.433125 0.512535
213.029678 -415.330872 1.566946 0.477623
213.028900 -415.335144 0.700122 0.601923
212.658432 -417.368011 -0.000136 0.237023
211.402130 -424.261475 -0.000130 0.232559
210.702438 -428.100769 -0.000125 0.236676
210.255753 -430.551819 -0.000123 0.213231
209.945282 -432.255371 -0.000120 0.220412
209.716461 -433.510956 0.000000 0.326009
213.181412 -415.522491 8.588633 0.558099
213.180588 -415.526917 7.680000 0.516350
213.179764 -415.531250 6.784426 0.643824
213.178940 -415.535583 5.899748 0.695384
213.178116 -415.539917 5.023911 0.709789
213.177307 -415.544189 4.154938 0.603571
213.176514 -415.548401 3.290902 0.686854
213.175705 -415.552612 2.429924 0.629175
213.174911 -415.556824 1.570147 0.570962
213.174118 -415.561035 0.709729 0.590372
212.825851 -417.399109 -0.000136 0.232188
211.521469 -424.283661 -0.000129 0.242660
210.794998 -428.117950 -0.000126 0.205728
210.331207 -430.565826 -0.000122 0.217456
210.008850 -432.267212 -0.000120 0.207379
209.771271 -433.521149 0.000001 0.349874
213.324661 -415.745697 8.540541 0.640864
213.323792 -415.750092 7.638537 0.675502
213.322952 -415.754364 6.749507 0.500542
213.322128 -415.758575 5.871298 0.577569
213.321289 -415.762817 5.001855 0.742794
213.320465 -415.767029 4.139221 0.653895
213.319641 -415.771210 3.281489 0.623743
213.318817 -415.775360 2.426789 0.573007
213.318008 -415.779480 1.573281 0.687770
213.317200 -415.783630 0.719133 0.700221
212.993057 -417.431427 -0.000135 0.241368
211.640640 -424.306671 -0.000129 0.203789
210.887421 -428.135803 -0.000125 0.214632
210.406555 -430.580383 -0.000123 0.205333
210.072327 -432.279449 -0.000120 0.210287
209.826096 -433.531250 -0.000118 0.262407
213.465836 -415.965637 8.493471 0.502373
213.464966 -415.969971 7.597961 0.534035
213.464081 -415.974243 6.715321 0.676356
213.463242 -415.978394 5.843438 0.601495
213.462402 -415.982513 4.980263 0.541314
213.461548 -415.986664 4.123837 0.588846
213.460709 -415.990784 3.272273 0.615900
213.459885 -415.994873 2.423720 0.534386
213.459045 -415.998932 1.576348 0.619638
213.458221 -416.003021 0.728340 0.580468
213.160049 -417.464874 -0.000135 0.228143
211.759659 -424.330505 -0.000129 0.230956
210.979721 -428.154297 -0.000125 0.230046
210.481796 -430.595459 -0.000123 0.197039
210.135727 -432.292145 -0.000120 0.215996
209.880753 -433.542206 -0.000118 0.190935
213.604996 -416.182495 8.447370 0.653529
213.604111 -416.186707 7.558232 0.557839
213.603226 -416.190887 6.681868 0.465431
213.602341 -416.195068 5.816166 0.631434
213.601486 -416.199158 4.959114 0.527169
213.600632 -416.203186 4.108772 0.569696
213.599777 -416.207214 3.263251 0.491753
213.598923 -416.211243 2.420715 0.527474
213.598083 -416.215271 1.579352 0.656611
213.597229 -416.219299 0.737355 0.495735
213.326782 -417.499481 -0.000135 0.235025
211.878494 -424.355194 -0.000129 0.234809
211.071884 -428.173431 -0.000125 0.211843
210.556931 -430.611053 -0.000123 0.234079
210.199020 -432.305298 -0.000120 0.177806
209.935333 -433.553528 -0.000118 0.199253
213.742218 -416.396301 8.402231 0.456947
213.741302 -416.400452 7.519324 0.568902
213.740402 -416.404572 6.649102 0.662699
213.739517 -416.408630 5.789468 0.606653
213.738632 -416.412659 4.938415 0.571756
213.737747 -416.416687 4.094018 0.545388
213.736893 -416.420624 3.254415 0.663447
213.736023 -416.424591 2.417774 0.460563
213.735153 -416.428558 1.582293 0.537072
213.734299 -416.432526 0.746181 0.615259
213.493286 -417.535278 -0.000135 0.232057
211.997162 -424.380707 -0.000128 0.254185
211.163925 -428.193237 -0.000125 0.230046
210.631958 -430.627197 -0.000122 0.237299
210.262238 -432.318878 -0.000120 0.257836
209.989838 -433.565247 -0.000118 0.205380
205.339478 -454.405823 5.348587 0.620432
205.342194 -454.393799 4.884616 0.374228
205.344864 -454.381958 4.427996 0.269566
205.347504 -454.370300 3.977599 0.222904
205.350113 -454.358765 3.532349 0.382086
205.352692 -454.347321 3.091222 0.268193
205.355255 -454.335968 2.653225 0.254337
205.357803 -454.324677 2.217397 0.501228
205.360352 -454.313416 1.782792 0.488289
205.362885 -454.302155 1.348478 0.635859
205.365433 -454.290894 0.913521 1.000000
205.367996 -454.279572 0.476990 1.000000
205.314224 -454.517578 0.000003 0.233613
205.863129 -452.087555 0.000001 0.214069
206.244629 -450.398621 0.000001 0.232057
206.525711 -449.154266 -0.000001 0.195016
205.268204 -454.300507 5.326873 0.767559
205.270966 -454.288666 4.865927 0.529534
205.273682 -454.277008 4.412280 0.571862
205.276367 -454.265503 3.964809 0.466163
205.279022 -454.254120 3.522448 0.553002
205.281647 -454.242859 3.084177 0.482353
205.284256 -454.231659 2.649012 0.471916
205.286850 -454.220551 2.215996 0.488762
205.289444 -454.209442 1.784191 0.485908
205.292023 -454.198364 1.352669 0.488533
205.294617 -454.187256 0.920505 1.000000
205.297226 -454.176086 0.486771 1.000000
205.222488 -454.496521 0.000003 0.206900
205.788330 -452.070404 0.000001 0.261797
206.181625 -450.384155 0.000000 0.282741
206.471375 -449.141785 -0.000000 0.219455
205.197845 -454.196564 5.305598 0.801862
205.200653 -454.184875 4.847617 0.959823
205.203415 -454.173401 4.396882 0.776776
205.206146 -454.162048 3.952278 0.698512
205.208847 -454.150848 3.512747 0.725185
205.211517 -454.139740 3.077275 0.723079
205.214172 -454.128723 2.644883 0.690242
205.216812 -454.117737 2.214623 0.469856
205.219437 -454.106812 1.785561 0.587457
205.222076 -454.095886 1.356776 0.562173
205.224701 -454.084930 0.927348 1.000000
205.227356 -454.073914 0.496355 1.000000
205.230103 -454.062500 0.062908 1.000000
205.713669 -452.052704 0.000001 0.219562
206.118713 -450.369232 0.000000 0.235504
206.417145 -449.128937 -0.000000 0.238352
205.128372 -454.093933 5.284756 0.768490
205.131241 -454.082428 4.829679 0.536782
205.134048 -454.071106 4.381796 0.564111
205.136810 -454.059906 3.940001 0.583688
205.139557 -454.048859 3.503243 0.614801
205.142273 -454.037903 3.070511 0.495598
205.144958 -454.027039 2.640838 0.547570
205.147644 -454.016235 2.213278 0.715862
205.150330 -454.005463 1.786904 0.576654
205.153000 -453.994690 1.360800 0.608362
205.155670 -453.983887 0.934052 1.000000
205.158356 -453.973022 0.505746 1.000000
205.160980 -453.962463 0.074893 1.000000
205.639130 -452.034485 0.000001 0.236222
206.055908 -450.353882 0.000000 0.232583
206.362991 -449.115723 -0.000000 0.219909
205.059769 -453.992584 5.264333 0.557778
205.062668 -453.981232 4.812102 0.687877
205.065521 -453.970062 4.367015 0.539467
205.068344 -453.959045 3.927972 0.461997
205.071121 -453.948151 3.493930 0.446159
205.073883 -453.937378 3.063885 0.527687
205.076614 -453.926636 2.636875 0.563699
205.079346 -453.915985 2.211960 0.615366
205.082062 -453.905365 1.788220 0.471733
205.084778 -453.894745 1.364743 0.479255
205.087494 -453.884094 0.940623 1.000000
205.090225 -453.873383 0.514948 1.000000
205.092972 -453.862610 0.086794 1.000000
205.564713 -452.015747 0.000002 0.206817
205.993225 -450.338104 0.000000 0.224038
206.308929 -449.102112 -0.000000 0.221764
204.992020 -453.892517 5.244323 0.417624
204.994949 -453.881317 4.794879 0.687068
204.997849 -453.870300 4.352530 0.614191
205.000702 -453.859436 3.916185 0.600366
205.003540 -453.848694 3.484803 0.496147
205.006332 -453.838043 3.057391 0.394217
205.009109 -453.827484 2.632991 0.643488
205.011871 -453.816956 2.210668 0.627665
205.014633 -453.806488 1.789509 0.565637
205.017380 -453.796021 1.368608 0.523079
205.020142 -453.785522 0.947062 1.000000
205.022919 -453.774963 0.523968 1.000000
205.025711 -453.764313 0.098403 1.000000
205.490433 -451.996521 0.000001 0.252881
205.930649 -450.321899 0.000000 0.239441
206.254974 -449.088135 -0.000000 0.219335
204.925079 -453.793640 5.224713 0.512123
204.928055 -453.782593 4.778000 0.685313
204.931000 -453.771729 4.338335 0.652857
204.933899 -453.761017 3.904633 0.710430
204.936752 -453.750427 3.475860 0.513741
204.939590 -453.739929 3.051027 0.503090
204.942413 -453.729523 2.629184 0.652552
204.945221 -453.719147 2.209402 0.662959
204.948013 -453.708801 1.790773 0.633478
204.950806 -453.698456 1.372395 0.559075
204.953598 -453.688141 0.953372 1.000000
204.956421 -453.677704 0.532806 1.000000
204.959259 -453.667236 0.109781 1.000000
205.416275 -451.976746 0.000001 0.197984
205.868179 -450.305237 0.000000 0.230681
206.201111 -449.073761 -0.000000 0.192467
204.858932 -453.695953 5.205494 0.484321
204.861969 -453.685059 4.761458 0.452964
204.864944 -453.674347 4.324424 0.495033
204.867874 -453.663788 3.893311 0.618662
204.870773 -453.653351 3.467094 0.572427
204.873657 -453.642975 3.044791 0.509483
204.876511 -453.632721 2.625454 0.466056
204.879349 -453.622467 2.208162 0.584451
204.882187 -453.612274 1.792011 0.597787
204.885025 -453.602081 1.376107 0.699214
204.887848 -453.591888 0.959558 1.000000
204.890701 -453.581604 0.541470 1.000000
204.893585 -453.571259 0.120933 1.000000
205.342270 -451.956451 0.000001 0.253467
205.805832 -450.288147 0.000000 0.243079
206.147354 -449.059021 -0.000000 0.230094
204.793579 -453.599426 5.186658 0.482338
204.796646 -453.588684 4.745246 0.492317
204.799667 -453.578125 4.310789 0.468330
204.802643 -453.567688 3.882214 0.503288
204.805573 -453.557404 3.458503 0.647501
204.808487 -453.547180 3.038677 0.481788
204.811386 -453.537048 2.621797 0.530129
204.814270 -453.526947 2.206946 0.676036
204.817139 -453.516876 1.793225 0.657633
204.820007 -453.506836 1.379746 0.541100
204.822876 -453.496765 0.965620 1.000000
204.825760 -453.486633 0.549961 1.000000
204.828674 -453.476440 0.131864 1.000000
205.268417 -451.935669 0.000001 0.259918
205.743607 -450.270630 0.000000 0.183156
206.093704 -449.043915 -0.000000 0.244862
204.728973 -453.504028 5.168198 0.461692
204.732086 -453.493439 4.729355 0.520897
204.735138 -453.483002 4.297424 0.430304
204.738144 -453.472717 3.871338 0.476051
204.741135 -453.462555 3.450082 0.646632
204.744080 -453.452484 3.032685 0.478294
204.747009 -453.442474 2.618213 0.534630
204.749924 -453.432526 2.205754 0.664012
204.752838 -453.422607 1.794415 0.529015
204.755737 -453.412689 1.383312 0.561868
204.758652 -453.402771 0.971563 1.000000
204.761581 -453.392761 0.558285 1.000000
204.764526 -453.382690 0.142578 1.000000
205.194702 -451.914337 0.000002 0.219742
205.681503 -450.252686 0.000000 0.221465
206.040146 -449.028442 -0.000000 0.244252
204.665115 -453.409729 5.150103 0.585199
204.668259 -453.399261 4.713781 0.579797
204.671356 -453.388977 4.284326 0.664530
204.674408 -453.378845 3.860678 0.673213
204.677414 -453.368805 3.441828 0.514061
204.680405 -453.358887 3.026813 0.627970
204.683365 -453.348999 2.614700 0.586679
204.686325 -453.339172 2.204586 0.703685
204.689270 -453.329376 1.795581 0.497246
204.692200 -453.319611 1.386808 0.649546
204.695145 -453.309814 0.977388 1.000000
204.698120 -453.299957 0.566444 1.000000
204.701096 -453.290009 0.153081 1.000000
205.121124 -451.892517 0.000001 0.226564
205.619522 -450.234283 0.000000 0.179147
205.986710 -449.012573 -0.000000 0.212286
204.601990 -453.316498 5.132365 0.689143
204.605164 -453.306183 4.698515 0.599557
204.608292 -453.296021 4.271485 0.614374
204.611374 -453.286011 3.850228 0.788785
204.614426 -453.276123 3.433737 0.459602
204.617447 -453.266327 3.021055 0.603357
204.620453 -453.256592 2.611256 0.632563
204.623428 -453.246887 2.203441 0.781735
204.626419 -453.237213 1.796725 0.497597
204.629395 -453.227570 1.390235 0.539498
204.632370 -453.217896 0.983098 0.551888
204.635361 -453.208160 0.574443 1.000000
204.638382 -453.198364 0.163378 1.000000
205.047714 -451.870148 0.000002 0.234881
205.557678 -450.215454 0.000000 0.192886
205.933380 -448.996338 -0.000000 0.200869
204.539551 -453.224304 5.114980 0.532815
204.542755 -453.214142 4.683548 0.552346
204.545929 -453.204102 4.258900 0.542184
204.549042 -453.194244 3.839984 0.651514
204.552124 -453.184479 3.425806 0.561959
204.555191 -453.174805 3.015411 0.614023
204.558228 -453.165192 2.607881 0.478340
204.561249 -453.155609 2.202318 0.657862
204.564255 -453.146088 1.797846 0.496284
204.567261 -453.136566 1.393594 0.534310
204.570282 -453.127014 0.988696 0.508431
204.573318 -453.117401 0.582284 1.000000
204.576370 -453.107727 0.173472 1.000000
204.974472 -451.847321 0.000001 0.211448
205.495956 -450.196198 0.000000 0.206829
205.880173 -448.979736 -0.000000 0.232224
204.477798 -453.133118 5.097937 0.533791
204.481049 -453.123077 4.668879 0.686702
204.484238 -453.113220 4.246562 0.542580
204.487396 -453.103455 3.829942 0.570535
204.490524 -453.093811 3.418031 0.606226
204.493607 -453.084259 3.009879 0.563943
204.496674 -453.074799 2.604571 0.491981
204.499725 -453.065338 2.201218 0.656580
204.502777 -453.055939 1.798944 0.631296
204.505814 -453.046539 1.396887 0.554513
204.508865 -453.037109 0.994184 0.525795
204.511932 -453.027649 0.589971 1.000000
204.515015 -453.018097 0.183368 1.000000
204.901382 -451.823944 0.000001 0.202484
205.434387 -450.176514 -0.000000 0.246598
205.827087 -448.962769 -0.000000 0.232464
204.416718 -453.042938 5.081229 0.655695
204.419998 -453.033051 4.654497 0.764355
204.423233 -453.023285 4.234466 0.569696
204.426422 -453.013672 3.820098 0.526192
204.429565 -453.004150 3.410409 0.601312
204.432693 -452.994720 3.004455 0.668498
204.435791 -452.985352 2.601327 0.851118
204.438889 -452.976044 2.200138 0.728496
204.441956 -452.966766 1.800022 0.577752
204.445038 -452.957458 1.400116 0.621027
204.448120 -452.948181 0.999565 0.601221
204.451218 -452.938812 0.597508 1.000000
204.454330 -452.929382 0.193069 1.000000
204.828445 -451.800049 0.000001 0.186028
205.372940 -450.156403 0.000000 0.207355
205.774109 -448.945435 0.000000 0.267936
204.356293 -452.953735 5.064850 0.572641
204.359604 -452.943970 4.640399 0.843183
204.362869 -452.934326 4.222608 0.787411
204.366089 -452.924835 3.810448 0.567437
204.369278 -452.915436 3.402937 0.535409
204.372421 -452.906128 2.999138 0.795041
204.375565 -452.896881 2.598146 0.529671
204.378677 -452.887695 2.199081 0.799390
204.381790 -452.878540 1.801078 0.527718
204.384888 -452.869354 1.403282 0.662913
204.388000 -452.860199 1.004840 0.647181
204.391144 -452.850952 0.604897 1.000000
204.394287 -452.841644 0.202582 1.000000
204.755692 -451.775665 0.000001 0.200893
205.311646 -450.135864 0.000000 0.233445
205.721252 -448.927704 -0.000000 0.217097
204.296494 -452.865448 5.048794 0.576272
204.299835 -452.855804 4.626577 0.588586
204.303131 -452.846313 4.210983 0.589181
204.306396 -452.836914 3.800986 0.540780
204.309601 -452.827667 3.395611 0.520333
204.312790 -452.818481 2.993925 0.698695
204.315948 -452.809357 2.595028 0.465888
204.319107 -452.800262 2.198044 0.640375
204.322250 -452.791199 1.802113 0.515602
204.325378 -452.782166 1.406385 0.616190
204.328522 -452.773102 1.010012 0.687160
204.331680 -452.763977 0.612141 1.000000
204.334869 -452.754791 0.211908 1.000000
204.683105 -451.750793 0.000001 0.236389
205.250488 -450.114899 0.000000 0.260576
205.668518 -448.909637 -0.000000 0.225630
204.237320 -452.778107 5.033052 0.580438
204.240692 -452.768585 4.613028 0.487694
204.244019 -452.759186 4.199587 0.733623
204.247314 -452.749939 3.791710 0.607645
204.250549 -452.740784 3.388429 0.580301
204.253769 -452.731720 2.988814 0.662898
204.256973 -452.722717 2.591971 0.527626
204.260147 -452.713745 2.197027 0.628077
204.263321 -452.704803 1.803128 0.558724
204.266479 -452.695862 1.409428 0.563149
204.269653 -452.686920 1.015082 0.651530
204.272858 -452.677917 0.619245 1.000000
204.276062 -452.668854 0.221052 1.000000
204.610687 -451.725403 0.000001 0.234438
205.189499 -450.093475 0.000000 0.201204
205.615921 -448.891174 -0.000001 0.271898
204.178741 -452.691650 5.017620 0.543603
204.182159 -452.682251 4.599743 0.532326
204.185516 -452.672974 4.188414 0.653208
204.188828 -452.663849 3.782616 0.483040
204.192108 -452.654785 3.381387 0.646281
204.195358 -452.645844 2.983803 0.702770
204.198578 -452.636963 2.588973 0.555871
204.201782 -452.628113 2.196030 0.635355
204.204987 -452.619263 1.804124 0.764324
204.208191 -452.610443 1.412412 0.536385
204.211395 -452.601624 1.020054 0.742412
204.214615 -452.592712 0.626208 1.000000
204.217865 -452.583771 0.230017 1.000000
204.538467 -451.699493 0.000001 0.257141
205.128632 -450.071655 0.000000 0.220747
205.563461 -448.872345 -0.000000 0.245209
204.120758 -452.606079 5.002490 0.809628
204.124207 -452.596771 4.586719 0.576486
204.127594 -452.587616 4.177459 0.657237
204.130936 -452.578613 3.773701 0.553307
204.134247 -452.569672 3.374484 0.554772
204.137512 -452.560822 2.978891 0.648783
204.140778 -452.552063 2.586034 0.554025
204.144012 -452.543304 2.195053 0.622934
204.147247 -452.534607 1.805099 0.572351
204.150467 -452.525879 1.415337 0.570657
204.153702 -452.517151 1.024928 0.702571
204.156952 -452.508362 0.633037 1.000000
204.160233 -452.499542 0.238808 1.000000
204.466415 -451.673065 0.000001 0.260313
205.067932 -450.049408 0.000001 0.207283
205.511124 -448.853180 -0.000000 0.242768
204.063354 -452.521332 4.987658 0.611185
204.066818 -452.512177 4.573951 0.521645
204.070251 -452.503113 4.166719 0.559030
204.073624 -452.494202 3.764959 0.696498
204.076950 -452.485413 3.367715 0.514580
204.080261 -452.476654 2.974074 0.541604
204.083542 -452.467987 2.583153 0.510887
204.086807 -452.459351 2.194094 0.535607
204.090057 -452.450745 1.806056 0.575250
204.093323 -452.442139 1.418204 0.699809
204.096588 -452.433533 1.029707 0.611490
204.099869 -452.424866 0.639732 1.000000
204.103165 -452.416138 0.247426 1.000000
204.394547 -451.646179 0.000001 0.231614
205.007401 -450.026733 0.000001 0.203884
205.458908 -448.833618 -0.000001 0.206015
204.006500 -452.437439 4.973115 0.728038
204.010010 -452.428375 4.561433 0.511498
204.013458 -452.419464 4.156190 0.554925
204.016861 -452.410645 3.756389 0.614054
204.020218 -452.401947 3.361079 0.547478
204.023560 -452.393311 2.969352 0.562799
204.026855 -452.384766 2.580328 0.508888
204.030151 -452.376221 2.193155 0.455802
204.033447 -452.367737 1.806994 0.448661
204.036728 -452.359222 1.421016 0.502861
204.040009 -452.350708 1.034393 0.607385
204.043335 -452.342133 0.646296 1.000000
204.046661 -452.333527 0.255877 1.000000
204.322876 -451.618774 0.000001 0.234055
204.947006 -450.003662 0.000000 0.205572
205.406845 -448.813721 -0.000000 0.196656
203.950195 -452.354370 4.958858 0.646067
203.953735 -452.345398 4.549160 0.500404
203.957214 -452.336609 4.145867 0.448203
203.960648 -452.327911 3.747988 0.525078
203.964035 -452.319305 3.354574 0.451698
203.967392 -452.310791 2.964722 0.573938
203.970734 -452.302307 2.577559 0.602838
203.974060 -452.293884 2.192234 0.472633
203.977371 -452.285492 1.807914 0.520302
203.980682 -452.277100 1.423773 0.615625
203.983994 -452.268677 1.038988 0.514275
203.987335 -452.260223 0.652732 1.000000
203.990692 -452.251709 0.264163 1.000000
204.251389 -451.590851 0.000001 0.206565
204.886795 -449.980133 0.000001 0.190947
205.354919 -448.793457 -0.000000 0.277367
203.894424 -452.272064 4.944881 0.487388
203.897995 -452.263214 4.537128 0.554681
203.901505 -452.254517 4.135748 0.524849
203.904953 -452.245941 3.739750 0.565362
203.908371 -452.237427 3.348195 0.452598
203.911758 -452.229004 2.960183 0.506539
203.915131 -452.220642 2.574843 0.669841
203.918472 -452.212341 2.191331 0.558480
203.921814 -452.204041 1.808816 0.641459
203.925156 -452.195740 1.426476 0.559396
203.928497 -452.187439 1.043492 0.470405
203.931870 -452.179077 0.659042 1.000000
203.935257 -452.170654 0.272286 1.000000
204.180115 -451.562439 0.000001 0.264430
204.826736 -449.956207 0.000000 0.244096
205.303146 -448.772797 -0.000000 0.241260
203.839188 -452.190552 4.931178 0.510307
203.842773 -452.181824 4.525332 0.400732
203.846298 -452.173218 4.125826 0.485771
203.849792 -452.164734 3.731674 0.466987
203.853241 -452.156342 3.341942 0.510918
203.856659 -452.148010 2.955732 0.563729
203.860046 -452.139771 2.572181 0.571923
203.863419 -452.131531 2.190445 0.571908
203.866791 -452.123352 1.809700 0.545388
203.870148 -452.115143 1.429126 0.619715
203.873520 -452.106934 1.047909 0.457053
203.876923 -452.098694 0.665228 1.000000
203.880341 -452.090363 0.280251 1.000000
204.109024 -451.533539 0.000002 0.221705
204.766846 -449.931854 0.000000 0.254509
205.251511 -448.751801 -0.000001 0.199839
203.784439 -452.109802 4.917745 0.530022
203.788055 -452.101166 4.513768 0.611093
203.791626 -452.092651 4.116099 0.613916
203.795135 -452.084259 3.723757 0.456870
203.798599 -452.075989 3.335811 0.537499
203.802048 -452.067749 2.951369 0.493782
203.805466 -452.059601 2.569571 0.479210
203.808868 -452.051483 2.189577 0.513787
203.812256 -452.043396 1.810566 0.501991
203.815659 -452.035278 1.431724 0.481498
203.819046 -452.027191 1.052238 0.538033
203.822464 -452.019012 0.671294 1.000000
203.825912 -452.010803 0.288060 1.000000
204.038147 -451.504150 0.000001 0.269349
204.707138 -449.907074 0.000000 0.252043
205.200027 -448.730469 -0.000000 0.189212
203.730194 -452.029755 4.904575 0.528740
203.733841 -452.021240 4.502432 0.684733
203.737427 -452.012817 4.106563 0.517250
203.740967 -452.004547 3.715995 0.509651
203.744461 -451.996338 3.329801 0.792554
203.747940 -451.988220 2.947092 0.473152
203.751373 -451.980164 2.567012 0.494545
203.754807 -451.972137 2.188726 0.480629
203.758224 -451.964142 1.811416 0.489433
203.761642 -451.956146 1.434271 0.535729
203.765060 -451.948120 1.056483 0.494331
203.768509 -451.940063 0.677240 1.000000
203.771973 -451.931946 0.295716 1.000000
203.967468 -451.474243 0.000001 0.208779
204.647598 -449.881897 0.000001 0.229053
205.148682 -448.708740 -0.000000 0.234295
203.676437 -451.950439 4.891666 0.570047
203.680099 -451.942017 4.491318 0.600198
203.683716 -451.933716 4.097215 0.671809
203.687286 -451.925537 3.708386 0.534447
203.690811 -451.917450 3.323909 0.630167
203.694305 -451.909424 2.942899 0.463630
203.697769 -451.901459 2.564503 0.565393
203.701233 -451.893524 2.187892 0.449439
203.704666 -451.885620 1.812249 0.553872
203.708115 -451.877716 1.436769 0.563012
203.711563 -451.869781 1.060645 0.550805
203.715027 -451.861816 0.683071 1.000000
203.718521 -451.853790 0.303222 1.000000
203.897003 -451.443848 0.000001 0.251002
204.588242 -449.856293 0.000000 0.240123
205.097504 -448.686676 -0.000000 0.221573
203.623154 -451.871826 4.879011 0.627314
203.626846 -451.863495 4.480424 0.550301
203.630478 -451.855316 4.088052 0.639612
203.634079 -451.847229 3.700928 0.565286
203.637619 -451.839203 3.318133 0.686427
203.641144 -451.831299 2.938788 0.500999
203.644638 -451.823425 2.562045 0.605936
203.648117 -451.815582 2.187074 0.563561
203.651581 -451.807770 1.813066 0.515007
203.655045 -451.799957 1.439217 0.546395
203.658524 -451.792114 1.064725 0.454261
203.662018 -451.784241 0.688786 1.000000
203.665543 -451.776306 0.310580 1.000000
203.826767 -451.412964 0.000001 0.217540
204.529053 -449.830292 0.000000 0.240961
205.046463 -448.664246 -0.000000 0.266907
203.564224 -451.807404 4.870317 0.540032
203.570496 -451.793518 4.471601 0.504967
203.576675 -451.779846 4.079522 0.631998
203.582764 -451.766388 3.693095 0.479118
203.584900 -451.761658 3.312471 0.678767
203.588440 -451.753845 2.934759 0.465370
203.591949 -451.746063 2.559634 0.534905
203.595459 -451.738312 2.186272 0.594980
203.598953 -451.730591 1.813866 0.512367
203.602448 -451.722870 1.441616 0.548348
203.605942 -451.715118 1.068724 0.419104
203.609467 -451.707336 0.694389 1.000000
203.613007 -451.699493 0.317793 1.000000
203.756729 -451.381592 0.000001 0.222602
204.470047 -449.803864 0.000000 0.209785
204.995590 -448.641449 -0.000000 0.254963
203.438217 -451.889740 4.902184 0.501762
203.444748 -451.875580 4.499005 0.555520
203.451157 -451.861664 4.102549 0.641962
203.457474 -451.847931 3.711818 0.620233
203.463715 -451.834381 3.325869 0.540673
203.469894 -451.820953 2.943802 0.520058
203.476028 -451.807648 2.564752 0.567956
203.482132 -451.794434 2.187878 0.594888
203.488205 -451.781219 1.812360 0.541665
203.494263 -451.768066 1.437390 0.658625
203.500336 -451.754883 1.062163 0.530571
203.506424 -451.741669 0.685876 1.000000
203.512543 -451.728363 0.307710 1.000000
203.686920 -451.349731 0.000002 0.256627
204.411240 -449.777008 0.000001 0.229867
204.944885 -448.618317 -0.000000 0.240183
203.309387 -451.973969 4.934915 0.559152
203.316147 -451.959534 4.527149 0.665507
203.322815 -451.945313 4.126197 0.576165
203.329376 -451.931335 3.731046 0.532158
203.335846 -451.917511 3.340743 0.630976
203.342270 -451.903839 2.954376 0.526024
203.348633 -451.890289 2.571070 0.558801
203.354965 -451.876801 2.189977 0.616983
203.361267 -451.863342 1.810266 0.597971
203.367554 -451.849915 1.431119 0.587289
203.373856 -451.836487 1.051724 0.544335
203.380173 -451.823029 0.671266 1.000000
203.386536 -451.809479 0.288921 1.000000
203.617325 -451.317413 0.000001 0.226970
204.352615 -449.749786 0.000000 0.258877
204.894333 -448.594818 -0.000000 0.210790
203.177597 -452.060089 4.968538 0.653529
203.184631 -452.045380 4.556063 0.682322
203.191544 -452.030914 4.150489 0.627146
203.198349 -452.016632 3.750797 0.553109
203.205078 -452.002563 3.356020 0.633936
203.211731 -451.988617 2.965236 0.597299
203.218338 -451.974792 2.577561 0.557122
203.224915 -451.961029 2.192133 0.587945
