# This PCD file was generated using the MATLAB® pcwrite function
# from Computer Vision Toolbox®.
# .PCD v.7 - Point Cloud Data file format
VERSION .7
FIELDS x y z intensity
SIZE 4 4 4 4
TYPE F F F F
COUNT 1 1 1 1
WIDTH 1252
HEIGHT 1
VIEWPOINT 0 0 0 1 0 0 0
POINTS 1252
DATA ascii
42.330971 -14.549872 6.673091 0.678431
42.330971 -14.549873 5.936942 0.678431
42.330971 -14.549873 5.209510 0.678431
42.330971 -14.549871 4.489109 0.678431
42.330971 -14.549873 3.774113 0.678431
42.330971 -14.549873 3.062945 0.678431
41.689354 -14.236937 2.342380 0.571324
41.689358 -14.236938 1.657619 0.585172
41.689369 -14.236943 0.972123 0.536520
41.689369 -14.236943 0.284419 0.605147
38.509224 -12.685883 0.000054 0.519118
35.001949 -10.975269 0.000064 0.542647
32.763245 -9.883379 -0.000005 0.333088
31.206924 -9.124311 0.000005 0.333701
30.060343 -8.565086 0.000004 0.331740
41.991257 -14.549874 7.343374 0.678431
41.991249 -14.549872 6.607258 0.678431
41.991253 -14.549873 5.881478 0.678431
41.991253 -14.549873 5.164295 0.678431
41.991253 -14.549874 4.454042 0.678431
41.991249 -14.549873 3.749119 0.678431
41.991257 -14.549873 3.047971 0.678431
41.360840 -14.236933 2.337557 0.374632
41.360840 -14.236933 1.662443 0.763848
41.360847 -14.236938 0.986605 0.632230
41.360851 -14.236939 0.308588 0.632108
38.455711 -12.794815 0.000045 0.529167
34.960442 -11.059746 0.000056 0.527696
32.729362 -9.952230 -0.000005 0.329044
31.178381 -9.182316 0.000005 0.339706
30.035728 -8.615097 0.000005 0.323652
41.660950 -14.549872 7.269394 0.678431
41.660950 -14.549872 6.543470 0.678431
41.660950 -14.549872 5.827740 0.678431
41.660954 -14.549872 5.120485 0.678431
41.660950 -14.549872 4.420066 0.678431
41.660950 -14.549872 3.724902 0.678431
41.660957 -14.549874 3.033462 0.678431
41.041435 -14.236933 2.332884 0.485172
41.041439 -14.236934 1.667117 0.535907
41.041451 -14.236939 1.000635 0.430882
41.041451 -14.236940 0.332006 0.427083
38.401428 -12.903368 0.000037 0.528309
34.918392 -11.143959 0.000040 0.545343
32.695000 -10.020844 -0.000005 0.336642
31.149429 -9.240118 0.000007 0.335907
30.010765 -8.664938 0.000006 0.331740
41.339661 -14.549872 7.197686 0.678431
41.339661 -14.549873 6.481642 0.678431
41.339661 -14.549872 5.775650 0.678431
41.339661 -14.549872 5.078020 0.678431
41.339661 -14.549872 4.387133 0.678431
41.339661 -14.549872 3.701430 0.678431
41.339661 -14.549872 3.019398 0.678431
40.730789 -14.236955 2.328354 0.530882
40.730759 -14.236939 1.671646 0.780025
40.730770 -14.236946 1.014234 0.481373
40.730766 -14.236944 0.354704 0.759314
38.346386 -13.011538 0.000030 0.524632
34.875706 -11.227849 0.000032 0.553922
32.660164 -10.089215 -0.000005 0.323162
31.120081 -9.297720 0.000006 0.335907
29.985472 -8.714611 0.000002 0.333578
41.026978 -14.549872 7.128149 0.678431
41.026978 -14.549871 6.421683 0.678431
41.026978 -14.549872 5.725137 0.678431
41.026978 -14.549871 5.036841 0.678431
41.026978 -14.549873 4.355197 0.678431
41.026978 -14.549873 3.678667 0.678431
41.026978 -14.549872 3.005760 0.678431
40.428413 -14.236950 2.323961 0.608824
40.428383 -14.236934 1.676039 0.564093
40.428391 -14.236938 1.027423 0.702206
40.428391 -14.236938 0.376716 0.452941
38.290424 -13.119236 0.000043 0.552451
34.832249 -11.311345 0.000055 0.526593
32.624851 -10.157345 -0.000005 0.336275
31.090328 -9.355116 0.000007 0.340441
29.959820 -8.764100 0.000002 0.326471
40.722546 -14.549872 7.060694 0.678431
40.722546 -14.549872 6.363522 0.678431
40.722549 -14.549872 5.676138 0.678431
40.722546 -14.549872 4.996895 0.678431
40.722546 -14.549872 4.324217 0.678431
40.722542 -14.549870 3.656586 0.678431
40.722546 -14.549872 2.992530 0.678431
40.134018 -14.236946 2.319700 0.548162
40.134003 -14.236939 1.680300 0.431495
40.134010 -14.236943 1.040215 0.547672
40.134010 -14.236943 0.398068 0.454902
38.233875 -13.226623 0.000036 0.526226
34.788452 -11.394659 0.000038 0.506618
32.589058 -10.225222 -0.000004 0.332353
31.060173 -9.412297 0.000008 0.336520
29.933819 -8.813404 0.000003 0.337255
40.177971 -14.415767 6.924603 0.160784
40.177979 -14.415768 6.246179 0.160784
40.177971 -14.415766 5.577280 0.160784
40.177971 -14.415767 4.916303 0.160784
40.177971 -14.415767 4.261714 0.170833
40.177971 -14.415766 3.612037 0.171691
40.177971 -14.415767 2.965840 0.172426
39.847240 -14.236940 2.315564 0.804779
39.847260 -14.236950 1.684436 0.525490
39.847267 -14.236954 1.052630 0.805025
39.847263 -14.236954 0.418789 0.552574
38.176575 -13.333615 0.000029 0.540931
34.744003 -11.477632 0.000033 0.530270
32.504448 -10.266708 0.009996 1.000000
31.029625 -9.469273 0.000008 0.344485
29.907476 -8.862530 0.000003 0.338358
40.137016 -14.549874 6.931675 0.545221
40.137012 -14.549872 6.252276 0.551348
40.137012 -14.549873 5.582417 0.516667
40.137012 -14.549872 4.920490 0.524755
40.137009 -14.549871 4.264962 0.550490
40.137016 -14.549874 3.614352 0.547426
40.137012 -14.549872 2.967226 0.555025
39.567825 -14.236958 2.311550 0.626225
39.567787 -14.236938 1.688451 0.666544
39.567799 -14.236944 1.064684 0.631618
39.567799 -14.236944 0.438908 0.670833
38.118443 -13.440155 0.000034 0.543015
34.698975 -11.560286 0.000028 0.551961
32.467896 -10.333739 0.009998 1.000000
30.998686 -9.526035 0.000006 0.341299
29.880802 -8.911474 0.000001 0.327819
39.855270 -14.549874 6.869949 0.678431
39.855270 -14.549874 6.199054 0.678431
39.855270 -14.549875 5.537579 0.678431
39.855270 -14.549874 4.883938 0.678431
39.855270 -14.549874 4.236614 0.678431
39.855267 -14.549873 3.594146 0.678431
39.855267 -14.549873 2.955120 0.678431
39.295338 -14.236938 2.307650 0.570098
39.295357 -14.236949 1.692350 0.326716
39.295364 -14.236954 1.076390 0.563848
39.295361 -14.236952 0.458446 0.367157
38.059654 -13.546340 0.000027 0.531373
34.653416 -11.642656 0.000015 0.563480
32.430882 -10.400523 0.009997 1.000000
30.967346 -9.582581 0.000005 0.334559
29.853779 -8.960228 0.000001 0.333211
39.580482 -14.549873 6.809982 0.678431
39.580479 -14.549873 6.147348 0.678431
39.580482 -14.549875 5.494019 0.678431
39.580479 -14.549872 4.848425 0.678431
39.580475 -14.549871 4.209072 0.678431
39.580479 -14.549872 3.574516 0.678431
39.580479 -14.549873 2.943360 0.678431
39.029633 -14.236948 2.303861 0.460662
39.029617 -14.236941 1.696139 0.695343
39.029629 -14.236946 1.087764 0.531373
39.029633 -14.236947 0.477429 0.489461
37.999935 -13.651999 0.000045 0.528186
34.607094 -11.724596 0.000035 0.521201
32.441189 -10.494190 -0.000003 0.330147
30.935623 -9.638908 0.000002 0.337010
29.826410 -9.008789 0.000002 0.311274
39.312370 -14.549874 6.751705 0.678431
39.312370 -14.549874 6.097098 0.678431
39.312363 -14.549872 5.451684 0.678431
39.312366 -14.549873 4.813913 0.678431
39.312366 -14.549874 4.182307 0.678431
39.312363 -14.549872 3.555440 0.678431
39.312363 -14.549872 2.931930 0.678431
38.770378 -14.236957 2.300180 0.365196
38.770344 -14.236937 1.699821 0.701471
38.770351 -14.236941 1.098817 0.712868
38.770355 -14.236942 0.495877 0.662500
37.939671 -13.757346 0.000039 0.540564
34.560356 -11.806299 0.000028 0.558701
32.403049 -10.560778 -0.000003 0.336887
30.903496 -9.695008 0.000002 0.338848
29.798710 -9.057160 0.000002 0.336887
39.050659 -14.549874 6.695047 0.678431
39.050659 -14.549874 6.048247 0.678431
39.050659 -14.549874 5.410527 0.678431
39.050659 -14.549873 4.780362 0.678431
39.050659 -14.549874 4.156286 0.678431
39.050659 -14.549874 3.536894 0.678431
39.050655 -14.549872 2.920818 0.678431
38.517288 -14.236947 2.296601 0.830515
38.517265 -14.236935 1.703400 0.526961
38.517273 -14.236939 1.109562 0.346078
38.517273 -14.236939 0.513812 0.889583
37.878586 -13.862224 0.000043 0.537623
34.512901 -11.887589 0.000046 0.558701
32.364265 -10.626989 0.000036 0.533456
30.870975 -9.750881 0.000002 0.335417
29.770668 -9.105335 0.000002 0.331373
38.795109 -14.549875 6.639949 0.678431
38.795105 -14.549874 6.000739 0.678431
38.795109 -14.549875 5.370503 0.678431
38.795105 -14.549874 4.747733 0.678431
38.795109 -14.549875 4.130981 0.678431
38.795109 -14.549874 3.518857 0.678431
38.795109 -14.549876 2.910012 0.678431
38.270180 -14.236956 2.293120 0.868627
38.270164 -14.236944 1.706880 0.500123
38.270172 -14.236950 1.120011 0.676225
38.270172 -14.236949 0.531252 0.488235
37.816849 -13.966717 0.000036 0.511029
34.465019 -11.968624 0.000041 0.541422
32.325100 -10.692975 0.000058 0.534314
30.838068 -9.806526 0.000002 0.324755
29.742294 -9.153315 0.000002 0.334804
38.545471 -14.549876 6.586348 0.678431
38.545471 -14.549877 5.954523 0.678431
38.545471 -14.549876 5.331569 0.678431
38.545467 -14.549875 4.715992 0.678431
38.545471 -14.549877 4.106365 0.678431
38.545467 -14.549875 3.501312 0.678431
38.545467 -14.549875 2.899499 0.678431
38.028759 -14.236946 2.289734 0.678676
38.028740 -14.236936 1.710267 0.335539
38.028748 -14.236938 1.130178 0.710172
38.028748 -14.236938 0.548221 0.645833
37.754360 -14.070763 0.000034 0.550735
34.416473 -12.049267 0.000053 0.555637
32.285591 -10.758757 0.000056 0.562255
30.804768 -9.861938 0.000003 0.335539
29.713581 -9.201094 0.000003 0.339583
38.301525 -14.549877 6.534193 0.678431
38.301525 -14.549877 5.909552 0.678431
38.301521 -14.549876 5.293681 0.678431
38.301525 -14.549877 4.685105 0.678431
38.301521 -14.549876 4.082411 0.678431
38.301521 -14.549877 3.484239 0.678431
38.301521 -14.549875 2.889270 0.678431
37.792877 -14.236954 2.286439 0.594363
37.792858 -14.236943 1.713561 0.449142
37.792862 -14.236945 1.140069 0.659559
37.792866 -14.236948 0.564729 0.831250
37.691051 -14.174312 0.000044 0.523652
34.367462 -12.129625 0.000047 0.533456
32.245670 -10.824291 0.000043 0.544608
30.771090 -9.917122 0.000002 0.342647
29.684544 -9.248674 0.000002 0.327206
37.848434 -14.415771 6.420033 0.160784
37.848434 -14.415771 5.811119 0.160784
37.848434 -14.415769 5.210754 0.160784
37.848434 -14.415771 4.617502 0.168015
37.848434 -14.415771 4.029981 0.160784
37.848434 -14.415770 3.446869 0.160784
37.848434 -14.415770 2.866880 0.160784
37.562263 -14.236952 2.283232 0.504902
37.562248 -14.236941 1.716768 0.648897
37.562256 -14.236946 1.149697 0.503309
37.562248 -14.236943 0.580800 0.489461
37.562286 -14.236966 0.008836 0.558456
34.317848 -12.209614 0.000050 0.543382
32.205189 -10.889477 0.000053 0.544485
30.737026 -9.972069 0.000001 0.333824
29.655172 -9.296050 0.000002 0.340686
37.710464 -14.474113 6.398576 0.160784
37.710468 -14.474114 5.792619 0.153431
37.710468 -14.474114 5.195169 0.160784
37.710468 -14.474114 4.604795 0.160784
37.710468 -14.474114 4.020127 0.162745
37.710468 -14.474114 3.439846 0.160784
37.710464 -14.474113 2.862672 0.150245
37.336758 -14.236952 2.280109 0.544608
37.336742 -14.236941 1.719891 0.708824
37.336742 -14.236942 1.159072 0.533701
37.336746 -14.236944 0.596447 0.721324
37.336769 -14.236959 0.030789 0.541176
34.267719 -12.289280 0.000045 0.526593
32.164345 -10.954439 0.000043 0.522304
30.702568 -10.026766 0.000004 0.339828
29.625465 -9.343216 0.000003 0.339338
37.601723 -14.549879 6.385855 0.678431
37.601723 -14.549878 5.781649 0.678431
37.601723 -14.549878 5.185927 0.678431
37.601723 -14.549878 4.597261 0.678431
37.601723 -14.549878 4.014284 0.678431
37.601723 -14.549878 3.435681 0.678431
37.601723 -14.549877 2.860177 0.678431
37.116154 -14.236950 2.277068 0.471078
37.116138 -14.236939 1.722932 0.735539
37.116138 -14.236941 1.168202 0.675613
37.116142 -14.236941 0.611685 0.595833
37.116173 -14.236964 0.052168 0.461520
34.217030 -12.368591 0.000041 0.553186
32.123016 -11.019093 0.000040 0.530270
30.667736 -10.081227 0.000004 0.326593
29.595432 -9.390175 0.000003 0.338113
37.378487 -14.549878 6.338957 0.678431
37.378487 -14.549878 5.741212 0.678431
37.378487 -14.549878 5.151860 0.678431
37.378487 -14.549877 4.569489 0.678431
37.378487 -14.549878 3.992746 0.678431
37.378487 -14.549878 3.420330 0.678431
37.378487 -14.549877 2.850979 0.678431
36.900291 -14.236959 2.274106 0.813725
36.900280 -14.236950 1.725895 0.853554
36.900284 -14.236950 1.177096 0.887010
36.900280 -14.236949 0.626529 0.666299
36.900288 -14.236955 0.072998 0.402083
34.165825 -12.447571 0.000031 0.508946
32.081409 -11.083568 0.000000 0.550735
30.632511 -10.135435 0.000008 0.328554
29.565075 -9.436924 0.000003 0.328799
37.159962 -14.549880 6.293259 0.678431
37.159962 -14.549880 5.701810 0.678431
37.159958 -14.549878 5.118664 0.678431
37.159958 -14.549879 4.542427 0.678431
37.159962 -14.549880 3.971758 0.678431
37.159958 -14.549878 3.405370 0.678431
37.159958 -14.549879 2.842017 0.678431
36.688969 -14.236953 2.271218 0.519975
36.688946 -14.236939 1.728782 0.832353
36.688950 -14.236939 1.185764 0.846569
36.688950 -14.236939 0.640997 0.822304
36.688961 -14.236949 0.093295 0.423039
34.114021 -12.526161 0.000028 0.534069
32.039181 -11.147640 -0.000003 0.568505
30.596916 -10.189402 0.000010 0.336520
29.534382 -9.483456 0.000005 0.337623
36.747154 -14.415770 6.188645 0.160784
36.747158 -14.415771 5.611608 0.160784
36.747158 -14.415771 5.042673 0.160784
36.747154 -14.415769 4.480475 0.160784
36.747154 -14.415769 3.923712 0.160784
36.747158 -14.415771 3.371126 0.160784
36.747154 -14.415768 2.821499 0.160784
36.482048 -14.236951 2.268405 0.874510
36.482052 -14.236956 1.731595 0.819485
36.482052 -14.236955 1.194210 0.664583
36.482052 -14.236956 0.655093 0.571814
36.482063 -14.236961 0.113073 0.603309
34.061646 -12.604369 0.000031 0.551961
31.996401 -11.211344 0.000017 0.542525
30.560957 -10.243125 0.000009 0.337500
29.503372 -9.529774 0.000005 0.319240
36.736382 -14.549877 6.205295 0.422794
36.736382 -14.549878 5.625964 0.420343
36.736382 -14.549877 5.054767 0.456373
36.736382 -14.549877 4.490335 0.464338
36.736382 -14.549877 3.931359 0.472304
36.736382 -14.549878 3.376576 0.479044
36.736382 -14.549877 2.824765 0.353922
36.279366 -14.236953 2.265662 0.557721
36.279354 -14.236945 1.734339 0.636029
36.279354 -14.236944 1.202446 0.589461
36.279354 -14.236945 0.668840 0.605882
36.279366 -14.236954 0.132360 0.652451
34.008751 -12.682231 0.000028 0.538848
31.953304 -11.274836 0.000009 0.539828
30.487005 -10.270840 0.009855 1.000000
29.472046 -9.575882 0.000004 0.336397
36.531017 -14.549877 6.162952 0.678431
36.531013 -14.549876 5.589454 0.678431
36.531017 -14.549878 5.024009 0.678431
36.531017 -14.549877 4.465261 0.678431
36.531017 -14.549876 3.911911 0.678431
36.531017 -14.549876 3.362715 0.678431
36.531017 -14.549877 2.816460 0.678431
36.080780 -14.236954 2.262986 0.414951
36.080765 -14.236942 1.737014 0.448039
36.080765 -14.236944 1.210477 0.767402
36.080765 -14.236942 0.682244 0.429167
36.080795 -14.236965 0.151163 0.487500
33.955193 -12.759633 0.000048 0.558701
31.909683 -11.337965 0.000020 0.546324
30.450653 -10.323914 0.009808 1.000000
29.440393 -9.621764 0.000003 0.334069
36.329735 -14.549877 6.121651 0.678431
36.329735 -14.549878 5.553843 0.678431
36.329739 -14.549878 4.994008 0.678431
36.329735 -14.549879 4.440803 0.678431
36.329735 -14.549877 3.892944 0.678431
36.329735 -14.549876 3.349196 0.678431
36.329735 -14.549877 2.808360 0.678431
35.886127 -14.236945 2.260377 0.366912
35.886131 -14.236949 1.739623 0.637377
35.886135 -14.236951 1.218309 0.709804
35.886131 -14.236950 0.695316 0.447426
35.886147 -14.236959 0.169506 0.682598
33.901230 -12.836754 0.000044 0.522672
31.865656 -11.400814 0.000023 0.568137
30.413393 -10.376356 0.009904 1.000000
29.408417 -9.667423 0.000005 0.334314
36.132401 -14.549877 6.081359 0.678431
36.132401 -14.549878 5.519102 0.678431
36.132401 -14.549879 4.964740 0.678431
36.132401 -14.549879 4.416942 0.678431
36.132401 -14.549878 3.874439 0.678431
36.132401 -14.549878 3.336007 0.678431
36.132401 -14.549876 2.800458 0.678431
35.695313 -14.236953 2.257832 0.426348
35.695305 -14.236947 1.742168 0.816422
35.695305 -14.236948 1.225951 0.684191
35.695305 -14.236947 0.708071 0.742157
35.695320 -14.236959 0.187401 0.646324
33.846687 -12.913466 0.000047 0.529902
31.821239 -11.463389 0.000015 0.539093
30.413382 -10.455462 0.000008 0.332230
29.376127 -9.712860 0.000004 0.325245
35.938877 -14.549878 6.042042 0.678431
35.938877 -14.549878 5.485202 0.678431
35.938873 -14.549877 4.936179 0.678431
35.938877 -14.549878 4.393659 0.678431
35.938877 -14.549879 3.856382 0.678431
35.938877 -14.549878 3.323137 0.678431
35.938881 -14.549879 2.792747 0.678431
35.508167 -14.236950 2.255348 0.430025
35.508152 -14.236938 1.744652 0.916176
35.508156 -14.236940 1.233408 0.618015
35.508152 -14.236938 0.720518 0.573407
35.508186 -14.236964 0.204861 0.749387
33.791576 -12.989772 0.000056 0.536152
31.776304 -11.525592 0.000026 0.558701
30.375563 -10.507893 0.000009 0.336275
29.343519 -9.758069 0.000005 0.341422
35.749039 -14.549879 6.003670 0.678431
35.749039 -14.549879 5.452115 0.678431
35.749039 -14.549878 4.908304 0.678431
35.749035 -14.549878 4.370934 0.678431
35.749039 -14.549879 3.838758 0.678431
35.749039 -14.549878 3.310576 0.678431
35.749035 -14.549877 2.785221 0.678431
35.324585 -14.236944 2.252924 0.448529
35.324593 -14.236950 1.747076 0.674265
35.324593 -14.236950 1.240685 0.466054
35.324589 -14.236949 0.732662 0.573039
35.324615 -14.236967 0.221903 0.455882
33.736176 -13.065868 0.000021 0.521936
31.730972 -11.587505 0.000028 0.508946
30.337381 -10.560061 0.000009 0.331495
29.310596 -9.803050 0.000005 0.339338
35.562759 -14.549878 5.966209 0.678431
35.562759 -14.549877 5.419815 0.678431
35.562759 -14.549877 4.881093 0.678431
35.562759 -14.549877 4.348751 0.678431
35.562759 -14.549878 3.821554 0.678431
35.562759 -14.549878 3.298314 0.678431
35.562756 -14.549876 2.777874 0.678431
35.144463 -14.236953 2.250558 0.566422
35.144447 -14.236943 1.749442 0.902696
35.144447 -14.236943 1.247790 0.574265
35.144451 -14.236945 0.744521 0.411520
35.144470 -14.236958 0.238541 0.631495
33.680073 -13.141450 0.000017 0.531495
31.685257 -11.649136 0.000021 0.560784
30.298801 -10.611935 0.000019 0.516054
29.277363 -9.847801 0.000005 0.338480
35.379925 -14.549878 5.929633 0.678431
35.379921 -14.549877 5.388279 0.678431
35.379921 -14.549877 4.854524 0.678431
35.379925 -14.549878 4.327092 0.678431
35.379921 -14.549877 3.804756 0.678431
35.379921 -14.549877 3.286340 0.678431
35.379925 -14.549878 2.770701 0.678431
34.967659 -14.236953 2.248247 0.387500
34.967644 -14.236940 1.751753 0.906985
34.967644 -14.236942 1.254727 0.670956
34.967644 -14.236942 0.756099 0.528431
34.967682 -14.236970 0.254782 0.677574
33.623463 -13.216651 0.000010 0.523284
31.639080 -11.710422 0.000020 0.537377
30.259920 -10.663583 0.000012 0.549632
29.243816 -9.892319 0.000005 0.330025
35.200424 -14.549879 5.893915 0.678431
35.200424 -14.549879 5.357481 0.678431
35.200424 -14.549878 4.828578 0.678431
35.200424 -14.549878 4.305940 0.678431
35.200424 -14.549879 3.788352 0.678431
35.200428 -14.549879 3.274649 0.678431
35.200424 -14.549877 2.763695 0.678431
34.794090 -14.236958 2.245991 0.468995
34.794067 -14.236941 1.754010 0.800245
34.794067 -14.236940 1.261501 0.870343
34.794075 -14.236946 0.767405 0.540686
34.794106 -14.236968 0.270646 0.568260
33.566216 -13.291367 0.000025 0.523775
31.592468 -11.771377 0.000021 0.577574
30.220556 -10.714863 0.000039 0.555515
29.209963 -9.936601 0.000004 0.340809
35.024147 -14.549878 5.859025 0.678431
35.024147 -14.549878 5.327397 0.678431
35.024147 -14.549878 4.803234 0.678431
35.024147 -14.549878 4.285277 0.678431
35.024147 -14.549879 3.772329 0.678431
35.024147 -14.549879 3.263227 0.678431
35.024147 -14.549878 2.756853 0.678431
34.623631 -14.236959 2.243787 0.526838
34.623619 -14.236953 1.756213 0.776471
34.623623 -14.236954 1.268117 0.680025
34.623627 -14.236958 0.778448 0.914338
34.623631 -14.236961 0.286142 0.475123
33.508549 -13.365762 0.000020 0.555147
31.545464 -11.832032 0.000014 0.561029
30.180952 -10.765959 0.000034 0.534926
29.175798 -9.980646 0.000004 0.335907
34.850994 -14.549878 5.824940 0.678431
34.850994 -14.549878 5.298008 0.678431
34.850994 -14.549878 4.778474 0.678431
34.850990 -14.549877 4.265092 0.678431
34.850994 -14.549878 3.756674 0.678431
34.850994 -14.549877 3.252069 0.678431
34.850994 -14.549877 2.750167 0.678431
34.456188 -14.236959 2.241634 0.585784
34.456177 -14.236951 1.758367 0.806373
34.456177 -14.236951 1.274582 0.406127
34.456181 -14.236953 0.789238 0.736152
34.456192 -14.236961 0.301280 0.416912
33.450371 -13.439760 0.000014 0.544730
31.498024 -11.892346 0.000011 0.531985
30.141001 -10.816782 0.000027 0.561520
29.141323 -10.024448 0.000005 0.312500
34.514061 -14.415767 5.738023 0.160784
34.514061 -14.415767 5.223064 0.160784
34.514061 -14.415767 4.715337 0.160784
34.514061 -14.415767 4.213622 0.160784
34.514061 -14.415767 3.716756 0.160784
34.514061 -14.415767 3.223618 0.160784
34.514061 -14.415766 2.733121 0.160784
34.291668 -14.236959 2.239529 0.669118
34.291656 -14.236947 1.760471 0.688480
34.291656 -14.236948 1.280899 0.797304
34.291660 -14.236951 0.799780 0.856005
34.291683 -14.236971 0.316070 0.837255
33.391666 -13.513337 0.000010 0.531495
31.450127 -11.952299 0.000016 0.506495
30.100687 -10.867322 0.000021 0.543750
29.106544 -10.068010 0.000006 0.325123
34.409363 -14.464812 5.725373 0.137255
34.409363 -14.464812 5.212158 0.134804
34.409367 -14.464813 4.706148 0.130882
34.409363 -14.464813 4.206131 0.160784
34.409363 -14.464811 3.710946 0.160784
34.409363 -14.464812 3.219477 0.160784
34.409363 -14.464811 2.730640 0.160784
34.129990 -14.236959 2.237473 0.748284
34.129974 -14.236947 1.762527 0.647426
34.129971 -14.236944 1.287071 0.494118
34.129978 -14.236950 0.810084 0.613235
34.130005 -14.236971 0.330525 0.386152
33.332424 -13.586482 0.000012 0.553922
31.401787 -12.011892 0.000028 0.553186
30.059999 -10.917557 0.000023 0.587377
29.071466 -10.111328 0.000006 0.332721
34.349300 -14.549879 5.727273 0.678431
34.349300 -14.549879 5.213796 0.678431
34.349300 -14.549879 4.707527 0.678431
34.349304 -14.549880 4.207256 0.678431
34.349304 -14.549880 3.711819 0.678431
34.349300 -14.549879 3.220099 0.678431
34.349300 -14.549879 2.731013 0.678431
33.971039 -14.236953 2.235464 0.647426
33.971027 -14.236943 1.764537 0.814583
33.971024 -14.236940 1.293106 0.529167
33.971031 -14.236945 0.820155 0.607108
33.971050 -14.236963 0.344656 0.745956
33.272640 -13.659188 0.000019 0.570711
31.353107 -12.071211 0.000022 0.569608
30.018957 -10.967506 0.000025 0.558824
29.036087 -10.154405 0.000006 0.324510
34.187695 -14.549881 5.696173 0.678431
34.187695 -14.549881 5.186979 0.678431
34.187691 -14.549880 4.684936 0.678431
34.187691 -14.549879 4.188838 0.678431
34.187695 -14.549880 3.697535 0.678431
34.187695 -14.549880 3.209918 0.678431
34.187691 -14.549879 2.724913 0.678431
33.814766 -14.236957 2.233499 0.638726
33.814762 -14.236953 1.766501 0.767279
33.814754 -14.236948 1.299003 0.647549
33.814766 -14.236956 0.829998 0.525613
33.814766 -14.236958 0.358469 0.349755
33.212399 -13.731510 0.000017 0.532353
31.303997 -12.130173 0.000019 0.557721
29.977596 -11.017189 0.000019 0.542034
29.000402 -10.197226 0.000007 0.329289
34.028748 -14.549880 5.665762 0.678431
34.028748 -14.549880 5.160759 0.678431
34.028748 -14.549880 4.662846 0.678431
34.028748 -14.549879 4.170830 0.678431
34.028748 -14.549880 3.683568 0.678431
34.028748 -14.549881 3.199964 0.678431
34.028748 -14.549879 2.718949 0.678431
33.661068 -14.236960 2.231578 0.455637
33.661057 -14.236950 1.768422 0.455882
33.661049 -14.236945 1.304771 0.630270
33.661060 -14.236954 0.839625 0.380147
33.661064 -14.236957 0.371975 0.363603
33.151630 -13.803394 0.000019 0.527696
31.254459 -12.188776 0.000021 0.534191
29.935894 -11.066588 0.000013 0.512500
28.933895 -10.213821 0.010048 1.000000
33.872387 -14.549879 5.636024 0.678431
33.872387 -14.549880 5.135118 0.678431
33.872387 -14.549879 4.641243 0.678431
33.872387 -14.549879 4.153218 0.678431
33.872387 -14.549879 3.669910 0.678431
33.872387 -14.549879 3.190229 0.678431
33.872387 -14.549879 2.713116 0.678431
33.509865 -14.236958 2.229699 0.540319
33.509850 -14.236946 1.770301 0.485907
33.509846 -14.236942 1.310411 0.397059
33.509853 -14.236950 0.849038 0.312990
33.509861 -14.236956 0.385182 0.545711
33.090363 -13.874855 0.000021 0.527328
31.204535 -12.247050 0.000018 0.512868
29.893831 -11.115681 0.000010 0.576348
28.898455 -10.256495 0.009832 1.000000
33.718540 -14.549880 5.606941 0.678431
33.718540 -14.549879 5.110040 0.678431
33.718540 -14.549879 4.620116 0.678431
33.718540 -14.549879 4.135996 0.678431
33.718540 -14.549879 3.656554 0.678431
33.718540 -14.549879 3.180709 0.678431
33.718540 -14.549878 2.707412 0.678431
33.361092 -14.236955 2.227862 0.792402
33.361084 -14.236949 1.772138 0.866054
33.361080 -14.236946 1.315927 0.412868
33.361084 -14.236950 0.858245 0.471569
33.361092 -14.236956 0.398099 0.438726
33.028587 -13.945870 0.000026 0.542525
31.154165 -12.304939 0.000025 0.525368
29.851395 -11.164450 0.000017 0.578676
28.861996 -10.298295 0.009855 1.000000
33.567123 -14.549879 5.578490 0.678431
33.567123 -14.549880 5.085509 0.678431
33.567123 -14.549879 4.599450 0.678431
33.567123 -14.549880 4.119148 0.678431
33.567123 -14.549879 3.643487 0.678431
33.567123 -14.549880 3.171396 0.678431
33.567123 -14.549880 2.701833 0.678431
33.214676 -14.236959 2.226065 0.731618
33.214676 -14.236959 1.773935 0.662745
33.214661 -14.236948 1.321322 0.488358
33.214664 -14.236952 0.867250 0.640196
33.214668 -14.236955 0.410734 0.415441
32.966385 -14.016518 0.000017 0.540319
31.103413 -12.362494 0.000027 0.544853
29.808664 -11.212961 0.000010 0.530025
28.825068 -10.339684 0.009938 1.000000
33.418072 -14.549880 5.550657 0.678431
33.418076 -14.549880 5.061511 0.678431
33.418072 -14.549880 4.579232 0.678431
33.418076 -14.549881 4.102666 0.678431
33.418076 -14.549881 3.630705 0.678431
33.418072 -14.549880 3.162285 0.678431
33.418072 -14.549879 2.696374 0.678431
33.070541 -14.236959 2.224306 0.591299
33.070541 -14.236959 1.775694 0.309804
33.070526 -14.236946 1.326601 0.636029
33.070526 -14.236948 0.876061 0.706250
33.070538 -14.236957 0.423095 0.578922
32.903656 -14.086697 0.000015 0.545343
31.052277 -12.419708 0.000024 0.571078
29.765587 -11.261166 0.000007 0.549755
28.787861 -10.380816 0.010018 1.000000
33.271313 -14.549879 5.523424 0.678431
33.271313 -14.549880 5.038029 0.678431
33.271317 -14.549880 4.559450 0.678431
33.271313 -14.549880 4.086538 0.678431
33.271317 -14.549880 3.618197 0.678431
33.271313 -14.549879 3.153371 0.678431
33.271313 -14.549879 2.691033 0.678431
32.928619 -14.236959 2.222586 0.673284
32.928619 -14.236959 1.777414 0.516054
32.928604 -14.236945 1.331766 0.694608
32.928612 -14.236949 0.884682 0.358701
32.928623 -14.236959 0.435189 0.595221
32.840446 -14.156443 0.000012 0.539583
31.000753 -12.476573 0.000019 0.544363
29.722143 -11.309040 0.000013 0.554657
28.780127 -10.448861 0.000004 0.334559
33.126781 -14.549879 5.496775 0.678431
33.126785 -14.549880 5.015051 0.678431
33.126781 -14.549878 4.540091 0.678431
33.126781 -14.549879 4.070757 0.678431
33.126781 -14.549878 3.605958 0.678431
33.126781 -14.549878 3.144647 0.678431
33.126781 -14.549878 2.685806 0.678431
32.788860 -14.236959 2.220902 0.666912
32.788860 -14.236959 1.779098 0.556373
32.788857 -14.236955 1.336820 0.707475
32.788853 -14.236951 0.893117 0.739706
32.788857 -14.236958 0.447025 0.639951
32.776676 -14.225677 0.000023 0.540074
30.948799 -12.533043 0.000023 0.540564
29.678381 -11.356623 0.000014 0.562010
28.742393 -10.489889 0.000005 0.331005
32.841602 -14.415770 5.421620 0.160784
32.841602 -14.415771 4.950251 0.160784
32.841602 -14.415770 4.485498 0.172549
32.841599 -14.415770 4.026251 0.172549
32.841599 -14.415769 3.571442 0.172549
32.841599 -14.415769 3.120046 0.172549
32.841599 -14.415768 2.671066 0.172549
32.651192 -14.236963 2.219255 0.372794
32.651192 -14.236963 1.780745 0.326103
32.651184 -14.236958 1.341766 0.789338
32.651184 -14.236955 0.901372 0.847794
32.651192 -14.236962 0.458607 0.399755
32.651192 -14.236964 0.012495 0.377941
30.896473 -12.589170 0.000021 0.532230
29.634300 -11.403912 0.000011 0.565196
28.704380 -10.530660 0.000004 0.335539
32.798767 -14.506662 5.429468 0.182721
32.798767 -14.506662 4.957017 0.184314
32.798767 -14.506660 4.491199 0.178922
32.798767 -14.506660 4.030898 0.179289
32.798767 -14.506662 3.575046 0.179657
32.798767 -14.506662 3.122614 0.180025
32.798767 -14.506661 2.672606 0.180392
32.515549 -14.236959 2.217642 0.772794
32.515553 -14.236960 1.782358 0.432353
32.515545 -14.236954 1.346608 0.839828
32.515541 -14.236952 0.909453 0.842525
32.515553 -14.236962 0.469944 0.787377
32.515556 -14.236963 0.027113 0.856985
30.843809 -12.644980 0.000006 0.554534
29.589874 -11.450875 0.000013 0.553431
28.666037 -10.571117 0.000020 0.587500
32.705921 -14.549880 5.420176 0.666667
32.705925 -14.549879 4.949004 0.666667
32.705921 -14.549879 4.484448 0.666667
32.705925 -14.549879 4.025395 0.666667
32.705925 -14.549879 3.570778 0.666667
32.705921 -14.549879 3.119573 0.678431
32.705921 -14.549877 2.670783 0.678431
32.381878 -14.236954 2.216063 0.742647
32.381878 -14.236952 1.783937 0.232353
32.381882 -14.236956 1.351347 0.858824
32.381882 -14.236955 0.917364 0.605882
32.381889 -14.236962 0.481043 0.748162
32.381889 -14.236963 0.041424 0.529044
30.790676 -12.700346 0.000011 0.527451
29.545145 -11.497551 0.000008 0.545833
28.627468 -10.611361 0.000015 0.510294
32.569683 -14.549879 5.395709 0.678431
32.569683 -14.549880 4.927909 0.678431
32.569679 -14.549878 4.466676 0.678431
32.569679 -14.549878 4.010907 0.678431
32.569679 -14.549878 3.559542 0.678431
32.569679 -14.549878 3.111564 0.678431
32.569683 -14.549879 2.665985 0.678431
32.250137 -14.236956 2.214518 0.660784
32.250137 -14.236956 1.785482 0.407843
32.250137 -14.236959 1.355987 0.851471
32.250137 -14.236956 0.925108 0.260784
32.250145 -14.236966 0.491908 0.807721
32.250141 -14.236961 0.055435 0.542647
30.737154 -12.755335 0.000017 0.521324
29.500021 -11.543845 0.000025 0.495711
28.588625 -10.651340 0.000009 0.545343
32.435368 -14.549878 5.371755 0.678431
32.435371 -14.549880 4.907254 0.678431
32.435371 -14.549881 4.449276 0.678431
32.435368 -14.549879 3.996721 0.678431
32.435368 -14.549879 3.548540 0.678431
32.435371 -14.549880 3.103722 0.678431
32.435368 -14.549878 2.661286 0.678431
32.120255 -14.236958 2.213005 0.359191
32.120255 -14.236956 1.786996 0.563113
32.120247 -14.236950 1.360531 0.732966
32.120247 -14.236948 0.932692 0.418382
32.120262 -14.236964 0.502548 0.614338
32.120255 -14.236959 0.069154 0.303309
30.683283 -12.809981 0.000015 0.547426
29.454641 -11.589888 0.000021 0.497917
28.549473 -10.691015 0.000014 0.526226
nan nan nan 0.000000
-18.456785 36.565453 14.671467 0.638480
16.860294 1.000947 3.555483 0.555270
-17.917444 36.022331 10.589307 0.619976
-17.917444 36.022331 8.661366 0.645221
16.047750 1.819185 2.795503 0.469363
16.890984 0.970045 2.417830 0.497549
-17.917349 36.022240 2.947542 0.624020
17.074169 0.785575 1.865077 0.483456
16.337404 1.527502 1.543575 0.446446
17.548786 0.307634 1.379166 0.487990
16.627136 1.235739 0.978488 0.477941
16.079824 1.786886 0.567624 0.470833
15.138897 2.734405 0.000004 0.527328
16.358999 1.505756 0.000010 0.525735
17.257883 0.600574 0.000006 0.512255
nan nan nan 0.000000
16.644918 1.306182 3.925938 0.500000
16.907213 1.038335 3.554333 0.547672
-17.917742 36.600410 10.650396 0.629044
-17.917776 36.600441 8.708747 0.645466
16.342884 1.614610 2.766568 0.453186
-17.917768 36.600433 4.864894 0.627941
16.367630 1.589341 2.152406 0.470343
16.934345 1.010629 1.860848 0.485294
16.517864 1.435926 1.553003 0.446324
17.670675 0.258714 1.389039 0.514216
16.529552 1.423991 0.955186 0.472794
17.168861 0.771150 0.788334 0.508088
17.592297 0.338751 0.623831 0.444240
16.405056 1.551122 0.000018 0.555515
17.297626 0.639658 0.000025 0.552941
nan nan nan 0.000000
16.844723 1.188897 3.877693 0.482353
16.560966 1.482735 3.656227 0.498774
16.642500 1.398303 3.332794 0.474142
-17.917959 37.186707 8.757114 0.643627
16.406229 1.642970 2.764614 0.466544
-17.917933 37.186684 4.885547 0.662745
16.470629 1.576282 2.151078 0.486275
16.968578 1.060640 1.860652 0.461397
16.433754 1.614467 1.543834 0.452083
16.726807 1.311003 1.273226 0.490196
10.807260 7.440873 0.000002 0.523162
17.193224 0.828012 0.784807 0.468873
15.248602 2.841728 0.000018 0.529412
16.451324 1.596273 -0.000006 0.544240
17.337498 0.678614 -0.000008 0.498284
16.713547 1.414656 4.241256 0.511029
16.873213 1.246990 3.882490 0.514338
16.597582 1.536430 3.658667 0.515809
16.924915 1.192697 3.281785 0.469608
-17.821474 37.680000 8.790390 0.749510
16.389669 1.754760 2.772169 0.534314
17.322266 0.775437 2.396203 0.472917
16.282961 1.866814 2.156635 0.522794
16.935942 1.181117 1.858860 0.469240
17.083666 1.025991 1.586800 0.530515
17.413872 0.679242 1.349607 0.494363
10.894921 7.524814 0.000013 0.544485
17.121138 0.986644 0.760422 0.465564
15.304029 2.894795 0.000029 0.558211
16.498003 1.640999 -0.000000 0.560049
17.377745 0.717178 -0.000002 0.505515
16.900883 1.306413 4.189313 0.472181
-17.242380 37.665298 14.660142 0.661887
-17.289392 37.715363 12.678291 0.678431
16.498337 1.735081 3.383719 0.490564
16.402708 1.836915 3.089202 0.495588
17.031693 1.167115 2.700989 0.543260
16.701740 1.518478 2.443671 0.479902
16.370340 1.871384 2.155707 0.483578
17.139780 1.052013 1.862686 0.388848
16.567148 1.661805 1.546669 0.570098
17.532848 0.633440 1.359039 0.490441
16.569593 1.659202 0.938843 0.458456
17.212982 0.974061 0.771139 0.393260
15.359642 2.947668 -0.000008 0.543382
16.544991 1.685401 0.000005 0.529044
17.418283 0.755437 0.000012 0.525858
nan nan nan 0.000000
16.823317 1.479984 3.926551 0.509926
-16.731012 37.715363 12.608998 0.678431
17.026251 1.260833 3.278863 0.476348
16.527275 1.799680 3.076296 0.467157
17.014345 1.273691 2.708351 0.476471
16.764137 1.543890 2.442494 0.476471
16.867767 1.431980 2.144897 0.500245
17.066761 1.217087 1.859896 0.447059
17.242313 1.027508 1.592080 0.453799
17.579405 0.663483 1.359841 0.466667
16.787693 1.518452 0.967797 0.538358
17.267204 1.000628 0.773742 0.502574
17.635231 0.603196 0.594371 0.460049
16.592178 1.729589 -0.000024 0.522917
17.459085 0.793414 0.000025 0.524265
nan nan nan 0.000000
16.879389 1.510929 3.923274 0.441176
17.113003 1.255087 3.557261 0.484191
17.023586 1.353013 3.289196 0.473162
16.772675 1.627796 3.042632 0.455270
16.928419 1.457233 2.724197 0.484559
17.730415 0.578936 2.375467 0.449265
16.911182 1.476111 2.144947 0.496201
17.128330 1.238302 1.860322 0.506127
17.321396 1.026870 1.594733 0.519240
17.637379 0.680824 1.362012 0.404902
17.299490 1.050859 1.047246 0.457353
13.792393 4.891622 -0.000008 0.531740
15.472281 3.051908 0.000000 0.545956
16.639793 1.773320 -0.000016 0.533946
17.500013 0.831259 -0.000014 0.536765
16.708267 1.793887 4.311860 0.481740
17.082705 1.378031 3.872513 0.471201
-15.594728 37.669998 12.463485 0.646446
17.046259 1.418509 3.294134 0.458456
17.347473 1.083976 2.951868 0.494975
16.948593 1.526977 2.727323 0.580392
17.751038 0.635773 2.376855 0.563971
17.459711 0.959324 2.132653 0.445466
17.043591 1.421471 1.857170 0.518260
16.759859 1.736588 1.550373 0.513113
17.587336 0.817583 1.350948 0.496569
17.299820 1.136899 1.039939 0.497794
17.319723 1.114796 0.766489 0.461029
17.840248 0.536693 0.628462 0.534314
16.687702 1.816724 -0.000010 0.554902
17.541359 0.868645 0.000006 0.537623
16.769814 1.821613 4.306761 0.500245
17.003273 1.558662 3.913031 0.488235
-15.026888 37.635109 12.389885 0.654779
17.056723 1.498460 3.301940 0.497059
17.372032 1.143320 2.955074 0.481250
-15.026941 37.635162 6.682023 0.661642
17.771812 0.693037 2.378272 0.523162
17.516352 0.980768 2.132297 0.390196
16.996241 1.566583 1.854884 0.491544
16.969933 1.596215 1.562393 0.462745
16.978622 1.586426 1.270684 0.532353
17.328402 1.192462 1.037366 0.495956
16.408422 2.228658 0.553215 0.471691
17.988209 0.449303 0.658260 0.546201
16.736015 1.859682 0.000028 0.582108
17.582930 0.905779 0.000012 0.542157
17.045576 1.604217 4.220234 0.457721
17.112673 1.527573 3.892369 0.507966
16.763100 1.926890 3.690831 0.548897
17.106136 1.535040 3.301163 0.568382
16.993572 1.663620 3.028765 0.490686
16.960787 1.701072 2.737334 0.478922
17.792744 0.750736 2.379718 0.447181
17.371731 1.231653 2.136941 0.483333
17.060638 1.587013 1.855330 0.470956
17.352936 1.253123 1.587480 0.567524
17.991198 0.524044 1.390934 0.483456
17.148724 1.486395 0.998331 0.494608
16.385361 2.358376 0.536519 0.487868
17.977695 0.539467 0.644689 0.520466
16.784418 1.902536 -0.000001 0.526961
17.624647 0.942751 -0.000024 0.590564
17.068417 1.672459 4.229381 0.541422
17.257597 1.453291 3.859725 0.491912
16.452484 2.386022 3.790961 0.478186
16.458199 2.379401 3.458746 0.530147
17.469851 1.207392 2.953207 0.489583
16.687325 2.113959 2.777596 0.571936
17.590273 1.067881 2.398003 0.483701
17.433104 1.249964 2.136509 0.517770
17.118490 1.614447 1.855612 0.479657
17.299973 1.404198 1.580171 0.475735
17.813770 0.808958 1.363758 0.454412
16.994377 1.758234 0.963081 0.465564
14.074018 5.141501 0.000010 0.525123
18.159090 0.408900 0.684273 0.512990
16.833225 1.944929 0.000005 0.582353
17.666737 0.979297 -0.000016 0.562255
16.958019 1.898044 4.290280 0.474755
17.533653 1.221675 3.782942 0.487868
16.959171 1.896689 3.663358 0.531618
17.247948 1.557379 3.289926 0.473162
17.670218 1.061213 2.925439 0.493505
16.856853 2.016912 2.762507 0.507230
17.835091 0.867489 2.382701 0.500368
17.572317 1.176247 2.134110 0.527451
17.192200 1.622882 1.856292 0.470956
17.367071 1.417409 1.581824 0.498652
17.982956 0.693748 1.379958 0.495588
16.089848 2.918142 0.794047 0.458578
17.441608 1.329827 0.754398 0.457230
18.123438 0.528681 0.663503 0.471446
16.882334 1.986974 0.000012 0.548652
17.709087 1.015542 -0.000006 0.551103
nan nan nan 0.000000
17.595453 1.237683 3.776968 0.492279
17.418076 1.449075 3.547254 0.457843
17.287209 1.605035 3.291566 0.482843
17.611088 1.219050 2.943698 0.486887
-13.013258 37.715729 6.579125 0.746569
17.413773 1.454201 2.418076 0.492279
16.808292 2.175786 2.154673 0.481863
17.607550 1.223269 1.865674 0.481373
17.101767 1.826036 1.558078 0.500735
16.998014 1.949685 1.249174 0.509926
17.368860 1.507727 1.012950 0.478922
17.794155 1.000879 0.825422 0.505270
18.088142 0.650518 0.642425 0.492770
16.931736 2.028673 0.000020 0.531250
17.751686 1.051492 0.000003 0.518382
nan nan nan 0.000000
17.364500 1.606968 3.870174 0.514706
16.820166 2.264954 3.730949 0.487623
17.245806 1.750445 3.312069 0.502819
17.558825 1.372070 2.961071 0.527696
-12.518984 37.729889 6.554076 0.754044
17.468704 1.481008 2.417360 0.481495
17.648003 1.264273 2.134418 0.473652
17.682686 1.222348 1.866473 0.424142
17.514265 1.425934 1.586151 0.464951
17.436169 1.520336 1.299218 0.463358
17.503778 1.438609 1.028994 0.499142
17.681995 1.223181 0.789438 0.454044
15.877659 3.404250 0.000007 0.565686
16.981426 2.070024 0.000028 0.562745
17.794411 1.087296 -0.000036 0.531005
17.076820 2.055344 4.301504 0.406740
17.424675 1.628833 3.865574 0.468995
17.430265 1.621977 3.570081 0.424387
17.074108 2.058671 3.363566 0.496691
17.672272 1.325250 2.948625 0.516176
17.388348 1.673373 2.712967 0.516667
17.898823 1.047469 2.387490 0.471201
17.409775 1.647101 2.141733 0.495098
17.140762 1.976942 1.851302 0.462745
17.729225 1.255418 1.599327 0.514583
17.427174 1.625768 1.292069 0.458456
17.480558 1.560313 1.016479 0.467770
14.362359 5.383602 -0.000007 0.543137
18.097549 0.803807 0.622024 0.453186
17.031290 2.111170 -0.000003 0.560539
17.837515 1.122642 -0.000025 0.543137
17.118504 2.105870 4.304770 0.522917
17.709843 1.370391 3.783434 0.461275
17.445568 1.699084 3.579232 0.567402
17.232239 1.964412 3.337938 0.563358
17.577812 1.534603 2.974181 0.480515
17.236578 1.959014 2.739001 0.567524
17.566084 1.549191 2.416933 0.557476
17.995724 1.014827 2.127658 0.542647
17.804096 1.253164 1.867337 0.567402
17.572313 1.541444 1.583556 0.452941
17.341560 1.828442 1.274737 0.566054
17.420546 1.730204 0.996946 0.497794
17.739437 1.333583 0.782132 0.472304
17.245943 1.947366 0.362800 0.563235
17.251005 1.941071 0.058412 0.565686
17.880932 1.157598 0.000015 0.515196
17.160372 2.156459 4.308130 0.494485
17.765272 1.393264 3.779826 0.489583
17.243296 2.051836 3.652357 0.474755
17.936714 1.176959 3.181454 0.512868
17.664406 1.520527 2.966701 0.481127
17.360991 1.903341 2.729069 0.454167
17.147215 2.173059 2.453723 0.490196
17.293280 1.988771 2.147285 0.558824
17.777729 1.377549 1.865478 0.521936
17.748529 1.414389 1.593835 0.468995
17.640800 1.550310 1.307868 0.506740
17.588253 1.616606 1.019196 0.568627
17.322863 1.951446 0.671952 0.578186
18.276138 0.748713 0.650199 0.484804
17.328590 1.944220 0.068335 0.517402
17.924530 1.192332 0.000028 0.550858
nan nan nan 0.000000
17.820314 1.416259 3.776378 0.433701
-10.551096 37.730011 11.881596 0.758333
17.946232 1.255090 3.189689 0.459436
17.487795 1.841865 3.008316 0.472549
17.005920 2.458637 2.782855 0.480025
17.533237 1.783699 2.426964 0.474020
17.654449 1.628556 2.138998 0.495221
17.276236 2.112647 1.850949 0.568137
17.916052 1.293721 1.603583 0.488113
17.337139 2.034694 1.261258 0.564461
17.355745 2.010880 0.967010 0.570098
17.879608 1.340365 0.794259 0.475980
18.285124 0.821330 0.640827 0.472181
17.366405 1.997235 0.064388 0.602819
17.968256 1.226902 -0.000003 0.553186
17.608570 1.785322 4.165750 0.505147
17.881739 1.430604 3.770695 0.497917
17.542568 1.871027 3.592905 0.511397
17.889843 1.420083 3.214155 0.529657
17.601395 1.794639 2.996013 0.516422
17.084442 2.465915 2.779380 0.477206
17.805210 1.529978 2.408926 0.511397
17.667828 1.708376 2.139896 0.462623
17.988750 1.291647 1.868711 0.460662
17.769274 1.576643 1.588181 0.501225
17.692724 1.676045 1.302364 0.468750
17.717796 1.643490 1.025934 0.528186
17.874945 1.439427 0.782223 0.477451
18.416656 0.736001 0.667764 0.489951
17.234001 2.271708 0.000019 0.544118
18.012299 1.261071 -0.000005 0.516912
17.735332 1.718154 4.133098 0.428554
17.929295 1.462620 3.769949 0.491422
-9.599058 37.729881 11.775881 0.745711
18.005066 1.362796 3.197023 0.517647
17.527372 1.992132 3.019234 0.528064
17.005627 2.679505 2.797218 0.521691
17.740765 1.711000 2.417913 0.490564
17.746920 1.702891 2.139039 0.467402
18.337242 0.925170 1.876939 0.510294
17.949551 1.435933 1.599051 0.477083
17.719028 1.739635 1.299532 0.529534
17.775049 1.665830 1.027893 0.496324
17.911791 1.485681 0.780093 0.524755
18.463785 0.758455 0.669726 0.490074
17.285252 2.311116 -0.000019 0.566789
18.056601 1.294900 0.000004 0.508333
17.874273 1.631675 4.094853 0.516054
17.626436 1.962967 3.895620 0.518505
17.659777 1.918399 3.586876 0.522426
17.497875 2.134819 3.333760 0.489828
17.685322 1.884254 2.998387 0.526838
-9.130648 37.729897 6.382214 0.758088
18.014565 1.444144 2.399348 0.528799
17.825054 1.697470 2.138198 0.486887
18.323717 1.030892 1.875424 0.502451
17.655163 1.924568 1.571176 0.462990
17.560202 2.051504 1.271272 0.482108
17.546188 2.070237 0.974892 0.568505
18.104214 1.324309 0.816388 0.521569
18.454659 0.855859 0.654573 0.488971
17.336908 2.349986 -0.000010 0.532353
18.101147 1.328409 0.000015 0.572059
17.882101 1.719448 4.111335 0.480637
17.497105 2.241645 3.960595 0.439951
17.810814 1.816138 3.555552 0.509681
17.637066 2.051805 3.311563 0.554902
17.263727 2.558189 3.089548 0.517647
17.944107 1.635343 2.682564 0.480392
17.995285 1.565930 2.404716 0.485784
17.597662 2.105252 2.145774 0.492770
18.160292 1.342120 1.869741 0.493260
17.612038 2.085752 1.563556 0.496569
17.830595 1.789308 1.301751 0.513971
17.560513 2.155638 0.967987 0.498897
18.019108 1.533617 0.783935 0.489951
18.557741 0.803030 0.673473 0.528309
17.388828 2.388505 -0.000003 0.525368
18.145912 1.361622 0.000022 0.573775
17.889885 1.808846 4.128254 0.472426
17.609896 2.194218 3.937942 0.491544
17.796997 1.936693 3.574738 0.471201
17.706652 2.061044 3.306573 0.508701
17.283596 2.643329 3.096102 0.528431
18.183865 1.404218 2.655661 0.502328
17.668903 2.113000 2.435874 0.513480
17.853733 1.858603 2.140042 0.512623
17.686127 2.089294 1.855292 0.506127
17.448641 2.416166 1.545716 0.429044
17.907257 1.784935 1.305753 0.440931
18.492880 0.978893 1.140578 0.500490
18.013651 1.638496 0.770903 0.503186
17.069107 2.938549 0.199934 0.476838
17.441025 2.426650 0.000007 0.518260
18.190800 1.394672 -0.000018 0.551716
17.766644 2.082883 4.201986 0.475000
17.222290 2.843227 4.100601 0.481127
17.617691 2.290938 3.646103 0.473897
17.710808 2.160875 3.318223 0.479167
17.506666 2.446015 3.062680 0.496691
18.192516 1.488031 2.660820 0.471446
-7.784279 37.772034 4.588173 0.661152
17.864151 1.946686 2.141111 0.503799
18.492964 1.068370 1.876565 0.490196
17.424492 2.560794 1.539260 0.427941
17.751595 2.103903 1.277074 0.466544
18.513075 1.040279 1.136209 0.499142
18.358011 1.256870 0.846696 0.441054
16.485390 3.872520 -0.000030 0.554412
17.493452 2.464472 0.000005 0.531127
18.236034 1.427245 -0.000007 0.503064
17.761017 2.197325 4.226169 0.556985
17.730595 2.240454 3.930886 0.365319
17.958626 1.917198 3.554734 0.492892
17.625015 2.390121 3.353314 0.535417
17.561684 2.479899 3.062191 0.501716
17.946865 1.933871 2.702286 0.466299
-7.784277 38.410088 4.613723 0.663235
17.976938 1.891239 2.139302 0.489338
18.632013 0.962609 1.879294 0.498162
17.368206 2.754171 1.529914 0.484804
17.591679 2.437378 1.247190 0.487132
18.386021 1.311327 1.102325 0.503922
18.319309 1.405896 0.825352 0.390441
16.548094 3.916756 0.000018 0.534681
17.546041 2.502073 -0.000035 0.531740
18.281490 1.459510 0.000001 0.550858
17.537054 2.628282 4.346773 0.456985
17.799568 2.250572 3.924131 0.488235
18.026464 1.924113 3.548685 0.452819
17.657425 2.455089 3.358451 0.445221
-7.784376 39.061043 8.181929 0.627328
17.966545 2.010325 2.706496 0.452819
-7.784382 39.061050 4.639923 0.628309
17.992802 1.972547 2.140243 0.481127
18.386789 1.405672 1.871053 0.500368
17.632076 2.491561 1.547918 0.453676
17.658390 2.453701 1.249231 0.484436
18.411228 1.370509 1.098412 0.454657
18.225082 1.638338 0.789091 0.507966
17.398619 2.827463 0.251145 0.373039
17.599026 2.539117 -0.000025 0.551471
18.327173 1.491450 0.000011 0.531863
nan nan nan 0.000000
-7.848881 39.819275 13.748761 0.678431
18.039467 2.010296 3.560249 0.498652
17.876892 2.247732 3.314646 0.494118
-7.848879 39.819275 8.257942 0.678431
18.315065 1.607795 2.663100 0.514828
17.739416 2.448509 2.447347 0.467402
17.810991 2.343976 2.146936 0.462868
18.418037 1.457410 1.870647 0.472181
17.633240 2.603576 1.543420 0.503431
18.034464 2.017603 1.296175 0.570098
18.476681 1.371762 1.102569 0.488848
18.052853 1.990746 0.731554 0.483333
18.423716 1.449115 0.563504 0.504167
17.652264 2.575792 -0.000015 0.549142
18.373077 1.523070 0.000020 0.493260
nan nan nan 0.000000
-7.844570 40.492012 13.868409 0.115809
18.102356 2.024111 3.555896 0.468137
17.990477 2.189980 3.298090 0.562132
-7.848877 40.498398 8.322559 0.678309
18.389828 1.597918 2.658985 0.476471
17.773895 2.511073 2.448937 0.492770
18.279383 1.761660 2.134747 0.474142
18.455818 1.500082 1.870417 0.496201
17.759478 2.532449 1.549796 0.512990
18.127420 1.986953 1.302538 0.507353
18.446882 1.513330 1.087172 0.480515
18.035616 2.123058 0.713884 0.498039
18.425987 1.544310 0.549410 0.471078
17.705730 2.612134 -0.000016 0.568260
18.419086 1.554541 -0.000022 0.528922
nan nan nan 0.000000
-7.794399 41.109741 13.973251 0.750613
-7.794403 41.109749 12.087110 0.761520
17.985785 2.307439 3.312956 0.524265
-7.794394 41.109734 8.377516 0.739093
18.463673 1.588161 2.654951 0.448529
17.808628 2.574082 2.450560 0.509314
18.352846 1.754968 2.133987 0.452328
18.530294 1.487887 1.871260 0.536765
17.822796 2.552759 1.550698 0.437132
18.269930 1.879768 1.316342 0.503309
18.522648 1.499398 1.093352 0.504657
18.222637 1.950947 0.750532 0.421569
18.527624 1.491907 0.567621 0.492034
17.759483 2.648053 -0.000005 0.536765
18.465410 1.585547 -0.000021 0.551348
nan nan nan 0.000000
-7.784199 41.800957 14.096671 0.656373
18.027008 2.357293 3.613980 0.485294
17.714001 2.835620 3.400558 0.474877
-7.773611 41.784775 8.441032 0.699387
18.281612 1.968218 2.689186 0.473407
17.843615 2.637550 2.452217 0.481740
18.633751 1.430095 2.127018 0.508333
18.581732 1.509587 1.871427 0.482108
17.799433 2.705065 1.543819 0.417402
18.348202 1.866460 1.320786 0.493382
18.600607 1.480744 1.100081 0.506740
18.256401 2.006743 0.746379 0.494485
18.552727 1.553912 0.560717 0.471814
17.813473 2.683611 0.000003 0.516544
18.511969 1.616198 -0.000011 0.476103
nan nan nan 0.000000
-7.784336 42.522972 14.227470 0.638235
18.095129 2.365905 3.608543 0.535662
17.787937 2.842572 3.395450 0.476348
-7.698830 42.390289 8.494766 0.716544
