# This PCD file was generated using the MATLABÂ® pcwrite function
# from Computer Vision ToolboxÂ®.
# .PCD v.7 - Point Cloud Data file format
VERSION .7
FIELDS x y z intensity
SIZE 4 4 4 4
TYPE F F F F
COUNT 1 1 1 1
WIDTH 1313
HEIGHT 1
VIEWPOINT 0 0 0 1 0 0 0
POINTS 1313
DATA ascii
72.181366 7.536177 0.000030 0.533211
74.159538 14.257441 0.000023 0.543137
75.261276 18.000820 0.000016 0.536642
75.964676 20.390755 0.000028 0.522672
76.453529 22.051750 0.000017 0.553309
76.813698 23.275505 0.000010 0.515564
nan nan nan 0.000000
75.234016 18.236198 4.864970 0.937255
75.243965 18.269150 4.407389 0.937255
74.769661 16.698170 4.205996 0.937255
73.525642 12.577782 4.205987 0.937255
71.291954 5.179440 4.205993 0.883701
nan nan nan 0.000000
70.921326 3.951860 2.461237 0.956863
70.976776 4.135519 1.541903 0.937255
70.983612 4.158157 0.625888 0.930515
72.018166 7.584789 0.000027 0.536642
74.043236 14.292130 0.000025 0.545833
75.171082 18.027729 0.000018 0.536274
75.891136 20.412685 0.000029 0.526593
76.391571 22.070206 0.000014 0.511642
76.760284 23.291435 0.000011 0.543137
nan nan nan 0.000000
75.137863 18.238747 4.870515 0.937255
75.147110 18.268612 4.412635 0.937255
74.670372 16.728527 4.205996 0.937255
73.397621 12.616920 4.205988 0.937255
71.112328 5.234354 4.205993 0.883824
nan nan nan 0.000000
70.717590 3.959160 2.462097 0.937255
70.772186 4.135517 1.540924 0.937255
70.779190 4.158155 0.622951 0.927328
71.855324 7.634577 0.000027 0.542034
73.927170 14.327616 0.000025 0.542525
75.081062 18.055246 0.000018 0.535784
75.817757 20.435120 0.000029 0.548529
76.329750 22.089106 0.000014 0.541054
76.706993 23.307777 0.000023 0.532108
nan nan nan 0.000000
75.041924 18.243164 4.875802 0.937255
75.050209 18.269274 4.417793 0.937255
74.571304 16.759577 4.205996 0.937255
73.269875 12.656952 4.205988 0.937255
70.933105 5.290529 4.205993 0.931740
nan nan nan 0.000000
70.510445 3.958130 2.463127 0.937255
70.568031 4.139664 1.539990 0.950858
70.566803 4.135786 0.618782 0.846814
71.692825 7.685471 0.000024 0.538971
73.811356 14.363926 0.000027 0.539706
74.991249 18.083408 0.000020 0.528064
75.744522 20.458023 0.000021 0.536397
76.268066 22.108448 0.000016 0.540196
76.653801 23.324451 0.000025 0.524387
nan nan nan 0.000000
74.945000 18.245670 4.881685 0.937255
74.952400 18.268459 4.423375 0.937255
74.472450 16.791309 4.205996 0.937255
73.142410 12.697878 4.205988 0.937255
70.754272 5.347944 4.205993 0.910907
nan nan nan 0.000000
70.300179 3.950396 2.464299 0.937255
70.361160 4.138065 1.538930 0.950613
70.360367 4.135616 0.615674 0.861029
71.530693 7.737526 0.000024 0.540931
73.695831 14.401134 0.000040 0.527574
74.901649 18.112259 0.000032 0.521201
75.671455 20.481483 0.000021 0.512132
76.206512 22.128210 0.000016 0.498897
76.600731 23.341488 0.000023 0.526471
nan nan nan 0.000000
74.848366 18.250290 4.887256 0.937255
74.854706 18.269346 4.428773 0.937255
74.373817 16.823744 4.205996 0.937255
73.015236 12.739693 4.205987 0.937255
70.575844 5.406609 4.205993 0.911029
nan nan nan 0.000000
70.088875 3.942726 2.465499 0.937255
70.153305 4.136419 1.537842 0.937255
70.153038 4.135618 0.612493 0.861765
71.368958 7.790802 0.000033 0.532230
73.580528 14.439018 0.000037 0.545588
74.812225 18.141644 0.000029 0.510662
75.598557 20.505428 0.000017 0.548162
76.145088 22.148365 0.000008 0.527574
76.547768 23.358871 0.000016 0.514461
nan nan nan 0.000000
74.751457 18.255205 4.892926 0.937255
74.755882 18.268215 4.434704 0.937255
74.275414 16.856852 4.205997 0.937255
72.888359 12.782393 4.205987 0.937255
70.397835 5.466526 4.205993 0.910417
nan nan nan 0.000000
69.871750 3.921173 2.466966 0.937255
nan nan nan 0.000000
71.738266 9.404032 0.882636 0.659191
71.738266 9.404026 0.135059 0.483946
73.465500 14.477726 0.000036 0.534314
74.723015 18.171658 0.000028 0.560172
75.525826 20.529900 0.000016 0.535907
76.083817 22.168983 0.000008 0.535784
76.494934 23.376650 0.000016 0.546936
nan nan nan 0.000000
74.653244 18.257526 4.899358 0.937255
74.657341 18.269285 4.440357 0.937255
74.177246 16.890654 4.205997 0.937255
72.761780 12.825974 4.205988 0.924877
70.220238 5.527674 4.205993 0.888358
nan nan nan 0.000000
69.660797 3.921175 2.468090 0.937255
nan nan nan 0.000000
71.496124 9.191528 0.868892 0.925858
71.738281 9.886890 0.172496 0.799387
73.350739 14.517250 0.000038 0.529167
74.634018 18.202316 0.000030 0.515196
75.453270 20.554874 0.000015 0.564216
76.022690 22.190041 0.000010 0.537010
76.442238 23.394804 0.000018 0.524020
nan nan nan 0.000000
74.555565 18.262587 4.905335 0.937255
74.557419 18.267799 4.446651 0.937255
74.079323 16.925138 4.205997 0.937255
72.635506 12.870440 4.205988 0.924877
70.043076 5.590059 4.205993 0.888358
nan nan nan 0.000000
69.448814 3.921179 2.469242 0.937255
69.448814 3.921179 1.530758 0.937255
71.367744 9.310144 0.872294 0.928064
71.612732 9.998159 0.177682 0.741667
73.236267 14.557560 0.000038 0.531863
74.545227 18.233551 0.000025 0.528554
75.380890 20.580360 0.000014 0.542647
75.961731 22.211563 0.000021 0.543015
76.389656 23.413303 0.000014 0.531495
nan nan nan 0.000000
74.457474 18.267664 4.911479 0.937255
74.457962 18.268993 4.452578 0.937255
73.981636 16.960308 4.205997 0.937255
73.116249 14.582678 4.001921 0.905882
73.116249 14.582676 3.426870 0.905882
73.116249 14.582676 2.854897 0.905882
73.116249 14.582676 2.284763 0.905882
73.116249 14.582676 1.715238 0.905882
73.116249 14.582676 1.145102 0.905882
73.116249 14.582678 0.573130 0.905882
73.116249 14.582678 -0.001921 0.905882
74.456657 18.265413 0.000022 0.552451
75.308685 20.606337 0.000011 0.544485
75.900902 22.233448 0.000018 0.551103
76.337204 23.432175 0.000011 0.498897
nan nan nan 0.000000
74.357841 18.269753 4.918486 0.937255
74.356323 18.265667 4.459531 0.937255
73.884201 16.996159 4.205997 0.937255
73.116249 14.931196 3.964293 0.905882
73.116249 14.931196 3.400050 0.905882
73.116249 14.931200 2.838829 0.905882
73.116249 14.931198 2.279410 0.905882
73.116249 14.931198 1.720590 0.905882
73.116249 14.931202 1.161171 0.905882
73.116249 14.931198 0.599949 0.905882
73.116249 14.931198 0.035707 0.905882
74.368317 18.297913 0.000022 0.531495
75.236687 20.632893 0.000022 0.539461
75.840233 22.255768 0.000017 0.523407
76.284889 23.451416 0.000010 0.559069
nan nan nan 0.000000
74.256592 18.268852 4.926363 0.937255
74.254532 18.263435 4.466428 0.937255
73.787018 17.032688 4.205997 0.937255
73.116241 15.266873 3.928145 0.905882
73.116241 15.266874 3.374286 0.905882
73.116241 15.266876 2.823393 0.905882
73.116241 15.266875 2.274268 0.905882
73.116241 15.266875 1.725732 0.905882
73.116241 15.266876 1.176607 0.905882
73.116241 15.266876 0.625714 0.905882
73.116241 15.266875 0.071855 0.905882
74.280212 18.331047 0.000024 0.521814
75.164864 20.659904 0.000025 0.566299
75.779716 22.278507 0.000016 0.551348
76.232735 23.471085 0.000024 0.550000
nan nan nan 0.000000
74.154900 18.268261 4.934353 0.937255
74.150429 18.256725 4.474356 0.937255
73.690086 17.069895 4.205996 0.937255
72.994072 15.275468 3.932259 0.905882
72.994080 15.275471 3.377218 0.905882
72.994072 15.275470 2.825149 0.905882
72.994080 15.275471 2.274853 0.905882
72.994080 15.275472 1.725147 0.905882
72.994072 15.275470 1.174850 0.905882
72.994080 15.275471 0.622782 0.905882
72.994072 15.275468 0.067741 0.905882
74.192337 18.364779 0.000024 0.542892
75.093224 20.687397 0.000024 0.516667
75.719360 22.301672 0.000015 0.508701
76.180695 23.491055 0.000023 0.553922
nan nan nan 0.000000
74.053520 18.269848 4.942023 0.937255
74.047264 18.254055 4.481658 0.937255
73.593422 17.107773 4.205997 0.937255
72.867958 15.275468 3.937552 0.905882
72.883400 15.314470 3.377552 0.905882
72.883400 15.314472 2.825349 0.905882
72.883400 15.314473 2.274920 0.905882
72.883400 15.314473 1.725080 0.905882
72.883400 15.314473 1.174651 0.905882
72.883400 15.314470 0.622448 0.905882
72.883400 15.314474 0.067273 0.905882
74.104698 18.399113 0.000023 0.540809
75.021782 20.715408 0.000026 0.518627
75.659172 22.325270 0.000018 0.518750
76.128792 23.511389 0.000021 0.521814
nan nan nan 0.000000
73.950706 18.269245 4.950390 0.937255
73.941841 18.247292 4.489924 0.949387
73.497025 17.146334 4.205997 0.937255
72.741142 15.275467 3.942971 0.905882
72.883400 15.627565 3.353715 0.905882
72.883400 15.627563 2.811068 0.905882
72.883400 15.627562 2.270163 0.905882
72.883400 15.627562 1.729837 0.905882
72.883400 15.627564 1.188932 0.905882
72.883400 15.627565 0.646284 0.905882
72.883400 15.627563 0.100716 0.905882
74.017303 18.434067 0.000022 0.518137
74.950531 20.743883 0.000022 0.535907
75.599144 22.349262 0.000014 0.514951
76.077034 23.532089 0.000021 0.547304
nan nan nan 0.000000
73.847412 18.268898 4.958889 0.937255
73.835861 18.240868 4.498293 0.994853
73.400894 17.185558 4.205997 0.826593
72.613609 15.275466 3.948515 0.905882
72.883400 15.930022 3.330753 0.820711
72.883400 15.930024 2.797311 0.817279
72.883400 15.930024 2.265580 0.859436
72.883400 15.930024 1.734420 0.879902
72.883400 15.930024 1.202689 0.851593
72.883400 15.930025 0.669246 0.856985
72.883400 15.930026 0.132932 0.703799
73.930153 18.469631 0.000022 0.535907
74.879478 20.772877 0.000022 0.544118
75.539284 22.373684 0.000013 0.533333
76.025421 23.553135 0.000017 0.540809
nan nan nan 0.000000
73.743622 18.268784 4.967526 0.937255
73.730370 18.237257 4.506276 0.994976
73.305046 17.225452 4.205997 0.882230
72.485344 15.275468 3.954185 0.905882
72.883400 16.222403 3.308620 0.833333
72.883400 16.222404 2.784050 0.823652
72.883400 16.222401 2.261163 0.851838
72.883400 16.222401 1.738837 0.851961
72.883400 16.222404 1.215950 0.854044
72.883400 16.222404 0.691379 0.848407
72.883400 16.222404 0.163985 0.702696
73.843254 18.505810 0.000023 0.517647
74.808632 20.802345 0.000018 0.520343
75.479614 22.398563 0.000021 0.520466
75.973953 23.574539 0.000013 0.536887
nan nan nan 0.000000
73.639534 18.269432 4.976181 0.937255
73.623436 18.231869 4.514781 1.000000
73.209473 17.266026 4.205997 0.882230
72.356316 15.275467 3.959985 0.905882
72.883400 16.505238 3.287272 0.822794
72.883400 16.505238 2.771259 0.846446
72.883400 16.505238 2.256903 0.846569
72.883400 16.505238 1.743097 0.852206
72.883400 16.505239 1.228741 0.853799
72.883400 16.505239 0.712727 0.832598
72.883400 16.505238 0.193936 0.695711
73.756607 18.542583 0.000023 0.550000
74.737984 20.832306 0.000013 0.545466
75.420105 22.423820 0.000020 0.516667
75.922638 23.596317 0.000012 0.549020
nan nan nan 0.000000
73.534439 18.269165 4.985250 0.937255
73.517113 18.229507 4.522859 1.000000
73.114189 17.307255 4.205997 0.937255
72.226517 15.275464 3.965915 0.905882
72.883400 16.779003 3.266672 0.829779
72.883400 16.779003 2.758916 0.829289
72.883400 16.779003 2.252791 0.861765
72.883400 16.779003 1.747209 0.840564
72.883400 16.779003 1.241084 0.848774
72.883400 16.779005 0.733328 0.824142
72.883400 16.779003 0.222840 0.715686
73.670219 18.579966 0.000022 0.529289
74.667557 20.862778 0.000013 0.527451
75.360779 22.449492 0.000020 0.531250
75.871506 23.618496 0.000023 0.552574
nan nan nan 0.000000
73.384247 18.169077 5.018119 0.937255
73.409569 18.225948 4.531348 1.000000
73.019196 17.349152 4.205997 0.937255
72.095932 15.275465 3.971978 0.905882
72.883400 17.044153 3.246779 0.812990
72.883400 17.044151 2.746998 0.822304
72.883400 17.044155 2.248821 0.838113
72.883400 17.044155 1.751179 0.830882
72.883400 17.044151 1.253002 0.827451
72.883400 17.044153 0.753221 0.833088
72.883400 17.044155 0.250749 0.709069
73.584099 18.617949 0.000022 0.545343
74.597351 20.893744 0.000012 0.540686
75.301620 22.475563 0.000016 0.564828
75.820503 23.640987 0.000023 0.506127
nan nan nan 0.000000
73.277122 18.169079 5.027602 0.937255
73.301811 18.223501 4.539791 1.000000
72.924492 17.391710 4.205997 0.937255
71.964523 15.275466 3.978175 0.905882
72.883400 17.301119 3.227561 0.825490
72.883400 17.301121 2.735483 0.835049
72.883400 17.301121 2.244986 0.855760
72.883400 17.301121 1.755014 0.829779
72.883400 17.301121 1.264517 0.830760
72.883400 17.301121 0.772439 0.826716
72.883400 17.301121 0.277713 0.702083
73.498238 18.656523 0.000020 0.541299
74.527351 20.925192 0.000011 0.565319
75.242661 22.502071 0.000018 0.569730
75.769653 23.663837 0.000023 0.531495
nan nan nan 0.000000
73.169319 18.169077 5.037295 0.937255
73.193138 18.220627 4.548498 1.000000
72.830093 17.434931 4.205997 0.937255
71.832283 15.275467 3.984508 0.905882
72.883400 17.550293 3.208984 0.834804
72.883400 17.550291 2.724353 0.827083
72.883400 17.550293 2.241279 0.861887
72.883400 17.550295 1.758721 0.852083
72.883400 17.550291 1.275647 0.828922
72.883400 17.550293 0.791016 0.818873
72.883400 17.550293 0.303777 0.696569
73.412651 18.695705 0.000020 0.555515
74.457581 20.957138 0.000011 0.539093
75.183868 22.528969 0.000014 0.548774
75.718971 23.687037 0.000022 0.533211
nan nan nan 0.000000
73.060814 18.169075 5.047200 0.937255
73.083542 18.217377 4.557463 1.000000
72.736000 17.478811 4.205997 0.937255
71.699188 15.275466 3.990979 0.905882
72.883400 17.792049 3.191018 0.814828
72.883400 17.792049 2.713589 0.827083
72.883400 17.792049 2.237693 0.834436
72.883400 17.792049 1.762307 0.840809
72.883400 17.792049 1.286411 0.847426
72.883400 17.792049 0.808982 0.823162
72.883400 17.792049 0.328983 0.696691
73.327347 18.735483 0.000020 0.537255
74.388062 20.989616 0.000021 0.558701
75.125282 22.556290 0.000014 0.574510
75.668442 23.710560 0.000012 0.543015
nan nan nan 0.000000
72.951599 18.169079 5.057317 0.937255
72.973564 18.214924 4.566449 1.000000
72.642212 17.523338 4.205998 0.937255
71.565208 15.275466 3.997590 0.905882
72.883400 18.026737 3.173635 0.831373
72.883400 18.026737 2.703174 0.839216
72.883400 18.026737 2.234224 0.838603
72.883400 18.026737 1.765776 0.830147
72.883400 18.026737 1.296826 0.838848
72.883400 18.026739 0.826365 0.829167
72.883400 18.026737 0.353372 0.698284
73.242302 18.775833 0.000015 0.554902
74.318741 21.022532 0.000021 0.547059
75.066902 22.584063 0.000025 0.532598
75.618088 23.734467 0.000011 0.508456
nan nan nan 0.000000
72.841644 18.169077 5.067653 0.937255
72.862457 18.211746 4.575768 1.000000
72.548737 17.568527 4.205998 0.937255
71.430336 15.275469 4.004343 0.905882
72.883400 18.254684 3.156807 0.793382
72.883400 18.254684 2.693092 0.823652
72.883400 18.254688 2.230865 0.823162
72.883400 18.254688 1.769134 0.822917
72.883400 18.254686 1.306908 0.831005
72.883400 18.254686 0.843193 0.817279
72.883400 18.254688 0.376981 0.724142
73.157555 18.816799 0.000015 0.541054
74.249657 21.055931 0.000021 0.538725
75.008698 22.612200 0.000025 0.519608
75.567886 23.758711 0.000007 0.509926
nan nan nan 0.000000
72.730942 18.169077 5.078209 0.937255
72.750404 18.208279 4.585337 1.000000
72.455582 17.614367 4.205998 0.937255
71.294540 15.275466 4.011240 0.905882
72.883400 18.476196 3.140510 0.821936
72.883400 18.476198 2.683328 0.814338
72.883400 18.476196 2.227613 0.824142
72.883400 18.476196 1.772387 0.831863
72.883400 18.476198 1.316672 0.825000
72.883400 18.476200 0.859490 0.839216
72.883400 18.476200 0.399846 0.771569
73.073105 18.858356 0.000015 0.546569
74.180794 21.089790 0.000018 0.548774
74.950691 22.640739 0.000024 0.501471
75.517891 23.783356 0.000016 0.565074
nan nan nan 0.000000
72.619469 18.169079 5.088989 0.937255
72.638535 18.206821 4.594688 0.994853
72.362747 17.660854 4.205998 0.937255
70.422127 13.819082 4.205989 0.937255
72.883392 18.691566 3.124720 0.824877
72.883400 18.691570 2.673867 0.827819
72.883400 18.691570 2.224462 0.842647
72.883400 18.691570 1.775538 0.826838
72.883400 18.691570 1.326133 0.825000
72.883392 18.691566 0.875280 0.831740
72.883400 18.691570 0.422000 0.854534
72.988968 18.900570 0.000026 0.550613
74.112183 21.124149 0.000018 0.536765
74.892883 22.669670 0.000021 0.535539
75.468048 23.808315 0.000016 0.524020
nan nan nan 0.000000
72.507202 18.169077 5.099998 0.937255
72.526703 18.207016 4.603894 0.966054
72.270233 17.707985 4.205998 0.937255
70.302841 13.879856 4.205989 0.937255
72.883392 18.901064 3.109415 0.822917
72.883400 18.901066 2.664697 0.827328
72.883400 18.901066 2.221407 0.828922
72.883400 18.901068 1.778593 0.823652
72.883400 18.901066 1.335303 0.843627
72.883392 18.901066 0.890585 0.822794
72.883400 18.901066 0.443474 0.810539
72.905098 18.943298 0.000026 0.532598
74.043800 21.158964 0.000013 0.524877
74.835281 22.699017 0.000020 0.505392
75.418365 23.833586 0.000007 0.515196
nan nan nan 0.000000
72.394135 18.169077 5.111236 0.937255
72.413300 18.205732 4.613597 0.966054
72.178062 17.755768 4.205998 0.937255
70.183990 13.941469 4.205989 0.914951
72.883400 19.104950 3.094572 0.835294
72.883392 19.104948 2.655804 0.822059
72.883400 19.104950 2.218445 0.820221
72.883400 19.104950 1.781555 0.831740
72.883392 19.104950 1.344196 0.832721
72.883400 19.104950 0.905428 0.832966
72.883392 19.104950 0.464298 0.822304
72.883400 19.104950 0.019833 0.706127
73.975670 21.194279 0.000013 0.548774
74.777878 22.728752 0.000016 0.575368
75.368881 23.859240 0.000007 0.520098
nan nan nan 0.000000
72.280235 18.169077 5.122709 0.937255
72.299866 18.205997 4.623181 0.940931
72.086220 17.804188 4.205998 0.937255
70.065575 14.003904 4.205989 0.914338
72.883400 19.303455 3.080174 0.832230
72.883392 19.303452 2.647178 0.817647
72.883392 19.303452 2.215572 0.822304
72.883392 19.303453 1.784428 0.824755
72.883392 19.303453 1.352822 0.825858
72.883400 19.303455 0.919825 0.846936
72.883392 19.303453 0.484498 0.812377
72.883392 19.303452 0.045880 0.704902
73.907791 21.230064 0.000013 0.522672
74.720688 22.758904 0.000016 0.556618
75.319565 23.885223 0.000004 0.549387
nan nan nan 0.000000
72.165489 18.169075 5.134420 0.937255
72.185555 18.206184 4.632981 0.937255
71.994720 17.853249 4.205998 0.937255
69.947594 14.067165 4.205989 0.937255
72.883392 19.496819 3.066201 0.825613
72.883392 19.496817 2.638806 0.812010
72.883392 19.496819 2.212784 0.844730
72.883392 19.496819 1.787217 0.846814
72.883392 19.496819 1.361194 0.825245
72.883392 19.496819 0.933798 0.820833
72.883392 19.496819 0.504103 0.838726
72.883392 19.496819 0.071158 0.689706
73.840195 21.266380 0.000024 0.523407
74.663742 22.789494 0.000026 0.570588
75.270462 23.911602 0.000014 0.540686
nan nan nan 0.000000
72.049873 18.169075 5.146374 0.937255
72.070335 18.206303 4.642997 0.937255
71.903564 17.902943 4.205999 0.748407
69.830055 14.131245 4.205990 0.821936
72.883392 19.685249 3.052636 0.813113
72.883392 19.685247 2.630678 0.826226
72.883400 19.685249 2.210076 0.844485
72.883400 19.685249 1.789924 0.834314
72.883392 19.685249 1.369321 0.818505
72.883392 19.685249 0.947364 0.824877
72.883392 19.685249 0.523135 0.835539
72.883392 19.685249 0.095699 0.683578
73.772812 21.303093 0.000020 0.543995
74.606964 22.820412 0.000019 0.533333
75.221512 23.938269 0.000010 0.491054
42.802269 -33.954865 20.620310 0.660539
71.933365 18.169077 5.158573 0.937255
71.954208 18.206371 4.653230 0.937255
71.812759 17.953279 4.205999 0.925123
69.712967 14.196146 4.205990 0.821936
72.883392 19.868961 3.039461 0.825123
72.883392 19.868961 2.622785 0.830024
72.883392 19.868959 2.207447 0.852696
72.883392 19.868961 1.792553 0.826716
72.883392 19.868961 1.377215 0.821691
72.883392 19.868961 0.960539 0.821936
72.883392 19.868961 0.541620 0.861152
72.883392 19.868961 0.119533 0.693505
73.705688 21.340275 0.000016 0.538725
74.550423 22.851749 0.000018 0.525245
75.172752 23.965282 0.000006 0.542647
42.802269 -32.904205 20.391027 0.470588
71.815941 18.169075 5.171023 0.937255
71.837143 18.206396 4.663683 0.937255
71.722305 18.004246 4.205999 0.937255
69.596336 14.261862 4.205990 0.928676
72.883400 20.048138 3.026661 0.821446
72.883392 20.048138 2.615116 0.846936
72.883400 20.048138 2.204892 0.841176
72.883400 20.048138 1.795108 0.861397
72.883400 20.048138 1.384884 0.857843
72.883400 20.048138 0.973339 0.837745
72.883400 20.048140 0.559578 0.823039
72.883392 20.048138 0.142689 0.697549
73.638832 21.377945 0.000016 0.515931
74.494057 22.883415 0.000001 0.583456
75.124191 23.992647 0.000007 0.509681
42.802269 -31.879068 20.168198 0.532721
71.697586 18.169075 5.183727 0.937255
71.719131 18.206394 4.674356 0.937255
71.632210 18.055843 4.205999 0.937255
69.480164 14.328390 4.205990 0.928431
72.883392 20.222958 3.014222 0.809559
72.883400 20.222961 2.607663 0.860049
72.883392 20.222960 2.202410 0.853431
72.883392 20.222960 1.797590 0.849632
72.883400 20.222961 1.392337 0.848039
72.883392 20.222960 0.985777 0.837255
72.883400 20.222961 0.577030 0.836275
72.883392 20.222960 0.165192 0.693260
73.572235 21.416065 0.000012 0.539583
74.437965 22.915546 0.000002 0.552451
75.075813 24.020334 0.000002 0.543260
42.802284 -30.878397 19.951563 0.481863
71.578270 18.169077 5.196690 0.937255
71.600159 18.206377 4.685247 0.937255
71.542480 18.108067 4.206000 0.937255
69.364464 14.395735 4.205990 0.937255
72.883392 20.393606 3.002129 0.831740
72.883392 20.393608 2.600418 0.854534
72.883392 20.393606 2.199996 0.847794
72.883400 20.393608 1.800004 0.856127
72.883400 20.393608 1.399582 0.856863
72.883392 20.393606 0.997871 0.838726
72.883392 20.393608 0.593997 0.825368
72.883400 20.393608 0.187070 0.677941
73.505905 21.454647 0.000008 0.550245
74.382072 22.948036 -0.000005 0.520711
75.027649 24.048397 0.000009 0.532108
42.802277 -29.901308 19.740896 0.565074
42.802284 -29.901297 17.296865 0.703554
71.480202 18.206356 4.696362 0.937255
71.453110 18.160915 4.206000 0.937255
72.883392 20.560238 3.389503 0.831373
72.883392 20.560238 2.990368 0.822917
72.883392 20.560238 2.593371 0.846324
72.883392 20.560238 2.197649 0.857966
72.883392 20.560238 1.802351 0.851348
72.883392 20.560238 1.406628 0.851593
72.883392 20.560238 1.009631 0.859804
72.883392 20.560238 0.610497 0.834191
72.883400 20.560240 0.208346 0.699020
73.439880 21.493752 0.000018 0.527328
74.326424 22.980944 -0.000005 0.604412
74.979668 24.076771 0.000009 0.563235
42.572281 -29.326574 19.647161 0.678431
42.802277 -28.946798 17.120159 0.525490
71.359245 18.206343 4.707699 0.937255
71.336678 18.169079 4.213858 0.937255
72.883392 20.723013 3.373452 0.837132
72.883392 20.723015 2.978928 0.824877
72.883392 20.723015 2.586517 0.837623
72.883392 20.723017 2.195366 0.859314
72.883392 20.723015 1.804634 0.848162
72.883392 20.723015 1.413483 0.851348
72.883392 20.723015 1.021072 0.856250
72.883392 20.723015 0.626548 0.848407
72.883392 20.723015 0.229043 0.728799
73.374115 21.533297 0.000023 0.541544
74.271042 23.014297 0.000009 0.519853
74.931892 24.105480 0.000009 0.553309
42.802292 -28.014044 19.336525 0.563358
42.802284 -28.014063 16.948208 0.502083
71.237274 18.206348 4.719261 0.937255
71.214348 18.169079 4.223312 0.937255
72.883392 20.882080 3.357832 0.820711
72.883392 20.882080 2.967795 0.840686
72.883392 20.882080 2.579847 0.829779
72.883392 20.882080 2.193144 0.853431
72.883392 20.882080 1.806856 0.860294
72.883392 20.882082 1.420153 0.850490
72.883392 20.882080 1.032205 0.844730
72.883392 20.882080 0.642168 0.835662
72.883392 20.882080 0.249182 0.694240
73.308609 21.573257 0.000019 0.526103
74.215858 23.047970 0.000007 0.578922
74.884308 24.134516 0.000007 0.568750
42.802292 -27.102232 19.142410 0.536397
42.802284 -27.102251 16.780834 0.602206
71.114273 18.206394 4.731047 0.937255
71.090958 18.169075 4.232957 0.937255
72.883392 21.037579 3.342629 0.823897
72.883392 21.037577 2.956959 0.837132
72.883392 21.037579 2.573354 0.835907
72.883392 21.037577 2.190982 0.856005
72.883392 21.037577 1.809018 0.854534
72.883392 21.037579 1.426646 0.855392
72.883392 21.037579 1.043041 0.861152
72.883392 21.037579 0.657371 0.840931
72.883392 21.037577 0.268785 0.696324
73.243385 21.613678 0.000015 0.562990
74.160904 23.082020 0.000002 0.552451
74.836945 24.163910 0.000013 0.530270
42.802284 -26.210615 18.953417 0.503799
42.802292 -26.210596 16.617870 0.730147
70.990234 18.206486 4.743061 0.937255
70.966492 18.169079 4.242795 0.937255
72.872955 21.173180 3.330069 0.845588
72.872955 21.173180 2.948006 0.822304
72.872955 21.173180 2.567991 0.860172
72.872955 21.173180 2.189195 0.868260
72.872955 21.173180 1.810805 0.854534
72.872955 21.173180 1.432009 0.850368
72.872955 21.173180 1.051993 0.859314
72.872955 21.173180 0.669932 0.862132
72.872955 21.173180 0.284981 0.705270
73.178429 21.654530 0.000007 0.549877
74.106194 23.116455 -0.000001 0.543260
74.789780 24.193611 0.000013 0.536520
42.652287 -25.571100 18.838711 0.287255
42.652287 -25.571104 16.518970 0.174020
70.865120 18.206635 4.755303 0.937255
70.840912 18.169075 4.252831 0.937255
72.776924 21.173180 3.336021 0.821446
72.776924 21.173180 2.952249 0.839461
72.776924 21.173178 2.570532 0.852083
72.776924 21.173180 2.190042 0.855882
72.776924 21.173180 1.809958 0.858578
72.776924 21.173180 1.429467 0.863848
72.776924 21.173180 1.047751 0.840931
72.776924 21.173180 0.663979 0.839706
72.776924 21.173180 0.277307 0.698407
73.113792 21.695896 0.000012 0.560907
74.051765 23.151346 0.000014 0.520221
74.742821 24.223648 0.000014 0.572794
42.572285 -24.836283 18.695255 0.678431
42.572289 -24.836279 16.395277 0.678431
70.738930 18.206860 4.767774 0.937255
70.714203 18.169079 4.263068 0.937255
72.680038 21.173180 3.342091 0.815931
72.680031 21.173178 2.956576 0.825123
72.680038 21.173180 2.573125 0.851348
72.680031 21.173178 2.190905 0.851471
72.680031 21.173178 1.809095 0.842525
72.680038 21.173180 1.426875 0.852574
72.680031 21.173180 1.043424 0.851225
72.680038 21.173180 0.657909 0.820343
72.680038 21.173180 0.269479 0.680392
73.049469 21.737734 0.000022 0.523162
73.997551 23.186550 0.000013 0.515931
74.696068 24.253998 0.000011 0.548529
42.572277 -23.995451 18.519421 0.678431
42.572277 -23.995455 16.243670 0.678431
70.611641 18.207170 4.780477 0.937255
70.586334 18.169079 4.273510 0.937255
72.582253 21.173180 3.348284 0.837010
72.582253 21.173180 2.960989 0.832966
72.582253 21.173178 2.575769 0.849510
72.582253 21.173178 2.191786 0.859804
72.582253 21.173178 1.808214 0.859926
72.582253 21.173180 1.424231 0.855760
72.582253 21.173180 1.039011 0.842892
72.582253 21.173180 0.651716 0.839338
72.582253 21.173180 0.261494 0.709681
72.985397 21.779957 0.000018 0.543015
73.943558 23.222115 0.000006 0.540564
74.649513 24.284657 0.000004 0.514216
42.572273 -23.172125 18.348045 0.678431
42.572269 -23.172125 16.095900 0.678431
70.485306 18.210642 4.792740 0.937255
70.457268 18.169077 4.284161 0.937255
72.483559 21.173180 3.354600 0.800368
72.483559 21.173178 2.965491 0.824265
72.483559 21.173178 2.578466 0.852328
72.483559 21.173178 2.192685 0.853309
72.483559 21.173180 1.807315 0.840441
72.483559 21.173178 1.421533 0.853064
72.483559 21.173180 1.034508 0.822549
72.483559 21.173180 0.645400 0.825000
72.483559 21.173180 0.253350 0.671446
72.921585 21.822575 0.000003 0.525245
73.889824 23.258049 -0.000000 0.535294
74.603188 24.315655 0.000001 0.556863
42.802284 -22.029718 18.078985 0.496446
42.802277 -22.029726 15.863908 0.566544
70.358063 18.214476 4.805176 0.937255
70.326981 18.169077 4.295024 0.937255
72.383926 21.173180 3.361042 0.816667
72.383926 21.173180 2.970083 0.824877
72.383926 21.173180 2.581218 0.859436
72.383926 21.173180 2.193601 0.851471
72.383926 21.173180 1.806399 0.851471
72.383926 21.173180 1.418782 0.854412
72.383934 21.173180 1.029917 0.865196
72.383934 21.173180 0.638958 0.831250
72.383926 21.173180 0.245044 0.733578
72.858116 21.865715 0.000004 0.540196
73.836365 23.294405 0.000005 0.538358
74.557114 24.347031 0.000014 0.523529
42.802288 -21.244501 17.917084 0.567157
42.802280 -21.244513 15.724312 0.557353
70.229820 18.218540 4.817819 0.937255
70.195442 18.169075 4.306104 0.937255
72.283348 21.173178 3.367613 0.820833
72.283348 21.173180 2.974766 0.828676
72.283348 21.173176 2.584023 0.826226
72.283348 21.173178 2.194535 0.850000
72.283348 21.173178 1.805465 0.853309
72.283348 21.173176 1.415976 0.845588
72.283348 21.173180 1.025234 0.850123
72.283348 21.173180 0.632388 0.832721
72.283348 21.173180 0.236571 0.680760
72.794945 21.909273 0.000001 0.585662
73.783165 23.331135 0.000010 0.550735
74.511215 24.378662 0.000007 0.552574
42.802292 -20.474894 17.759167 0.464583
42.802277 -20.474913 15.588155 0.538848
70.100563 18.222866 4.830663 0.937255
70.062622 18.169077 4.317404 0.937255
72.181778 21.173180 3.374315 0.814828
72.181778 21.173180 2.979543 0.824142
72.181778 21.173180 2.586885 0.813603
72.181778 21.173180 2.195489 0.865196
72.181778 21.173180 1.804511 0.850245
72.181778 21.173180 1.413115 0.854902
72.181778 21.173180 1.020457 0.855270
72.181778 21.173180 0.625686 0.821691
72.181778 21.173180 0.227929 0.723284
72.732132 21.953350 0.000015 0.536520
73.730217 23.368223 0.000012 0.515931
74.465538 24.410612 0.000001 0.543873
42.658974 -19.920561 17.666779 0.657230
42.802277 -19.720400 15.455320 0.687255
69.969826 18.226822 4.843857 0.937255
69.928482 18.169079 4.328930 0.937255
72.079208 21.173178 3.381150 0.825735
72.079208 21.173180 2.984415 0.826961
72.079208 21.173178 2.589805 0.853922
72.079208 21.173178 2.196461 0.859804
72.079208 21.173178 1.803539 0.872549
72.079208 21.173180 1.410196 0.859069
72.079208 21.173180 1.015585 0.851838
72.079208 21.173180 0.618850 0.838726
72.079208 21.173180 0.219116 0.721569
72.669556 21.997772 0.000008 0.516299
73.677498 23.405647 0.000005 0.543995
74.420113 24.442919 0.000006 0.530392
42.802273 -18.980467 17.454788 0.704534
42.652267 -19.186930 15.380824 0.180760
69.838341 18.231483 4.857164 0.937255
69.792999 18.169079 4.340686 0.937255
71.975609 21.173180 3.388122 0.801348
71.975609 21.173180 2.989384 0.824632
71.975609 21.173178 2.592782 0.819485
71.975609 21.173180 2.197453 0.854657
71.975609 21.173180 1.802547 0.848652
71.975609 21.173180 1.407218 0.860784
71.975609 21.173180 1.010616 0.829167
71.975609 21.173180 0.611878 0.834681
71.975609 21.173180 0.210126 0.683946
72.607307 22.042641 0.000004 0.524387
73.625061 23.443451 0.000002 0.561520
74.374886 24.475502 -0.000001 0.502819
42.802269 -18.254610 17.308071 0.653431
42.802273 -18.254602 15.199196 0.615931
69.707390 18.238598 4.870192 0.937255
69.656136 18.169079 4.352676 0.937255
71.870949 21.173180 3.395232 0.853922
71.870949 21.173180 2.994452 0.823407
71.870949 21.173180 2.595818 0.817647
71.870949 21.173180 2.198464 0.850000
71.870949 21.173180 1.801536 0.849632
71.870949 21.173180 1.404181 0.850980
71.870949 21.173180 1.005547 0.827696
71.870949 21.173180 0.604768 0.820833
71.870949 21.173180 0.200957 0.721446
72.545395 22.087973 0.000007 0.532353
73.572929 23.481682 0.000015 0.558946
74.329910 24.508434 0.000002 0.513726
42.802273 -17.542372 17.164841 0.511520
42.802273 -17.542372 15.075699 0.577328
69.577316 18.248558 4.882849 0.937255
69.517853 18.169077 4.364906 0.937255
67.581299 15.580432 4.205993 0.937255
71.765213 21.173180 2.999622 0.828431
71.765213 21.173180 2.598916 0.837010
71.765213 21.173180 2.199496 0.843873
71.765213 21.173180 1.800504 0.853431
71.765213 21.173180 1.401084 0.845098
71.765213 21.173180 1.000378 0.824510
71.765213 21.173180 0.597515 0.810417
71.765213 21.173180 0.191605 0.703309
72.483765 22.133694 -0.000000 0.507966
73.521011 23.520205 0.000009 0.495711
74.285172 24.541683 0.000006 0.534436
42.802273 -16.843298 17.024992 0.747917
42.652275 -17.040915 15.008701 0.221201
69.444412 18.256409 4.896261 0.937255
69.360428 18.145765 4.381722 0.937255
67.474380 15.660999 4.205993 0.937255
71.658356 21.173180 3.004895 0.829412
71.658356 21.173180 2.602075 0.834926
71.658356 21.173180 2.200548 0.821691
71.658356 21.173180 1.799452 0.847794
71.658356 21.173180 1.397925 0.828922
71.658356 21.173180 0.995105 0.814093
71.658356 21.173180 0.590117 0.827328
71.658356 21.173180 0.182067 0.702451
72.422501 22.179899 0.000005 0.568995
73.469383 23.559116 0.000011 0.538971
74.240654 24.575228 0.000006 0.507108
42.802269 -16.156992 16.888424 0.659191
42.572273 -16.455645 14.918775 0.678431
69.310097 18.264124 4.909990 0.937255
69.271362 18.213831 4.381725 0.937255
67.368034 15.742307 4.205994 0.937255
71.550369 21.173178 3.010273 0.826838
71.550369 21.173180 2.605297 0.822181
71.550369 21.173180 2.201622 0.854044
71.550369 21.173180 1.798379 0.836029
71.550369 21.173180 1.394703 0.846936
71.550369 21.173180 0.989727 0.845343
71.550369 21.173180 0.582571 0.842647
71.550369 21.173180 0.172337 0.700858
72.361542 22.226511 0.000006 0.531985
73.418030 23.598385 0.000012 0.524755
74.196350 24.609053 -0.000004 0.507598
42.802269 -15.482988 16.755024 0.612500
42.802288 -15.482969 14.722331 0.614338
69.171791 18.268456 4.924792 0.937255
69.172302 18.269108 4.384253 0.937255
67.262253 15.824358 4.205994 0.937255
71.441216 21.173180 3.015759 0.806985
71.441216 21.173180 2.608584 0.837868
71.441216 21.173180 2.202716 0.848652
71.441216 21.173180 1.797284 0.826838
71.441216 21.173180 1.391416 0.845833
71.441216 21.173180 0.984241 0.819608
71.441216 21.173180 0.574875 0.835049
71.441216 21.173180 0.162413 0.704534
72.300919 22.273556 0.000009 0.540809
73.366966 23.638029 0.000018 0.545956
74.152321 24.643238 0.000002 0.545711
42.802273 -14.820932 16.624697 0.643260
42.802277 -14.820932 14.609964 0.445711
69.029480 18.269562 4.940647 0.937255
69.029083 18.269060 4.397396 0.937255
67.157043 15.907142 4.205994 0.908211
71.330856 21.173180 3.021354 0.823039
71.330856 21.173180 2.611936 0.861887
71.330856 21.173180 2.203833 0.821078
71.330856 21.173180 1.796167 0.822917
71.330856 21.173180 1.388063 0.828554
71.330856 21.173180 0.978646 0.822059
71.330856 21.173180 0.567024 0.839338
71.330856 21.173180 0.152290 0.696569
72.240623 22.321014 0.000010 0.547426
73.316154 23.678001 0.000016 0.545343
74.108536 24.677734 0.000011 0.487132
42.748779 -14.236967 16.518738 0.535662
42.748775 -14.236967 14.518605 0.535172
68.884018 18.268707 4.957281 0.937255
68.884094 18.268799 4.410845 0.937255
67.052422 15.990658 4.205994 0.830760
71.219276 21.173180 3.027062 0.814093
71.219276 21.173180 2.615356 0.833333
71.219276 21.173180 2.204972 0.850123
71.219276 21.173180 1.795028 0.848284
71.219276 21.173180 1.384644 0.834926
71.219276 21.173180 0.972937 0.814828
71.219276 21.173180 0.559016 0.825490
71.219276 21.173180 0.141964 0.694975
72.180626 22.368862 0.000004 0.544485
73.265587 23.718281 0.000001 0.488235
74.064949 24.712484 0.000002 0.517647
42.226624 -14.236971 16.601048 0.641789
42.226620 -14.236971 14.589579 0.506005
68.738060 18.269266 4.973916 0.937255
68.737259 18.268276 4.424612 0.937255
66.948387 16.074905 4.205994 0.937255
71.106438 21.173180 3.032885 0.790564
71.106438 21.173180 2.618845 0.829534
71.106438 21.173180 2.206134 0.873039
71.106438 21.173180 1.793866 0.813113
71.106438 21.173180 1.381155 0.840686
71.106438 21.173180 0.967115 0.824020
71.106438 21.173180 0.550846 0.814461
71.106438 21.173180 0.131430 0.701348
72.121033 22.417196 0.000014 0.560172
73.215347 23.758959 -0.000001 0.540564
74.021629 24.747561 0.000001 0.553064
41.698463 -14.236975 16.685024 0.606495
41.698467 -14.236971 14.661982 0.547059
68.507088 18.169079 5.014678 0.937255
68.590393 18.269775 4.438268 0.937255
66.844933 16.159876 4.205995 0.937255
70.992294 21.173180 3.038825 0.828799
70.992294 21.173178 2.622404 0.815196
70.992294 21.173180 2.207320 0.840441
70.992294 21.173180 1.792680 0.813971
70.992294 21.173178 1.377596 0.837255
70.992302 21.173180 0.961174 0.838480
70.992302 21.173180 0.542512 0.835417
70.992294 21.173180 0.120683 0.700735
72.061729 22.465897 0.000013 0.526593
73.165413 23.800026 0.000009 0.525245
73.978577 24.782970 0.000011 0.560784
41.164192 -14.236971 16.770691 0.630147
41.164192 -14.236975 14.735847 0.689338
68.356102 18.169079 5.032265 0.937255
68.439926 18.268978 4.452646 0.937255
66.742081 16.245567 4.205995 0.937255
70.876839 21.173180 3.044885 0.817524
70.876839 21.173178 2.626035 0.789338
70.876839 21.173178 2.208529 0.824510
70.876839 21.173180 1.791471 0.844853
70.876839 21.173180 1.373965 0.818015
70.876839 21.173180 0.955115 0.855025
70.876839 21.173180 0.534009 0.829534
70.876839 21.173180 0.109720 0.711887
72.002762 22.514999 0.000009 0.546936
73.115723 23.841377 0.000000 0.576471
73.935738 24.818632 0.000005 0.579902
40.623611 -14.236971 16.858089 0.686275
40.623611 -14.236971 14.811207 0.457230
68.203323 18.169077 5.050207 0.937255
68.283096 18.262810 4.468360 0.937255
66.639832 16.331978 4.205995 0.937255
70.760017 21.173180 3.051068 0.813971
70.760017 21.173180 2.629739 0.811520
70.760017 21.173178 2.209763 0.820466
70.760017 21.173178 1.790237 0.823162
70.760017 21.173180 1.370261 0.832230
70.760017 21.173180 0.948932 0.811642
70.760017 21.173180 0.525335 0.827451
70.760017 21.173180 0.098535 0.683824
71.944145 22.564528 0.000008 0.564951
73.066345 23.883104 0.000000 0.541789
73.893158 24.854610 0.000004 0.569240
40.076569 -14.236967 16.947264 0.629902
40.076569 -14.236975 14.888096 0.487132
68.048729 18.169079 5.068513 0.937255
68.117661 18.248940 4.485892 0.945343
66.538177 16.419090 4.205996 0.937255
70.641800 21.173180 3.057376 0.820588
70.641800 21.173178 2.633519 0.834314
70.641800 21.173180 2.211022 0.819240
70.641800 21.173180 1.788978 0.821446
70.641800 21.173180 1.366481 0.822672
70.641800 21.173180 0.942623 0.816544
70.641800 21.173180 0.516484 0.830024
70.641800 21.173180 0.087123 0.693995
71.885887 22.614468 0.000009 0.525000
73.017258 23.925179 0.000000 0.549632
73.850838 24.890886 0.000004 0.474510
39.522903 -14.236971 17.038254 0.559314
39.297882 -14.494013 15.040333 0.678431
67.892258 18.169079 5.087193 0.937255
67.953224 18.238720 4.503040 0.997181
66.437149 16.506924 4.205996 0.919853
70.522148 21.173180 3.063813 0.818873
70.522148 21.173180 2.637375 0.829412
70.522148 21.173178 2.212306 0.829167
70.522148 21.173180 1.787693 0.824632
70.522148 21.173180 1.362625 0.823039
70.522148 21.173180 0.936187 0.838603
70.522148 21.173180 0.507454 0.817279
70.522148 21.173180 0.075479 0.697917
71.827972 22.664806 0.000008 0.509681
72.968468 23.967587 -0.000001 0.528309
73.808769 24.927452 0.000003 0.555637
38.962421 -14.236963 17.131096 0.682966
38.734207 -14.494013 15.120842 0.678431
67.733856 18.169079 5.106253 0.937255
67.787262 18.229231 4.520375 1.000000
66.336731 16.595455 4.205995 0.779044
70.401024 21.173180 3.070381 0.830392
70.401024 21.173178 2.641310 0.815564
70.401024 21.173180 2.213618 0.821569
70.401024 21.173180 1.786383 0.825858
70.401024 21.173180 1.358690 0.833946
70.401024 21.173180 0.929619 0.834069
70.401024 21.173180 0.498239 0.824142
70.401024 21.173180 0.063597 0.696078
71.770401 22.715549 0.000007 0.569485
72.919975 24.010338 -0.000001 0.530637
73.766930 24.964285 -0.000007 0.522426
38.394943 -14.236967 17.225842 0.631127
38.394947 -14.236967 15.128295 0.438971
67.573486 18.169079 5.125702 0.937255
67.623383 18.224491 4.537103 1.000000
66.236923 16.684679 4.205996 0.937255
70.278397 21.173180 3.077083 0.799755
70.278389 21.173180 2.645326 0.821569
70.278397 21.173180 2.214955 0.837500
70.278397 21.173180 1.785045 0.822794
70.278397 21.173180 1.354674 0.821814
70.278389 21.173180 0.922917 0.825613
70.278389 21.173178 0.488835 0.831985
70.278389 21.173180 0.051472 0.716912
71.713234 22.766727 0.000015 0.554902
72.871811 24.053459 0.000008 0.509559
73.725403 25.001469 0.000003 0.515809
37.820290 -14.236967 17.322531 0.591422
37.820286 -14.236971 15.211665 0.571691
67.411087 18.169079 5.145552 0.937255
67.456436 18.218744 4.554369 1.000000
66.137749 16.774601 4.205996 0.937255
70.154205 21.173180 3.083923 0.821078
70.154205 21.173180 2.649424 0.845466
70.154205 21.173180 2.216320 0.816789
70.154205 21.173180 1.783680 0.810784
70.154205 21.173180 1.350576 0.827574
70.154205 21.173180 0.916077 0.852819
70.154205 21.173180 0.479239 0.828064
70.154205 21.173180 0.039098 0.709069
71.656372 22.818256 0.000011 0.553186
72.823898 24.096869 0.000003 0.563848
73.684082 25.038889 -0.000005 0.530147
37.238270 -14.236963 17.421211 0.631740
37.083038 -14.404596 15.346093 0.160784
67.246597 18.169079 5.165810 0.937255
67.286888 18.212584 4.572065 1.000000
66.039207 16.865211 4.205997 0.937255
70.028427 21.173180 3.090904 0.823407
70.028427 21.173178 2.653606 0.824387
70.028427 21.173180 2.217713 0.827696
70.028427 21.173180 1.782287 0.830760
70.028427 21.173180 1.346394 0.826471
70.028427 21.173180 0.909096 0.785784
70.028427 21.173180 0.469445 0.813358
70.028427 21.173180 0.026469 0.698775
71.599892 22.870203 0.000012 0.558456
72.776314 24.140623 0.000003 0.538480
73.643074 25.076645 0.000004 0.541422
36.648651 -14.236975 17.521940 0.532721
36.464195 -14.433401 15.441800 0.593260
67.079971 18.169079 5.186487 0.937255
67.116005 18.207451 4.589910 1.000000
65.941299 16.956518 4.205996 0.937255
69.901009 21.173180 3.098029 0.823284
69.901009 21.173180 2.657875 0.851838
69.901009 21.173180 2.219135 0.830882
69.901009 21.173180 1.780865 0.837010
69.901009 21.173180 1.342125 0.852941
69.901009 21.173180 0.901971 0.834069
69.901009 21.173180 0.459448 0.826471
69.901016 21.173180 0.013580 0.709926
71.543716 22.922478 -0.000002 0.568995
72.729050 24.184731 0.000007 0.554779
73.602295 25.114647 -0.000000 0.528676
36.051273 -14.236982 17.624756 0.673284
36.051281 -14.236971 15.472252 0.612377
36.051281 -14.236979 13.349973 0.649632
66.946861 18.206577 4.607243 0.966054
65.844032 17.048498 4.205997 0.937255
69.771919 21.173180 3.105302 0.811520
69.771919 21.173180 2.662233 0.844608
69.771912 21.173180 2.220587 0.822304
69.771919 21.173180 1.779413 0.828554
69.771919 21.173180 1.337767 0.831495
69.771919 21.173180 0.894698 0.822181
69.771919 21.173180 0.449244 0.840686
69.769981 21.171148 0.000006 0.514216
71.487961 22.975199 -0.000003 0.545343
72.682076 24.229147 0.000007 0.531373
73.561813 25.152967 0.000006 0.568382
35.445892 -14.236975 17.729712 0.613848
35.445904 -14.236967 15.562748 0.599755
35.445900 -14.236971 13.426213 0.612500
66.775528 18.205803 4.624917 0.940931
65.747406 17.141151 4.205997 0.937255
69.641090 21.173180 3.112727 0.826593
69.641090 21.173180 2.666681 0.801838
69.641090 21.173180 2.222068 0.826593
69.641090 21.173180 1.777932 0.820588
69.641090 21.173180 1.333318 0.823652
69.641090 21.173180 0.887273 0.811887
69.641090 21.173180 0.438827 0.808456
69.702034 21.236288 0.000004 0.541667
71.432594 23.028332 0.000002 0.498897
72.635406 24.273880 0.000003 0.519240
73.521568 25.191534 0.000001 0.548529
34.580582 -14.494020 17.926981 0.678431
34.832314 -14.236963 15.655136 0.548284
34.580582 -14.494020 13.569514 0.678431
66.603134 18.206329 4.642689 0.937255
65.651428 17.234480 4.205997 0.882353
69.508492 21.173180 3.120307 0.794853
69.508492 21.173180 2.671223 0.814828
69.508492 21.173180 2.223581 0.845711
69.508492 21.173180 1.776419 0.823407
69.508492 21.173180 1.328777 0.852819
69.508492 21.173180 0.879693 0.823775
69.508492 21.173180 0.428192 0.815319
69.634575 21.301935 0.000009 0.501961
71.377563 23.081814 -0.000002 0.529289
72.589058 24.318954 0.000005 0.532108
73.481598 25.230383 -0.000003 0.532475
33.955009 -14.494005 18.037006 0.678431
34.210258 -14.236967 15.749475 0.541176
33.955009 -14.494009 13.649438 0.678431
66.428024 18.206505 4.660909 0.937255
65.556114 17.328482 4.205997 0.937255
69.374062 21.173180 3.128046 0.786397
69.374062 21.173180 2.675860 0.823897
69.374062 21.173180 2.225126 0.861029
69.374062 21.173180 1.774874 0.854044
69.374062 21.173180 1.324140 0.808211
69.374062 21.173180 0.871953 0.843873
69.374062 21.173180 0.417333 0.845343
69.567535 21.368008 0.000004 0.506863
71.322906 23.135677 -0.000006 0.533578
72.543015 24.364336 0.000001 0.508824
73.441917 25.269529 -0.000000 0.491912
nan nan nan 0.000000
nan nan nan 0.000000
nan nan nan 0.000000
nan nan nan 0.000000
nan nan nan 0.000000
nan nan nan 0.000000
nan nan nan 0.000000
nan nan nan 0.000000
nan nan nan 0.000000
107.955559 59.621613 -0.000016 0.332475
96.375595 48.122211 0.000003 0.554657
91.404312 43.185524 -0.000048 0.528431
88.635109 40.435577 0.000000 0.335784
86.867393 38.680161 -0.000000 0.334559
85.638763 37.460079 -0.000001 0.338725
84.733566 36.561180 -0.000002 0.327941
nan nan nan 0.000000
nan nan nan 0.000000
nan nan nan 0.000000
nan nan nan 0.000000
nan nan nan 0.000000
nan nan nan 0.000000
nan nan nan 0.000000
nan nan nan 0.000000
nan nan nan 0.000000
108.155144 59.419266 -0.000018 0.332966
96.494888 48.000702 0.000034 0.535294
91.489349 43.098915 -0.000018 0.532353
88.701195 40.368553 0.000000 0.329044
86.921272 38.625523 -0.000000 0.331250
85.684158 37.414047 -0.000001 0.330637
84.772705 36.521488 -0.000001 0.336029
nan nan nan 0.000000
nan nan nan 0.000000
nan nan nan 0.000000
nan nan nan 0.000000
nan nan nan 0.000000
nan nan nan 0.000000
nan nan nan 0.000000
nan nan nan 0.000000
nan nan nan 0.000000
108.353256 59.215477 -0.000016 0.332475
96.613678 47.878689 0.000026 0.540931
91.573853 43.011791 0.000001 0.540809
88.766823 40.301071 0.000000 0.327206
86.974770 38.570511 -0.000000 0.338358
85.729225 37.367702 -0.000001 0.330270
84.811569 36.481529 -0.000001 0.345466
nan nan nan 0.000000
nan nan nan 0.000000
nan nan nan 0.000000
nan nan nan 0.000000
nan nan nan 0.000000
nan nan nan 0.000000
nan nan nan 0.000000
nan nan nan 0.000000
nan nan nan 0.000000
108.402374 58.869781 0.009998 1.000000
96.731697 47.755943 0.000007 0.548529
91.657990 42.924316 -0.000020 0.525000
88.831970 40.233135 0.000000 0.339461
87.027885 38.515125 -0.000000 0.338971
85.773972 37.321041 -0.000001 0.337255
84.850143 36.441296 -0.000001 0.333211
nan nan nan 0.000000
nan nan nan 0.000000
nan nan nan 0.000000
nan nan nan 0.000000
nan nan nan 0.000000
nan nan nan 0.000000
nan nan nan 0.000000
nan nan nan 0.000000
nan nan nan 0.000000
108.745239 58.803810 -0.000014 0.332721
96.848885 47.632393 -0.000014 0.542157
91.741516 42.836250 -0.000040 0.524265
88.896645 40.164742 0.000000 0.335172
87.080605 38.459370 -0.000000 0.340074
85.818390 37.274071 -0.000001 0.333701
84.888451 36.400795 -0.000001 0.343750
nan nan nan 0.000000
nan nan nan 0.000000
nan nan nan 0.000000
nan nan nan 0.000000
nan nan nan 0.000000
nan nan nan 0.000000
nan nan nan 0.000000
nan nan nan 0.000000
nan nan nan 0.000000
108.939018 58.595898 -0.000010 0.332721
96.964531 47.507401 0.000041 0.550613
91.824173 42.747375 -0.000021 0.536274
88.960838 40.095901 0.000001 0.338603
87.132942 38.403248 -0.000000 0.333456
85.862480 37.226788 -0.000000 0.337132
84.926460 36.360027 -0.000001 0.347917
nan nan nan 0.000000
nan nan nan 0.000000
nan nan nan 0.000000
nan nan nan 0.000000
nan nan nan 0.000000
nan nan nan 0.000000
nan nan nan 0.000000
nan nan nan 0.000000
nan nan nan 0.000000
108.980995 58.249352 0.009995 1.000000
97.079971 47.382225 0.000021 0.536520
91.906448 42.658150 -0.000041 0.537868
89.024551 40.026611 0.000000 0.332966
87.184883 38.346764 0.000000 0.316422
85.906235 37.179203 -0.000000 0.340074
84.964195 36.318996 -0.000001 0.343627
nan nan nan 0.000000
nan nan nan 0.000000
nan nan nan 0.000000
nan nan nan 0.000000
nan nan nan 0.000000
nan nan nan 0.000000
nan nan nan 0.000000
nan nan nan 0.000000
nan nan nan 0.000000
109.322365 58.176186 -0.000014 0.529044
97.194412 47.256130 0.000014 0.547794
91.987869 42.568138 -0.000024 0.533824
89.087784 39.956882 0.000000 0.338603
87.236427 38.289917 0.000000 0.338603
85.949661 37.131310 -0.000001 0.343505
85.001633 36.277702 -0.000001 0.331250
nan nan nan 0.000000
nan nan nan 0.000000
nan nan nan 0.000000
nan nan nan 0.000000
nan nan nan 0.000000
nan nan nan 0.000000
nan nan nan 0.000000
nan nan nan 0.000000
nan nan nan 0.000000
109.511749 57.964249 -0.000010 0.332721
97.307884 47.129158 0.000018 0.539461
92.068436 42.477356 0.000027 0.537010
89.150520 39.886715 0.000000 0.335172
87.287575 38.232712 -0.000000 0.338358
85.992752 37.083115 -0.000001 0.322549
85.038788 36.236149 -0.000001 0.333088
nan nan nan 0.000000
nan nan nan 0.000000
nan nan nan 0.000000
nan nan nan 0.000000
nan nan nan 0.000000
nan nan nan 0.000000
nan nan nan 0.000000
nan nan nan 0.000000
nan nan nan 0.000000
109.699760 57.751110 -0.000014 0.531740
97.420334 47.001282 0.000036 0.535294
92.148582 42.386215 0.000045 0.517279
89.212769 39.816109 0.000000 0.331495
87.338318 38.175148 -0.000000 0.338113
86.035507 37.034622 -0.000001 0.337132
85.075653 36.194336 -0.000001 0.346324
nan nan nan 0.000000
nan nan nan 0.000000
nan nan nan 0.000000
nan nan nan 0.000000
nan nan nan 0.000000
nan nan nan 0.000000
nan nan nan 0.000000
nan nan nan 0.000000
nan nan nan 0.000000
109.886215 57.536606 -0.000014 0.540441
97.532356 46.873039 0.000002 0.543382
