# This PCD file was generated using the MATLAB® pcwrite function
# from Computer Vision Toolbox®.
# .PCD v.7 - Point Cloud Data file format
VERSION .7
FIELDS x y z intensity
SIZE 4 4 4 4
TYPE F F F F
COUNT 1 1 1 1
WIDTH 1221
HEIGHT 1
VIEWPOINT 0 0 0 1 0 0 0
POINTS 1221
DATA ascii
39.125061 -11.845556 -0.000001 0.524142
40.401237 -10.675220 0.000010 0.545343
41.341393 -9.813038 -0.000004 0.332966
36.020111 -14.549888 5.784412 0.678431
36.020107 -14.549889 5.263063 0.678431
36.020111 -14.549887 4.749033 0.678431
36.020111 -14.549888 4.241093 0.678431
36.020111 -14.549887 3.738061 0.678431
36.020111 -14.549886 3.238803 0.678431
36.020111 -14.549888 2.742219 0.678431
36.366150 -14.236963 2.239595 0.614951
36.366154 -14.236963 1.760405 0.770221
36.366154 -14.236963 1.280701 0.708578
36.366154 -14.236963 0.799451 0.907108
36.366150 -14.236963 0.315611 0.665319
37.225609 -13.459761 -0.000002 0.554534
39.073395 -11.788822 -0.000001 0.500123
40.357578 -10.627542 -0.000029 0.516054
41.303860 -9.771826 -0.000004 0.339951
35.861629 -14.549887 5.813950 0.678431
35.861629 -14.549887 5.288531 0.678431
35.861629 -14.549886 4.770490 0.678431
35.861629 -14.549888 4.258585 0.678431
35.861629 -14.549888 3.751626 0.678431
35.861629 -14.549885 3.248472 0.678431
35.861629 -14.549887 2.748012 0.678431
36.212563 -14.236965 2.241465 0.623039
36.212563 -14.236965 1.758535 0.787377
36.212566 -14.236963 1.275087 0.369730
36.212563 -14.236964 0.790081 0.631373
36.212566 -14.236961 0.302465 0.627328
37.162731 -13.389715 0.000000 0.553676
39.022133 -11.731718 0.000001 0.532475
40.314404 -10.579424 -0.000023 0.526226
41.266617 -9.730350 -0.000004 0.339583
35.700645 -14.549889 5.844140 0.678431
35.700645 -14.549887 5.314563 0.678431
35.700645 -14.549887 4.792420 0.678431
35.700645 -14.549887 4.276463 0.678431
35.700645 -14.549887 3.765491 0.678431
35.700645 -14.549887 3.258355 0.678431
35.700645 -14.549887 2.753933 0.678431
36.056553 -14.236962 2.243376 0.656373
36.056553 -14.236962 1.756624 0.759069
36.056553 -14.236962 1.269348 0.857598
36.056553 -14.236964 0.780503 0.843873
36.056553 -14.236962 0.289028 0.568260
37.100330 -13.319245 -0.000000 0.540441
38.971252 -11.674277 -0.000002 0.526961
40.271614 -10.530964 -0.000004 0.333946
41.229668 -9.688616 -0.000004 0.330637
35.537083 -14.549889 5.875002 0.678431
35.537086 -14.549889 5.341173 0.678431
35.537086 -14.549887 4.814839 0.678431
35.537086 -14.549888 4.294739 0.678431
35.537086 -14.549887 3.779665 0.678431
35.537086 -14.549887 3.268457 0.678431
35.537086 -14.549885 2.759986 0.678431
35.898041 -14.236963 2.245330 0.431740
35.898045 -14.236963 1.754669 0.556863
35.898045 -14.236961 1.263482 0.421936
35.898045 -14.236963 0.770713 0.477328
35.898045 -14.236963 0.275291 0.573407
37.038422 -13.248343 -0.000001 0.541054
38.920780 -11.616475 -0.000003 0.565931
40.229095 -10.482265 -0.000004 0.331373
41.193005 -9.646626 -0.000004 0.319730
35.370869 -14.549887 5.906557 0.678431
35.370869 -14.549887 5.368381 0.678431
35.370865 -14.549888 4.837761 0.678431
35.370865 -14.549889 4.313426 0.678431
35.370865 -14.549890 3.794158 0.678431
35.370865 -14.549888 3.278786 0.678431
35.370869 -14.549886 2.766175 0.678431
35.736961 -14.236963 2.247329 0.511642
35.736961 -14.236963 1.752672 0.599632
35.736958 -14.236964 1.257485 0.479044
35.736958 -14.236965 0.760702 0.688480
35.736961 -14.236963 0.261246 0.563480
36.977013 -13.177005 -0.000001 0.520588
38.870716 -11.558321 -0.000004 0.528554
40.222122 -10.403180 0.009998 1.000000
41.156643 -9.604380 -0.000004 0.333701
35.201916 -14.549885 5.938822 0.678431
35.201912 -14.549887 5.396202 0.678431
35.201912 -14.549887 4.861199 0.678431
35.201912 -14.549887 4.332533 0.678431
35.201912 -14.549887 3.808977 0.678431
35.201912 -14.549887 3.289349 0.678431
35.201916 -14.549885 2.772503 0.678431
35.573223 -14.236961 2.249371 0.469363
35.573223 -14.236961 1.750629 0.474387
35.573223 -14.236961 1.251352 0.446691
35.573223 -14.236961 0.750467 0.392279
35.573223 -14.236961 0.246885 0.662010
36.916092 -13.105246 -0.000002 0.535907
38.821056 -11.499821 -0.000005 0.550000
40.180508 -10.354130 0.010000 1.000000
41.120571 -9.561882 -0.000004 0.330760
35.030136 -14.549887 5.971822 0.678431
35.030136 -14.549887 5.424654 0.678431
35.030140 -14.549885 4.885170 0.678431
35.030136 -14.549887 4.352075 0.678431
35.030140 -14.549885 3.824131 0.678431
35.030136 -14.549887 3.300151 0.678431
35.030140 -14.549885 2.778975 0.678431
35.406746 -14.236964 2.251461 0.497059
35.406746 -14.236964 1.748540 0.830760
35.406750 -14.236962 1.245080 0.343995
35.406750 -14.236961 0.739998 0.556495
35.406746 -14.236964 0.232198 0.536887
36.855698 -13.033047 0.000000 0.555392
38.771828 -11.440954 0.000000 0.537990
40.139225 -10.304796 0.010001 1.000000
41.084797 -9.519133 -0.000004 0.326471
34.855450 -14.549887 6.005574 0.678431
34.855453 -14.549885 5.453758 0.678431
34.855446 -14.549889 4.909688 0.678431
34.855453 -14.549885 4.372063 0.678431
34.855453 -14.549885 3.839633 0.678431
34.855453 -14.549886 3.311200 0.678431
34.855446 -14.549885 2.785594 0.678431
35.237457 -14.236961 2.253597 0.530270
35.237457 -14.236961 1.746403 0.660662
35.237457 -14.236961 1.238665 0.528676
35.237453 -14.236963 0.729291 0.580515
35.237453 -14.236965 0.217175 0.531740
36.795795 -12.960441 -0.000001 0.530760
38.722984 -11.381770 -0.000002 0.519853
40.098282 -10.255188 0.009998 1.000000
41.049320 -9.476136 -0.000004 0.336152
34.677761 -14.549887 6.040104 0.678431
34.677761 -14.549886 5.483530 0.678431
34.677761 -14.549886 4.934771 0.678431
34.677757 -14.549889 4.392512 0.678431
34.677761 -14.549887 3.855492 0.678431
34.677761 -14.549885 3.322503 0.678431
34.677761 -14.549887 2.792367 0.678431
35.065250 -14.236964 2.255784 0.575613
35.065250 -14.236964 1.744217 0.882230
35.065254 -14.236963 1.232101 0.708824
35.065250 -14.236964 0.718336 0.702451
35.065254 -14.236963 0.201806 0.430025
36.736382 -12.887432 -0.000004 0.523039
38.674564 -11.322241 -0.000003 0.554289
40.021664 -10.234381 -0.000004 0.335049
41.014149 -9.432893 -0.000004 0.337132
34.559364 -14.500215 6.055459 0.160784
34.559364 -14.500216 5.496770 0.172549
34.559364 -14.500216 4.945925 0.160784
34.559364 -14.500214 4.401604 0.160784
34.559364 -14.500216 3.862545 0.160784
34.559364 -14.500216 3.327529 0.160784
34.559364 -14.500214 2.795378 0.181618
34.890041 -14.236963 2.258020 0.503676
34.890041 -14.236963 1.741980 0.910294
34.890049 -14.236960 1.225386 0.818260
34.890045 -14.236963 0.707128 0.456127
34.890045 -14.236963 0.186081 0.486887
36.677498 -12.813995 -0.000004 0.535662
38.626564 -11.262370 -0.000002 0.549755
39.981224 -10.183944 -0.000004 0.334069
40.979282 -9.389402 -0.000004 0.335784
34.483879 -14.415773 6.057177 0.160784
34.483875 -14.415775 5.498251 0.160784
34.483879 -14.415775 4.947173 0.160784
34.483879 -14.415773 4.402622 0.160784
34.483879 -14.415773 3.863333 0.160784
34.483879 -14.415773 3.328091 0.160784
34.483879 -14.415773 2.795715 0.160784
34.711739 -14.236962 2.260309 0.685172
34.711739 -14.236961 1.739691 0.705882
34.711739 -14.236964 1.218514 0.579779
34.711739 -14.236963 0.695658 0.464461
34.711739 -14.236963 0.169988 0.588726
36.619141 -12.740141 -0.000003 0.543505
38.578987 -11.202163 -0.000000 0.568137
39.941132 -10.133226 -0.000005 0.332353
40.944714 -9.345671 -0.000004 0.333333
34.125690 -14.549885 6.148599 0.678431
34.125690 -14.549886 5.577079 0.678431
34.125690 -14.549886 5.013583 0.678431
34.125690 -14.549887 4.456761 0.678431
34.125687 -14.549889 3.905321 0.678431
34.125690 -14.549887 3.358018 0.678431
34.125690 -14.549885 2.813646 0.678431
34.530231 -14.236963 2.262652 0.510172
34.530231 -14.236963 1.737348 0.552819
34.530231 -14.236963 1.211480 0.596936
34.530231 -14.236963 0.683918 0.427328
34.530228 -14.236964 0.153516 0.493137
36.561298 -12.665883 -0.000000 0.531618
38.531830 -11.141626 0.000001 0.578431
39.901402 -10.082230 -0.000004 0.336275
40.910458 -9.301701 -0.000004 0.331005
33.934982 -14.549889 6.186486 0.678431
33.934986 -14.549886 5.609746 0.678431
33.934982 -14.549888 5.041105 0.678431
33.934982 -14.549886 4.479198 0.678431
33.934986 -14.549885 3.922720 0.678431
33.934982 -14.549886 3.370420 0.678431
33.934982 -14.549887 2.821076 0.678431
34.345417 -14.236963 2.265051 0.454044
34.345417 -14.236963 1.734949 0.559681
34.345417 -14.236962 1.204279 0.720711
34.345417 -14.236963 0.671899 0.561029
34.345417 -14.236963 0.136653 0.589706
36.503979 -12.591217 0.000002 0.542157
38.485088 -11.080769 0.000000 0.555270
39.862026 -10.030955 -0.000004 0.327083
40.876503 -9.257492 -0.000004 0.335662
33.740757 -14.549887 6.225279 0.678431
33.740757 -14.549887 5.643194 0.678431
33.740757 -14.549887 5.069284 0.678431
33.740757 -14.549887 4.502170 0.678431
33.740757 -14.549887 3.940537 0.678431
33.740757 -14.549887 3.383118 0.678431
33.740757 -14.549887 2.828684 0.678431
34.157185 -14.236963 2.267507 0.585049
34.157185 -14.236963 1.732493 0.685662
34.157185 -14.236963 1.196905 0.689828
34.157181 -14.236965 0.659592 0.646078
34.157185 -14.236961 0.119388 0.775858
36.447166 -12.516167 0.000001 0.521201
38.438782 -11.019579 0.000001 0.535049
39.823009 -9.979410 -0.000005 0.331495
40.842865 -9.213044 -0.000004 0.328922
33.542881 -14.549889 6.265007 0.678431
33.542885 -14.549887 5.677450 0.678431
33.542885 -14.549885 5.098142 0.678431
33.542885 -14.549885 4.525696 0.678431
33.542885 -14.549885 3.958782 0.678431
33.542885 -14.549887 3.396123 0.678431
33.542885 -14.549887 2.836476 0.678431
33.965424 -14.236964 2.270022 0.796691
33.965424 -14.236964 1.729978 0.794363
33.965420 -14.236965 1.189355 0.845221
33.965427 -14.236961 0.646990 0.799387
33.965420 -14.236965 0.101705 0.789951
36.390877 -12.440723 0.000000 0.535049
38.392895 -10.958077 0.000000 0.523407
39.784351 -9.927591 -0.000005 0.334804
40.809532 -9.168365 -0.000004 0.341789
33.341248 -14.549886 6.305700 0.678431
33.341248 -14.549887 5.712538 0.678431
33.341248 -14.549887 5.127703 0.678431
33.341248 -14.549887 4.549794 0.678431
33.341248 -14.549887 3.977472 0.678431
33.341248 -14.549887 3.409444 0.678431
33.341244 -14.549889 2.844457 0.678431
33.770016 -14.236962 2.272599 0.447181
33.770016 -14.236962 1.727401 0.797672
33.770012 -14.236963 1.181620 0.757721
33.770012 -14.236963 0.634080 0.774510
33.770008 -14.236965 0.083593 0.670221
36.335121 -12.364887 0.000000 0.546814
38.347435 -10.896254 -0.000001 0.511029
39.746059 -9.875505 -0.000005 0.330147
40.776516 -9.123454 -0.000004 0.335784
33.135712 -14.549889 6.347393 0.678431
33.135712 -14.549890 5.748487 0.678431
33.135712 -14.549891 5.157990 0.678431
33.135712 -14.549888 4.574484 0.678431
33.135712 -14.549888 3.996620 0.678431
33.135712 -14.549887 3.423091 0.678431
33.135715 -14.549887 2.852634 0.678431
33.570827 -14.236963 2.275238 0.463113
33.570827 -14.236963 1.724762 0.568995
33.570827 -14.236964 1.173696 0.727574
33.570827 -14.236964 0.620854 0.492647
33.570824 -14.236966 0.065036 0.424265
36.279892 -12.288664 -0.000001 0.558946
38.302414 -10.834113 -0.000001 0.574265
39.708130 -9.823153 -0.000005 0.335049
40.743809 -9.078315 -0.000004 0.331618
32.948761 -14.533864 6.383174 0.222304
32.948765 -14.533863 5.779337 0.217279
32.948765 -14.533862 5.183980 0.160784
32.948761 -14.533864 4.595674 0.212623
32.948765 -14.533863 4.013053 0.245221
32.948765 -14.533863 3.434803 0.127206
32.948765 -14.533863 2.859651 0.147059
33.367733 -14.236964 2.277943 0.774510
33.367733 -14.236964 1.722057 0.846691
33.367741 -14.236961 1.165576 0.740564
33.367737 -14.236963 0.607301 0.547426
33.367733 -14.236965 0.046021 0.566912
36.225216 -12.212045 0.000002 0.551961
38.257835 -10.771653 0.000001 0.558578
39.670567 -9.770537 -0.000005 0.339093
40.711422 -9.032948 -0.000004 0.339338
32.904495 -14.415781 6.375226 0.160784
32.904491 -14.415781 5.772485 0.160784
32.904495 -14.415781 5.178207 0.160784
32.904495 -14.415781 4.590967 0.160784
32.904499 -14.415777 4.009402 0.160784
32.904491 -14.415781 3.432203 0.160784
32.904495 -14.415779 2.858093 0.160784
33.160610 -14.236960 2.280715 0.832230
33.160610 -14.236960 1.719285 0.786887
33.160606 -14.236963 1.157253 0.483333
33.160606 -14.236963 0.593409 0.595711
33.160603 -14.236963 0.026531 0.558701
36.171047 -12.135065 -0.000001 0.523775
38.213688 -10.708889 0.000001 0.544976
39.633377 -9.717660 -0.000005 0.332108
40.679356 -8.987354 -0.000004 0.328064
32.494362 -14.549893 6.478799 0.678431
32.494362 -14.549893 5.861790 0.678431
32.494362 -14.549893 5.253444 0.678431
32.494362 -14.549893 4.652303 0.678431
32.494366 -14.549891 4.056971 0.678431
32.494362 -14.549893 3.466106 0.678431
32.494362 -14.549893 2.878406 0.678431
32.949291 -14.236962 2.283557 0.866912
32.949291 -14.236962 1.716443 0.680760
32.949291 -14.236963 1.148720 0.601348
32.949287 -14.236964 0.579168 0.703064
32.949287 -14.236965 0.006550 0.690686
36.117428 -12.057701 -0.000001 0.525123
38.169975 -10.645820 0.000000 0.532353
39.596550 -9.664527 -0.000005 0.338480
40.647602 -8.941540 -0.000004 0.334191
32.271843 -14.549891 6.524833 0.678431
32.271843 -14.549891 5.901481 0.678431
32.271843 -14.549891 5.286882 0.678431
32.271843 -14.549891 4.679563 0.678431
32.271843 -14.549891 4.078112 0.678431
32.271843 -14.549891 3.481175 0.678431
32.271843 -14.549891 2.887434 0.678431
32.733639 -14.236962 2.286472 0.575735
32.733639 -14.236962 1.713528 0.703676
32.733643 -14.236962 1.139970 0.419240
32.733639 -14.236963 0.564564 0.644730
32.833927 -14.169003 -0.000001 0.527819
36.064350 -11.979967 -0.000002 0.532721
38.126705 -10.582449 -0.000001 0.525245
39.560097 -9.611135 -0.000005 0.337868
40.616173 -8.895504 -0.000004 0.332598
32.044689 -14.549891 6.572046 0.678431
32.044689 -14.549891 5.942191 0.678431
32.044689 -14.549891 5.321179 0.678431
32.044689 -14.549891 4.707522 0.678431
32.044689 -14.549891 4.099797 0.654167
32.044693 -14.549889 3.496630 0.678431
32.044689 -14.549891 2.896694 0.678431
32.513500 -14.236964 2.289461 0.449755
32.513500 -14.236964 1.710539 0.597304
32.513500 -14.236964 1.130996 0.763480
32.513496 -14.236967 0.549586 0.612377
32.766193 -14.068293 -0.000002 0.556373
36.011814 -11.901861 -0.000003 0.550245
38.083874 -10.518776 -0.000002 0.332598
39.524021 -9.557490 -0.000005 0.332598
40.585064 -8.849251 -0.000004 0.330515
31.958168 -14.454276 6.576887 0.160784
31.958168 -14.454277 5.946365 0.160784
31.958168 -14.454276 5.324696 0.160784
31.958168 -14.454275 4.710388 0.160784
31.958168 -14.454276 4.102019 0.160784
31.958166 -14.454279 3.498215 0.160784
31.958170 -14.454276 2.897644 0.160784
32.288708 -14.236962 2.292527 0.868260
32.288708 -14.236962 1.707472 0.524510
32.288708 -14.236965 1.121789 0.644485
32.288704 -14.236966 0.534220 0.469730
32.699177 -13.967102 0.000000 0.517524
35.959839 -11.823384 -0.000000 0.547917
38.041492 -10.454804 -0.000001 0.335907
39.488316 -9.503596 -0.000005 0.337990
40.554279 -8.802779 -0.000004 0.334436
31.575808 -14.549885 6.670187 0.678431
31.575806 -14.549885 6.026812 0.678431
31.575806 -14.549885 5.392470 0.678431
31.575804 -14.549887 4.765641 0.678431
31.575808 -14.549885 4.144869 0.678431
31.575809 -14.549885 3.528756 0.678431
31.575806 -14.549885 2.915942 0.678431
32.059090 -14.236961 2.295675 0.448775
32.059090 -14.236961 1.704325 0.515441
32.059093 -14.236960 1.112342 0.556863
32.059086 -14.236963 0.518451 0.842892
32.632847 -13.865457 -0.000001 0.522059
35.908405 -11.744553 -0.000001 0.552819
38.045685 -10.360677 0.009995 1.000000
39.452991 -9.449451 -0.000005 0.328064
40.523819 -8.756096 -0.000004 0.331740
31.333712 -14.549881 6.721205 0.678431
31.333708 -14.549884 6.070802 0.678431
31.333708 -14.549884 5.429529 0.678431
31.333710 -14.549883 4.795852 0.678431
31.333710 -14.549883 4.168301 0.678431
31.333708 -14.549884 3.545457 0.678431
31.333708 -14.549885 2.925948 0.678431
31.824465 -14.236962 2.298905 0.710539
31.824465 -14.236962 1.701096 0.493995
31.824465 -14.236963 1.102645 0.753799
31.824463 -14.236963 0.502267 0.618137
32.567238 -13.763347 -0.000001 0.538603
35.857533 -11.665355 0.000001 0.557843
38.004410 -10.296440 0.009995 1.000000
39.418041 -9.395063 -0.000005 0.329412
40.493683 -8.709201 -0.000004 0.336642
31.167559 -14.498833 6.749537 0.160784
31.167559 -14.498833 6.095231 0.160784
31.167564 -14.498830 5.450110 0.160784
31.167561 -14.498832 4.812631 0.183456
31.167564 -14.498830 4.181313 0.174632
31.167564 -14.498830 3.554730 0.160784
31.167561 -14.498832 2.931505 0.160784
31.584642 -14.236964 2.302221 0.564951
31.584644 -14.236963 1.697779 0.497917
31.584644 -14.236964 1.092689 0.363113
31.584646 -14.236962 0.485649 0.897059
32.502331 -13.660789 -0.000002 0.533088
35.807201 -11.585812 0.000001 0.545711
37.963573 -10.231925 0.009993 1.000000
39.383476 -9.340432 -0.000005 0.339216
40.463882 -8.662096 -0.000005 0.335417
31.050165 -14.415776 6.763494 0.160784
31.050169 -14.415775 6.107265 0.160784
31.050167 -14.415776 5.460249 0.160784
31.050167 -14.415776 4.820896 0.160784
31.050167 -14.415776 4.187722 0.160784
31.050169 -14.415775 3.559299 0.160784
31.050167 -14.415776 2.934242 0.160784
31.339436 -14.236960 2.305627 0.894240
31.339436 -14.236960 1.694373 0.603922
31.339436 -14.236961 1.082464 0.707230
31.339430 -14.236965 0.468583 0.777328
32.438160 -13.557772 -0.000002 0.521324
35.757427 -11.505921 0.000000 0.522917
37.876480 -10.196002 -0.000001 0.332966
39.349293 -9.285563 -0.000005 0.330515
40.434406 -8.614784 -0.000004 0.331863
30.574417 -14.549885 6.882642 0.678431
30.574417 -14.549883 6.209998 0.678431
30.574417 -14.549885 5.546799 0.678431
30.574417 -14.549883 4.891454 0.678431
30.574417 -14.549883 4.242443 0.678431
30.574419 -14.549883 3.598301 0.666667
30.574417 -14.549883 2.957610 0.678431
31.088617 -14.236964 2.309125 0.733824
31.088617 -14.236964 1.690874 0.601471
31.088615 -14.236967 1.071961 0.726471
31.088617 -14.236964 0.451053 0.546569
32.374691 -13.454317 -0.000003 0.540686
35.708210 -11.425685 -0.000000 0.542034
37.836357 -10.130591 -0.000002 0.335662
39.315491 -9.230455 -0.000005 0.334559
40.405262 -8.567268 -0.000005 0.337132
30.457058 -14.461555 6.896371 0.160784
30.457062 -14.461553 6.221836 0.160784
30.457064 -14.461553 5.556771 0.160784
30.457060 -14.461555 4.899584 0.160784
30.457062 -14.461553 4.248748 0.160784
30.457066 -14.461552 3.602796 0.160784
30.457066 -14.461552 2.960302 0.160784
30.831980 -14.236966 2.312720 0.446691
30.831980 -14.236966 1.687280 0.537623
30.831985 -14.236963 1.061168 0.442157
30.831985 -14.236963 0.433039 0.517770
32.311954 -13.350419 -0.000004 0.529657
35.659565 -11.345102 0.000001 0.527328
37.796688 -10.064903 -0.000003 0.324142
39.282078 -9.175114 -0.000005 0.341789
40.376450 -8.519550 -0.000005 0.334436
30.038527 -14.549894 6.997800 0.678431
30.038525 -14.549896 6.309293 0.678431
30.038527 -14.549895 5.630451 0.678431
30.038527 -14.549894 4.959649 0.678431
30.038528 -14.549894 4.295331 0.678431
30.038527 -14.549895 3.635998 0.678431
30.038525 -14.549896 2.980195 0.678431
30.569298 -14.236962 2.316416 0.776103
30.569298 -14.236962 1.683584 0.584436
30.569294 -14.236964 1.050074 0.838113
30.569296 -14.236963 0.414523 0.592770
32.249950 -13.246080 -0.000003 0.539583
35.611473 -11.264185 0.000001 0.553064
37.757481 -9.998940 -0.000004 0.328431
39.249046 -9.119537 -0.000005 0.342034
40.347973 -8.471631 -0.000004 0.324755
29.760971 -14.549896 7.057814 0.678431
29.760971 -14.549896 6.361038 0.678431
29.760973 -14.549894 5.674045 0.678431
29.760977 -14.549893 4.995188 0.678431
29.760971 -14.549896 4.322895 0.678431
29.760975 -14.549894 3.655643 0.678431
29.760973 -14.549894 2.991965 0.678431
30.300312 -14.236963 2.320215 0.476348
30.300312 -14.236963 1.679785 0.772181
30.300312 -14.236963 1.038667 0.440809
30.300312 -14.236963 0.395485 0.708946
32.188667 -13.141318 -0.000005 0.529534
35.563950 -11.182937 0.000000 0.523162
37.718739 -9.932701 -0.000004 0.335417
39.216408 -9.063734 -0.000005 0.330025
40.319828 -8.423515 -0.000005 0.333211
29.476658 -14.549894 7.119537 0.678431
29.476660 -14.549892 6.414258 0.678431
29.476658 -14.549894 5.718882 0.678431
29.476656 -14.549895 5.031742 0.678431
29.476660 -14.549892 4.351241 0.678431
29.476658 -14.549894 3.675848 0.678431
29.476660 -14.549892 3.004071 0.678431
30.024782 -14.236959 2.324123 0.687623
30.024782 -14.236959 1.675877 0.713971
30.024780 -14.236961 1.026936 0.766422
30.024778 -14.236962 0.375903 0.403554
32.128120 -13.036127 -0.000005 0.546569
35.516991 -11.101357 -0.000000 0.559191
37.680454 -9.866195 -0.000004 0.337745
39.184162 -9.007702 -0.000005 0.334559
40.292027 -8.375202 -0.000004 0.338971
29.185301 -14.549896 7.183042 0.678431
29.185305 -14.549893 6.469014 0.678431
29.185303 -14.549894 5.765013 0.678431
29.185301 -14.549896 5.069348 0.678431
29.185299 -14.549896 4.380407 0.678431
29.185307 -14.549893 3.696636 0.678431
29.185301 -14.549896 3.016526 0.678431
29.742418 -14.236964 2.328144 0.626225
29.742418 -14.236964 1.671856 0.547917
29.742416 -14.236965 1.014865 0.671814
29.742418 -14.236964 0.355757 0.535294
32.068310 -12.930515 -0.000005 0.535049
35.470604 -11.019452 -0.000001 0.557721
37.642639 -9.799425 -0.000005 0.337255
39.152306 -8.951448 -0.000004 0.325123
40.264557 -8.326699 -0.000004 0.343627
28.886614 -14.549896 7.248402 0.678431
28.886616 -14.549894 6.525370 0.678431
28.886616 -14.549894 5.812490 0.678431
28.886616 -14.549894 5.108053 0.678431
28.886616 -14.549894 4.410425 0.678431
28.886614 -14.549896 3.718031 0.678431
28.886616 -14.549894 3.029345 0.678431
29.452955 -14.236963 2.332282 0.548284
29.452955 -14.236963 1.667718 0.574387
29.452955 -14.236963 1.002442 0.451961
29.452955 -14.236963 0.335023 0.742892
32.009235 -12.824492 -0.000005 0.530270
35.424782 -10.937232 -0.000003 0.540686
37.605293 -9.732391 -0.000005 0.332721
39.120842 -8.894975 -0.000005 0.338971
40.237427 -8.278004 -0.000004 0.321078
28.580282 -14.549894 7.315692 0.678431
28.580282 -14.549894 6.583392 0.678431
28.580282 -14.549894 5.861372 0.678431
28.580282 -14.549894 5.147902 0.678431
28.580284 -14.549894 4.441329 0.678431
28.580282 -14.549894 3.740058 0.678431
28.580282 -14.549894 3.042542 0.678431
29.156088 -14.236959 2.336542 0.506863
29.156088 -14.236959 1.663458 0.738113
29.156082 -14.236962 0.989652 0.659926
29.156076 -14.236965 0.313676 0.738971
31.950920 -12.718047 -0.000004 0.529289
35.379555 -10.854682 -0.000001 0.534926
37.568413 -9.665099 -0.000006 0.335907
39.089771 -8.838280 -0.000005 0.336765
40.210640 -8.229121 -0.000004 0.329289
28.265978 -14.549894 7.384998 0.678431
28.265978 -14.549894 6.643149 0.678431
28.265976 -14.549895 5.911715 0.678431
28.265976 -14.549896 5.188944 0.678431
28.265976 -14.549895 4.473159 0.678431
28.265978 -14.549894 3.762744 0.678431
28.265980 -14.549894 3.056134 0.678431
28.851490 -14.236961 2.340929 0.490809
28.851490 -14.236961 1.659070 0.648039
28.851486 -14.236962 0.976480 0.569240
28.851473 -14.236969 0.291689 0.433211
31.893337 -12.611206 -0.000004 0.532843
35.334896 -10.771823 -0.000002 0.524387
37.532001 -9.597551 -0.000007 0.332475
39.059101 -8.781374 -0.000005 0.340196
40.184193 -8.180053 -0.000004 0.339828
28.026461 -14.506218 7.432886 0.221446
28.026463 -14.506218 6.684439 0.226103
28.026463 -14.506218 5.946501 0.185907
28.026464 -14.506216 5.217303 0.160784
28.026463 -14.506218 4.495152 0.224142
28.026464 -14.506216 3.778420 0.160784
28.026464 -14.506216 3.065526 0.160784
28.538824 -14.236961 2.345450 0.416544
28.538824 -14.236961 1.654550 0.773284
28.538818 -14.236963 0.962908 0.635662
28.538816 -14.236964 0.269037 0.515564
31.836494 -12.503968 -0.000005 0.539461
35.290817 -10.688651 -0.000002 0.530147
37.496067 -9.529748 -0.000007 0.332721
39.028828 -8.724251 -0.000005 0.333333
40.158089 -8.130800 -0.000005 0.334191
27.612043 -14.549889 7.529999 0.678431
27.612041 -14.549889 6.768175 0.678431
27.612036 -14.549891 6.017046 0.678431
27.612032 -14.549894 5.274815 0.678431
27.612030 -14.549895 4.539755 0.678431
27.612032 -14.549894 3.810211 0.678431
27.612030 -14.549895 3.084574 0.678431
28.217735 -14.236962 2.350111 0.356495
28.217737 -14.236961 1.649890 0.402206
28.217735 -14.236962 0.948919 0.601103
28.217731 -14.236963 0.245689 0.575490
31.780413 -12.396328 -0.000004 0.523162
35.247314 -10.605177 -0.000002 0.510417
37.460606 -9.461697 -0.000008 0.333701
38.998955 -8.666918 -0.000005 0.331127
40.132332 -8.081367 -0.000005 0.344976
27.271641 -14.549895 7.605890 0.678431
27.271643 -14.549895 6.833611 0.678431
27.271643 -14.549895 6.072173 0.678431
27.271639 -14.549896 5.319755 0.678431
27.271646 -14.549892 4.574607 0.678431
27.271645 -14.549894 3.835052 0.678431
27.271645 -14.549894 3.099457 0.678431
27.887856 -14.236962 2.354914 0.636152
27.887856 -14.236962 1.645085 0.552819
27.887856 -14.236963 0.934495 0.427696
27.887850 -14.236965 0.221615 0.561765
31.725071 -12.288310 -0.000005 0.526716
35.204357 -10.521421 -0.000009 0.337377
37.425617 -9.393399 -0.000007 0.329657
38.969479 -8.609381 -0.000005 0.335172
40.106918 -8.031754 -0.000004 0.333946
27.065266 -14.478276 7.643997 0.160784
27.065264 -14.478276 6.866467 0.160784
27.065266 -14.478276 6.099855 0.160784
27.065266 -14.478276 5.342321 0.160784
27.065264 -14.478276 4.592110 0.160784
27.065262 -14.478278 3.847527 0.160784
27.065264 -14.478276 3.106930 0.160784
27.548786 -14.236961 2.359870 0.496569
27.548786 -14.236961 1.640130 0.554657
27.548779 -14.236965 0.919616 0.648652
27.548771 -14.236969 0.196781 0.535662
31.670492 -12.179903 -0.000005 0.539216
35.162037 -10.437345 -0.000009 0.335049
37.391117 -9.324858 -0.000007 0.336887
38.940411 -8.551637 -0.000005 0.335662
40.081856 -7.981965 -0.000004 0.338971
26.561972 -14.549888 7.764948 0.678431
26.561972 -14.549888 6.970755 0.678431
26.561974 -14.549887 6.187714 0.678431
26.561972 -14.549888 5.413947 0.678431
26.561974 -14.549887 4.647658 0.678431
26.561972 -14.549888 3.887119 0.678431
26.561972 -14.549888 3.130652 0.678431
27.200089 -14.236961 2.364985 0.696569
27.200089 -14.236961 1.635015 0.513113
27.200081 -14.236965 0.904262 0.676593
27.200077 -14.236967 0.171155 0.784069
31.616688 -12.071109 -0.000003 0.552819
35.180828 -10.323292 0.009992 1.000000
37.357082 -9.256079 -0.000007 0.333946
38.911743 -8.493692 -0.000005 0.329412
40.057137 -7.932003 -0.000005 0.330270
26.191774 -14.549888 7.848348 0.678431
26.191772 -14.549888 7.042666 0.678431
26.191772 -14.549887 6.248297 0.678431
26.191771 -14.549890 5.463337 0.678431
26.191774 -14.549887 4.685961 0.678431
26.191778 -14.549885 3.914419 0.678431
26.191772 -14.549888 3.147009 0.678431
26.841322 -14.236962 2.370265 0.596936
26.841322 -14.236962 1.629735 0.507721
26.841318 -14.236963 0.888410 0.566176
26.841312 -14.236965 0.144697 0.629167
31.563625 -11.961951 -0.000003 0.549510
35.139915 -10.239042 0.009997 1.000000
37.323540 -9.187062 -0.000007 0.329779
38.883480 -8.435550 -0.000005 0.329412
40.032768 -7.881870 -0.000004 0.332108
25.810677 -14.549892 7.934494 0.678431
25.810678 -14.549891 7.116943 0.678431
25.810677 -14.549892 6.310874 0.678431
25.810678 -14.549891 5.514350 0.678431
25.810678 -14.549891 4.725525 0.678431
25.810678 -14.549891 3.942618 0.678431
25.810678 -14.549891 3.163904 0.678431
26.472004 -14.236961 2.375719 0.421814
26.472004 -14.236961 1.624281 0.482843
26.471996 -14.236965 0.872037 0.449755
26.471991 -14.236968 0.117369 0.443995
31.511324 -11.852427 -0.000005 0.547181
35.038597 -10.183373 -0.000008 0.333088
37.290482 -9.117814 -0.000006 0.333088
38.855625 -8.377211 -0.000005 0.318873
40.008751 -7.831568 -0.000005 0.335662
25.418167 -14.549894 8.023511 0.678431
25.418167 -14.549894 7.193698 0.678431
25.418169 -14.549894 6.375537 0.678431
25.418169 -14.549894 5.567066 0.678431
25.418167 -14.549894 4.766408 0.678431
25.418169 -14.549894 3.971758 0.678431
25.418171 -14.549892 3.181363 0.678431
26.091621 -14.236961 2.381354 0.631250
26.091621 -14.236961 1.618646 0.536642
26.091616 -14.236964 0.855118 0.444363
26.091608 -14.236967 0.089130 0.590686
31.459812 -11.742529 -0.000003 0.513848
34.998638 -10.098146 -0.000007 0.334069
37.257908 -9.048334 -0.000005 0.337132
38.828178 -8.318677 -0.000005 0.333088
39.985085 -7.781099 -0.000005 0.338971
25.013685 -14.549898 8.115543 0.678431
25.013683 -14.549899 7.273053 0.678431
25.013687 -14.549898 6.442390 0.678431
25.013687 -14.549898 5.621567 0.678431
25.013687 -14.549897 4.808676 0.678431
25.013687 -14.549898 4.001884 0.678431
25.013683 -14.549899 3.199414 0.678431
25.699638 -14.236960 2.387181 0.752696
25.699638 -14.236960 1.612819 0.704534
25.699627 -14.236966 0.837626 0.707598
25.699625 -14.236967 0.059935 0.591789
31.409042 -11.632287 -0.000004 0.549020
34.959267 -10.012647 -0.000007 0.332966
37.225811 -8.978630 -0.000005 0.334804
38.801140 -8.259954 -0.000005 0.332966
39.961769 -7.730466 -0.000005 0.339706
24.834768 -14.443265 8.145380 0.160784
24.834768 -14.443265 7.298780 0.160784
24.834764 -14.443266 6.464065 0.160784
24.834766 -14.443266 5.639236 0.160784
24.834766 -14.443266 4.822379 0.160784
24.834768 -14.443265 4.011651 0.160784
24.834766 -14.443266 3.205265 0.160784
25.295467 -14.236963 2.393208 0.662623
25.295467 -14.236963 1.606792 0.770343
25.295456 -14.236968 0.819533 0.591054
25.295456 -14.236968 0.029736 0.528922
31.359053 -11.521689 -0.000004 0.536765
34.920506 -9.926871 -0.000007 0.337623
37.194214 -8.908705 -0.000005 0.332843
38.774513 -8.201046 -0.000005 0.335539
39.938812 -7.679673 -0.000005 0.328554
24.166407 -14.549889 8.309246 0.678431
24.166410 -14.549887 7.440069 0.678431
24.166407 -14.549889 6.583097 0.678431
24.166412 -14.549886 5.736274 0.678431
24.166410 -14.549887 4.897636 0.678431
24.166414 -14.549885 4.065290 0.678431
24.166414 -14.549885 3.237403 0.678431
24.878504 -14.236961 2.399445 0.505882
24.878504 -14.236961 1.600555 0.743260
24.878494 -14.236965 0.800808 0.562745
24.878490 -14.236967 -0.001515 0.440074
31.309847 -11.410740 -0.000002 0.544976
34.882332 -9.840830 -0.000007 0.332966
37.163094 -8.838561 -0.000005 0.334314
38.748299 -8.141951 -0.000005 0.340074
39.916210 -7.628720 -0.000005 0.332843
23.722256 -14.549888 8.411255 0.678431
23.722260 -14.549887 7.528025 0.678431
23.722256 -14.549888 6.657197 0.678431
23.722260 -14.549887 5.796683 0.678431
23.722261 -14.549885 4.944486 0.678431
23.722263 -14.549885 4.098682 0.678431
23.722261 -14.549885 3.257409 0.678431
24.448065 -14.236963 2.405903 0.576593
24.448065 -14.236962 1.594097 0.591422
24.448061 -14.236964 0.781420 0.625368
24.827330 -14.073445 -0.000010 0.553554
31.261408 -11.299454 -0.000002 0.543260
34.844769 -9.754519 -0.000006 0.338113
37.132469 -8.768201 -0.000004 0.338358
38.722500 -8.082675 -0.000005 0.342770
39.893959 -7.577609 -0.000005 0.338971
23.263494 -14.549887 8.516937 0.678431
23.263496 -14.549886 7.619150 0.678431
23.263502 -14.549882 6.733965 0.678431
23.263498 -14.549885 5.859268 0.678431
23.263500 -14.549885 4.993023 0.678431
23.263502 -14.549882 4.133277 0.678431
23.263500 -14.549885 3.278136 0.678431
24.003469 -14.236961 2.412594 0.445466
24.003469 -14.236961 1.587406 0.754902
24.003450 -14.236969 0.761331 0.637623
24.760456 -13.916842 -0.000011 0.531250
31.213736 -11.187837 -0.000003 0.551593
34.807812 -9.667953 -0.000005 0.331740
37.102337 -8.697628 -0.000004 0.331863
38.697109 -8.023221 -0.000005 0.331740
39.872070 -7.526346 -0.000005 0.338235
22.789320 -14.549887 8.626495 0.678431
22.789324 -14.549885 7.713613 0.678431
22.789322 -14.549886 6.813549 0.678431
22.789326 -14.549884 5.924146 0.678431
22.789322 -14.549886 5.043338 0.678431
22.789326 -14.549884 4.169140 0.678431
22.789326 -14.549884 3.299623 0.678431
23.543936 -14.236961 2.419530 0.650613
23.543936 -14.236961 1.580470 0.689216
23.543919 -14.236969 0.740508 0.413358
24.694677 -13.759771 -0.000011 0.536520
31.166853 -11.075886 -0.000003 0.551471
34.771454 -9.581128 -0.000005 0.333946
37.072697 -8.626847 -0.000004 0.340931
38.672134 -7.963591 -0.000005 0.330760
39.850536 -7.474930 -0.000005 0.329534
22.298916 -14.549884 8.740129 0.678431
22.298916 -14.549884 7.811593 0.678431
22.298916 -14.549884 6.896095 0.678431
22.298920 -14.549882 5.991438 0.678431
22.298920 -14.549883 5.095527 0.678431
22.298918 -14.549883 4.206338 0.678431
22.298920 -14.549883 3.321910 0.678431
23.068672 -14.236961 2.426724 0.591667
23.068672 -14.236961 1.573276 0.732108
23.068663 -14.236965 0.718910 0.563725
24.629993 -13.602249 -0.000012 0.532108
31.120747 -10.963614 -0.000004 0.543015
34.735703 -9.494053 -0.000004 0.329902
37.043549 -8.555861 -0.000004 0.331863
38.647583 -7.903787 -0.000005 0.336029
39.829365 -7.423366 -0.000005 0.331373
22.127954 -14.415783 8.767315 0.160784
22.127954 -14.415783 7.835033 0.160784
22.127960 -14.415781 6.915842 0.160784
22.127960 -14.415781 6.007537 0.160784
22.127954 -14.415783 5.108013 0.160784
22.127958 -14.415781 4.215237 0.160784
22.127958 -14.415781 3.327241 0.160784
22.576794 -14.236960 2.434192 0.520466
22.576794 -14.236960 1.565808 0.617892
22.576778 -14.236966 0.696493 0.449510
24.566410 -13.444279 -0.000012 0.535172
31.075430 -10.851019 -0.000004 0.548774
34.700558 -9.406730 -0.000004 0.332598
37.014904 -8.484673 -0.000003 0.335049
38.623444 -7.843814 -0.000005 0.330760
39.808556 -7.371654 -0.000005 0.331005
21.265686 -14.549893 8.980566 0.678431
21.265697 -14.549890 8.018906 0.678431
21.265711 -14.549884 7.070746 0.678431
21.265711 -14.549884 6.133821 0.678431
21.265709 -14.549885 5.205951 0.678431
21.265711 -14.549885 4.285042 0.678431
21.265713 -14.549883 3.369064 0.678431
22.067369 -14.236963 2.441946 0.664461
22.067369 -14.236962 1.558053 0.413235
22.067364 -14.236965 0.673212 0.564216
24.503950 -13.285860 -0.000010 0.537868
31.030914 -10.738105 -0.000003 0.550368
34.666031 -9.319162 -0.000003 0.336029
36.986752 -8.413286 -0.000003 0.334804
38.599728 -7.783674 -0.000005 0.324265
39.788101 -7.319799 -0.000005 0.327941
20.772367 -14.530211 9.094057 0.212377
20.772364 -14.530212 8.116766 0.390319
20.772364 -14.530212 7.153193 0.305760
20.772366 -14.530212 6.201034 0.276838
21.065250 -14.418236 5.222004 0.887132
20.772364 -14.530212 4.322195 0.389828
20.772367 -14.530211 3.391325 0.181250
21.539389 -14.236963 2.450006 0.871201
21.539389 -14.236963 1.549994 0.596569
21.539377 -14.236967 0.649016 0.756740
24.442583 -13.127014 -0.000011 0.540074
30.987171 -10.624891 -0.000003 0.518382
34.632118 -9.231359 -0.000003 0.335417
36.959099 -8.341706 -0.000002 0.324755
38.576431 -7.723369 -0.000005 0.331005
39.768017 -7.267802 -0.000005 0.337868
20.155804 -14.549899 9.240252 0.678431
20.155802 -14.549899 8.242820 0.678431
20.155809 -14.549897 7.259388 0.678431
20.155804 -14.549899 6.287609 0.678431
20.996063 -14.235357 5.222005 0.887623
20.155804 -14.549899 4.370051 0.678431
20.155807 -14.549897 3.419997 0.678431
20.548777 -14.402794 2.466127 0.341299
20.991776 -14.236963 1.541612 0.601593
20.991760 -14.236968 0.623854 0.537255
24.382315 -12.967751 -0.000011 0.539951
30.944172 -10.511393 -0.000010 0.334681
34.598812 -9.143318 -0.000002 0.333088
36.931953 -8.269933 -0.000002 0.334681
38.553555 -7.662903 -0.000005 0.338480
39.748291 -7.215666 -0.000005 0.338113
19.569258 -14.549900 9.378030 0.678431
19.569258 -14.549900 8.361616 0.678431
19.569262 -14.549898 7.359472 0.678431
19.569256 -14.549900 6.369200 0.678431
20.928141 -14.052006 5.222005 0.883578
19.569258 -14.549900 4.415152 0.678431
19.569258 -14.549900 3.447018 0.678431
19.970703 -14.402811 2.474999 0.300000
20.423349 -14.236961 1.532890 0.550613
20.423328 -14.236969 0.597666 0.606250
24.323174 -12.808065 -0.000012 0.542279
30.983612 -10.367681 0.009987 1.000000
34.566120 -9.055049 -0.000003 0.336520
36.905296 -8.197973 -0.000002 0.333456
38.531101 -7.602281 -0.000005 0.335049
39.728931 -7.163395 -0.000005 0.337745
18.959927 -14.549902 9.521526 0.678431
18.959925 -14.549903 8.485343 0.678431
18.959927 -14.549902 7.463710 0.678431
18.959923 -14.549904 6.454177 0.678431
20.861511 -13.868181 5.222006 0.900000
18.959921 -14.549904 4.462125 0.678431
18.959927 -14.549902 3.475162 0.678431
19.370220 -14.402811 2.484237 0.253799
19.832830 -14.236965 1.523805 0.552941
19.832823 -14.236967 0.570393 0.489828
24.265146 -12.647973 -0.000012 0.542892
30.942457 -10.254145 0.009987 1.000000
34.534046 -8.966555 -0.000002 0.330392
36.879150 -8.125831 -0.000002 0.329289
38.509071 -7.541501 -0.000005 0.330270
39.709938 -7.110990 -0.000005 0.331740
18.321871 -14.551486 9.672297 0.338480
18.321865 -14.551488 8.615345 0.402083
18.321869 -14.551487 7.573231 0.219363
18.321867 -14.551487 6.543461 0.360907
20.745743 -13.701573 5.228153 0.846324
18.321869 -14.551487 4.511478 0.150613
18.321861 -14.551489 3.504731 0.160784
18.745852 -14.402820 2.493867 0.178554
19.218861 -14.236963 1.514335 0.439706
19.406466 -14.171181 0.551731 0.905882
24.208250 -12.487471 -0.000011 0.537868
30.820101 -10.169074 -0.000010 0.334681
34.502598 -8.877835 -0.000002 0.331250
36.853508 -8.053505 -0.000002 0.331127
38.487469 -7.480569 -0.000005 0.333578
39.691311 -7.058451 -0.000005 0.327206
17.667135 -14.549894 9.827118 0.678431
17.667137 -14.549894 8.748837 0.678431
17.667137 -14.549894 7.685694 0.678431
17.667141 -14.549893 6.635144 0.678431
20.523731 -13.570591 5.247349 0.877941
17.667139 -14.549893 4.562158 0.678431
17.667141 -14.549893 3.535096 0.678431
18.096149 -14.402821 2.503911 0.077819
18.579941 -14.236965 1.504457 0.497672
19.406469 -13.953613 0.555233 0.891422
24.152462 -12.326583 -0.000011 0.541544
30.780342 -10.054400 -0.000010 0.333578
34.471756 -8.788902 -0.000001 0.335907
36.828373 -7.981003 -0.000002 0.330882
38.466290 -7.419489 -0.000005 0.337745
39.673050 -7.005785 -0.000005 0.339828
17.380713 -14.415790 9.884286 0.160784
17.380716 -14.415789 8.798128 0.160784
17.380718 -14.415789 7.727221 0.160784
17.380716 -14.415789 6.668998 0.160784
20.299061 -13.438031 5.266932 0.905882
17.380714 -14.415790 4.580871 0.160784
17.380716 -14.415789 3.546309 0.160784
17.426861 -14.400328 2.514272 0.166544
18.206467 -14.139132 1.499183 0.882353
19.406469 -13.737084 0.558647 0.894485
24.097803 -12.165306 -0.000011 0.535784
30.741379 -9.939451 -0.000010 0.333211
34.441540 -8.699755 -0.000002 0.335172
36.803738 -7.908328 -0.000002 0.340441
38.445538 -7.358262 -0.000005 0.339216
39.655155 -6.952993 -0.000005 0.327328
16.264517 -14.549904 10.160265 0.678431
16.264534 -14.549898 9.036085 0.678431
16.264557 -14.549891 7.927688 0.678431
16.264551 -14.549892 6.832426 0.678431
20.071644 -13.303863 5.286916 0.905882
16.264557 -14.549891 4.671208 0.678431
16.264561 -14.549889 3.600432 0.678431
16.574236 -14.448535 2.527764 0.173897
18.206463 -13.914321 1.500339 0.885907
19.406467 -13.521570 0.561976 0.883946
24.044258 -12.003659 -0.000012 0.537132
30.703230 -9.824233 -0.000009 0.331127
34.411949 -8.610400 -0.000002 0.335907
36.779610 -7.835485 -0.000002 0.331495
38.425213 -7.296892 -0.000005 0.334436
39.637630 -6.900078 -0.000005 0.337868
15.829562 -14.450140 10.256239 0.160784
15.829558 -14.450141 9.118841 0.160784
15.829563 -14.450140 7.997412 0.160784
15.829558 -14.450141 6.889266 0.160784
19.841425 -13.168030 5.307306 0.905882
15.829558 -14.450141 4.702627 0.160784
15.829558 -14.450141 3.619258 0.160784
15.829555 -14.450143 2.539367 0.160784
18.206463 -13.690531 1.501466 0.893015
19.406464 -13.307034 0.565220 0.882353
23.991859 -11.841635 -0.000012 0.550735
30.665874 -9.708753 -0.000010 0.330147
34.382977 -8.520842 -0.000003 0.336152
36.755997 -7.762472 -0.000002 0.337745
38.405319 -7.235382 -0.000005 0.328676
39.620483 -6.847040 -0.000005 0.328554
14.736929 -14.549896 10.524755 0.678431
14.736929 -14.549895 9.350364 0.678431
14.736925 -14.549897 8.192465 0.678431
14.736929 -14.549896 7.048277 0.678431
19.608318 -13.030498 5.328115 0.902083
14.736929 -14.549895 4.790524 0.678431
14.693217 -14.563530 3.674170 0.290074
14.740437 -14.548802 2.556848 0.160784
18.206470 -13.467737 1.502564 0.893750
19.406466 -13.093454 0.568379 0.896324
23.940605 -11.679245 -0.000011 0.537255
30.629332 -9.593014 -0.000009 0.334681
34.354637 -8.431082 -0.000003 0.335662
36.732891 -7.689298 -0.000003 0.336520
38.385857 -7.173732 -0.000005 0.323162
39.603695 -6.793886 -0.000005 0.333456
14.004841 -14.524293 10.698119 0.157598
13.920704 -14.549891 9.518840 0.678431
13.920708 -14.549891 8.334396 0.678431
13.920715 -14.549889 7.163986 0.678431
19.372244 -12.891214 5.349351 0.885539
13.920712 -14.549890 4.854484 0.678431
13.920715 -14.549889 3.710241 0.678431
13.920712 -14.549891 2.569673 0.678431
18.206469 -13.245912 1.503633 0.872672
19.406467 -12.880801 0.571454 0.893750
23.890463 -11.516508 -0.000011 0.544363
30.593601 -9.477019 -0.000009 0.332843
34.326923 -8.341124 -0.000003 0.335049
36.710293 -7.615963 -0.000004 0.328799
38.366821 -7.111950 -0.000005 0.337132
39.587284 -6.740613 -0.000005 0.328431
13.574264 -14.399158 10.792390 0.607966
13.066173 -14.549884 9.695598 0.678431
13.066168 -14.549886 8.483312 0.678431
13.066169 -14.549886 7.285386 0.678431
19.133129 -12.750139 5.371027 0.895833
13.066173 -14.549884 4.921588 0.678431
13.066173 -14.549884 3.750446 0.678431
13.066168 -14.549886 2.583066 0.678431
18.206469 -13.025030 1.504673 0.877819
19.406464 -12.669055 0.574447 0.879167
23.841459 -11.353426 -0.000011 0.546078
30.558678 -9.360783 -0.000009 0.334436
34.299831 -8.250978 -0.000004 0.328922
36.688217 -7.542472 -0.000004 0.335049
38.348225 -7.050036 -0.000005 0.330515
39.571243 -6.687230 -0.000005 0.338235
13.252915 -14.236967 10.858221 0.668627
12.378386 -14.489762 9.834507 0.160784
12.378389 -14.489762 8.600338 0.160784
12.378382 -14.489765 7.380791 0.160784
18.890886 -12.607215 5.393151 0.882598
12.378382 -14.489766 4.974325 0.160784
12.378382 -14.489765 3.782043 0.160784
12.378386 -14.489762 2.593590 0.160784
18.206469 -12.805058 1.505684 0.892034
19.406464 -12.458178 0.577359 0.894118
23.793598 -11.190001 -0.000011 0.544485
30.524565 -9.244302 -0.000009 0.335294
34.273373 -8.160645 -0.000005 0.334559
36.666641 -7.468830 -0.000004 0.334191
38.330051 -6.987993 -0.000005 0.338971
39.555580 -6.633734 -0.000005 0.342892
12.341861 -14.236963 11.077675 0.630515
11.230236 -14.549903 10.076534 0.678431
11.230236 -14.549903 8.804241 0.678431
11.230232 -14.549905 7.547016 0.678431
18.645428 -12.462399 5.415734 0.895343
11.230228 -14.549906 5.066211 0.678431
11.230236 -14.549903 3.837096 0.678431
11.230232 -14.549904 2.611928 0.678431
18.206467 -12.585974 1.506668 0.883211
19.406464 -12.248153 0.580190 0.885662
23.746880 -11.026250 -0.000012 0.525980
30.491264 -9.127589 -0.000009 0.333824
34.247559 -8.070127 -0.000004 0.326838
36.645592 -7.395038 -0.000004 0.337255
38.312317 -6.925825 -0.000005 0.331127
39.540283 -6.580131 -0.000005 0.328554
11.384436 -14.236965 11.308751 0.595221
10.242322 -14.549902 10.282123 0.678431
10.242321 -14.549902 8.977442 0.678431
10.242313 -14.549906 7.688216 0.678431
18.396671 -12.315631 5.438788 0.885049
10.242321 -14.549902 5.144260 0.678431
10.242321 -14.549902 3.883859 0.678431
10.242321 -14.549902 2.627505 0.661274
19.431622 -12.032057 1.528411 0.094118
19.406466 -12.038950 0.582940 0.895711
23.701313 -10.862172 -0.000011 0.533946
30.458788 -9.010642 -0.000009 0.334559
34.222366 -7.979431 -0.000004 0.332353
36.625057 -7.321100 -0.000004 0.339093
38.295017 -6.863535 -0.000004 0.338113
39.525368 -6.526422 -0.000005 0.332598
10.376983 -14.236959 11.552365 0.589951
9.202747 -14.549903 10.498875 0.678431
9.202744 -14.549902 9.160049 0.678431
9.202747 -14.549903 7.837082 0.678431
18.144518 -12.166864 5.462328 0.893995
9.202755 -14.549900 5.226548 0.678431
9.202751 -14.549901 3.933162 0.678431
9.202751 -14.549901 2.643927 0.678431
18.679863 -12.024192 1.516569 0.094118
18.865520 -11.974712 0.558109 0.912868
23.656874 -10.697787 -0.000013 0.530760
30.427118 -8.893475 -0.000010 0.331373
34.197803 -7.888563 -0.000005 0.331618
36.605030 -7.247023 -0.000005 0.335539
38.278149 -6.801126 -0.000005 0.330760
39.510826 -6.472610 -0.000005 0.332108
9.315288 -14.236965 11.809577 0.544118
8.537233 -14.438517 10.631779 0.160784
8.537237 -14.438515 9.272017 0.160784
8.537233 -14.438517 7.928361 0.160784
17.888882 -12.016038 5.486362 0.886397
9.186659 -14.270286 5.221998 0.885049
8.537233 -14.438517 3.963391 0.160784
17.870964 -12.020679 2.496218 0.079902
18.048382 -11.974721 1.506781 0.896201
17.870966 -12.020679 0.510279 0.094118
23.613649 -10.533078 -0.000008 0.333211
30.396276 -8.776087 -0.000009 0.332721
34.173878 -7.797527 -0.000005 0.330637
36.585533 -7.172805 -0.000005 0.336765
38.261723 -6.738601 -0.000005 0.343260
39.496658 -6.418699 -0.000005 0.337990
8.194818 -14.236962 12.081519 0.581863
7.746401 -14.349787 10.792531 0.624142
7.484103 -14.415782 9.456663 0.160784
7.484103 -14.415782 8.078890 0.160784
17.629662 -11.863095 5.510902 0.903554
7.484098 -14.415783 5.360213 0.160784
7.484098 -14.415784 4.013244 0.160784
7.484110 -14.415781 2.670602 0.160784
12.928946 -13.045827 1.421273 0.889338
11.448529 -13.418306 0.187585 0.882721
23.689709 -10.338348 0.009985 1.000000
30.366255 -8.658488 -0.000009 0.333456
34.150589 -7.706325 -0.000005 0.332966
36.566547 -7.098454 -0.000005 0.325123
38.245724 -6.675962 -0.000005 0.331618
39.482872 -6.364689 -0.000005 0.337010
7.010314 -14.236979 12.369508 0.442157
7.010373 -14.236963 10.940966 0.615564
5.728861 -14.549902 9.772530 0.678431
5.728861 -14.549902 8.336395 0.678431
16.968992 -11.805108 5.583068 0.870588
5.728869 -14.549900 5.502552 0.678431
5.728861 -14.549902 4.098526 0.678431
5.728865 -14.549902 2.699008 0.678431
12.930165 -12.791374 1.422295 0.890196
11.452533 -13.152207 0.190921 0.886642
23.530550 -10.202803 -0.000008 0.332475
30.337049 -8.540682 -0.000008 0.334559
34.127937 -7.614963 -0.000006 0.335907
36.548088 -7.023973 -0.000005 0.334804
38.230171 -6.613214 -0.000005 0.339583
39.469460 -6.310585 -0.000005 0.334804
5.756467 -14.236903 12.674869 0.439461
5.756225 -14.236960 11.204328 0.784681
4.434777 -14.549893 10.001470 0.678431
4.434777 -14.549893 8.523031 0.678431
4.434782 -14.549892 7.058883 0.678431
4.434782 -14.549892 5.605721 0.678431
4.434785 -14.549892 4.160338 0.678431
4.434785 -14.549892 2.719599 0.678431
12.931359 -12.537810 1.423284 0.890441
11.456410 -12.887095 0.194152 0.893627
23.490732 -10.037236 -0.000008 0.332966
30.308670 -8.422675 -0.000009 0.330760
34.105919 -7.523445 -0.000006 0.337377
36.530140 -6.949365 -0.000005 0.332353
38.215057 -6.550357 -0.000004 0.340196
39.456425 -6.256388 -0.000005 0.340319
3.661663 -14.412312 13.195868 0.145833
4.425889 -14.236959 11.484153 0.536520
3.595139 -14.427575 10.145207 0.160784
3.595143 -14.427574 8.640209 0.160784
3.595131 -14.427576 7.149760 0.160784
3.595131 -14.427576 5.670493 0.160784
3.595139 -14.427575 4.199145 0.160784
3.595139 -14.427575 2.732524 0.160784
12.932510 -12.285114 1.424241 0.882353
11.460158 -12.622946 0.197277 0.894118
23.452076 -9.871398 -0.000008 0.332230
30.281116 -8.304474 -0.000009 0.330515
34.084549 -7.431775 -0.000007 0.334559
36.566280 -6.862342 0.009994 1.000000
38.200378 -6.487398 -0.000005 0.340196
39.443768 -6.202102 -0.000005 0.330270
3.011919 -14.236986 13.344953 0.586397
3.012027 -14.236960 11.782023 0.642770
2.829940 -14.277405 10.275002 0.714828
2.829928 -14.277407 8.746025 0.713603
2.829936 -14.277405 7.231822 0.628799
2.829939 -14.277404 5.728982 0.663235
2.829936 -14.277406 4.234191 0.572426
2.829936 -14.277406 2.744198 0.753554
12.933619 -12.033249 1.425166 0.887500
11.463784 -12.359716 0.200299 0.894363
23.414568 -9.705293 -0.000008 0.334314
30.254379 -8.186084 -0.000009 0.334191
34.063820 -7.339959 -0.000007 0.331373
36.549461 -6.787865 0.009994 1.000000
38.186142 -6.424337 -0.000004 0.334559
39.431488 -6.147729 -0.000005 0.340441
1.078788 -14.328812 13.822932 0.662132
1.506429 -14.236954 12.099710 0.703676
1.078788 -14.328812 10.588292 0.455392
1.078788 -14.328812 9.001427 0.618382
1.506305 -14.236980 7.379595 0.676716
1.078788 -14.328812 5.870162 0.581985
1.078788 -14.328812 4.318776 0.416422
1.506289 -14.236986 2.765219 0.525858
11.864506 -12.012058 1.408149 0.094118
11.864506 -12.012058 0.223177 0.094118
23.378233 -9.538929 -0.000008 0.332966
30.228479 -8.067507 -0.000009 0.332108
34.043732 -7.247996 -0.000006 0.333088
36.533165 -6.713271 0.009993 1.000000
38.172344 -6.361178 -0.000004 0.337255
39.419594 -6.093271 -0.000005 0.332230
-1.323102 -14.490689 14.419976 0.235539
-0.100414 -14.236972 12.439270 0.609069
