# This PCD file was generated using the MATLABÂ® pcwrite function
# from Computer Vision ToolboxÂ®.
# .PCD v.7 - Point Cloud Data file format
VERSION .7
FIELDS x y z intensity
SIZE 4 4 4 4
TYPE F F F F
COUNT 1 1 1 1
WIDTH 1248
HEIGHT 1
VIEWPOINT 0 0 0 1 0 0 0
POINTS 1248
DATA ascii
-36.166290 8.433887 2.727021 0.485049
-38.265327 9.061579 1.308831 0.476716
-39.728279 9.499054 0.000023 0.535784
-55.362728 14.174338 -0.000025 0.531127
-62.075764 16.181789 -0.000002 0.545711
-65.814285 17.299744 -0.000025 0.543873
-68.201088 18.013489 -0.000032 0.536765
-69.860069 18.509583 -0.000027 0.533946
-71.082321 18.875082 -0.000023 0.551471
nan nan nan 0.000000
nan nan nan 0.000000
nan nan nan 0.000000
nan nan nan 0.000000
nan nan nan 0.000000
nan nan nan 0.000000
-37.477188 8.511463 4.119882 0.480760
nan nan nan 0.000000
-38.553150 8.841417 1.312294 0.469118
-39.810711 9.227059 0.000026 0.534804
-55.412125 14.011374 -0.000021 0.531618
-62.110966 16.065634 0.000001 0.538603
-65.841591 17.209663 -0.000021 0.526348
-68.223343 17.940050 -0.000029 0.533211
-69.878799 18.447712 -0.000026 0.585417
-71.098480 18.821735 -0.000020 0.510662
nan nan nan 0.000000
nan nan nan 0.000000
nan nan nan 0.000000
nan nan nan 0.000000
nan nan nan 0.000000
nan nan nan 0.000000
-37.080681 8.071058 4.144900 0.510662
-37.354336 8.157072 2.709762 0.466054
-37.816875 8.302453 1.298172 0.472059
-39.894585 8.955505 0.000006 0.539338
-55.462643 13.848755 -0.000019 0.548652
-62.146984 15.949731 0.000004 0.534436
-65.869522 17.119772 -0.000019 0.521569
-68.246109 17.866768 -0.000026 0.513113
-69.897926 18.385958 -0.000035 0.534436
-71.115021 18.768503 -0.000017 0.549510
nan nan nan 0.000000
nan nan nan 0.000000
nan nan nan 0.000000
nan nan nan 0.000000
nan nan nan 0.000000
nan nan nan 0.000000
-37.231785 7.799498 4.141871 0.473039
nan nan nan 0.000000
-37.394909 7.852023 1.289358 0.467279
-39.980820 8.684691 0.000009 0.534191
-55.514309 13.686493 -0.000015 0.535172
-62.183800 15.834079 0.000007 0.517524
-65.898071 17.030077 -0.000016 0.535784
-68.269394 17.793648 -0.000023 0.547794
-69.917549 18.324356 -0.000032 0.508824
-71.131927 18.715389 -0.000015 0.570343
nan nan nan 0.000000
nan nan nan 0.000000
nan nan nan 0.000000
nan nan nan 0.000000
nan nan nan 0.000000
nan nan nan 0.000000
nan nan nan 0.000000
nan nan nan 0.000000
-37.838371 7.679008 1.295380 0.469853
-40.068913 8.414473 0.000011 0.537868
-55.567097 13.524596 -0.000013 0.527819
-62.221436 15.718691 0.000010 0.545833
-65.927330 16.940611 -0.000001 0.544608
-68.293182 17.720692 -0.000021 0.513603
-69.937592 18.262892 -0.000029 0.543627
-71.149216 18.662392 -0.000012 0.525000
nan nan nan 0.000000
nan nan nan 0.000000
nan nan nan 0.000000
nan nan nan 0.000000
nan nan nan 0.000000
nan nan nan 0.000000
nan nan nan 0.000000
-23.063934 2.375636 2.961428 0.480515
-23.709776 2.593594 1.049726 0.477819
-40.158928 8.144892 0.000015 0.535417
-55.621025 13.363075 -0.000010 0.526348
-62.259865 15.603565 0.000013 0.529167
-65.957130 16.851330 0.000002 0.579167
-68.317482 17.647905 -0.000017 0.536887
-69.958061 18.201571 -0.000026 0.546446
-71.166862 18.609518 -0.000010 0.514216
nan nan nan 0.000000
nan nan nan 0.000000
nan nan nan 0.000000
nan nan nan 0.000000
nan nan nan 0.000000
nan nan nan 0.000000
nan nan nan 0.000000
-23.168886 1.977939 2.961904 0.494240
-22.951883 1.903013 1.034339 0.474265
-40.250801 7.875936 0.000018 0.533701
-55.676071 13.201930 -0.000007 0.544485
-62.299095 15.488710 0.000015 0.527083
-65.987564 16.762253 0.000005 0.548774
-68.342285 17.575287 -0.000015 0.535294
-69.978958 18.140394 -0.000023 0.542034
-71.184875 18.556768 -0.000008 0.537745
nan nan nan 0.000000
nan nan nan 0.000000
nan nan nan 0.000000
nan nan nan 0.000000
nan nan nan 0.000000
nan nan nan 0.000000
-23.470098 1.649096 4.879131 0.475858
-23.353127 1.607790 2.961054 0.497672
-24.042137 1.851087 1.050903 0.476961
-40.344536 7.607625 0.000020 0.536152
-55.732239 13.041175 -0.000004 0.540809
-62.339130 15.374133 0.000018 0.527451
-66.018608 16.673393 0.000007 0.542647
-68.367599 17.502842 -0.000013 0.541299
-70.000282 18.079361 -0.000021 0.538480
-71.203255 18.504145 -0.000006 0.584069
nan nan nan 0.000000
nan nan nan 0.000000
nan nan nan 0.000000
nan nan nan 0.000000
nan nan nan 0.000000
nan nan nan 0.000000
nan nan nan 0.000000
-23.807295 1.335829 2.955552 0.480270
13.119035 -11.993885 0.402023 0.274755
-40.440163 7.339981 0.000023 0.533333
-55.789532 12.880816 -0.000001 0.529167
-62.379963 15.259837 0.000020 0.548162
-66.050270 16.584751 0.000010 0.543382
-68.393417 17.430582 -0.000009 0.537623
-70.022034 18.018480 -0.000018 0.516667
-71.222015 18.451653 -0.000003 0.509804
-54.173649 12.103230 8.556793 0.530637
-54.173645 12.103229 7.653516 0.648775
-54.173653 12.103230 6.762918 0.491176
-54.173649 12.103230 5.882870 0.472794
-54.173645 12.103229 5.011328 0.524877
-54.173653 12.103230 4.146325 0.485294
-54.173656 12.103230 3.285953 0.548529
-54.173653 12.103230 2.428344 0.470956
-54.173653 12.103230 1.571655 0.495833
-54.173656 12.103230 0.714047 0.507353
-55.847939 12.720860 0.000002 0.531740
-62.421597 15.145832 0.000023 0.552328
-66.082565 16.496336 0.000013 0.538848
-68.419724 17.358498 -0.000008 0.523407
-70.044212 17.957756 -0.000015 0.528676
-71.241127 18.399290 -0.000000 0.543137
-54.691910 12.103243 8.435154 0.880760
-54.691872 12.103228 7.548643 0.474877
-54.691895 12.103236 6.674562 0.858824
-54.691895 12.103237 5.810840 0.828799
-54.691895 12.103237 4.955465 0.841299
-54.691868 12.103227 4.106511 0.543750
-54.691883 12.103232 3.262099 0.976225
-54.691883 12.103232 2.420399 0.981127
-54.691883 12.103232 1.579601 0.963358
-54.691879 12.103230 0.737901 0.642402
-55.907059 12.561165 -0.000031 0.535172
-62.463730 15.032009 -0.000009 0.534436
-66.115242 16.408060 -0.000020 0.534559
-68.446381 17.286539 -0.000038 0.528186
-70.066658 17.897129 -0.000047 0.509559
-71.260483 18.347017 -0.000032 0.569485
-54.814030 11.958064 8.419510 0.682598
-55.191246 12.103232 7.447848 0.451225
-54.814045 11.958071 6.663191 0.677328
-54.814041 11.958070 5.801571 0.674877
-54.814037 11.958069 4.948277 0.672304
-55.191238 12.103230 4.068245 0.511887
-54.814064 11.958078 3.259027 0.685539
-54.814060 11.958077 2.419375 0.689951
-54.814060 11.958077 1.580624 0.684804
-55.191254 12.103234 0.760828 0.479412
-55.967686 12.402037 -0.000029 0.541299
-62.506954 14.918594 -0.000006 0.532966
-66.148758 16.320103 -0.000017 0.540931
-68.473709 17.214830 -0.000036 0.526471
-70.089676 17.836718 -0.000044 0.548407
-71.280334 18.294928 -0.000030 0.536274
-55.672829 12.103236 8.205836 0.961642
-55.672810 12.103230 7.350911 0.591299
-55.361076 11.980758 6.568926 0.890686
-55.361076 11.980756 5.724723 0.870221
-55.491669 12.032063 4.872536 0.784314
-55.672813 12.103230 4.031443 0.545343
-55.354122 11.978024 3.233943 0.957353
-55.354122 11.978025 2.411021 0.964216
-55.354122 11.978025 1.588979 0.967402
-55.672825 12.103235 0.782878 0.468260
-56.029438 12.243340 -0.000026 0.542770
-62.550953 14.805482 -0.000004 0.520833
-66.182892 16.232378 -0.000015 0.534191
-68.501534 17.143314 -0.000033 0.530025
-70.113121 17.776468 -0.000041 0.518505
-71.300545 18.242979 -0.000028 0.534436
-56.137573 12.103234 8.097633 0.528799
-56.137562 12.103229 7.257613 0.521201
-55.942177 12.024887 6.467688 0.846814
-55.942173 12.024886 5.642190 0.782598
-56.137581 12.103237 4.800449 0.861520
-56.137573 12.103232 3.996023 0.533088
-55.935280 12.022123 3.206608 0.995711
-55.935272 12.022120 2.401915 0.997672
-55.935272 12.022120 1.598085 0.981985
-56.137581 12.103237 0.804099 0.623652
-56.137569 12.103231 0.003977 0.457843
-62.595928 14.692751 0.000021 0.543627
-66.217773 16.144953 0.000010 0.545221
-68.529961 17.072039 -0.000009 0.534559
-70.137070 17.716419 -0.000017 0.571446
-71.321198 18.191204 -0.000003 0.580637
-56.586430 12.103235 7.993424 0.668750
-56.586411 12.103228 7.167761 0.452328
-56.586426 12.103233 6.353683 0.877083
-56.586426 12.103233 5.549250 0.858824
-56.586418 12.103232 4.752590 0.895343
-56.586433 12.103236 3.961909 0.581985
-56.586437 12.103239 3.175461 0.971936
-56.586437 12.103240 2.391541 0.984804
-56.586437 12.103240 1.608459 0.986397
-56.586433 12.103237 0.824537 0.601103
-56.586418 12.103232 0.038089 0.670098
-62.641514 14.580267 0.000023 0.547059
-66.253120 16.057714 0.000013 0.555270
-68.558777 17.000919 -0.000007 0.535784
-70.161362 17.656504 -0.000014 0.528554
-71.342133 18.139542 -0.000001 0.557966
-57.020214 12.103236 7.893001 0.450858
-57.020203 12.103231 7.081170 0.463848
-57.020210 12.103234 6.280734 0.435417
-57.020206 12.103232 5.489780 0.479534
-57.020210 12.103233 4.706470 0.475368
-57.020218 12.103237 3.929036 0.456373
-57.020226 12.103239 3.155766 0.470833
-57.020222 12.103239 2.384980 0.718382
-57.020222 12.103239 1.615020 0.694853
-57.020218 12.103237 0.844233 0.431373
-57.020210 12.103234 0.070963 0.506250
-62.687603 14.467988 -0.000009 0.534681
-66.288872 15.970637 -0.000019 0.557721
-68.587921 16.929934 -0.000038 0.510907
-70.185905 17.596699 -0.000046 0.502206
-71.363304 18.087975 -0.000032 0.558088
-57.439716 12.103232 7.796166 0.428431
-57.439724 12.103234 6.997672 0.440441
-57.439716 12.103233 6.210391 0.464828
-57.439724 12.103234 5.432433 0.445221
-57.439724 12.103234 4.661995 0.514216
-57.439720 12.103234 3.897338 0.658088
-57.439724 12.103236 3.136775 0.512255
-57.439724 12.103236 2.378655 0.605882
-57.439724 12.103236 1.621346 0.579534
-57.439724 12.103236 0.863225 0.429902
-57.439716 12.103232 0.102661 0.586029
-62.734749 14.356147 -0.000006 0.542647
-66.325439 15.883899 -0.000016 0.528186
-68.617737 16.859222 -0.000036 0.547059
-70.211021 17.537127 -0.000043 0.522181
-71.384964 18.036612 -0.000029 0.525980
-57.845680 12.103235 7.702733 0.459926
-57.740791 12.057740 6.941805 0.948775
-57.740788 12.057740 6.163324 0.956740
-57.740791 12.057740 5.394063 0.958946
-57.845680 12.103236 4.619085 0.644730
-57.845684 12.103237 3.866753 0.616544
-57.737793 12.056439 3.124227 0.980392
-57.737793 12.056439 2.374475 0.987868
-57.737793 12.056439 1.625525 0.981618
-57.845688 12.103238 0.881550 0.620098
-57.845680 12.103234 0.133246 0.500368
-62.782681 14.244643 -0.000003 0.548284
-66.362610 15.797425 -0.000013 0.532230
-68.648041 16.788721 -0.000033 0.527328
-70.236549 17.477734 -0.000040 0.555270
-71.406975 17.985399 -0.000027 0.521814
-58.238777 12.103233 7.612535 0.520833
-57.910397 11.958065 6.916885 0.678431
-57.910397 11.958067 6.142329 0.678431
-57.910397 11.958067 5.376947 0.678431
-58.238781 12.103234 4.577660 0.532230
-58.238785 12.103235 3.837227 0.485294
-57.910404 11.958070 3.118398 0.678431
-57.910404 11.958070 2.372533 0.678431
-57.910404 11.958070 1.627467 0.678431
-58.238789 12.103237 0.899240 0.603799
-58.238781 12.103234 0.162771 0.605515
-62.831387 14.133472 -0.000001 0.534191
-66.400375 15.711205 -0.000011 0.539951
-68.678833 16.718433 -0.000030 0.503799
-70.262497 17.418518 -0.000037 0.554902
-71.429344 17.934343 -0.000024 0.520098
-58.619663 12.103234 7.525410 0.683578
-58.419945 12.013274 6.811526 0.966912
-58.419945 12.013274 6.053568 0.999020
-58.419941 12.013273 5.304586 1.000000
-58.619663 12.103234 4.537646 0.496691
-58.619663 12.103235 3.808708 0.591176
-58.413006 12.010148 3.094808 0.969240
-58.413002 12.010148 2.364675 0.968750
-58.413002 12.010148 1.635325 0.938603
-58.619663 12.103236 0.916327 0.463235
-58.619663 12.103235 0.191291 0.567034
-62.880867 14.022645 0.000002 0.539093
-66.438751 15.625255 -0.000008 0.535662
-68.710114 16.648361 -0.000028 0.548652
-70.288849 17.359484 -0.000036 0.524265
-71.452072 17.883442 -0.000021 0.540441
-58.988907 12.103231 7.441213 0.650490
-58.672554 11.958070 6.766794 0.678431
-58.672554 11.958069 6.015882 0.678431
-58.672554 11.958070 5.273865 0.678431
-58.988911 12.103233 4.498976 0.707721
-58.988911 12.103233 3.781146 0.466544
-58.672562 11.958071 3.084259 0.678431
-58.672558 11.958071 2.361161 0.678431
-58.672558 11.958071 1.638839 0.678431
-58.988914 12.103235 0.932840 0.475368
-58.988911 12.103233 0.218853 0.599020
-62.931122 13.912169 0.000005 0.529779
-66.477730 15.539574 -0.000006 0.531618
-68.741890 16.578512 -0.000025 0.526226
-70.315613 17.300636 -0.000033 0.509069
-71.475151 17.832703 -0.000018 0.575123
-59.347088 12.103230 7.359797 0.597181
-59.036472 11.958067 6.695473 0.678431
-59.036472 11.958067 5.955796 0.678431
-59.036472 11.958067 5.224880 0.672917
-59.347092 12.103230 4.461586 0.532475
-59.347092 12.103233 3.754495 0.493505
-59.036457 11.958060 3.068036 0.665809
-59.036453 11.958058 2.355758 0.678431
-59.036453 11.958059 1.644242 0.678431
-59.347095 12.103234 0.948808 0.479902
-59.347095 12.103234 0.245504 0.541176
-62.982151 13.802044 0.000007 0.527696
-66.517296 15.454167 -0.000003 0.538358
-68.774155 16.508888 -0.000023 0.526226
-70.342796 17.241978 -0.000030 0.565564
-71.498589 17.782127 -0.000014 0.544976
-59.694736 12.103233 7.281035 0.658824
-59.694733 12.103232 6.553508 0.997304
-59.694733 12.103231 5.836196 1.000000
-59.694733 12.103231 5.127379 0.997059
-59.694736 12.103233 4.425413 0.553799
-59.694733 12.103231 3.728713 0.596691
-59.694733 12.103232 3.035745 0.610049
-59.694733 12.103231 2.345001 0.503922
-59.694733 12.103232 1.654998 0.448897
-59.694736 12.103233 0.964255 0.654412
-59.694736 12.103233 0.271286 0.694118
-63.033936 13.692277 0.000010 0.556005
-66.557465 15.369039 -0.000001 0.544363
-68.806885 16.439486 -0.000020 0.561520
-70.370384 17.183512 -0.000027 0.535539
-71.522369 17.731712 -0.000013 0.589216
-60.032326 12.103234 7.204805 0.590074
-60.032326 12.103234 6.487780 0.633333
-60.032326 12.103234 5.780821 0.723774
-60.032326 12.103234 5.082235 0.456863
-60.032326 12.103235 4.390402 0.545098
-60.032326 12.103234 3.703760 0.434926
-60.032326 12.103234 3.020794 0.601103
-60.032326 12.103234 2.340022 0.486152
-60.032326 12.103235 1.659979 0.463848
-60.032322 12.103233 0.979205 0.477941
-60.032326 12.103234 0.296239 0.446324
-63.086491 13.582875 0.000013 0.535049
-66.598145 15.284154 -0.000011 0.541667
-68.840118 16.370316 -0.000017 0.540319
-70.398376 17.125235 -0.000026 0.541789
-71.546501 17.681465 -0.000011 0.562500
-60.360332 12.103239 7.130989 0.466422
-60.360336 12.103241 6.424131 0.625980
-60.360332 12.103239 5.727200 0.452696
-60.360332 12.103237 5.038523 0.461642
-60.360332 12.103239 4.356500 0.625858
-60.360332 12.103239 3.679596 0.437745
-60.360332 12.103239 3.006317 0.481127
-60.360332 12.103239 2.335199 0.475123
-60.360332 12.103239 1.664801 0.466912
-60.360332 12.103237 0.993683 0.442157
-60.360325 12.103235 0.320402 0.500368
-63.139740 13.473810 0.000006 0.531495
-66.639442 15.199572 -0.000016 0.555637
-68.873795 16.301359 -0.000023 0.538725
-70.426743 17.067142 -0.000031 0.563235
-71.570961 17.631380 -0.000016 0.562990
-60.679165 12.103236 7.059483 0.986029
-60.679161 12.103234 6.362479 0.999387
-60.679165 12.103234 5.675259 0.999387
-60.679161 12.103234 4.996179 0.999755
-60.679173 12.103241 4.323660 0.448162
-60.679173 12.103241 3.656189 0.995221
-60.679173 12.103241 2.992293 0.980270
-60.679173 12.103241 2.330528 0.953554
-60.679173 12.103240 1.669472 0.938358
-60.679173 12.103240 1.007707 0.492034
-60.679161 12.103234 0.343809 0.614828
-63.193817 13.365150 0.000008 0.536397
-66.681389 15.115299 -0.000014 0.523039
-68.907982 16.232660 -0.000021 0.504657
-70.455597 17.009291 -0.000016 0.585539
-71.595802 17.581474 -0.000013 0.517524
-60.849857 12.032063 7.029387 0.998775
-60.818039 12.015815 6.344244 1.000000
-60.818043 12.015816 5.659897 1.000000
-60.818035 12.015815 4.983656 0.982598
-60.989258 12.103238 4.291833 0.645588
-60.989258 12.103238 3.633504 0.982230
-60.811043 12.012241 2.988531 0.970221
-60.811039 12.012241 2.329275 0.952083
-60.811039 12.012241 1.670725 0.935539
-60.989258 12.103238 1.021298 0.477941
-60.989246 12.103233 0.366494 0.517034
-63.248650 13.256874 0.000011 0.532230
-66.723915 15.031327 -0.000011 0.529902
-68.942642 16.164200 -0.000019 0.539706
-70.484802 16.951618 -0.000014 0.507475
-71.620979 17.531746 -0.000011 0.535662
-61.153954 12.032063 6.961669 1.000000
-61.153954 12.032062 6.278138 1.000000
-61.011486 11.958061 5.633415 0.654289
-61.011490 11.958063 4.962067 0.678431
-61.290985 12.103239 4.260974 0.569853
-61.290981 12.103239 3.611510 0.980392
-61.011482 11.958060 2.980996 0.678431
-61.011482 11.958061 2.326765 0.678431
-61.011482 11.958061 1.673235 0.678431
-61.290981 12.103239 1.034477 0.634191
-61.290974 12.103235 0.388489 0.582475
-63.304142 13.148933 0.000001 0.521569
-66.767021 14.947651 -0.000009 0.528431
-68.977798 16.095985 -0.000016 0.511887
-70.514420 16.894150 -0.000010 0.544363
-71.646439 17.482153 -0.000031 0.544118
-61.428188 12.020549 6.902159 0.987132
-61.428188 12.020549 6.226826 0.978922
-61.449982 12.032062 5.556491 0.965931
-61.428185 12.020547 4.903012 0.968750
-61.584702 12.103239 4.231042 0.419608
-61.584702 12.103237 3.590176 0.980882
-61.421230 12.016874 2.961823 0.990441
-61.421234 12.016876 2.320379 0.980392
-61.421234 12.016876 1.679621 0.934559
-61.584702 12.103239 1.047258 0.663358
-61.584694 12.103234 0.409823 0.635049
-63.360485 13.041430 0.000004 0.541054
-66.810722 14.864281 -0.000006 0.554902
-69.013420 16.028019 -0.000014 0.530637
-70.544426 16.836889 -0.000008 0.529902
-71.672318 17.432781 -0.000028 0.537010
-61.600555 11.958059 6.871415 0.678431
-61.600552 11.958060 6.200316 0.696201
-61.597805 11.956583 5.539210 0.789951
-61.738285 12.032062 4.861612 0.943505
-61.870750 12.103232 4.202001 0.665931
-61.870758 12.103237 3.569476 0.917525
-61.600559 11.958064 2.955407 0.678431
-61.600559 11.958064 2.318242 0.678431
-61.600559 11.958063 1.681758 0.678431
-61.870754 12.103235 1.059661 0.945466
-61.870750 12.103232 0.430523 0.620098
-63.417572 12.934325 0.000006 0.514461
-66.854996 14.781213 -0.000004 0.539216
-69.049507 15.960300 -0.000011 0.543627
-70.574829 16.779839 -0.000006 0.566544
-71.698532 17.383589 -0.000027 0.515319
-62.009281 12.026649 6.773211 0.957598
-62.009285 12.026651 6.115642 0.953799
-62.009285 12.026651 5.467307 0.948039
-62.149456 12.103229 4.802957 0.957598
-62.149464 12.103232 4.173809 0.493750
-62.019196 12.032064 3.561554 0.978922
-62.002388 12.022882 2.936533 0.895833
-62.002392 12.022882 2.311954 0.977083
-62.002392 12.022882 1.688045 0.862132
-62.149464 12.103235 1.071700 0.949510
-62.149467 12.103235 0.450617 0.424020
-63.475410 12.827623 0.000009 0.540564
-66.899857 14.698462 -0.000001 0.542525
-69.086075 15.892839 -0.000008 0.538848
-70.605637 16.723005 -0.000003 0.547059
-71.725090 17.334583 -0.000024 0.567647
-62.159786 11.958065 6.748479 0.678431
-62.159786 11.958064 6.094319 0.678431
-62.159786 11.958067 5.449341 0.678431
-62.421146 12.103229 4.767656 0.956250
-62.421146 12.103231 4.146432 0.439093
-62.293022 12.032064 3.541888 0.969730
-62.159779 11.958061 2.931298 0.678431
-62.159779 11.958060 2.310211 0.678431
-62.159779 11.958060 1.689789 0.678431
-62.421154 12.103234 1.083390 0.953186
-62.421158 12.103236 0.470130 0.422181
-63.533989 12.721322 0.000011 0.537990
-66.945282 14.616020 0.000001 0.552083
-69.123116 15.825631 -0.000006 0.524265
-70.636841 16.666382 -0.000001 0.534069
-71.751999 17.285761 -0.000022 0.548774
-62.686089 12.103229 6.615688 0.954534
-62.686092 12.103230 5.979820 0.959436
-62.686092 12.103231 5.352880 0.944730
-62.686092 12.103230 4.733366 0.952206
-62.686092 12.103231 4.119839 0.644240
-62.686100 12.103233 3.510915 0.957598
-62.686096 12.103233 2.905253 0.979779
-62.686100 12.103234 2.301536 0.979657
-62.686100 12.103235 1.698465 0.981005
-62.686100 12.103233 1.094747 0.969853
-62.686104 12.103236 0.489084 0.511520
-63.593063 12.615297 -0.000019 0.542402
-66.991096 14.533793 -0.000029 0.526961
-69.160461 15.758598 -0.000036 0.535417
-70.668304 16.609911 -0.000031 0.550858
-71.779144 17.237074 -0.000048 0.551961
-62.944561 12.103231 6.559421 0.676348
-62.944561 12.103231 5.931305 0.630270
-62.944557 12.103230 5.312008 0.574142
-62.944561 12.103231 4.700046 0.472794
-62.944561 12.103231 4.093998 0.451593
-62.944561 12.103231 3.492497 0.664093
-62.944561 12.103231 2.894218 0.424755
-62.944561 12.103231 2.297860 0.563235
-62.944561 12.103231 1.702140 0.500368
-62.944561 12.103231 1.105782 0.493260
-62.944569 12.103235 0.507503 0.576593
-63.653118 12.509828 -0.000017 0.533824
-67.037674 14.451998 -0.000026 0.552206
-69.198494 15.691947 -0.000021 0.543505
-70.700302 16.553732 -0.000027 0.532475
-71.806725 17.188633 -0.000046 0.536029
-63.196812 12.103230 6.504726 0.561642
-63.196808 12.103230 5.884146 0.450980
-63.196808 12.103230 5.272277 0.450980
-63.196812 12.103230 4.667655 0.604534
-63.196812 12.103230 4.068878 0.667034
-63.196808 12.103230 3.474593 0.485539
-63.196812 12.103230 2.883491 0.440564
-63.196812 12.103231 2.294286 0.508946
-63.196812 12.103231 1.705713 0.475613
-63.196812 12.103231 1.116509 0.692647
-63.196812 12.103230 0.525406 0.468382
-63.713913 12.404778 -0.000015 0.534191
-67.084824 14.370525 -0.000024 0.548284
-69.236931 15.625531 -0.000019 0.533946
-70.732689 16.497780 -0.000024 0.533578
-71.834641 17.140387 -0.000044 0.552328
-63.443104 12.103231 6.451540 0.412377
-63.443104 12.103232 5.838287 0.637500
-63.443100 12.103230 5.233644 0.562868
-63.443100 12.103230 4.636160 0.453064
-63.443104 12.103230 4.044452 0.660662
-63.443104 12.103230 3.457183 0.506373
-63.443104 12.103231 2.873060 0.601225
-63.443104 12.103231 2.290812 0.469608
-63.443104 12.103231 1.709188 0.519118
-63.443104 12.103231 1.126940 0.656005
-63.443104 12.103231 0.542816 0.450000
-63.775436 12.300155 -0.000012 0.548897
-67.132538 14.289384 -0.000022 0.534191
-69.275833 15.559382 -0.000016 0.524632
-70.765404 16.442024 -0.000034 0.541299
-71.863052 17.092424 0.000003 0.492647
-63.463448 11.970665 6.464193 0.459559
-63.463448 11.970664 5.849196 0.759804
-63.463448 11.970665 5.242833 0.510172
-63.463448 11.970664 4.643653 0.448162
-63.463448 11.970667 4.050262 0.428676
-63.463448 11.970667 3.461326 0.456618
-63.463448 11.970665 2.875541 0.565686
-63.463448 11.970664 2.291639 0.505882
-63.463448 11.970664 1.708361 0.456005
-63.463448 11.970665 1.124458 0.642034
-63.463451 11.970667 0.538675 0.459314
-63.837685 12.195962 -0.000011 0.544730
-67.180824 14.208581 -0.000020 0.525245
-69.315193 15.493511 -0.000014 0.544485
-70.798569 16.386528 -0.000032 0.515074
-71.891647 17.044575 0.000005 0.524265
-63.463444 11.824816 6.483147 0.600368
-63.463451 11.824819 5.865537 0.604779
-63.463451 11.824820 5.256600 0.431985
-63.463448 11.824820 4.654875 0.579779
-63.463451 11.824819 4.058967 0.448284
-63.463451 11.824820 3.467529 0.477083
-63.463448 11.824818 2.879258 0.477696
-63.463444 11.824816 2.292877 0.542279
-63.463444 11.824816 1.707123 0.483824
-63.463448 11.824818 1.120741 0.637745
-63.463451 11.824820 0.532471 0.450613
-63.900665 12.092208 -0.000009 0.531250
-67.229736 14.128158 -0.000005 0.526226
-69.355011 15.427910 -0.000012 0.544608
-70.832108 16.331259 -0.000031 0.529902
-71.920563 16.996925 0.000007 0.540196
-63.463448 11.677723 6.502479 0.441912
-63.463448 11.677725 5.882207 0.645466
-63.463444 11.677722 5.270645 0.454289
-63.463444 11.677722 4.666326 0.716299
-63.463448 11.677723 4.067846 0.454534
-63.463448 11.677722 3.473858 0.468382
-63.463448 11.677725 2.883050 0.462868
-63.463448 11.677722 2.294139 0.561765
-63.463448 11.677722 1.705860 0.455270
-63.463448 11.677725 1.116950 0.638726
-63.463448 11.677722 0.526142 0.476838
-63.964287 11.988846 -0.000017 0.537868
-67.279076 14.048000 -0.000013 0.541912
-69.395233 15.362562 -0.000021 0.533456
-70.866005 16.276207 -0.000038 0.576471
-71.949791 16.949455 -0.000000 0.554779
-63.463444 11.529349 6.522201 0.522549
-63.463448 11.529351 5.899211 0.454167
-63.463444 11.529350 5.284970 0.490441
-63.463444 11.529350 4.678004 0.659804
-63.463444 11.529350 4.076904 0.423284
-63.463448 11.529351 3.480313 0.748652
-63.463448 11.529351 2.886918 0.459804
-63.463444 11.529350 2.295428 0.567892
-63.463444 11.529350 1.704572 0.609926
-63.463448 11.529351 1.113082 0.655025
-63.463451 11.529352 0.519686 0.503431
-64.028709 11.885984 -0.000015 0.526961
-67.329033 13.968225 -0.000011 0.530025
-69.435966 15.297528 -0.000018 0.532108
-70.900314 16.221413 -0.000038 0.531250
-71.979370 16.902212 0.000000 0.526471
-63.463448 11.379661 6.542317 0.467647
-63.463448 11.379661 5.916558 0.644608
-63.463448 11.379661 5.299584 0.662377
-63.463451 11.379663 4.689916 0.553186
-63.463448 11.379662 4.086143 0.426716
-63.463448 11.379661 3.486899 0.719363
-63.463448 11.379662 2.890864 0.431250
-63.463448 11.379661 2.296742 0.601838
-63.463448 11.379661 1.703257 0.459436
-63.463448 11.379662 1.109136 0.551961
-63.463448 11.379661 0.513101 0.633211
-64.093849 11.783574 -0.000012 0.542525
-67.379555 13.888803 -0.000008 0.537255
-69.477142 15.232777 -0.000016 0.494730
-70.935005 16.166861 -0.000036 0.523284
-72.009285 16.855177 0.000003 0.556373
-63.463448 11.228626 6.562839 0.706740
-63.463448 11.228625 5.934253 0.687377
-63.463444 11.228624 5.314491 0.762990
-63.463448 11.228626 4.702069 0.414216
-63.463448 11.228626 4.095568 0.460662
-63.463448 11.228626 3.493617 0.612132
-63.463448 11.228626 2.894888 0.465074
-63.463444 11.228624 2.298083 0.546446
-63.463444 11.228624 1.701917 0.750000
-63.463448 11.228626 1.105111 0.504902
-63.463448 11.228626 0.506383 0.606618
-64.159698 11.681616 -0.000010 0.548652
-67.430626 13.809731 -0.000006 0.504657
-69.518867 15.168375 0.000005 0.536274
-70.970093 16.112558 -0.000032 0.552083
-72.039482 16.808321 -0.000010 0.570098
-63.463444 11.076214 6.583772 0.520956
-63.463444 11.076216 5.952301 0.420711
-63.463444 11.076216 5.329696 0.458211
-63.463444 11.076216 4.714466 0.459681
-63.463444 11.076216 4.105181 0.599510
-63.463444 11.076216 3.500469 0.762377
-63.463448 11.076216 2.898994 0.590074
-63.463444 11.076216 2.299450 0.700245
-63.463444 11.076216 1.700549 0.487990
-63.463448 11.076216 1.101006 0.450613
-63.463444 11.076216 0.499531 0.745221
-64.226128 11.580040 -0.000026 0.538113
-67.482246 13.731022 -0.000004 0.539951
-69.560951 15.104209 0.000008 0.537010
-71.005707 16.058609 0.000014 0.522794
-72.070053 16.761713 -0.000006 0.540931
-63.463448 10.922390 6.605122 0.518137
-63.463448 10.922390 5.970710 0.767279
-63.463448 10.922390 5.345205 0.612255
-63.463448 10.922392 4.727108 0.675735
-63.463444 10.922388 4.114987 0.699387
-63.463448 10.922390 3.507457 0.529657
-63.463448 10.922390 2.903181 0.430760
-63.463448 10.922390 2.300845 0.586397
-63.463448 10.922390 1.699155 0.485049
-63.463448 10.922390 1.096819 0.501471
-63.463448 10.922392 0.492543 0.734926
-64.293396 11.479012 -0.000024 0.532353
-67.534416 13.652670 -0.000002 0.550613
-69.603470 15.040331 0.000009 0.551716
-71.041542 16.004799 0.000016 0.503676
-72.100952 16.715317 -0.000003 0.538235
-63.463448 10.767117 6.626897 0.503799
-63.463448 10.767117 5.989486 0.576838
-63.463448 10.767117 5.361023 0.521446
-63.463448 10.767118 4.740005 0.553922
-63.463448 10.767117 4.124988 0.686520
-63.463448 10.767117 3.514585 0.632475
-63.463448 10.767117 2.907452 0.716789
-63.463448 10.767118 2.302268 0.752328
-63.463448 10.767118 1.697732 0.467279
-63.463448 10.767117 1.092548 0.420833
-63.463448 10.767117 0.485414 0.595711
-64.361366 11.378459 -0.000021 0.536642
-67.587120 13.574686 -0.000000 0.525858
-69.646446 14.976755 0.000010 0.522794
-71.077736 15.951234 0.000016 0.519608
-72.132156 16.669132 -0.000002 0.539828
-63.463448 10.610363 6.649107 0.511520
-63.463451 10.610362 6.008636 0.694240
-63.463448 10.610363 5.377157 0.729044
-63.463451 10.610363 4.753157 0.532353
-63.463448 10.610363 4.135188 0.555515
-63.463448 10.610363 3.521856 0.458701
-63.463451 10.610363 2.911808 0.433211
-63.463448 10.610363 2.303719 0.572304
-63.463448 10.610363 1.696281 0.483333
-63.463451 10.610363 1.088192 0.548652
-63.463448 10.610363 0.478144 0.510172
-64.429977 11.278337 -0.000028 0.540686
-67.640327 13.497036 -0.000008 0.520711
-69.689819 14.913452 0.000003 0.523652
-71.114273 15.897904 0.000009 0.558333
-72.163712 16.623173 0.000002 0.567892
-63.463444 10.452085 6.671763 0.437990
-63.463444 10.452086 6.028171 0.598529
-63.463440 10.452085 5.393615 0.570588
-63.463448 10.452088 4.766573 0.516789
-63.463448 10.452088 4.145592 0.460172
-63.463444 10.452086 3.529272 0.450980
-63.463440 10.452085 2.916251 0.491544
-63.463448 10.452088 2.305199 0.604167
-63.463448 10.452088 1.694801 0.476838
-63.463440 10.452085 1.083749 0.487500
-63.463448 10.452088 0.470728 0.451961
-64.499344 11.178741 -0.000026 0.543382
-67.694214 13.419857 0.000010 0.537868
-69.733673 14.850484 0.000004 0.553676
-71.151222 15.844858 0.000011 0.518015
-72.195564 16.577435 0.000004 0.509314
-63.463444 10.292256 6.694868 0.473407
-63.463444 10.292254 6.048094 0.466544
-63.463444 10.292255 5.410398 0.421324
-63.463444 10.292255 4.780257 0.455882
-63.463444 10.292256 4.156205 0.450980
-63.463444 10.292256 3.536836 0.443750
-63.463444 10.292254 2.920783 0.503799
-63.463444 10.292255 2.306708 0.634436
-63.463444 10.292256 1.693291 0.504289
-63.463444 10.292254 1.079217 0.431005
-63.463448 10.292257 0.463164 0.455392
-64.569405 11.079634 -0.000025 0.532843
-67.748550 13.342997 0.000012 0.533211
-69.778030 14.787865 0.000019 0.518750
-71.188492 15.792032 -0.000000 0.508946
-72.227745 16.531919 0.000007 0.523284
-63.463444 10.130823 6.718436 0.737255
-63.463448 10.130825 6.068413 0.506127
-63.463444 10.130823 5.427518 0.411152
-63.463448 10.130825 4.794212 0.445711
-63.463444 10.130823 4.167028 0.454657
-63.463448 10.130824 3.544550 0.443627
-63.463448 10.130824 2.925405 0.533946
-63.463451 10.130825 2.308248 0.649755
-63.463451 10.130825 1.691752 0.508946
-63.463448 10.130824 1.074595 0.436397
-63.463448 10.130824 0.455450 0.425613
-64.640160 10.981017 -0.000021 0.543382
-67.803413 13.266510 0.000013 0.538480
-69.822762 14.725513 0.000021 0.528799
-71.226173 15.739499 0.000000 0.553922
-72.260231 16.486624 0.000008 0.571936
-63.463448 9.967758 6.742473 0.460539
-63.463444 9.967757 6.089139 0.597059
-63.463448 9.967758 5.444978 0.438235
-63.463444 9.967758 4.808447 0.532108
-63.463448 9.967758 4.178067 0.468995
-63.463444 9.967756 3.552419 0.530882
-63.463448 9.967759 2.930119 0.642524
-63.463448 9.967759 2.309818 0.633701
-63.463448 9.967759 1.690182 0.540319
-63.463451 9.967760 1.069881 0.418750
-63.463444 9.967757 0.447581 0.431618
-64.711533 10.882851 -0.000028 0.546814
-67.858765 13.190380 0.000006 0.539216
-69.867882 14.663447 0.000013 0.528431
-71.264191 15.687217 -0.000005 0.527451
-72.292969 16.441509 -0.000013 0.514461
-63.463451 9.803015 6.766989 0.473652
-63.463451 9.803015 6.110278 0.476961
-63.463451 9.803015 5.462787 0.674510
-63.463451 9.803015 4.822966 0.636397
-63.463444 9.803011 4.189328 0.566789
-63.463451 9.803015 3.560444 0.557476
-63.463451 9.803015 2.934927 0.625368
-63.463451 9.803014 2.311420 0.733088
-63.463451 9.803014 1.688580 0.537132
-63.463451 9.803015 1.065073 0.452941
-63.463451 9.803015 0.439556 0.462132
-64.783661 10.785232 -0.000026 0.542157
-67.914696 13.114670 0.000008 0.520466
-69.913475 14.601727 0.000014 0.553676
-71.302612 15.635221 -0.000003 0.539951
-72.326088 16.396675 -0.000011 0.556985
-63.463448 9.636549 6.791995 0.676471
-63.463448 9.636550 6.131838 0.482353
-63.463444 9.636547 5.480953 0.465809
-63.463448 9.636553 4.837773 0.619730
-63.463448 9.636550 4.200811 0.626103
-63.463448 9.636552 3.568629 0.692034
-63.463448 9.636552 2.939831 0.717647
-63.463448 9.636549 2.313053 0.694240
-63.463448 9.636549 1.686946 0.580637
-63.463448 9.636552 1.060169 0.485662
-63.463448 9.636552 0.431370 0.459681
-64.856743 10.688333 0.000017 0.538848
-67.971161 13.039358 0.000011 0.549142
-69.959496 14.540328 0.000017 0.533701
-71.341438 15.583529 0.000011 0.535907
-72.359535 16.352076 -0.000009 0.568015
-63.463448 9.468323 6.817501 0.460662
-63.463448 9.468323 6.153832 0.727083
-63.463448 9.468323 5.499479 0.515564
-63.463444 9.468321 4.852878 0.500858
-63.463444 9.468320 4.212526 0.595343
-63.463448 9.468323 3.576978 0.587745
-63.463448 9.468323 2.944834 0.628676
-63.463448 9.468323 2.314720 0.719363
-63.463448 9.468323 1.685280 0.596201
-63.463448 9.468323 1.055166 0.624387
-63.463451 9.468323 0.423021 0.691544
-64.930222 10.591728 0.000019 0.531863
-68.028206 12.964488 0.000025 0.540441
-70.005898 14.479207 0.000005 0.552819
-71.380562 15.532070 0.000012 0.546814
-72.393272 16.307705 -0.000008 0.514338
-63.463444 9.298283 6.843517 0.482721
-63.463448 9.298284 6.176264 0.562868
-63.463448 9.298286 5.518378 0.512255
-63.463448 9.298285 4.868284 0.465686
-63.463448 9.298286 4.224474 0.428309
-63.463451 9.298288 3.585494 0.511397
-63.463448 9.298284 2.949936 0.517402
-63.463448 9.298286 2.316420 0.460172
-63.463448 9.298286 1.683581 0.659436
-63.463448 9.298284 1.050064 0.656495
-63.463451 9.298288 0.414505 0.600000
-65.004333 10.495614 0.000015 0.535784
-68.085686 12.889946 0.000021 0.551961
-70.052757 14.418441 0.000002 0.548774
-71.420036 15.480869 0.000007 0.496936
-72.427353 16.263592 0.000001 0.555760
-63.463444 9.126390 6.870055 0.625735
-63.463444 9.126390 6.199145 0.447426
-63.463444 9.126390 5.537656 0.651838
-63.463444 9.126390 4.884000 0.462255
-63.463444 9.126391 4.236662 0.450980
-63.463451 9.126393 3.594181 0.467034
-63.463444 9.126391 2.955141 0.521936
-63.463444 9.126392 2.318153 0.456373
-63.463448 9.126393 1.681847 0.677451
-63.463444 9.126391 1.044858 0.601838
-63.463451 9.126393 0.405818 0.530270
-65.079147 10.400042 0.000016 0.532108
-68.143707 12.815825 0.000022 0.543750
-70.100060 14.358018 0.000004 0.542034
-71.459892 15.429969 0.000010 0.540686
-72.461716 16.219702 0.000004 0.549142
-63.463448 8.952599 6.897124 0.461765
-63.463444 8.952598 6.222486 0.534559
-63.463448 8.952600 5.557318 0.483578
-63.463448 8.952600 4.900030 0.739216
-63.463448 8.952600 4.249094 0.460417
-63.463448 8.952599 3.603042 0.446324
-63.463448 8.952601 2.960450 0.506495
-63.463448 8.952600 2.319922 0.457475
-63.463448 8.952600 1.680079 0.664338
-63.463448 8.952601 1.039550 0.568382
-63.463448 8.952599 0.396957 0.529289
-65.154625 10.304998 0.000018 0.541912
-68.202240 12.742116 0.000023 0.540319
-70.147781 14.297927 0.000006 0.558946
-71.500046 15.379307 -0.000001 0.566422
-72.496376 16.176050 0.000005 0.584681
-63.463448 8.776849 6.924738 0.468505
-63.463448 8.776849 6.246295 0.755392
-63.463448 8.776851 5.577377 0.646446
-63.463448 8.776849 4.916383 0.643137
-63.463448 8.776850 4.261776 0.542279
-63.463448 8.776849 3.612082 0.462623
-63.463451 8.776850 2.965866 0.462500
-63.463448 8.776849 2.321725 0.452819
-63.463448 8.776849 1.678275 0.692647
-63.463451 8.776850 1.034134 0.689828
-63.463448 8.776849 0.387917 0.697917
-65.230713 10.210439 0.000012 0.537255
-68.261246 12.668781 0.000017 0.541912
-70.195885 14.238137 -0.000001 0.501348
-71.540581 15.328938 -0.000008 0.492034
-72.531273 16.132584 -0.000017 0.512132
-63.463448 8.599103 6.952907 0.721936
-63.463448 8.599103 6.270584 0.715686
-63.463448 8.599103 5.597841 0.533456
-63.463448 8.599104 4.933064 0.479167
-63.463448 8.599107 4.274714 0.666912
-63.463448 8.599105 3.621303 0.508824
-63.463448 8.599105 2.971391 0.613603
-63.463448 8.599105 2.323566 0.491912
-63.463448 8.599105 1.676435 0.608333
-63.463448 8.599105 1.028609 0.470711
-63.463451 8.599108 0.378697 0.464338
-65.307510 10.116458 0.000013 0.528922
-68.320808 12.595897 0.000019 0.537623
-70.244492 14.178763 0.000012 0.542034
-71.581482 15.278881 -0.000006 0.543260
-72.566544 16.089420 -0.000015 0.537623
-63.463444 8.419300 6.981647 0.420588
-63.463448 8.419302 6.295363 0.427696
-63.463444 8.419301 5.618716 0.603431
-63.463451 8.419303 4.950082 0.452574
-63.463451 8.419303 4.287912 0.489706
-63.463448 8.419302 3.630710 0.467524
-63.463451 8.419304 2.977027 0.458946
-63.463448 8.419302 2.325443 0.419608
-63.463448 8.419302 1.674557 0.598774
-63.463451 8.419304 1.022973 0.446814
-63.463448 8.419302 0.369289 0.462377
-65.384811 10.022887 -0.000009 0.530025
-68.380768 12.523336 -0.000001 0.552328
-70.293427 14.119658 0.000006 0.554289
-71.622719 15.229084 -0.000012 0.509436
-72.602104 16.046488 -0.000020 0.572549
-63.463448 8.237389 7.010965 0.577451
-63.463448 8.237389 6.320643 0.672549
-63.463448 8.237389 5.640013 0.437623
-63.463448 8.237389 4.967446 0.483088
-63.463448 8.237389 4.301377 0.464461
-63.463444 8.237388 3.640307 0.593627
-63.463444 8.237387 2.982778 0.471814
-63.463448 8.237390 2.327359 0.473284
-63.463448 8.237390 1.672642 0.617892
-63.463444 8.237387 1.017222 0.443137
-63.463448 8.237389 0.359692 0.467524
-65.462921 9.929985 -0.000007 0.527083
-68.441353 12.451292 0.000002 0.554044
-70.342812 14.060919 0.000007 0.572426
-71.664360 15.179640 0.000003 0.503431
-72.638016 16.003857 -0.000004 0.573652
-63.463448 8.053319 7.040878 0.763113
-63.463444 8.053317 6.346435 0.465074
-63.463448 8.053319 5.661743 0.750245
-63.463448 8.053318 4.985160 0.777451
-63.463451 8.053319 4.315116 0.426593
-63.463448 8.053318 3.650100 0.718873
-63.463451 8.053322 2.988643 0.572794
-63.463448 8.053318 2.329313 0.670711
-63.463448 8.053318 1.670688 0.618505
-63.463451 8.053322 1.011356 0.431740
-63.463451 8.053320 0.349900 0.512010
-65.541641 9.837605 -0.000010 0.544853
-68.502396 12.379642 -0.000003 0.531250
-70.392578 14.002511 0.000004 0.533578
-71.706284 15.130425 -0.000004 0.562500
-72.674164 15.961430 -0.000008 0.518750
-63.463448 7.867022 7.071399 0.463971
-63.463448 7.867023 6.372752 0.532721
-63.463448 7.867025 5.683913 0.684681
-63.463448 7.867022 5.003235 0.499510
-63.463444 7.867021 4.329134 0.465319
-63.463448 7.867023 3.660091 0.500735
-63.463444 7.867022 2.994630 0.490441
-63.463448 7.867024 2.331307 0.450980
-63.463448 7.867024 1.668694 0.580882
-63.463448 7.867022 1.005370 0.444608
-63.463448 7.867024 0.339909 0.584804
-65.621040 9.745804 -0.000008 0.531495
-68.563965 12.308441 -0.000002 0.539828
-70.442726 13.944426 -0.000007 0.550000
-71.748573 15.081528 -0.000001 0.544240
-72.710632 15.919265 -0.000007 0.548039
-63.463448 7.678454 7.102541 0.701226
-63.463448 7.678454 6.399605 0.650000
-63.463444 7.678451 5.706537 0.539093
-63.463444 7.678450 5.021678 0.508333
-63.463448 7.678455 4.343436 0.611274
-63.463444 7.678452 3.670285 0.445588
-63.463444 7.678452 3.000738 0.516544
-63.463444 7.678452 2.333341 0.441912
-63.463444 7.678452 1.666659 0.571936
-63.463444 7.678452 0.999262 0.463603
-63.463448 7.678454 0.329715 0.535662
-65.701195 9.654673 0.000013 0.537255
-68.626190 12.237820 0.000031 0.534681
-70.493408 13.886806 0.000014 0.546691
-71.791222 15.032945 0.000005 0.546814
-72.747398 15.877375 0.000000 0.559559
-63.463444 7.487538 7.134324 0.423284
-63.463448 7.487541 6.427007 0.505392
-63.463448 7.487541 5.729622 0.466544
-63.463448 7.487540 5.040497 0.696569
-63.463448 7.487539 4.358032 0.677819
-63.463448 7.487541 3.680688 0.420711
-63.463448 7.487541 3.006970 0.623529
-63.463448 7.487540 2.335418 0.481618
-63.463448 7.487540 1.664583 0.550000
-63.463448 7.487543 0.993029 0.480637
-63.463448 7.487542 0.319312 0.719363
-65.781868 9.563988 0.000014 0.542402
-68.688759 12.167494 0.000033 0.552819
-70.544403 13.829472 0.000015 0.550368
-71.834190 14.984642 0.000007 0.547181
-72.784447 15.835724 0.000001 0.517402
-63.463444 7.294227 7.166755 0.467524
-63.463448 7.294230 6.454970 0.470343
-63.463444 7.294228 5.753181 0.671691
-63.463444 7.294229 5.059702 0.568627
-63.463444 7.294228 4.372927 0.456373
-63.463448 7.294230 3.691304 0.458701
-63.463448 7.294230 3.013331 0.566422
-63.463451 7.294231 2.337536 0.457843
-63.463451 7.294231 1.662464 0.516544
-63.463448 7.294230 0.986668 0.459926
-63.463451 7.294231 0.308695 0.456005
-65.863205 9.473909 0.000022 0.549755
-68.751770 12.097571 0.000027 0.522426
-70.595825 13.772512 0.000021 0.536765
-71.877464 14.936619 0.000001 0.548039
-72.821762 15.794319 -0.000004 0.527696
-63.463451 7.098450 7.199853 0.587010
-63.463444 7.098446 6.483510 0.605147
-63.463444 7.098447 5.777224 0.629044
-63.463444 7.098447 5.079304 0.465931
-63.463448 7.098448 4.388128 0.419363
-63.463451 7.098450 3.702138 0.497426
-63.463451 7.098450 3.019823 0.583211
-63.463451 7.098451 2.339698 0.450980
-63.463451 7.098451 1.660302 0.503186
-63.463451 7.098450 0.980177 0.464706
-63.463451 7.098451 0.297861 0.485172
-65.945129 9.384359 0.000024 0.531373
-68.815308 12.028125 0.000029 0.544485
-70.647629 13.715899 0.000023 0.534436
-71.921150 14.888968 0.000018 0.503064
-72.859428 15.753226 0.000010 0.531740
-63.463448 6.900132 7.233634 0.576716
-63.463448 6.900131 6.512639 0.444240
-63.463448 6.900131 5.801764 0.585784
-63.463448 6.900131 5.099309 0.420343
-63.463448 6.900133 4.403643 0.535662
-63.463451 6.900135 3.713197 0.613113
-63.463451 6.900134 3.026448 0.696446
-63.463451 6.900137 2.341905 0.613603
-63.463451 6.900137 1.658095 0.470221
-63.463451 6.900137 0.973551 0.465931
-63.463448 6.900138 0.286803 0.519118
-66.027641 9.295353 0.000019 0.535049
-68.879295 11.959095 0.000025 0.534926
-70.699783 13.659621 0.000018 0.511152
-71.965103 14.841557 0.000013 0.534559
-72.897324 15.712349 0.000007 0.508456
-63.463444 6.699211 7.268120 0.652451
-63.463448 6.699213 6.542371 0.465441
-63.463448 6.699212 5.826813 0.448162
-63.463444 6.699212 5.119730 0.487623
-63.463444 6.699211 4.419480 0.555392
-63.463444 6.699209 3.724486 0.598039
-63.463448 6.699213 3.033211 0.463113
-63.463448 6.699215 2.344158 0.430637
-63.463448 6.699215 1.655842 0.493505
-63.463448 6.699214 0.966788 0.571936
-63.463448 6.699213 0.275514 0.459926
-66.110802 9.206951 0.000020 0.532353
-68.943733 11.890476 0.000013 0.515931
-70.752365 13.603732 0.000019 0.547549
-72.009399 14.794470 0.000013 0.560049
-72.935486 15.671716 -0.000006 0.579412
-63.463448 6.495619 7.303319 0.452083
-63.463448 6.495619 6.572722 0.565441
-63.463448 6.495619 5.852383 0.701348
-63.463451 6.495622 5.140575 0.669485
-63.463451 6.495622 4.435646 0.676716
-63.463448 6.495620 3.736008 0.576593
-63.463448 6.495619 3.040115 0.447426
-63.463448 6.495621 2.346457 0.456005
-63.463448 6.495621 1.653543 0.465319
-63.463448 6.495621 0.959885 0.485907
-63.463451 6.495622 0.263992 0.545711
-66.194542 9.119097 0.000015 0.531618
-69.008675 11.822345 0.000008 0.525490
-70.805267 13.548140 0.000002 0.532966
-72.053963 14.747637 -0.000004 0.546691
-72.973946 15.631363 -0.000012 0.551716
-63.463448 6.289275 7.339256 0.591789
-63.463448 6.289274 6.603709 0.521936
-63.463448 6.289274 5.878487 0.449632
-63.463448 6.289275 5.161857 0.490319
-63.463451 6.289279 4.452151 0.443627
-63.463448 6.289276 3.747771 0.459314
-63.463448 6.289276 3.047163 0.457598
-63.463448 6.289274 2.348805 0.483701
-63.463448 6.289276 1.651195 0.484191
-63.463448 6.289278 0.952836 0.550980
-63.463448 6.289276 0.252228 0.525000
-66.278816 9.031759 -0.000003 0.529657
-69.074097 11.754665 0.000003 0.559191
-70.858604 13.492968 -0.000003 0.528064
-72.098892 14.701151 -0.000010 0.555882
-73.012726 15.591323 -0.000003 0.501961
-63.463448 6.080109 7.375946 0.443627
-63.463444 6.080108 6.635344 0.624020
-63.463448 6.080109 5.905139 0.480025
-63.463448 6.080112 5.183582 0.489951
-63.463448 6.080109 4.469002 0.459191
-63.463448 6.080112 3.759781 0.459314
-63.463448 6.080109 3.054359 0.430515
-63.463448 6.080113 2.351202 0.437377
-63.463448 6.080113 1.648798 0.462377
-63.463448 6.080112 0.945641 0.483088
-63.463448 6.080113 0.240218 0.499387
-66.363823 8.945127 -0.000001 0.539828
-69.139961 11.687424 -0.000008 0.526471
-70.912338 13.438194 -0.000002 0.528922
-72.144203 14.655046 0.000004 0.520221
-73.051758 15.551533 -0.000002 0.544976
-63.463448 5.868031 7.413410 0.577574
-63.463448 5.868033 6.667645 0.610294
-63.463448 5.868032 5.932354 0.593260
-63.463448 5.868033 5.205769 0.572426
-63.463448 5.868032 4.486208 0.666667
-63.463448 5.868034 3.772044 0.460784
-63.463448 5.868033 3.061707 0.657230
-63.463448 5.868033 2.353650 0.450980
-63.463448 5.868033 1.646351 0.547917
-63.463448 5.868033 0.938293 0.482353
-63.463448 5.868036 0.227955 0.581618
-66.449387 8.859047 -0.000006 0.537132
-69.206322 11.620665 -0.000012 0.557598
-70.966484 13.383820 0.000006 0.561887
-72.189789 14.609197 -0.000001 0.552574
-73.091057 15.512002 -0.000006 0.518260
-63.463448 5.652971 7.451667 0.482598
-63.463444 5.652968 6.700634 0.516789
-63.463444 5.652968 5.960144 0.450980
-63.463444 5.652968 5.228426 0.535049
-63.463444 5.652966 4.503778 0.661274
-63.463448 5.652969 3.784569 0.609804
-63.463448 5.652971 3.069210 0.479289
-63.463448 5.652970 2.356149 0.449755
-63.463448 5.652970 1.643851 0.457598
-63.463448 5.652973 0.930790 0.450980
-63.463448 5.652970 0.215431 0.468873
-66.535553 8.773565 -0.000011 0.525735
-69.273148 11.554370 -0.000017 0.530637
-71.020966 13.329777 0.000001 0.535172
-72.235680 14.563665 -0.000006 0.479902
-73.130608 15.472713 -0.000022 0.550123
-37.212509 -21.605478 16.930773 0.618627
-37.212524 -21.605465 14.873876 0.588971
-37.212502 -21.605486 12.845860 0.538971
-37.212502 -21.605486 10.841865 0.662868
-37.212524 -21.605465 8.857231 0.459069
-37.212505 -21.605482 6.887494 0.550245
-37.212521 -21.605465 4.928303 0.580024
-37.212509 -21.605476 2.975403 0.503799
-37.212505 -21.605480 1.024597 0.538358
-50.374458 -8.047743 -0.000015 0.331250
-61.742252 3.661887 0.000031 0.545221
-66.622467 8.688847 0.000009 0.521446
-69.340546 11.488667 0.000003 0.530882
-71.075905 13.276207 0.000020 0.548897
-72.281937 14.518498 0.000002 0.505392
-73.170509 15.433797 -0.000004 0.543627
-37.212505 -22.207241 17.039293 0.681985
-36.982521 -22.447479 15.039274 0.678431
-37.062538 -22.363890 12.964147 0.167279
-37.212513 -22.207235 10.906123 0.546936
-36.982521 -22.447477 8.945332 0.678431
-37.212509 -22.207237 6.923016 0.655392
-36.982513 -22.447485 4.965926 0.678431
-37.212517 -22.207233 2.982492 0.607476
-37.212517 -22.207233 1.017507 0.691544
-50.579163 -8.244917 -0.000009 0.331985
-61.864853 3.543711 0.000032 0.534436
-66.709923 8.604689 0.000022 0.538480
-69.408379 11.423399 0.000016 0.545466
-71.131111 13.222908 0.000010 0.535049
-72.328476 14.473632 0.000003 0.473897
-73.210670 15.395144 0.000008 0.537132
-37.212505 -22.817835 17.150143 0.661029
-36.982517 -23.061449 15.135385 0.678431
-36.982525 -23.061445 13.066168 0.675368
-37.212505 -22.817835 10.971769 0.489338
-36.982529 -23.061441 8.996523 0.678431
-37.212509 -22.817829 6.959302 0.602451
-36.982513 -23.061457 4.987786 0.678431
-37.212509 -22.817833 2.989736 0.539951
-37.212509 -22.817831 1.010265 0.543260
-50.785172 -8.440719 -0.000008 0.332721
-61.988235 3.426351 0.000028 0.542525
-66.797852 8.521040 0.000018 0.534926
-69.476578 11.358524 0.000012 0.497304
-71.186714 13.170019 0.000006 0.555515
-72.375351 14.429118 0.000011 0.556373
-73.251068 15.356731 0.000006 0.536397
-37.212505 -23.437523 17.263386 0.541544
-37.179688 -23.472778 15.171072 0.529412
-37.179691 -23.472776 13.096238 0.601838
-37.212509 -23.437521 11.038833 0.540074
-37.179688 -23.472775 9.015533 0.595343
-37.212509 -23.437519 6.996372 0.715809
-37.179684 -23.472784 4.995903 0.697304
-37.212509 -23.437519 2.997133 0.699632
-37.212509 -23.437519 1.002867 0.539828
-50.992325 -8.635313 -0.000023 0.332475
-62.112427 3.309852 0.000023 0.540931
-66.886383 8.438005 0.000014 0.547549
-69.545227 11.294124 0.000006 0.553186
-71.242714 13.117563 0.000012 0.496078
-72.422501 14.384885 0.000005 0.510784
-73.291687 15.318561 -0.000011 0.524265
-37.212513 -24.066576 17.379093 0.596446
-37.212509 -24.066578 15.260434 0.518505
-37.212502 -24.066589 13.171525 0.436642
-37.212509 -24.066580 11.107351 0.597426
-37.212509 -24.066574 9.063131 0.529412
-37.212509 -24.066580 7.034248 0.636520
-37.212521 -24.066566 5.016228 0.831005
-37.212509 -24.066574 3.004691 0.603554
-37.212513 -24.066572 0.995308 0.527696
-51.201210 -8.828044 -0.000009 0.332966
-62.237427 3.194219 0.000019 0.530882
-66.975471 8.355592 0.000010 0.531373
-69.614273 11.230152 -0.000009 0.537623
-71.299049 13.065460 0.000008 0.544485
-72.469925 14.340949 -0.000010 0.535907
-73.332611 15.280707 -0.000016 0.518015
-37.212517 -24.705280 17.497326 0.443260
-37.212517 -24.705278 15.362378 0.637500
-37.212528 -24.705269 13.257404 0.695711
-37.212502 -24.705292 11.177371 0.436520
-37.212524 -24.705271 9.117430 0.630637
-37.212513 -24.705284 7.072952 0.728799
-37.212517 -24.705278 5.039418 0.424877
