# This PCD file was generated using the MATLAB® pcwrite function
# from Computer Vision Toolbox®.
# .PCD v.7 - Point Cloud Data file format
VERSION .7
FIELDS x y z intensity
SIZE 4 4 4 4
TYPE F F F F
COUNT 1 1 1 1
WIDTH 1221
HEIGHT 1
VIEWPOINT 0 0 0 1 0 0 0
POINTS 1221
DATA ascii
25.645241 -14.549880 3.651888 0.678431
25.645243 -14.549881 3.281108 0.678431
25.645243 -14.549881 2.913111 0.678431
25.611576 -14.495157 2.543926 0.116544
25.452736 -14.236964 2.176219 0.254657
25.452736 -14.236964 1.823781 0.817279
25.452734 -14.236962 1.470966 0.398652
25.452736 -14.236964 1.117014 0.698529
25.452736 -14.236964 0.761157 0.602328
25.452734 -14.236963 0.402609 0.637990
25.452734 -14.236962 0.040562 0.522794
24.662201 -12.951971 0.000021 0.544485
23.993799 -11.865498 0.000003 0.522672
25.554352 -14.549882 4.777594 0.678431
25.554352 -14.549881 4.394946 0.678431
25.554352 -14.549881 4.017671 0.678431
25.554352 -14.549880 3.644864 0.678431
25.554352 -14.549881 3.275661 0.678431
25.554352 -14.549880 2.909227 0.678431
25.505272 -14.468841 2.540102 0.120466
25.364841 -14.236963 2.175469 0.281985
25.364841 -14.236963 1.824531 0.825980
25.364841 -14.236963 1.473215 0.316299
25.364843 -14.236964 1.120769 0.803554
25.364843 -14.236964 0.766424 0.278431
25.364841 -14.236962 0.409401 0.538725
25.364841 -14.236962 0.048894 0.542892
24.607042 -12.985687 0.000013 0.578186
23.946175 -11.894465 0.000025 0.564461
25.464228 -14.549881 4.765966 0.678431
25.464230 -14.549882 4.384921 0.678431
25.464230 -14.549882 4.009225 0.678431
25.464228 -14.549880 3.637979 0.678431
25.464228 -14.549879 3.270321 0.678431
25.464228 -14.549880 2.905421 0.678431
25.401554 -14.444745 2.536463 0.114093
25.277691 -14.236963 2.174735 0.426593
25.277691 -14.236963 1.825265 0.830024
25.277691 -14.236963 1.475421 0.248897
25.277691 -14.236963 1.124449 0.751103
25.277693 -14.236963 0.771588 0.428064
25.277693 -14.236964 0.416059 0.773284
25.277691 -14.236962 0.057062 0.584069
24.551636 -13.018991 0.000011 0.530637
23.898420 -11.923215 0.000013 0.564093
25.374849 -14.549882 4.754570 0.678431
25.374851 -14.549882 4.375094 0.678431
25.374849 -14.549880 4.000946 0.678431
25.374849 -14.549881 3.631230 0.678431
25.374849 -14.549881 3.265087 0.678431
25.374849 -14.549882 2.901691 0.678431
25.331423 -14.475863 2.536025 0.160784
25.191263 -14.236965 2.174015 0.413725
25.191263 -14.236965 1.825985 0.822794
25.191263 -14.236964 1.477582 0.552451
25.191261 -14.236965 1.128056 0.664093
25.191261 -14.236964 0.776650 0.492157
25.191263 -14.236964 0.422586 0.781250
25.191261 -14.236964 0.065067 0.451593
24.495993 -13.051905 0.000010 0.531495
23.850439 -11.951586 0.000014 0.526838
25.286201 -14.549882 4.743401 0.678431
25.286201 -14.549882 4.365463 0.678431
25.286201 -14.549880 3.992833 0.678431
25.286201 -14.549880 3.624615 0.678431
25.286201 -14.549881 3.259957 0.678431
25.286201 -14.549881 2.898035 0.678431
25.231039 -14.454336 2.532630 0.160784
25.105537 -14.236963 2.173310 0.390564
25.105537 -14.236963 1.826691 0.762132
25.105537 -14.236963 1.479700 0.461275
25.105537 -14.236963 1.131592 0.434069
25.105537 -14.236964 0.781610 0.555392
25.105539 -14.236965 0.428982 0.779289
25.105537 -14.236962 0.072913 0.391054
24.440128 -13.084438 0.000006 0.517770
23.802280 -11.979654 0.000006 0.545711
25.198265 -14.549881 4.732453 0.678431
25.198265 -14.549883 4.356024 0.678431
25.198265 -14.549882 3.984880 0.678431
25.198265 -14.549881 3.618133 0.678431
25.198263 -14.549880 3.254929 0.678431
25.198265 -14.549881 2.894451 0.678431
25.128456 -14.426995 2.528960 0.160784
25.020502 -14.236963 2.172617 0.227941
25.020502 -14.236963 1.827382 0.284926
25.020502 -14.236964 1.481776 0.490809
25.020502 -14.236963 1.135057 0.757966
25.020504 -14.236965 0.786472 0.635784
25.020504 -14.236964 0.435251 0.781740
25.020502 -14.236963 0.080603 0.711397
24.384029 -13.116569 0.000005 0.535784
23.753908 -12.007353 0.000007 0.551838
25.111023 -14.549880 4.721725 0.678431
25.111023 -14.549881 4.346774 0.678431
25.111023 -14.549880 3.977087 0.678431
25.111023 -14.549880 3.611780 0.678431
25.111023 -14.549879 3.250002 0.678431
25.111023 -14.549881 2.890939 0.678431
25.032339 -14.409094 2.525876 0.160784
24.936140 -14.236964 2.171940 0.518750
24.936140 -14.236964 1.828060 0.666544
24.936140 -14.236964 1.483811 0.667034
24.936140 -14.236964 1.138453 0.730515
24.936138 -14.236962 0.791237 0.469976
24.936140 -14.236963 0.441394 0.505392
24.936138 -14.236963 0.088138 0.742402
24.327673 -13.148241 0.000021 0.558456
23.705347 -12.034721 0.000006 0.539338
25.024460 -14.549882 4.711213 0.678431
25.024460 -14.549882 4.337710 0.678431
25.024458 -14.549882 3.969452 0.678431
25.024458 -14.549880 3.605554 0.678431
25.024458 -14.549880 3.245174 0.678431
25.024458 -14.549880 2.887498 0.678431
24.960012 -14.432654 2.525166 0.160784
24.852430 -14.236964 2.171276 0.432721
24.852430 -14.236963 1.828724 0.463725
24.852430 -14.236964 1.485805 0.619363
24.852430 -14.236963 1.141781 0.435049
24.852430 -14.236963 0.795905 0.722549
24.852430 -14.236962 0.447415 0.467402
24.852430 -14.236962 0.095523 0.750858
24.271130 -13.179579 0.000022 0.540809
23.656561 -12.061684 0.000023 0.535417
24.938557 -14.549882 4.700912 0.678431
24.938557 -14.549882 4.328829 0.678431
24.938557 -14.549880 3.961969 0.668382
24.938557 -14.549881 3.599455 0.678431
24.938557 -14.549880 3.240444 0.678431
24.938557 -14.549882 2.884127 0.678431
24.866554 -14.416716 2.522280 0.160784
24.769361 -14.236962 2.170625 0.393137
24.769361 -14.236962 1.829375 0.616054
24.769361 -14.236962 1.487758 0.664706
24.769363 -14.236964 1.145041 0.445588
24.769363 -14.236964 0.800480 0.765564
24.769363 -14.236963 0.453313 0.312500
24.769363 -14.236963 0.102758 0.520711
24.214363 -13.210513 0.000025 0.535784
23.607615 -12.088354 0.000027 0.562623
24.781994 -14.415771 4.652775 0.160784
24.781994 -14.415771 4.287323 0.160784
24.781992 -14.415771 3.927001 0.160784
24.781992 -14.415770 3.570948 0.160784
24.781992 -14.415770 3.218336 0.160784
24.781992 -14.415769 2.868369 0.160784
24.771044 -14.395179 2.519131 0.160784
24.686920 -14.236962 2.169988 0.420466
24.686918 -14.236962 1.830012 0.622059
24.686918 -14.236963 1.489672 0.675858
24.686918 -14.236962 1.148236 0.504657
24.686920 -14.236963 0.804961 0.798774
24.686920 -14.236964 0.459092 0.297181
24.686918 -14.236963 0.109847 0.607721
24.157406 -13.241092 0.000018 0.528922
23.558506 -12.114725 0.000018 0.552328
24.698566 -14.415773 4.643029 0.160784
24.698565 -14.415771 4.278919 0.160784
24.698565 -14.415771 3.919921 0.160784
24.698566 -14.415772 3.565176 0.160784
24.698565 -14.415771 3.213860 0.160784
24.698565 -14.415771 2.865178 0.160784
24.677338 -14.375169 2.516114 0.160784
24.605087 -14.236964 2.169363 0.305760
24.605085 -14.236963 1.830637 0.612377
24.605087 -14.236964 1.491547 0.684069
24.605087 -14.236963 1.151365 0.491299
24.605085 -14.236963 0.809352 0.791299
24.605087 -14.236963 0.464753 0.847549
24.605085 -14.236962 0.116791 0.687868
24.100220 -13.271244 0.000017 0.550123
23.509199 -12.140724 0.000018 0.523529
24.684666 -14.549884 4.671251 0.518382
24.684666 -14.549882 4.303254 0.519730
24.684666 -14.549884 3.940423 0.520343
24.684666 -14.549883 3.581889 0.521691
24.684666 -14.549882 3.226821 0.523039
24.684666 -14.549882 2.874417 0.523652
24.609081 -14.402812 2.515777 0.160784
24.523848 -14.236964 2.168751 0.293505
24.523848 -14.236964 1.831249 0.600858
24.523848 -14.236964 1.493384 0.680760
24.523848 -14.236964 1.154431 0.529167
24.523848 -14.236963 0.813653 0.700735
24.523848 -14.236963 0.470299 0.842525
24.523848 -14.236963 0.123594 0.645221
24.042845 -13.301033 0.000008 0.494608
23.459709 -12.166375 0.000018 0.555515
24.601257 -14.549882 4.661766 0.678431
24.601257 -14.549883 4.295075 0.678431
24.601257 -14.549883 3.933533 0.678431
24.601257 -14.549881 3.576272 0.678431
24.601257 -14.549882 3.222465 0.678431
24.601257 -14.549881 2.871312 0.678431
24.526966 -14.402809 2.513945 0.160784
24.443192 -14.236964 2.168152 0.345711
24.443192 -14.236964 1.831848 0.473162
24.443190 -14.236962 1.495183 0.451225
24.443190 -14.236962 1.157433 0.434191
24.443192 -14.236964 0.817865 0.669730
24.443190 -14.236963 0.475731 0.819240
24.443190 -14.236962 0.130257 0.618627
23.985243 -13.330379 0.000008 0.534191
23.410061 -12.191713 0.000009 0.570466
24.518435 -14.549882 4.652477 0.678431
24.518435 -14.549882 4.287066 0.678431
24.518435 -14.549883 3.926785 0.678431
24.518435 -14.549883 3.570771 0.678431
24.518435 -14.549883 3.218199 0.678431
24.518435 -14.549883 2.868271 0.678431
24.445427 -14.402811 2.512151 0.160784
24.363100 -14.236964 2.167565 0.374142
24.363100 -14.236963 1.832435 0.695221
24.363100 -14.236963 1.496945 0.463725
24.363100 -14.236964 1.160374 0.355515
24.363100 -14.236964 0.821991 0.910784
24.363100 -14.236962 0.481050 0.754657
24.363100 -14.236962 0.136782 0.527819
23.927385 -13.359221 0.000034 0.518750
23.360222 -12.216679 0.000007 0.544608
24.436184 -14.549882 4.643380 0.678431
24.436184 -14.549884 4.279222 0.678431
24.436184 -14.549882 3.920177 0.678431
24.436184 -14.549883 3.565384 0.678431
24.436184 -14.549881 3.214021 0.678431
24.436184 -14.549882 2.865294 0.678431
24.364452 -14.402811 2.510395 0.160784
24.283564 -14.236964 2.166991 0.441912
24.283564 -14.236964 1.833009 0.705760
24.283562 -14.236964 1.498670 0.439706
24.283564 -14.236964 1.163253 0.376961
24.283562 -14.236962 0.826031 0.907598
24.283562 -14.236962 0.486260 0.780147
24.283562 -14.236962 0.143172 0.378064
23.869377 -13.387757 0.000035 0.548039
23.310167 -12.241207 0.000030 0.546814
24.354490 -14.549882 4.634474 0.678431
24.354490 -14.549882 4.271543 0.678431
24.354492 -14.549884 3.913708 0.678431
24.354490 -14.549882 3.560111 0.678431
24.354490 -14.549882 3.209931 0.678431
24.354490 -14.549881 2.862378 0.678431
24.284027 -14.402811 2.508675 0.160784
24.204565 -14.236962 2.166428 0.556127
24.204565 -14.236961 1.833572 0.644485
24.204565 -14.236963 1.500359 0.557476
24.204565 -14.236962 1.166072 0.324755
24.204565 -14.236963 0.829986 0.474387
24.204565 -14.236963 0.491359 0.802328
24.204565 -14.236962 0.149428 0.423284
23.811171 -13.415886 0.000037 0.516422
23.259985 -12.265472 0.000028 0.467157
24.273342 -14.549882 4.625755 0.678431
24.273344 -14.549884 4.264026 0.678431
24.273342 -14.549883 3.907374 0.678431
24.273342 -14.549881 3.554947 0.678431
24.273342 -14.549882 3.205926 0.678431
24.273342 -14.549881 2.859524 0.678431
24.204136 -14.402811 2.506992 0.160784
24.126095 -14.236964 2.165877 0.335539
24.126095 -14.236963 1.834123 0.531005
24.126095 -14.236964 1.502012 0.475858
24.126095 -14.236963 1.168832 0.334681
24.126095 -14.236963 0.833859 0.674632
24.126095 -14.236963 0.496352 0.782230
24.126095 -14.236962 0.155552 0.500490
23.752790 -13.443651 0.000029 0.572304
23.209633 -12.289384 0.000028 0.500123
24.192728 -14.549884 4.617222 0.678431
24.192726 -14.549882 4.256667 0.678431
24.192726 -14.549882 3.901175 0.678431
24.192726 -14.549882 3.549893 0.678431
24.192726 -14.549881 3.202007 0.678431
24.192726 -14.549881 2.856730 0.678431
24.124771 -14.402812 2.505344 0.160784
24.048138 -14.236964 2.165338 0.626225
24.048138 -14.236964 1.834662 0.801961
24.048138 -14.236964 1.503631 0.565931
24.048138 -14.236963 1.171534 0.349632
24.048138 -14.236963 0.837649 0.510049
24.048138 -14.236963 0.501240 0.451593
24.048138 -14.236961 0.161547 0.455882
23.694199 -13.470969 0.000029 0.542770
23.159128 -12.312971 0.000019 0.531127
24.112629 -14.549882 4.608870 0.678431
24.112629 -14.549882 4.249465 0.678431
24.112629 -14.549883 3.895108 0.678431
24.112629 -14.549881 3.544947 0.678431
24.112629 -14.549882 3.198171 0.678431
24.112629 -14.549883 2.853997 0.678431
24.045914 -14.402812 2.503732 0.160784
23.970682 -14.236963 2.164810 0.684804
23.970682 -14.236962 1.835189 0.778554
23.970682 -14.236963 1.505215 0.578431
23.970682 -14.236964 1.174177 0.543873
23.970682 -14.236964 0.841358 0.554657
23.970682 -14.236962 0.506022 0.698407
23.970682 -14.236962 0.167414 0.832475
23.635439 -13.497924 0.000019 0.524510
23.108446 -12.336176 0.000019 0.522794
24.033037 -14.549882 4.600696 0.678431
24.033037 -14.549882 4.242418 0.678431
24.033037 -14.549882 3.889171 0.678431
24.033037 -14.549881 3.540107 0.678431
24.033037 -14.549882 3.194417 0.678431
24.033037 -14.549881 2.851321 0.678431
23.967556 -14.402812 2.502154 0.160784
23.893717 -14.236965 2.164294 0.657108
23.893717 -14.236965 1.835706 0.449510
23.893717 -14.236963 1.506765 0.600613
23.893717 -14.236963 1.176764 0.582721
23.893717 -14.236963 0.844988 0.346569
23.893717 -14.236963 0.510702 0.735417
23.893717 -14.236964 0.173155 0.802451
23.576479 -13.524435 0.000017 0.524020
23.057623 -12.359068 0.000008 0.555270
23.953938 -14.549881 4.592700 0.678431
23.953938 -14.549884 4.235525 0.678431
23.953938 -14.549882 3.883363 0.678431
23.953938 -14.549883 3.535373 0.678431
23.953938 -14.549883 3.190745 0.678431
23.953938 -14.549882 2.848704 0.678431
23.889683 -14.402810 2.500610 0.160784
23.817226 -14.236963 2.163789 0.847794
23.817226 -14.236963 1.836211 0.716912
23.817226 -14.236962 1.508281 0.532843
23.817226 -14.236963 1.179295 0.646201
23.817226 -14.236964 0.848539 0.387500
23.817226 -14.236964 0.515281 0.702574
23.817226 -14.236963 0.178771 0.833578
23.517334 -13.550535 0.000013 0.521814
23.006622 -12.381565 0.000007 0.523775
23.875319 -14.549883 4.584880 0.678431
23.875319 -14.549882 4.228781 0.678431
23.875319 -14.549882 3.877682 0.678431
23.875319 -14.549882 3.530741 0.678431
23.875319 -14.549881 3.187153 0.678431
23.875319 -14.549882 2.846144 0.678431
23.812284 -14.402810 2.499099 0.160784
23.741201 -14.236963 2.163295 0.595098
23.741201 -14.236963 1.836705 0.822794
23.741203 -14.236963 1.509765 0.551348
23.741201 -14.236964 1.181771 0.792402
23.741201 -14.236962 0.852012 0.405147
23.741201 -14.236963 0.519760 0.755882
23.741201 -14.236961 0.184265 0.834804
23.458004 -13.576211 0.000013 0.513848
22.955471 -12.403713 0.000004 0.531985
23.797171 -14.549883 4.577231 0.678431
23.797171 -14.549881 4.222186 0.678431
23.797171 -14.549882 3.872126 0.678431
23.797171 -14.549881 3.526211 0.678431
23.797171 -14.549882 3.183640 0.678431
23.797171 -14.549881 2.843640 0.678431
23.735348 -14.402811 2.497623 0.160784
23.665632 -14.236963 2.162812 0.733088
23.665632 -14.236963 1.837188 0.804657
23.665632 -14.236963 1.511215 0.642892
23.665632 -14.236963 1.184192 0.787745
23.665632 -14.236964 0.855409 0.519975
23.665632 -14.236964 0.524140 0.772794
23.665632 -14.236964 0.189638 0.650123
23.398495 -13.601469 0.000014 0.503431
22.904203 -12.425596 -0.000024 0.566054
23.719479 -14.549882 4.569753 0.678431
23.719479 -14.549882 4.215738 0.678431
23.719479 -14.549881 3.866693 0.678431
23.719479 -14.549882 3.521783 0.678431
23.719479 -14.549881 3.180206 0.678431
23.719479 -14.549882 2.841192 0.678431
23.658861 -14.402811 2.496179 0.160784
23.590504 -14.236963 2.162339 0.684069
23.590504 -14.236963 1.837661 0.791176
23.590504 -14.236964 1.512634 0.509559
23.590504 -14.236963 1.186559 0.838113
23.590504 -14.236964 0.858730 0.595588
23.590504 -14.236963 0.528422 0.527451
23.590504 -14.236964 0.194891 0.614461
23.338825 -13.626344 0.000007 0.520343
22.852753 -12.447048 -0.000032 0.531618
23.642233 -14.549882 4.562441 0.678431
23.642233 -14.549882 4.209434 0.678431
23.642233 -14.549882 3.861382 0.678431
23.642233 -14.549881 3.517453 0.678431
23.642233 -14.549881 3.176848 0.678431
23.642233 -14.549880 2.838799 0.678431
23.582813 -14.402811 2.494767 0.160784
23.515806 -14.236963 2.161877 0.665809
23.515806 -14.236963 1.838122 0.822059
23.515806 -14.236964 1.514020 0.783701
23.515804 -14.236962 1.188874 0.822181
23.515806 -14.236962 0.861977 0.730760
23.515806 -14.236962 0.532609 0.306127
23.515806 -14.236963 0.200027 0.722059
23.278965 -13.650763 0.000008 0.526103
22.801126 -12.468068 -0.000021 0.526471
23.565422 -14.549883 4.555297 0.678431
23.565422 -14.549883 4.203273 0.678431
23.565422 -14.549881 3.856192 0.678431
23.565422 -14.549881 3.513222 0.678431
23.565422 -14.549882 3.173567 0.678431
23.565422 -14.549881 2.836460 0.678431
23.507193 -14.402810 2.493387 0.160784
23.441528 -14.236962 2.161426 0.769853
23.441528 -14.236962 1.838574 0.713235
23.441528 -14.236962 1.515375 0.418627
23.441528 -14.236963 1.191136 0.468750
23.441528 -14.236963 0.865151 0.747059
23.441528 -14.236963 0.536701 0.381495
23.441528 -14.236961 0.205046 0.657108
23.218893 -13.674651 0.000036 0.534559
22.749369 -12.488766 -0.000020 0.533578
23.489035 -14.549882 4.548314 0.678431
23.489035 -14.549882 4.197253 0.678431
23.489035 -14.549881 3.851120 0.678431
23.489035 -14.549882 3.509087 0.678431
23.489035 -14.549882 3.170360 0.678431
23.489035 -14.549881 2.834175 0.678431
23.431990 -14.402812 2.492039 0.160784
23.367661 -14.236964 2.160985 0.443137
23.367661 -14.236964 1.839015 0.596936
23.367662 -14.236963 1.516699 0.597059
23.367662 -14.236963 1.193346 0.867892
23.367661 -14.236963 0.868251 0.535049
23.367661 -14.236962 0.540699 0.413971
23.367661 -14.236962 0.209950 0.425858
23.158806 -13.698501 -0.000025 0.524020
22.697468 -12.509098 -0.000018 0.555270
23.413059 -14.549883 4.541495 0.678431
23.413059 -14.549882 4.191373 0.678431
23.413059 -14.549881 3.846166 0.678431
23.413059 -14.549881 3.505049 0.678431
23.413059 -14.549881 3.167228 0.678431
23.413059 -14.549882 2.831942 0.678431
23.357193 -14.402812 2.490723 0.160784
23.294193 -14.236963 2.160554 0.442770
23.294193 -14.236963 1.839446 0.272917
23.294193 -14.236962 1.517993 0.586275
23.294193 -14.236964 1.195504 0.880637
23.294193 -14.236962 0.871280 0.643627
23.294193 -14.236962 0.544605 0.257598
23.294193 -14.236962 0.214741 0.533211
23.098452 -13.721669 -0.000025 0.537255
22.645424 -12.529069 -0.000017 0.524387
23.337486 -14.549881 4.534834 0.678431
23.337486 -14.549881 4.185630 0.678431
23.337486 -14.549882 3.841328 0.678431
23.337486 -14.549881 3.501104 0.678431
23.337486 -14.549882 3.164169 0.678431
23.337486 -14.549880 2.829762 0.678431
23.282791 -14.402812 2.489437 0.160784
23.221113 -14.236963 2.160133 0.579534
23.221113 -14.236963 1.839867 0.744363
23.221113 -14.236962 1.519256 0.572794
23.221113 -14.236962 1.197613 0.868873
23.221113 -14.236963 0.874238 0.617647
23.221113 -14.236962 0.548419 0.528799
23.221111 -14.236961 0.219420 0.552819
23.037956 -13.744468 -0.000037 0.571936
22.593267 -12.548737 -0.000031 0.521324
23.262304 -14.549882 4.528332 0.678431
23.262304 -14.549882 4.180023 0.678431
23.262304 -14.549882 3.836605 0.678431
23.262304 -14.549881 3.497253 0.678431
23.262304 -14.549880 3.161182 0.678431
23.262304 -14.549881 2.827633 0.678431
23.208775 -14.402811 2.488181 0.160784
23.148411 -14.236963 2.159723 0.419730
23.148411 -14.236963 1.840277 0.540196
23.148411 -14.236964 1.520489 0.620833
23.148411 -14.236962 1.199671 0.867279
23.148411 -14.236962 0.877126 0.663848
23.148411 -14.236963 0.552142 0.470343
23.148411 -14.236961 0.223987 0.380760
22.977283 -13.766791 -0.000037 0.526838
22.540951 -12.567980 -0.000030 0.511397
23.187504 -14.549882 4.521984 0.678431
23.187504 -14.549882 4.174551 0.678431
23.187504 -14.549882 3.831994 0.678431
23.187504 -14.549882 3.493495 0.678431
23.187504 -14.549881 3.158267 0.678431
23.187504 -14.549881 2.825556 0.678431
23.135134 -14.402812 2.486956 0.160784
23.076078 -14.236963 2.159322 0.428431
23.076078 -14.236963 1.840678 0.481127
23.076078 -14.236963 1.521693 0.370221
23.076078 -14.236963 1.201680 0.440931
23.076078 -14.236963 0.879945 0.626838
23.076078 -14.236963 0.555777 0.465441
23.076078 -14.236962 0.228445 0.410049
22.916435 -13.788636 -0.000025 0.541667
22.488487 -12.586817 -0.000018 0.548897
23.113073 -14.549880 4.515791 0.678431
23.113073 -14.549881 4.169210 0.678431
23.113073 -14.549881 3.827495 0.678431
23.113073 -14.549881 3.489828 0.678431
23.113075 -14.549881 3.155423 0.678431
23.113075 -14.549882 2.823529 0.678431
23.061859 -14.402810 2.485759 0.160784
23.004105 -14.236962 2.158931 0.528064
23.004105 -14.236962 1.841070 0.595711
23.004105 -14.236962 1.522867 0.644853
23.004105 -14.236963 1.203640 0.874142
23.004105 -14.236963 0.882695 0.563235
23.004105 -14.236963 0.559323 0.630270
23.004105 -14.236962 0.232796 0.635172
22.855400 -13.809943 0.000014 0.533701
22.435902 -12.605309 -0.000012 0.539828
23.039005 -14.549881 4.509751 0.678431
23.039005 -14.549882 4.164002 0.678431
23.039005 -14.549881 3.823108 0.678431
23.039005 -14.549882 3.486251 0.678431
23.039005 -14.549881 3.152649 0.678431
23.039005 -14.549881 2.821551 0.678431
22.988939 -14.402811 2.484593 0.160784
22.932480 -14.236963 2.158549 0.579657
22.932480 -14.236963 1.841451 0.600980
22.932480 -14.236963 1.524013 0.645098
22.932480 -14.236963 1.205552 0.854902
22.932480 -14.236964 0.885378 0.607353
22.932480 -14.236962 0.562782 0.632598
22.932480 -14.236962 0.237038 0.683701
22.794289 -13.831030 0.000004 0.549020
22.383207 -12.623487 -0.000020 0.563480
22.965288 -14.549882 4.503862 0.678431
22.965288 -14.549881 4.158924 0.678431
22.965288 -14.549881 3.818829 0.678431
22.965288 -14.549882 3.482763 0.678431
22.965288 -14.549881 3.149944 0.678431
22.965288 -14.549882 2.819623 0.678431
22.916365 -14.402811 2.483456 0.160784
22.861195 -14.236963 2.158177 0.572917
22.861195 -14.236963 1.841823 0.570711
22.861195 -14.236962 1.525130 0.602819
22.861195 -14.236963 1.207417 0.849877
22.861195 -14.236962 0.887994 0.606618
22.861195 -14.236962 0.566155 0.642402
22.861195 -14.236962 0.241176 0.679044
22.733015 -13.851645 0.000006 0.512745
22.330376 -12.641264 -0.000020 0.541176
22.891912 -14.549883 4.498121 0.678431
22.891912 -14.549882 4.153974 0.678431
22.891912 -14.549881 3.814660 0.678431
22.891912 -14.549882 3.479363 0.678431
22.891912 -14.549881 3.147308 0.678431
22.891912 -14.549882 2.817744 0.678431
22.844126 -14.402811 2.482348 0.160784
22.790239 -14.236963 2.157814 0.366789
22.790239 -14.236963 1.842186 0.581373
22.790239 -14.236963 1.526219 0.614093
22.790239 -14.236963 1.209234 0.809804
22.790239 -14.236963 0.890543 0.663358
22.790239 -14.236963 0.569443 0.644853
22.790239 -14.236962 0.245209 0.681740
22.671623 -13.871897 -0.000008 0.535417
22.277407 -12.658627 -0.000007 0.542647
22.818869 -14.549881 4.492527 0.678431
22.818869 -14.549882 4.149152 0.678431
22.818869 -14.549882 3.810596 0.678431
22.818869 -14.549881 3.476051 0.678431
22.818869 -14.549880 3.144739 0.678431
22.818869 -14.549881 2.815913 0.678431
22.772215 -14.402811 2.481268 0.160784
22.719606 -14.236964 2.157461 0.316544
22.719606 -14.236964 1.842539 0.430760
22.719604 -14.236963 1.527280 0.420588
22.719604 -14.236964 1.211004 0.583824
22.719604 -14.236963 0.893027 0.424755
22.719604 -14.236962 0.572645 0.407108
22.719604 -14.236961 0.249137 0.414216
22.610067 -13.891653 -0.000007 0.511520
22.224333 -12.675665 -0.000006 0.531495
22.746147 -14.549882 4.487081 0.678431
22.746147 -14.549881 4.144454 0.678431
22.746147 -14.549882 3.806640 0.678431
22.746147 -14.549881 3.472825 0.678431
22.746147 -14.549881 3.142237 0.678431
22.746147 -14.549881 2.814130 0.678431
22.700623 -14.402811 2.480216 0.160784
22.649284 -14.236964 2.157117 0.351961
22.649284 -14.236964 1.842883 0.680147
22.649282 -14.236963 1.528313 0.544240
22.649284 -14.236964 1.212729 0.604902
22.649282 -14.236962 0.895446 0.318627
22.649282 -14.236963 0.575765 0.690686
22.649282 -14.236961 0.252964 0.462868
22.548367 -13.910957 0.000000 0.562132
22.171131 -12.692301 0.000002 0.564583
22.673740 -14.549883 4.481778 0.678431
22.673740 -14.549882 4.139883 0.678431
22.673740 -14.549880 3.802787 0.678431
22.673740 -14.549880 3.469685 0.678431
22.673740 -14.549882 3.139802 0.678431
22.673740 -14.549880 2.812394 0.678431
22.629337 -14.402810 2.479192 0.160784
22.579266 -14.236962 2.156782 0.448897
22.579266 -14.236962 1.843218 0.681740
22.579266 -14.236962 1.529319 0.433211
22.579266 -14.236962 1.214407 0.592770
22.579266 -14.236963 0.897801 0.437132
22.579266 -14.236963 0.578801 0.706495
22.579266 -14.236962 0.256688 0.430515
22.486542 -13.929851 0.000002 0.528554
22.117832 -12.708620 -0.000004 0.531863
22.601639 -14.549882 4.476618 0.678431
22.601639 -14.549882 4.135434 0.678431
22.601639 -14.549882 3.799040 0.678431
22.601637 -14.549880 3.466629 0.678431
22.601637 -14.549881 3.137432 0.678431
22.601637 -14.549879 2.810705 0.678431
22.558352 -14.402810 2.478196 0.160784
22.509541 -14.236962 2.156456 0.680760
22.509541 -14.236962 1.843544 0.644363
22.509541 -14.236963 1.530297 0.473652
22.509541 -14.236961 1.216041 0.635294
22.509541 -14.236962 0.900093 0.731250
22.509541 -14.236961 0.581757 0.675490
22.509541 -14.236962 0.260313 0.557966
22.424612 -13.948401 -0.000017 0.574387
22.064421 -12.724573 -0.000011 0.549510
22.529831 -14.549882 4.471600 0.678431
22.529831 -14.549883 4.131107 0.678431
22.529831 -14.549881 3.795394 0.678431
22.529831 -14.549880 3.463657 0.678431
22.529831 -14.549880 3.135128 0.678431
22.529831 -14.549881 2.809062 0.678431
22.487659 -14.402810 2.477227 0.160784
22.440104 -14.236964 2.156139 0.677819
22.440104 -14.236964 1.843861 0.290809
22.440104 -14.236962 1.531249 0.415441
22.440102 -14.236961 1.217629 0.503431
22.440102 -14.236962 0.902322 0.749755
22.440102 -14.236962 0.584630 0.495221
22.440104 -14.236964 0.263837 0.398897
22.362522 -13.966406 -0.000010 0.541299
22.010883 -12.740094 -0.000003 0.532353
22.458311 -14.549882 4.466722 0.678431
22.458311 -14.549881 4.126901 0.678431
22.458311 -14.549881 3.791851 0.678431
22.458311 -14.549880 3.460769 0.678431
22.458311 -14.549881 3.132887 0.678431
22.458311 -14.549880 2.807466 0.678431
22.417248 -14.402813 2.476285 0.160784
22.370943 -14.236963 2.155831 0.859804
22.370943 -14.236963 1.844169 0.789951
22.370943 -14.236963 1.532174 0.563848
22.370943 -14.236963 1.219173 0.724020
22.370943 -14.236962 0.904488 0.865074
22.370943 -14.236963 0.587423 0.837010
22.370943 -14.236962 0.267264 0.593627
22.300316 -13.984010 -0.000010 0.518015
21.957235 -12.755228 0.000009 0.544240
22.387070 -14.549880 4.461983 0.678431
22.387070 -14.549881 4.122814 0.678431
22.387070 -14.549881 3.788409 0.678431
22.387070 -14.549880 3.457963 0.678431
22.387070 -14.549880 3.130711 0.678431
22.387070 -14.549882 2.805915 0.678431
22.347111 -14.402811 2.475370 0.160784
22.302052 -14.236964 2.155531 0.862623
22.302052 -14.236964 1.844469 0.837377
22.302052 -14.236962 1.533073 0.535172
22.302052 -14.236964 1.220673 0.569118
22.302052 -14.236960 0.906593 0.860662
22.302052 -14.236961 0.590137 0.852574
22.302052 -14.236963 0.270593 0.573039
22.237991 -14.001185 -0.000012 0.549387
21.903496 -12.770035 0.000007 0.520711
22.316099 -14.549883 4.457382 0.678431
22.316097 -14.549882 4.118848 0.678431
22.316097 -14.549881 3.785066 0.678431
22.316097 -14.549881 3.455238 0.678431
22.316097 -14.549881 3.128598 0.678431
22.316097 -14.549881 2.804408 0.678431
22.277241 -14.402813 2.474482 0.160784
22.233421 -14.236963 2.155241 0.836275
22.233421 -14.236963 1.844759 0.712868
22.233421 -14.236965 1.533945 0.565564
22.233421 -14.236963 1.222130 0.620833
22.233421 -14.236962 0.908636 0.837745
22.233421 -14.236963 0.592772 0.607108
22.233421 -14.236962 0.273825 0.583701
22.175545 -14.017905 -0.000009 0.578064
21.849663 -12.784494 -0.000001 0.538725
22.245386 -14.549882 4.452917 0.678431
22.245388 -14.549883 4.114998 0.678431
22.245386 -14.549882 3.781823 0.678431
22.245386 -14.549881 3.452594 0.697181
22.245386 -14.549880 3.126547 0.678431
22.245386 -14.549881 2.802947 0.692402
22.207626 -14.402812 2.473620 0.160784
22.165043 -14.236964 2.154958 0.858456
22.165043 -14.236964 1.845042 0.761887
22.165043 -14.236963 1.534792 0.599755
22.165043 -14.236964 1.223543 0.698162
22.165043 -14.236961 0.910619 0.847917
22.165043 -14.236962 0.595329 0.664706
22.165043 -14.236962 0.276961 0.596936
22.112972 -14.034157 0.000001 0.556863
21.795712 -12.798509 0.000008 0.509069
22.141493 -14.415771 4.413966 0.160784
22.141493 -14.415772 4.081413 0.160784
22.141493 -14.415771 3.753529 0.160784
22.141493 -14.415771 3.429528 0.160784
22.141493 -14.415771 3.108659 0.160784
22.141493 -14.415771 2.790197 0.160784
22.138262 -14.402813 2.472784 0.160784
22.096910 -14.236963 2.154685 0.864093
22.096910 -14.236963 1.845315 0.777328
22.096910 -14.236963 1.535613 0.510784
22.096910 -14.236964 1.224913 0.615564
22.096910 -14.236963 0.912542 0.787010
22.096910 -14.236962 0.597808 0.721446
22.096910 -14.236963 0.280002 0.519363
22.050299 -14.050016 0.000001 0.521691
21.741684 -12.812231 -0.000004 0.526471
22.072273 -14.415771 4.409830 0.160784
22.072273 -14.415772 4.077847 0.160784
22.072273 -14.415771 3.750525 0.160784
22.072273 -14.415772 3.427078 0.160784
22.072273 -14.415771 3.106759 0.160784
22.072273 -14.415771 2.788843 0.160784
22.069138 -14.402812 2.471974 0.160784
22.029015 -14.236963 2.154420 0.659314
22.029015 -14.236963 1.845580 0.803064
22.029015 -14.236962 1.536409 0.444240
22.029015 -14.236963 1.226241 0.805270
22.029015 -14.236961 0.914405 0.617647
22.029015 -14.236962 0.600211 0.783824
22.029015 -14.236961 0.282950 0.433946
21.987528 -14.065476 -0.000008 0.532475
21.687559 -12.825554 -0.000011 0.517279
22.034740 -14.549884 4.440331 0.652696
22.034740 -14.549884 4.104145 0.660662
22.034740 -14.549883 3.772680 0.661397
22.034740 -14.549882 3.445140 0.664583
22.034740 -14.549883 3.120766 0.668382
22.034740 -14.549882 2.798826 0.670343
22.000246 -14.402813 2.471190 0.160784
21.961346 -14.236964 2.154163 0.686765
21.961346 -14.236964 1.845837 0.785417
21.961346 -14.236964 1.537179 0.515809
21.961346 -14.236963 1.227527 0.731863
21.961346 -14.236963 0.916209 0.326716
21.961346 -14.236962 0.602536 0.786274
21.961346 -14.236962 0.285803 0.523652
21.924633 -14.080439 -0.000004 0.532475
21.633326 -12.838444 -0.000003 0.550000
21.964994 -14.549883 4.436400 0.678431
21.964994 -14.549884 4.100757 0.678431
21.964994 -14.549884 3.769825 0.678431
21.964994 -14.549883 3.442813 0.678431
21.964994 -14.549883 3.118962 0.678431
21.964994 -14.549883 2.797540 0.678431
21.931580 -14.402814 2.470431 0.160784
21.893900 -14.236964 2.153915 0.667770
21.893900 -14.236964 1.846085 0.818873
21.893900 -14.236965 1.537924 0.478064
21.893900 -14.236963 1.228771 0.510907
21.893900 -14.236963 0.917954 0.369240
21.893900 -14.236963 0.604787 0.367892
21.893900 -14.236962 0.288563 0.464951
21.861645 -14.094992 -0.000006 0.524387
21.579014 -12.850982 -0.000003 0.541176
21.895468 -14.549885 4.432602 0.678431
21.895468 -14.549883 4.097481 0.678431
21.895468 -14.549883 3.767066 0.678431
21.895468 -14.549883 3.440564 0.678431
21.895468 -14.549883 3.117217 0.678431
21.895468 -14.549882 2.796297 0.678431
21.863132 -14.402811 2.469697 0.160784
21.826668 -14.236963 2.153675 0.726103
21.826668 -14.236963 1.846325 0.821814
21.826668 -14.236963 1.538645 0.458088
21.826668 -14.236962 1.229974 0.520833
21.826668 -14.236963 0.919641 0.522059
21.826668 -14.236963 0.606962 0.501838
21.826668 -14.236960 0.291233 0.486887
21.798552 -14.109088 -0.000004 0.569975
21.524618 -12.863165 -0.000009 0.530760
21.826155 -14.549883 4.428932 0.678431
21.826155 -14.549884 4.094317 0.678431
21.826155 -14.549882 3.764400 0.678431
21.826155 -14.549882 3.438390 0.678431
21.826153 -14.549881 3.115532 0.678431
21.826155 -14.549881 2.795095 0.678431
21.794893 -14.402812 2.468989 0.160784
21.759642 -14.236964 2.153443 0.715686
21.759642 -14.236964 1.846557 0.804779
21.759642 -14.236962 1.539341 0.581005
21.759642 -14.236961 1.231135 0.525858
21.759642 -14.236961 0.921271 0.482108
21.759642 -14.236962 0.609064 0.536029
21.759642 -14.236962 0.293810 0.264583
21.735373 -14.122790 -0.000014 0.535907
21.470142 -12.874982 -0.000019 0.514583
21.757048 -14.549884 4.425392 0.678431
21.757048 -14.549883 4.091265 0.678431
21.757046 -14.549881 3.761828 0.678431
21.757046 -14.549881 3.436294 0.678431
21.757048 -14.549883 3.113906 0.678431
21.757048 -14.549882 2.793936 0.678431
21.726856 -14.402810 2.468305 0.160784
21.692814 -14.236963 2.153220 0.526593
21.692814 -14.236963 1.846780 0.626716
21.692814 -14.236961 1.540012 0.659069
21.692814 -14.236963 1.232256 0.608578
21.692814 -14.236963 0.922843 0.300245
21.692814 -14.236962 0.611091 0.510662
21.692814 -14.236961 0.296296 0.366789
21.672083 -14.135971 -0.000005 0.509191
21.415571 -12.886347 -0.000010 0.478922
21.688137 -14.549884 4.421981 0.678431
21.688137 -14.549882 4.088323 0.678431
21.688137 -14.549883 3.759350 0.678431
21.688137 -14.549883 3.434274 0.678431
21.688137 -14.549884 3.112339 0.678431
21.688137 -14.549881 2.792820 0.678431
21.626177 -14.236963 2.459341 0.855515
21.626177 -14.236963 2.153004 0.593137
21.626177 -14.236963 1.846996 0.510417
21.626177 -14.236962 1.540659 0.557353
21.626177 -14.236961 1.233336 0.612010
21.626179 -14.236964 0.924358 0.257843
21.626177 -14.236962 0.613045 0.383701
21.626177 -14.236961 0.298693 0.472794
21.608725 -14.148814 -0.000019 0.519118
21.360935 -12.897394 -0.000017 0.547059
21.619417 -14.549882 4.418696 0.678431
21.619417 -14.549883 4.085491 0.678431
21.619417 -14.549884 3.756965 0.678431
21.619417 -14.549882 3.432328 0.678431
21.619417 -14.549882 3.110830 0.678431
21.619417 -14.549883 2.791745 0.678431
21.559725 -14.236964 2.458718 0.850368
21.559725 -14.236964 2.152797 0.552328
21.559725 -14.236964 1.847203 0.230515
21.559725 -14.236964 1.541282 0.503431
21.559725 -14.236964 1.234375 0.617770
21.559725 -14.236963 0.925817 0.337255
21.559725 -14.236964 0.614925 0.357475
21.559725 -14.236962 0.301000 0.476348
21.545256 -14.161111 -0.000010 0.530147
21.306202 -12.907954 0.000002 0.523162
21.550880 -14.549883 4.415539 0.678431
21.550880 -14.549882 4.082768 0.678431
21.550880 -14.549883 3.754671 0.678431
21.550880 -14.549882 3.430459 0.678431
21.550880 -14.549882 3.109380 0.678431
21.550880 -14.549882 2.790711 0.678431
21.493450 -14.236964 2.458119 0.862623
21.493450 -14.236965 2.152597 0.609681
21.493450 -14.236965 1.847403 0.770466
21.493450 -14.236963 1.541881 0.523529
21.493448 -14.236962 1.235375 0.555025
21.493448 -14.236962 0.927220 0.384926
21.493450 -14.236962 0.616734 0.334804
21.493448 -14.236962 0.303218 0.462132
21.481710 -14.173008 -0.000011 0.516912
21.251413 -12.918209 0.000001 0.535172
21.482519 -14.549883 4.412506 0.678431
21.482519 -14.549883 4.080153 0.678431
21.482519 -14.549883 3.752468 0.678431
21.482519 -14.549883 3.428663 0.678431
21.482519 -14.549882 3.107987 0.678431
21.482519 -14.549882 2.789718 0.678431
21.427343 -14.236962 2.457544 0.863480
21.427343 -14.236964 2.152406 0.634681
21.427343 -14.236964 1.847594 0.661029
21.427343 -14.236961 1.542456 0.598039
21.427343 -14.236962 1.236335 0.223529
21.427343 -14.236962 0.928566 0.302696
21.427343 -14.236963 0.618470 0.353922
21.427343 -14.236962 0.305348 0.423407
21.418076 -14.184409 -0.000001 0.551103
21.196545 -12.928040 0.000011 0.521814
21.414326 -14.549882 4.409598 0.678431
21.414326 -14.549882 4.077646 0.678431
21.414326 -14.549882 3.750356 0.678431
21.414326 -14.549883 3.426941 0.678431
21.414326 -14.549881 3.106652 0.678431
21.414326 -14.549882 2.788767 0.678431
21.361399 -14.236963 2.456992 0.610907
21.361399 -14.236963 2.152222 0.591912
21.361399 -14.236963 1.847778 0.497426
21.361399 -14.236962 1.543008 0.422917
21.361399 -14.236962 1.237255 0.231005
21.361399 -14.236961 0.929858 0.276716
21.361399 -14.236962 0.620136 0.375368
21.361399 -14.236960 0.307391 0.319118
21.354370 -14.195406 0.000000 0.537132
21.141617 -12.937525 0.000012 0.529657
21.346294 -14.549883 4.406815 0.678431
21.346294 -14.549883 4.075247 0.678431
21.346294 -14.549883 3.748334 0.678431
21.346294 -14.549883 3.425293 0.678431
21.346294 -14.549881 3.105374 0.678431
21.346294 -14.549883 2.787856 0.678431
21.295612 -14.236962 2.456464 0.856740
21.295612 -14.236962 2.152046 0.556985
21.295612 -14.236962 1.847954 0.564216
21.295612 -14.236961 1.543536 0.544118
21.295612 -14.236962 1.238137 0.304289
21.295612 -14.236962 0.931094 0.260417
21.295612 -14.236962 0.621729 0.353676
21.295612 -14.236961 0.309345 0.468995
21.290598 -14.206007 -0.000009 0.519975
21.086628 -12.946661 0.000004 0.531495
21.278416 -14.549883 4.404155 0.678431
21.278416 -14.549883 4.072954 0.678431
21.278416 -14.549883 3.746402 0.678431
21.278416 -14.549883 3.423717 0.678431
21.278416 -14.549882 3.104152 0.678431
21.278414 -14.549882 2.786985 0.678431
21.229973 -14.236962 2.455960 0.861887
21.229973 -14.236963 2.151878 0.588358
21.229973 -14.236963 1.848122 0.534191
21.229973 -14.236962 1.544040 0.540809
21.229973 -14.236962 1.238979 0.289093
21.229973 -14.236962 0.932275 0.704044
21.229973 -14.236964 0.623252 0.811520
21.229973 -14.236962 0.311214 0.684559
21.226751 -14.216160 -0.000018 0.532598
20.882645 -11.993362 0.243848 0.094118
21.210682 -14.549883 4.401618 0.678431
21.210682 -14.549883 4.070766 0.678431
21.210684 -14.549883 3.744559 0.678431
21.210682 -14.549882 3.422215 0.678431
21.210682 -14.549882 3.102987 0.678431
21.210682 -14.549883 2.786154 0.678431
21.164474 -14.236963 2.455479 0.863358
21.164474 -14.236962 2.151718 0.586887
21.164474 -14.236962 1.848282 0.544118
21.164474 -14.236962 1.544521 0.562377
21.164474 -14.236962 1.239782 0.272672
21.164474 -14.236961 0.933402 0.733578
21.164474 -14.236962 0.624705 0.826593
21.164474 -14.236961 0.312996 0.648529
21.164474 -14.236963 -0.002449 0.600735
20.832739 -11.990452 0.246438 0.094118
21.143089 -14.549882 4.399203 0.678431
21.143089 -14.549883 4.068684 0.678431
21.143089 -14.549882 3.742805 0.678431
21.143089 -14.549882 3.420785 0.678431
21.143089 -14.549882 3.101878 0.678431
21.143089 -14.549883 2.785364 0.678431
21.099112 -14.236962 2.455021 0.798039
21.099112 -14.236962 2.151565 0.589583
21.099112 -14.236962 1.848435 0.564951
21.099112 -14.236962 1.544979 0.521201
21.099112 -14.236963 1.240546 0.341912
21.099112 -14.236962 0.934474 0.466912
21.099112 -14.236962 0.626088 0.407598
21.099112 -14.236962 0.314693 0.525490
21.099112 -14.236962 -0.000435 0.826348
20.921289 -12.971693 -0.000002 0.568750
21.075628 -14.549882 4.396910 0.678431
21.075628 -14.549882 4.066706 0.678431
21.075628 -14.549882 3.741138 0.678431
21.075628 -14.549882 3.419427 0.678431
21.075628 -14.549882 3.100825 0.678431
21.075628 -14.549881 2.784613 0.678431
21.033876 -14.236962 2.454586 0.806495
21.033876 -14.236962 2.151421 0.588480
21.033876 -14.236962 1.848580 0.558946
21.033876 -14.236961 1.545414 0.376593
21.033876 -14.236961 1.241272 0.416054
21.033876 -14.236962 0.935493 0.623775
21.033876 -14.236961 0.627402 0.572917
21.033876 -14.236961 0.316303 0.588603
21.033876 -14.236960 0.001477 0.837990
20.866058 -12.979229 0.000005 0.526716
21.008295 -14.549883 4.394738 0.678431
21.008295 -14.549882 4.064834 0.678431
21.008295 -14.549881 3.739561 0.678431
21.008295 -14.549883 3.418140 0.678431
21.008295 -14.549882 3.099827 0.678431
21.008295 -14.549883 2.783902 0.678431
20.968763 -14.236962 2.454174 0.643382
20.968763 -14.236962 2.151283 0.406373
20.968763 -14.236962 1.848717 0.464338
20.968763 -14.236962 1.545826 0.528309
20.968763 -14.236962 1.241959 0.412377
20.968763 -14.236961 0.936458 0.456495
20.968763 -14.236962 0.628645 0.573652
20.968763 -14.236961 0.317830 0.552451
20.968763 -14.236962 0.003288 0.536397
20.810785 -12.986435 -0.000002 0.527819
20.941078 -14.549882 4.392686 0.678431
20.941078 -14.549882 4.063064 0.678431
20.941078 -14.549881 3.738070 0.678431
20.941078 -14.549882 3.416926 0.678431
20.941078 -14.549883 3.098885 0.678431
20.941078 -14.549881 2.783230 0.678431
20.903765 -14.236962 2.453784 0.675980
20.903765 -14.236964 2.151153 0.390809
20.903765 -14.236964 1.848846 0.551838
20.903765 -14.236962 1.546215 0.524510
20.903765 -14.236963 1.242609 0.478799
20.903765 -14.236963 0.937369 0.636397
20.903765 -14.236960 0.629821 0.582108
20.903765 -14.236962 0.319271 0.697426
20.903765 -14.236961 0.004999 0.694118
20.636297 -11.993901 0.252090 0.094118
20.873974 -14.549883 4.390754 0.678431
20.873974 -14.549882 4.061398 0.678431
20.873974 -14.549882 3.736667 0.678431
20.873974 -14.549882 3.415781 0.678431
20.873974 -14.549882 3.097998 0.678431
20.873974 -14.549882 2.782598 0.678431
20.838875 -14.236963 2.453418 0.627206
20.838875 -14.236964 2.151031 0.441544
20.838875 -14.236964 1.848969 0.537623
20.838875 -14.236963 1.546582 0.446814
20.838875 -14.236962 1.243221 0.367525
20.838875 -14.236962 0.938227 0.602206
20.838875 -14.236963 0.630927 0.616544
20.838875 -14.236963 0.320628 0.775613
20.586687 -11.988651 0.495244 0.094118
20.700087 -12.999638 -0.000002 0.521814
20.806976 -14.549882 4.388941 0.678431
20.806976 -14.549883 4.059835 0.678431
20.806976 -14.549883 3.735350 0.678431
20.806976 -14.549882 3.414709 0.678431
20.806976 -14.549882 3.097165 0.678431
20.806976 -14.549882 2.782005 0.678431
20.774086 -14.236962 2.453074 0.656740
20.774086 -14.236962 2.150917 0.734681
20.774086 -14.236962 1.849083 0.303186
20.774086 -14.236962 1.546925 0.476225
20.774086 -14.236962 1.243794 0.299265
20.774086 -14.236961 0.939032 0.710417
20.774086 -14.236961 0.631965 0.811152
20.774086 -14.236962 0.321901 0.825858
20.538332 -11.993902 0.495244 0.085294
20.538332 -11.993901 0.254825 0.094118
20.726925 -14.415771 4.353494 0.160784
20.726925 -14.415771 4.029271 0.160784
20.726925 -14.415771 3.709601 0.160784
20.726925 -14.415771 3.393717 0.160784
20.726925 -14.415771 3.080885 0.160784
20.726925 -14.415771 2.770401 0.160784
20.709393 -14.236961 2.452753 0.419608
20.709393 -14.236962 2.150810 0.695466
20.709393 -14.236962 1.849190 0.308578
20.709393 -14.236961 1.547247 0.462255
20.709393 -14.236962 1.244330 0.359681
20.709393 -14.236961 0.939784 0.719853
20.709393 -14.236961 0.632935 0.848162
20.709393 -14.236962 0.323091 0.819975
20.709393 -14.236961 0.009534 0.373284
20.589211 -13.011252 0.000007 0.512745
20.661060 -14.415772 4.351941 0.160784
20.661060 -14.415771 4.027932 0.160784
20.661060 -14.415772 3.708473 0.160784
20.661060 -14.415771 3.392797 0.160784
20.661060 -14.415772 3.080172 0.160784
20.661060 -14.415771 2.769893 0.160784
20.644787 -14.236962 2.452454 0.714216
20.644787 -14.236961 2.150710 0.857598
20.644787 -14.236961 1.849290 0.821936
20.644787 -14.236961 1.547545 0.536274
20.644787 -14.236961 1.244829 0.345221
20.644787 -14.236963 0.940483 0.713480
20.644787 -14.236961 0.633837 0.815074
20.644787 -14.236961 0.324197 0.803309
20.644787 -14.236960 0.010847 0.398529
20.533724 -13.016590 -0.000016 0.510907
20.606541 -14.549884 4.384216 0.518382
20.606541 -14.549884 4.055761 0.523162
20.606541 -14.549883 3.731918 0.527941
20.606541 -14.549883 3.411910 0.532721
20.606541 -14.549882 3.094995 0.537500
20.606541 -14.549882 2.780458 0.541422
20.580263 -14.236962 2.452178 0.616667
20.580263 -14.236962 2.150618 0.858333
20.580263 -14.236962 1.849382 0.837745
20.580263 -14.236961 1.547822 0.539093
20.580263 -14.236962 1.245290 0.793873
20.580263 -14.236961 0.941130 0.774632
20.580263 -14.236962 0.634671 0.850613
20.580263 -14.236961 0.325220 0.791912
20.580263 -14.236962 0.012061 0.857108
20.478197 -13.021482 -0.000025 0.582108
20.539894 -14.549883 4.382877 0.678431
20.539894 -14.549884 4.054607 0.678431
20.539894 -14.549883 3.730945 0.678431
20.539894 -14.549883 3.411117 0.678431
20.539894 -14.549883 3.094380 0.678431
20.539894 -14.549882 2.780020 0.678431
20.515816 -14.236962 2.451925 0.574020
20.515816 -14.236961 2.150534 0.837010
20.515816 -14.236961 1.849466 0.705760
20.515816 -14.236962 1.548075 0.383333
20.515816 -14.236961 1.245714 0.824510
20.515816 -14.236962 0.941725 0.803554
20.515816 -14.236961 0.635437 0.863358
20.515816 -14.236961 0.326161 0.825000
20.515816 -14.236961 0.013178 0.874877
20.422632 -13.025921 -0.000016 0.500735
20.473320 -14.549882 4.381656 0.678431
20.473320 -14.549884 4.053554 0.678431
20.473320 -14.549883 3.730058 0.678431
20.473320 -14.549884 3.410394 0.678431
20.473320 -14.549883 3.093819 0.678431
20.473320 -14.549881 2.779620 0.678431
20.451439 -14.236962 2.451693 0.642647
20.451439 -14.236962 2.150457 0.859559
20.451439 -14.236962 1.849543 0.731985
20.451439 -14.236962 1.548307 0.468873
20.451439 -14.236960 1.246101 0.477941
20.451439 -14.236962 0.942267 0.497549
20.451439 -14.236961 0.636137 0.845221
20.293718 -11.981457 0.738424 0.094118
20.451439 -14.236962 0.014195 0.398162
20.367043 -13.030039 -0.000026 0.519118
20.406809 -14.549883 4.380552 0.678431
20.406809 -14.549884 4.052602 0.678431
20.406809 -14.549883 3.729256 0.678431
20.406809 -14.549884 3.409740 0.678431
20.406809 -14.549883 3.093312 0.678431
20.406809 -14.549884 2.779258 0.678431
20.387123 -14.236961 2.451483 0.690196
20.387123 -14.236962 2.150387 0.861520
20.387123 -14.236962 1.849613 0.713726
20.387123 -14.236961 1.548517 0.410294
20.387123 -14.236962 1.246450 0.563725
20.387123 -14.236962 0.942757 0.773407
20.387123 -14.236962 0.636769 0.741912
20.387123 -14.236962 0.327794 0.411520
20.387123 -14.236963 0.015116 0.514216
20.311417 -13.033659 -0.000007 0.584436
20.340359 -14.549883 4.379564 0.678431
20.340359 -14.549884 4.051751 0.678431
20.340359 -14.549883 3.728539 0.678431
20.340359 -14.549881 3.409155 0.678431
20.340359 -14.549882 3.092859 0.678431
20.340359 -14.549882 2.778935 0.678431
20.322865 -14.236963 2.451296 0.777328
20.322865 -14.236961 2.150325 0.410784
20.322865 -14.236961 1.849675 0.800490
20.322865 -14.236963 1.548704 0.310294
20.322865 -14.236961 1.246763 0.667402
20.322865 -14.236962 0.943196 0.790686
20.322865 -14.236961 0.637334 0.791054
20.322865 -14.236962 0.328487 0.341912
20.322865 -14.236962 0.015939 0.604534
20.255775 -13.037004 -0.000016 0.553922
20.273958 -14.549884 4.378695 0.678431
20.273958 -14.549883 4.051001 0.678431
20.273958 -14.549883 3.727907 0.678431
20.273958 -14.549883 3.408640 0.678431
20.273958 -14.549882 3.092459 0.678431
20.273958 -14.549882 2.778650 0.678431
20.258654 -14.236962 2.451131 0.840441
20.258654 -14.236962 2.150270 0.687377
20.258654 -14.236962 1.849730 0.801103
20.258654 -14.236962 1.548869 0.358456
20.258654 -14.236960 1.247038 0.340196
20.258654 -14.236961 0.943583 0.380025
20.258654 -14.236961 0.637833 0.421814
20.258654 -14.236963 0.329099 0.580270
20.258654 -14.236961 0.016665 0.442034
20.200111 -13.039957 -0.000026 0.563113
20.207605 -14.549884 4.377941 0.678431
20.207605 -14.549882 4.050350 0.678431
20.207605 -14.549884 3.727359 0.678431
20.207605 -14.549884 3.408194 0.678431
20.207605 -14.549882 3.092113 0.678431
20.207605 -14.549882 2.778404 0.678431
20.194489 -14.236962 2.450988 0.835784
20.194489 -14.236961 2.150222 0.713113
20.194489 -14.236961 1.849778 0.811887
20.194489 -14.236962 1.549012 0.519485
20.194489 -14.236961 1.247277 0.423407
20.194489 -14.236962 0.943918 0.669485
20.194489 -14.236960 0.638265 0.764093
20.194489 -14.236962 0.329629 0.737745
20.194489 -14.236960 0.017294 0.493260
20.144424 -13.042449 -0.000016 0.556740
20.141289 -14.549883 4.377303 0.678431
20.141289 -14.549883 4.049800 0.678431
20.141289 -14.549882 3.726896 0.678431
20.141289 -14.549883 3.407816 0.678431
20.141289 -14.549882 3.091820 0.678431
20.141289 -14.549883 2.778195 0.678431
20.130362 -14.236962 2.450867 0.842157
20.130362 -14.236962 2.150182 0.724142
20.130362 -14.236962 1.849818 0.772672
20.130362 -14.236962 1.549133 0.452206
20.130362 -14.236962 1.247478 0.432108
20.130362 -14.236961 0.944201 0.660539
20.051947 -11.991469 0.971920 0.000000
20.130362 -14.236963 0.330076 0.763358
20.130362 -14.236962 0.017825 0.478799
20.088724 -13.044623 -0.000025 0.513971
20.075006 -14.549883 4.376781 0.678431
20.075006 -14.549882 4.049351 0.678431
20.075006 -14.549883 3.726517 0.678431
20.075006 -14.549882 3.407507 0.678431
20.075006 -14.549882 3.091580 0.678431
20.075006 -14.549881 2.778024 0.678431
20.066265 -14.236962 2.450768 0.818137
20.066265 -14.236962 2.150149 0.734681
20.066265 -14.236962 1.849851 0.800123
20.066265 -14.236962 1.549232 0.318260
20.066265 -14.236962 1.247644 0.508333
20.066265 -14.236963 0.944432 0.674755
20.003601 -11.993539 0.971838 0.064706
20.066265 -14.236962 0.330443 0.452206
20.066265 -14.236961 0.018260 0.561520
20.033007 -13.046305 -0.000007 0.571814
20.008749 -14.549883 4.376376 0.678431
20.008749 -14.549882 4.049001 0.678431
20.008749 -14.549882 3.726222 0.678431
20.008749 -14.549882 3.407267 0.678431
20.008749 -14.549882 3.091394 0.678431
20.008749 -14.549883 2.777891 0.678431
20.002193 -14.236962 2.450691 0.523652
20.002193 -14.236963 2.150123 0.741422
