# This PCD file was generated using the MATLABÂ® pcwrite function
# from Computer Vision ToolboxÂ®.
# .PCD v.7 - Point Cloud Data file format
VERSION .7
FIELDS x y z intensity
SIZE 4 4 4 4
TYPE F F F F
COUNT 1 1 1 1
WIDTH 1189
HEIGHT 1
VIEWPOINT 0 0 0 1 0 0 0
POINTS 1189
DATA ascii
-34.819397 -14.236961 2.978248 0.661029
-34.819397 -14.236960 2.586109 0.825735
-34.819401 -14.236960 2.195230 0.644118
-34.819401 -14.236960 1.804770 0.745343
-34.819397 -14.236960 1.413891 0.601471
-34.819397 -14.236961 1.021752 0.565686
-34.819397 -14.236960 0.627503 0.783578
-34.819397 -14.236962 0.230272 0.342892
-35.430477 -13.524369 -0.000027 0.521569
-36.557709 -12.209887 -0.000009 0.548407
-37.388123 -11.241528 -0.000020 0.535784
-34.928471 -14.236961 4.970730 0.806373
-34.928471 -14.236959 4.561476 0.591912
-34.928471 -14.236959 4.157967 0.699020
-34.928471 -14.236958 3.759238 0.541176
-34.928471 -14.236961 3.364363 0.763848
-34.928471 -14.236961 2.972450 0.881618
-34.928471 -14.236961 2.582635 0.800123
-34.928471 -14.236963 2.194073 0.574632
-34.928471 -14.236963 1.805927 0.734314
-34.928471 -14.236961 1.417365 0.606618
-34.928471 -14.236961 1.027550 0.437990
-34.928471 -14.236959 0.635638 0.805392
-34.928471 -14.236959 0.240762 0.604167
-35.488998 -13.574012 -0.000002 0.578799
-36.607006 -12.251704 0.000018 0.522304
-37.430649 -11.277566 0.000013 0.535539
-35.036259 -14.236963 4.953370 0.875123
-35.036259 -14.236961 4.546507 0.503309
-35.036259 -14.236961 4.145356 0.847672
-35.036259 -14.236961 3.748957 0.610294
-35.036259 -14.236963 3.356389 0.394240
-35.036259 -14.236963 2.966767 0.476961
-35.036259 -14.236961 2.579231 0.739583
-35.036259 -14.236963 2.192939 0.553799
-35.036259 -14.236963 1.807061 0.466299
-35.036259 -14.236961 1.420769 0.353186
-35.036259 -14.236963 1.033233 0.442770
-35.036259 -14.236961 0.643611 0.483333
-35.036259 -14.236961 0.251043 0.582108
-35.547714 -13.623417 -0.000017 0.544853
-36.656521 -12.293274 0.000018 0.482108
-37.473339 -11.313406 0.000013 0.540074
-35.142803 -14.236963 4.936353 0.866789
-35.142803 -14.236963 4.531835 0.507966
-35.142807 -14.236961 4.132995 0.428922
-35.142803 -14.236961 3.738880 0.303922
-35.142803 -14.236963 3.348574 0.250980
-35.142803 -14.236961 2.961196 0.519730
-35.142803 -14.236961 2.575893 0.662990
-35.142803 -14.236961 2.191827 0.570711
-35.142803 -14.236961 1.808173 0.268382
-35.142803 -14.236961 1.424107 0.831373
-35.142807 -14.236959 1.038803 0.500123
-35.142807 -14.236961 0.651426 0.819853
-35.142803 -14.236961 0.261120 0.528922
-35.606792 -13.672385 -0.000026 0.547917
-36.706238 -12.334594 -0.000010 0.515196
-37.516262 -11.348971 0.000006 0.531127
-35.248131 -14.236962 4.919672 0.872549
-35.248131 -14.236960 4.517451 0.397672
-35.248131 -14.236962 4.120879 0.539828
-35.248135 -14.236961 3.729002 0.820098
-35.248131 -14.236962 3.340913 0.571446
-35.248131 -14.236962 2.955736 0.506740
-35.248131 -14.236962 2.572622 0.633824
-35.248131 -14.236960 2.190737 0.698775
-35.248131 -14.236960 1.809262 0.509926
-35.248131 -14.236960 1.427378 0.414216
-35.248131 -14.236962 1.044263 0.817524
-35.248131 -14.236960 0.659087 0.771814
-35.248135 -14.236961 0.270998 0.612623
-35.666260 -13.720889 -0.000023 0.524142
-36.756344 -12.375446 -0.000005 0.552083
-37.559418 -11.384248 -0.000006 0.536520
-35.352272 -14.236964 4.903322 0.445711
-35.352272 -14.236962 4.503353 0.649265
-35.352272 -14.236962 4.109001 0.816544
-35.352272 -14.236960 3.719319 0.903676
-35.352272 -14.236964 3.333404 0.701348
-35.352272 -14.236963 2.950384 0.503431
-35.352272 -14.236964 2.569415 0.396691
-35.352272 -14.236962 2.189669 0.606373
-35.352272 -14.236962 1.810331 0.642647
-35.352272 -14.236962 1.430585 0.422181
-35.352272 -14.236964 1.049616 0.797917
-35.352272 -14.236962 0.666597 0.698775
-35.352272 -14.236960 0.280681 0.603431
-35.726089 -13.768937 -0.000011 0.548897
-36.806686 -12.416002 -0.000014 0.531373
-37.602859 -11.419182 -0.000004 0.535417
-35.455261 -14.236961 4.887291 0.552451
-35.455261 -14.236961 4.489532 0.691789
-35.455261 -14.236961 4.097357 0.657721
-35.455261 -14.236961 3.709826 0.865931
-35.455261 -14.236961 3.326042 0.826348
-35.455261 -14.236961 2.945137 0.433456
-35.455261 -14.236962 2.566271 0.548529
-35.455261 -14.236962 2.188622 0.670833
-35.455261 -14.236961 1.811378 0.643015
-35.455261 -14.236962 1.433729 0.448529
-35.455261 -14.236961 1.054863 0.664583
-35.455261 -14.236961 0.673958 0.637623
-35.455261 -14.236961 0.290174 0.543873
-35.786182 -13.816656 -0.000020 0.518873
-36.857319 -12.456200 -0.000022 0.535784
-37.646534 -11.453815 -0.000003 0.563971
-35.557121 -14.236963 4.871579 0.444730
-35.557125 -14.236961 4.475984 0.595466
-35.557125 -14.236961 4.085942 0.539951
-35.557121 -14.236961 3.700521 0.868750
-35.557121 -14.236963 3.318825 0.408824
-35.557121 -14.236963 2.939993 0.598652
-35.557121 -14.236965 2.563190 0.476838
-35.557125 -14.236961 2.187596 0.727941
-35.557125 -14.236961 1.812404 0.661274
-35.557121 -14.236963 1.436810 0.431618
-35.557121 -14.236961 1.060007 0.845588
-35.557125 -14.236961 0.681175 0.380637
-35.557125 -14.236961 0.299479 0.516176
-35.846729 -13.863804 0.000005 0.532475
-36.908321 -12.495926 0.000003 0.535662
-37.690506 -11.488070 0.000020 0.569240
-35.657890 -14.236961 4.856173 0.697426
-35.657890 -14.236959 4.462700 0.549755
-35.657890 -14.236961 4.074751 0.573652
-35.657890 -14.236961 3.691398 0.588480
-35.657887 -14.236963 3.311750 0.675000
-35.657890 -14.236963 2.934950 0.574877
-35.657890 -14.236961 2.560168 0.452819
-35.657890 -14.236961 2.186589 0.601716
-35.657890 -14.236961 1.813411 0.621201
-35.657890 -14.236961 1.439832 0.646078
-35.657890 -14.236961 1.065050 0.857966
-35.657890 -14.236961 0.688250 0.345833
-35.657890 -14.236961 0.308602 0.601716
-35.907482 -13.910677 -0.000004 0.550123
-36.959461 -12.535477 -0.000023 0.506373
-37.734600 -11.522171 -0.000005 0.567157
-35.757584 -14.236961 4.841070 0.700000
-35.757584 -14.236961 4.449677 0.667647
-35.757584 -14.236961 4.063781 0.695711
-35.757584 -14.236961 3.682454 0.564461
-35.757584 -14.236963 3.304813 0.895343
-35.757584 -14.236961 2.930006 0.597181
-35.757584 -14.236963 2.557206 0.487132
-35.757584 -14.236963 2.185603 0.628922
-35.757584 -14.236963 1.814397 0.704167
-35.757584 -14.236961 1.442794 0.843015
-35.757584 -14.236961 1.069993 0.793015
-35.757584 -14.236961 0.695187 0.506495
-35.757584 -14.236960 0.317546 0.707108
-35.968563 -13.957132 -0.000014 0.534436
-37.010883 -12.574657 -0.000045 0.535049
-37.778942 -11.555952 -0.000026 0.567157
-35.856232 -14.236961 4.826262 0.561887
-35.856232 -14.236961 4.436911 0.411275
-35.856232 -14.236963 4.053024 0.350735
-35.856232 -14.236963 3.673686 0.462868
-35.856232 -14.236963 3.298013 0.867034
-35.856232 -14.236961 2.925159 0.670343
-35.856232 -14.236961 2.554302 0.470588
-35.856232 -14.236961 2.184635 0.541912
-35.856232 -14.236961 1.815365 0.733578
-35.856232 -14.236961 1.445698 0.860417
-35.856232 -14.236959 1.074841 0.665441
-35.856232 -14.236963 0.701987 0.708946
-35.856232 -14.236961 0.326314 0.758578
-36.029961 -14.003164 -0.000025 0.538971
-37.062614 -12.613431 -0.000054 0.533211
-37.823547 -11.589384 -0.000035 0.518750
-35.953861 -14.236962 4.811745 0.681373
-35.953861 -14.236962 4.424393 0.885539
-35.953861 -14.236962 4.042479 0.449632
-35.953865 -14.236960 3.665089 0.201961
-35.953861 -14.236962 3.291346 0.733946
-35.953865 -14.236960 2.920407 0.746936
-35.953861 -14.236962 2.551454 0.408211
-35.953861 -14.236962 2.183687 0.687377
-35.953861 -14.236962 1.816313 0.743750
-35.953865 -14.236960 1.448545 0.537010
-35.953865 -14.236960 1.079593 0.625245
-35.953865 -14.236960 0.708655 0.741176
-35.953865 -14.236961 0.334912 0.835907
-36.091801 -14.048595 0.000003 0.510784
-37.114738 -12.651674 -0.000018 0.533824
-37.868492 -11.622357 0.000001 0.518627
-36.050503 -14.236964 4.797512 0.640196
-36.050503 -14.236962 4.412120 0.785417
-36.050503 -14.236962 4.032140 0.579289
-36.050503 -14.236962 3.656660 0.444363
-36.050503 -14.236962 3.284809 0.576838
-36.050503 -14.236962 2.915748 0.880147
-36.050503 -14.236962 2.548663 0.443505
-36.050503 -14.236962 2.182757 0.458456
-36.050503 -14.236962 1.817243 0.839338
-36.050503 -14.236960 1.451337 0.553554
-36.050503 -14.236962 1.084252 0.415319
-36.050503 -14.236962 0.715191 0.718627
-36.050503 -14.236960 0.343341 0.538971
-36.153790 -14.093824 -0.000022 0.562010
-37.167011 -12.689716 -0.000026 0.549510
-37.913563 -11.655152 -0.000005 0.528922
-36.146172 -14.236963 4.783557 0.504902
-36.146172 -14.236961 4.400087 0.881373
-36.146172 -14.236963 4.022003 0.583946
-36.146172 -14.236963 3.648396 0.745343
-36.146172 -14.236963 3.278400 0.751716
-36.146172 -14.236965 2.911180 0.518382
-36.146172 -14.236963 2.545926 0.803309
-36.146172 -14.236961 2.181845 0.709069
-36.146172 -14.236961 1.818155 0.726471
-36.146172 -14.236961 1.454074 0.795466
-36.146172 -14.236963 1.088820 0.564338
-36.146172 -14.236961 0.721601 0.435539
-36.146172 -14.236961 0.351604 0.773529
-36.216164 -14.138525 -0.000025 0.510784
-37.219566 -12.727370 -0.000028 0.567157
-37.958878 -11.687619 -0.000007 0.505882
-36.240894 -14.236963 4.769874 0.635662
-36.240894 -14.236963 4.388290 0.375858
-36.240894 -14.236963 4.012064 0.594853
-36.240894 -14.236965 3.640293 0.712255
-36.240894 -14.236963 3.272116 0.462868
-36.240894 -14.236965 2.906701 0.565319
-36.240894 -14.236963 2.543243 0.433578
-36.240894 -14.236961 2.180951 0.370711
-36.240894 -14.236961 1.819048 0.391422
-36.240894 -14.236961 1.456757 0.392770
-36.240894 -14.236963 1.093299 0.682230
-36.240894 -14.236961 0.727884 0.673652
-36.240894 -14.236963 0.359707 0.372181
-36.278828 -14.182819 -0.000035 0.555637
-37.272388 -12.764641 -0.000026 0.559069
-38.004375 -11.719822 -0.000025 0.496814
-36.334702 -14.236961 4.756459 0.384069
-36.334702 -14.236963 4.376724 0.794608
-36.334702 -14.236963 4.002319 0.430515
-36.334702 -14.236961 3.632349 0.713971
-36.334698 -14.236963 3.265955 0.547917
-36.334702 -14.236963 2.902310 0.692402
-36.334702 -14.236963 2.540612 0.540319
-36.334702 -14.236963 2.180075 0.656005
-36.334702 -14.236963 1.819925 0.420221
-36.334702 -14.236961 1.459388 0.768627
-36.334702 -14.236961 1.097690 0.741422
-36.334702 -14.236961 0.734045 0.666789
-36.334702 -14.236961 0.367651 0.403064
-36.341850 -14.226601 -0.000029 0.503064
-37.325481 -12.801523 -0.000019 0.552819
-38.050152 -11.751630 -0.000020 0.549265
-36.427601 -14.236963 4.743308 0.439216
-36.427601 -14.236963 4.365383 0.373162
-36.427601 -14.236961 3.992765 0.457843
-36.427601 -14.236963 3.624561 0.786642
-36.427601 -14.236963 3.259914 0.650000
-36.427601 -14.236963 2.898004 0.488235
-36.427601 -14.236961 2.538032 0.531495
-36.427601 -14.236963 2.179216 0.520588
-36.427601 -14.236963 1.820784 0.845221
-36.427601 -14.236961 1.461968 0.564583
-36.427601 -14.236961 1.101995 0.823284
-36.427601 -14.236961 0.740086 0.686520
-36.427601 -14.236961 0.375440 0.389706
-36.427601 -14.236959 0.007235 0.428186
-37.378845 -12.838019 -0.000007 0.491422
-38.096161 -11.783094 -0.000008 0.538848
-36.519623 -14.236963 4.730412 0.667525
-36.519623 -14.236963 4.354265 0.601103
-36.519627 -14.236961 3.983398 0.458701
-36.519627 -14.236961 3.616924 0.805515
-36.519623 -14.236963 3.253992 0.324877
-36.519623 -14.236963 2.893783 0.779534
-36.519627 -14.236961 2.535503 0.551471
-36.519630 -14.236961 2.178374 0.655637
-36.519630 -14.236961 1.821626 0.839706
-36.519630 -14.236959 1.464497 0.502083
-36.519627 -14.236961 1.106217 0.818995
-36.519627 -14.236961 0.746008 0.337377
-36.519627 -14.236961 0.383076 0.361765
-36.519627 -14.236961 0.016602 0.483824
-37.432373 -12.874270 -0.000030 0.494853
-38.142281 -11.814407 -0.000047 0.558701
-36.610794 -14.236963 4.717770 0.676838
-36.610794 -14.236963 4.343365 0.818750
-36.610794 -14.236963 3.974215 0.364338
-36.610794 -14.236963 3.609437 0.522917
-36.610794 -14.236964 3.248186 0.493995
-36.610794 -14.236964 2.889645 0.780270
-36.610794 -14.236962 2.533023 0.672549
-36.610794 -14.236962 2.177548 0.575368
-36.610794 -14.236962 1.822452 0.860294
-36.610794 -14.236962 1.466977 0.556005
-36.610794 -14.236962 1.110355 0.567892
-36.610794 -14.236962 0.751814 0.492279
-36.610794 -14.236960 0.390563 0.863235
-36.610794 -14.236962 0.025785 0.660539
-37.486141 -12.910162 -0.000057 0.548652
-38.188686 -11.845294 -0.000056 0.553186
-36.701126 -14.236963 4.705376 0.656005
-36.701126 -14.236963 4.332677 0.570343
-36.701126 -14.236965 3.965212 0.582108
-36.701126 -14.236961 3.602097 0.473039
-36.701126 -14.236963 3.242494 0.555147
-36.701126 -14.236963 2.885588 0.753676
-36.701126 -14.236961 2.530593 0.593505
-36.701126 -14.236961 2.176738 0.597917
-36.701126 -14.236961 1.823262 0.553922
-36.701130 -14.236961 1.469407 0.517524
-36.701126 -14.236963 1.114412 0.578554
-36.701126 -14.236963 0.757507 0.473897
-36.701126 -14.236961 0.397902 0.795588
-36.701126 -14.236961 0.034789 0.591667
-37.540337 -12.945415 -0.000015 0.570466
-38.235413 -11.875690 -0.000014 0.502574
-36.790642 -14.236963 4.693224 0.563848
-36.790638 -14.236963 4.322200 0.281985
-36.790646 -14.236963 3.956384 0.500980
-36.790646 -14.236963 3.594902 0.704534
-36.790642 -14.236963 3.236913 0.601225
-36.790646 -14.236963 2.881610 0.646691
-36.790642 -14.236963 2.528209 0.699020
-36.790646 -14.236961 2.175944 0.460662
-36.790646 -14.236961 1.824056 0.252819
-36.790646 -14.236961 1.471790 0.369363
-36.790646 -14.236961 1.118390 0.784559
-36.790646 -14.236961 0.763087 0.449877
-36.790646 -14.236961 0.405098 0.734681
-36.790646 -14.236961 0.043616 0.680515
-37.594608 -12.980543 -0.000039 0.551103
-38.282230 -11.905942 -0.000027 0.568137
-36.879360 -14.236963 4.681312 0.532598
-36.879360 -14.236963 4.311928 0.470466
-36.879360 -14.236963 3.947731 0.797917
-36.879360 -14.236963 3.587847 0.646691
-36.879364 -14.236963 3.231442 0.516176
-36.879364 -14.236961 2.877710 0.426348
-36.879360 -14.236963 2.525873 0.682108
-36.879364 -14.236961 2.175166 0.419485
-36.879364 -14.236960 1.824834 0.540196
-36.879364 -14.236961 1.474127 0.554167
-36.879364 -14.236962 1.122289 0.772794
-36.879364 -14.236962 0.768559 0.509559
-36.879364 -14.236961 0.412153 0.590196
-36.879364 -14.236961 0.052269 0.662010
-37.649162 -13.015229 -0.000047 0.520466
-38.329269 -11.935849 -0.000035 0.569485
-36.967304 -14.236962 4.669633 0.442157
-36.967304 -14.236963 4.301859 0.531127
-36.967304 -14.236962 3.939248 0.432966
-36.967304 -14.236963 3.580932 0.342524
-36.967304 -14.236962 3.226078 0.512745
-36.967304 -14.236964 2.873887 0.490319
-36.967304 -14.236963 2.523583 0.575858
-36.967304 -14.236962 2.174403 0.439951
-36.967304 -14.236962 1.825597 0.459436
-36.967304 -14.236962 1.476417 0.485417
-36.967304 -14.236962 1.126112 0.372794
-36.967304 -14.236962 0.773922 0.646446
-36.967304 -14.236962 0.419069 0.472426
-36.967304 -14.236960 0.060753 0.535662
-37.704037 -13.049412 -0.000024 0.536397
-38.376560 -11.965361 -0.000023 0.502206
-37.054489 -14.236962 4.658185 0.379044
-37.054489 -14.236964 4.291988 0.451716
-37.054489 -14.236964 3.930932 0.442770
-37.054489 -14.236962 3.574152 0.625368
-37.054489 -14.236962 3.220820 0.737255
-37.054489 -14.236962 2.870140 0.498774
-37.054489 -14.236962 2.521338 0.641422
-37.054489 -14.236962 2.173655 0.368505
-37.054489 -14.236962 1.826345 0.496078
-37.054489 -14.236960 1.478662 0.542034
-37.054489 -14.236960 1.129860 0.342770
-37.054489 -14.236960 0.779180 0.701348
-37.054489 -14.236960 0.425848 0.322426
-37.054489 -14.236960 0.069068 0.490564
-37.759071 -13.083335 -0.000033 0.532721
-38.424015 -11.994606 -0.000031 0.534681
-37.140930 -14.236964 4.646964 0.591789
-37.140930 -14.236964 4.282312 0.519608
-37.140934 -14.236962 3.922781 0.460539
-37.140934 -14.236962 3.567507 0.577574
-37.140934 -14.236962 3.215667 0.691544
-37.140934 -14.236962 2.866467 0.567770
-37.140930 -14.236962 2.519137 0.670221
-37.140934 -14.236962 2.172922 0.411520
-37.140934 -14.236962 1.827078 0.616912
-37.140930 -14.236962 1.480863 0.624632
-37.140934 -14.236960 1.133533 0.555760
-37.140934 -14.236960 0.784333 0.744730
-37.140934 -14.236962 0.432493 0.481495
-37.140934 -14.236960 0.077220 0.439828
-37.814381 -13.116805 -0.000025 0.564583
-38.471722 -12.023438 -0.000014 0.546446
-37.212536 -14.260818 4.642908 0.456373
-37.212536 -14.260820 4.278815 0.741422
-37.212536 -14.260820 3.919834 0.533333
-37.212536 -14.260820 3.565105 0.435294
-37.212536 -14.260818 3.213804 0.911274
-37.212540 -14.260818 2.865139 0.809191
-37.212536 -14.260820 2.518341 0.870343
-37.212536 -14.260820 2.172657 0.627451
-37.212536 -14.260820 1.827343 0.436642
-37.212536 -14.260818 1.481659 0.696569
-37.212540 -14.260817 1.134861 0.586029
-37.212540 -14.260818 0.786196 0.496446
-37.212540 -14.260818 0.434896 0.515564
-37.212536 -14.260818 0.080166 0.561887
-37.869923 -13.149889 -0.000016 0.545221
-38.519615 -12.051958 -0.000004 0.525858
-37.212536 -14.407192 4.674527 0.599020
-37.212536 -14.407194 4.306078 0.779412
-37.212536 -14.407196 3.942803 0.455637
-37.212536 -14.407192 3.583829 0.595221
-37.212536 -14.407192 3.228325 0.864338
-37.212536 -14.407192 2.875489 0.739461
-37.212536 -14.407194 2.524543 0.725980
-37.212536 -14.407190 2.174723 0.603676
-37.212540 -14.407190 1.825277 0.337500
-37.212536 -14.407192 1.475457 0.745956
-37.212536 -14.407190 1.124510 0.600980
-37.212536 -14.407190 0.771674 0.540319
-37.212540 -14.407190 0.416171 0.672059
-37.212536 -14.407190 0.057198 0.415686
-37.925793 -13.182415 0.000035 0.589828
-38.567673 -12.080197 -0.000010 0.525980
-37.212536 -14.557114 4.707045 0.601225
-37.212536 -14.557116 4.334117 0.558333
-37.212536 -14.557116 3.966424 0.419608
-37.212536 -14.557116 3.603086 0.694975
-37.212536 -14.557114 3.243260 0.467770
-37.212536 -14.557116 2.886134 0.475123
-37.212536 -14.557116 2.530920 0.401716
-37.212536 -14.557114 2.176847 0.635784
-37.212536 -14.557114 1.823153 0.436397
-37.212536 -14.557114 1.469080 0.421814
-37.212536 -14.557114 1.113866 0.695343
-37.212536 -14.557114 0.756740 0.775000
-37.212536 -14.557112 0.396914 0.505515
-37.212536 -14.557114 0.033576 0.401716
-37.981754 -13.214784 0.000027 0.574632
-38.615925 -12.108111 -0.000018 0.558578
-37.212536 -14.710740 4.740499 0.604534
-37.212536 -14.710738 4.362962 0.828922
-37.212536 -14.710740 3.990726 0.647549
-37.212536 -14.710738 3.622898 0.430025
-37.212536 -14.710738 3.258625 0.754412
-37.212536 -14.710736 2.897085 0.590686
-37.212536 -14.710736 2.537481 0.521078
-37.212536 -14.710736 2.179032 0.565931
-37.212536 -14.710736 1.820968 0.554044
-37.212536 -14.710736 1.462519 0.664461
-37.212536 -14.710734 1.102915 0.793137
-37.212536 -14.710736 0.741376 0.504779
-37.212536 -14.710736 0.377103 0.601838
-37.212536 -14.710736 0.009275 0.858701
-38.037975 -13.246693 0.000036 0.528431
-38.664452 -12.135542 0.000015 0.527574
-37.212536 -14.868213 4.774927 0.865564
-37.212536 -14.868215 4.392648 0.439093
-37.212536 -14.868213 4.015734 0.533088
-37.212536 -14.868211 3.643285 0.499020
-37.212536 -14.868211 3.274436 0.499020
-37.212536 -14.868210 2.908355 0.708578
-37.212536 -14.868210 2.544233 0.650735
-37.212536 -14.868211 2.181282 0.499877
-37.212536 -14.868211 1.818718 0.707721
-37.212536 -14.868210 1.455766 0.668260
-37.212536 -14.868210 1.091645 0.914706
-37.212536 -14.868210 0.725564 0.744240
-37.212536 -14.868210 0.356715 0.597672
-37.254524 -14.792509 0.000017 0.534314
-38.094410 -13.278220 0.000042 0.546324
-38.713120 -12.162722 0.000023 0.562377
-37.212536 -15.029703 4.810370 0.668015
-37.212536 -15.029701 4.423207 0.685539
-37.212536 -15.029699 4.041480 0.844240
-37.212536 -15.029697 3.664274 0.843382
-37.212536 -15.029697 3.290713 0.756618
-37.212536 -15.029697 2.919956 0.644118
-37.212536 -15.029697 2.551185 0.713848
-37.212536 -15.029697 2.183597 0.572672
-37.212536 -15.029697 1.816403 0.817770
-37.212536 -15.029697 1.448815 0.404534
-37.212536 -15.029697 1.080043 0.753799
-37.212536 -15.029696 0.709287 0.740809
-37.212536 -15.029697 0.335726 0.695098
-37.321735 -14.829533 0.000009 0.529044
-38.151039 -13.309408 0.000035 0.567770
-38.761944 -12.189610 0.000016 0.519485
-37.212532 -15.195378 4.846870 0.700980
-37.212536 -15.195374 4.454678 0.789216
-37.212536 -15.195374 4.067994 0.374632
-37.212536 -15.195373 3.685888 0.685417
-37.212536 -15.195374 3.307477 0.597917
-37.212536 -15.195373 2.931905 0.617647
-37.212536 -15.195373 2.558343 0.762255
-37.212536 -15.195373 2.185981 0.409681
-37.212536 -15.195373 1.814019 0.614338
-37.212536 -15.195373 1.441657 0.481127
-37.212536 -15.195371 1.068095 0.637010
-37.212536 -15.195373 0.692523 0.777083
-37.212536 -15.195371 0.314112 0.359191
-37.389206 -14.866088 0.000001 0.523529
-38.207840 -13.340275 0.000009 0.574265
-38.810955 -12.216165 0.000007 0.526961
-37.212536 -15.365421 4.884473 0.520466
-37.212536 -15.365421 4.487102 0.359436
-37.212536 -15.365417 4.095308 0.416176
-37.212536 -15.365416 3.708157 0.375000
-37.212536 -15.365417 3.324747 0.433946
-37.212536 -15.365417 2.944213 0.573162
-37.212536 -15.365417 2.565718 0.637255
-37.212536 -15.365416 2.188438 0.655637
-37.212536 -15.365416 1.811562 0.535294
-37.212536 -15.365416 1.434282 0.277574
-37.212536 -15.365417 1.055786 0.486029
-37.212536 -15.365416 0.675253 0.797794
-37.212536 -15.365414 0.291844 0.602696
-37.456966 -14.902105 0.000006 0.554167
-38.264896 -13.370674 0.000001 0.533824
-38.860172 -12.242332 0.000011 0.541422
-37.212536 -15.540026 4.923228 0.570956
-37.212536 -15.540024 4.520516 0.382475
-37.212536 -15.540024 4.123461 0.755515
-37.212536 -15.540022 3.731107 0.886397
-37.212536 -15.540022 3.342546 0.782475
-37.212536 -15.540021 2.956900 0.704657
-37.212536 -15.540021 2.573319 0.407721
-37.212536 -15.540022 2.190970 0.674632
-37.212536 -15.540022 1.809030 0.687990
-37.212536 -15.540019 1.426681 0.758946
-37.212536 -15.540021 1.043100 0.418015
-37.212536 -15.540021 0.657454 0.445956
-37.212536 -15.540021 0.268893 0.319975
-37.524979 -14.937631 0.000015 0.531618
-38.322197 -13.400605 0.000010 0.529779
-38.909576 -12.268139 0.000019 0.520098
-37.212536 -15.719396 4.963184 0.638480
-37.212536 -15.719392 4.554968 0.757108
-37.212536 -15.719392 4.152485 0.562010
-37.212536 -15.719390 3.754768 0.887255
-37.212536 -15.719390 3.360896 0.866054
-37.212536 -15.719390 2.969979 0.448775
-37.212536 -15.719390 2.581155 0.807843
-37.212536 -15.719390 2.193580 0.571936
-37.212536 -15.719390 1.806420 0.904412
-37.212536 -15.719390 1.418845 0.484314
-37.212536 -15.719388 1.030021 0.710294
-37.212536 -15.719388 0.639104 0.263358
-37.212536 -15.719390 0.245232 0.516422
-37.593204 -14.972759 0.000008 0.545466
-38.379669 -13.430209 0.000000 0.518995
-38.959137 -12.293655 0.000013 0.542770
-37.212536 -15.903746 5.004395 0.884069
-37.212536 -15.903744 4.590503 0.756618
-37.212536 -15.903742 4.182422 0.362500
-37.212536 -15.903742 3.779174 0.447794
-37.212536 -15.903742 3.379823 0.642770
-37.212536 -15.903740 2.983469 0.535417
-37.212536 -15.903742 2.589238 0.801225
-37.212536 -15.903738 2.196272 0.624510
-37.212536 -15.903738 1.803728 0.791422
-37.212536 -15.903742 1.410762 0.473775
-37.212536 -15.903740 1.016530 0.622181
-37.212536 -15.903740 0.620177 0.817157
-37.212536 -15.903740 0.220826 0.646936
-37.661713 -15.007328 0.000017 0.543750
-38.437386 -13.459332 0.000010 0.516299
-39.008904 -12.318764 0.000024 0.575613
-37.212536 -16.093304 5.046921 0.666667
-37.212536 -16.093304 4.627170 0.417892
-37.212536 -16.093300 4.213312 0.520833
-37.212536 -16.093300 3.804357 0.747181
-37.212536 -16.093300 3.399354 0.534681
-37.212536 -16.093300 2.997390 0.427941
-37.212536 -16.093300 2.597578 0.780025
-37.212536 -16.093302 2.199051 0.577819
-37.212536 -16.093300 1.800949 0.710049
-37.212536 -16.093298 1.402422 0.608824
-37.212536 -16.093298 1.002610 0.814828
-37.212536 -16.093298 0.600646 0.689706
-37.212536 -16.093300 0.195643 0.587990
-37.730453 -15.041430 0.000024 0.562745
-38.495300 -13.488055 0.000018 0.536520
-39.058838 -12.343532 0.000032 0.527328
-37.212536 -16.288317 5.090820 0.499142
-37.212536 -16.288313 4.665021 0.503431
-37.212536 -16.288311 4.245201 0.472304
-37.212536 -16.288311 3.830353 0.496201
-37.212536 -16.288309 3.419515 0.506005
-37.212536 -16.288309 3.011759 0.609559
-37.212536 -16.288309 2.606187 0.428676
-37.212536 -16.288309 2.201918 0.494118
-37.212536 -16.288309 1.798082 0.872181
-37.212536 -16.288309 1.393812 0.648039
-37.212536 -16.288309 0.988240 0.512377
-37.212536 -16.288307 0.580485 0.491667
-37.212536 -16.288309 0.169647 0.505392
-37.799393 -15.075128 0.000016 0.530760
-38.553383 -13.516442 0.000010 0.513971
-39.108917 -12.368007 0.000024 0.572672
-36.982533 -16.973101 5.270400 0.678431
-36.982533 -16.973101 4.819862 0.678431
-36.982533 -16.973101 4.375650 0.678431
-36.982533 -16.973101 3.936699 0.678431
-37.212536 -16.489035 3.440337 0.552328
-37.212536 -16.489035 3.026601 0.536765
-37.212536 -16.489033 2.615079 0.601103
-37.212536 -16.489033 2.204880 0.497794
-37.212536 -16.489033 1.795120 0.606495
-37.212536 -16.489033 1.384920 0.833211
-37.212536 -16.489033 0.973399 0.411275
-37.212536 -16.489033 0.559663 0.593750
-37.212536 -16.489033 0.142798 0.836397
-37.868568 -15.108342 0.000008 0.520221
-38.611687 -13.544374 0.000015 0.529412
-39.159126 -12.392216 -0.000007 0.575368
-36.982533 -17.188656 5.319249 0.678431
-36.982533 -17.188656 4.861982 0.678431
-36.982533 -17.188656 4.411135 0.678431
-36.982533 -17.188656 3.965628 0.678431
-37.212536 -16.695744 3.461852 0.662010
-37.212536 -16.695744 3.041935 0.773284
-37.212536 -16.695742 2.624267 0.572549
-37.212536 -16.695742 2.207940 0.661152
-37.212536 -16.695742 1.792060 0.770956
-37.212536 -16.695742 1.375733 0.573284
-37.212536 -16.695742 0.958064 0.660172
-37.212536 -16.695744 0.538149 0.768505
-37.212536 -16.695742 0.115057 0.422059
-37.937973 -15.141067 0.000001 0.549265
-38.670158 -13.571949 0.000006 0.514461
-39.209545 -12.415991 -0.000015 0.503676
-36.982536 -17.410761 5.369747 0.678431
-36.982536 -17.410765 4.905524 0.678431
-36.982536 -17.410761 4.447817 0.678431
-36.982536 -17.410763 3.995533 0.678431
-37.212536 -16.908737 3.484092 0.522549
-37.212536 -16.908735 3.057787 0.863971
-37.212536 -16.908733 2.633765 0.339093
-37.212536 -16.908735 2.211104 0.507230
-37.212536 -16.908735 1.788896 0.823407
-37.212536 -16.908733 1.366235 0.481985
-37.212536 -16.908733 0.942212 0.564706
-37.212536 -16.908733 0.515908 0.639093
-37.212536 -16.908733 0.086380 0.795956
-38.007641 -15.173246 0.000006 0.553922
-38.728882 -13.598975 0.000032 0.528676
-39.260181 -12.439296 0.000010 0.552574
-36.982536 -17.639740 5.421975 0.678431
-36.982536 -17.639740 4.950556 0.553186
-36.982536 -17.639738 4.485755 0.546691
-36.982536 -17.639742 4.026461 0.608946
-37.212532 -17.128319 3.507094 0.594853
-37.212532 -17.128317 3.074182 0.355515
-37.212536 -17.128315 2.643588 0.672059
-37.212532 -17.128317 2.214376 0.312132
-37.212532 -17.128317 1.785624 0.720343
-37.212536 -17.128315 1.356412 0.691789
-37.212536 -17.128315 0.925818 0.570466
-37.212536 -17.128315 0.492906 0.552941
-37.212532 -17.128317 0.056720 0.787990
-38.077530 -15.204927 0.000013 0.555147
-38.787762 -13.625665 0.000039 0.542157
-39.310955 -12.462308 0.000018 0.514338
-37.060528 -17.699228 5.427636 0.160784
-37.060528 -17.699232 4.955438 0.139828
-37.060528 -17.699230 4.489869 0.160784
-37.060528 -17.699228 4.029813 0.160784
-37.212532 -17.354822 3.530897 0.822059
-37.212536 -17.354820 3.091147 0.682230
-37.212532 -17.354822 2.653752 0.479289
-37.212532 -17.354820 2.217762 0.441912
-37.212532 -17.354820 1.782238 0.833088
-37.212532 -17.354820 1.346248 0.757843
-37.212536 -17.354820 0.908853 0.540196
-37.212536 -17.354820 0.469104 0.573652
-37.212532 -17.354820 0.026029 0.427206
-38.147606 -15.236195 0.000005 0.546446
-38.846798 -13.652007 0.000031 0.535294
-39.361858 -12.485020 0.000010 0.565319
-37.125671 -17.789200 5.441749 0.342034
-37.125671 -17.789200 4.967606 0.869730
-37.125671 -17.789200 4.500120 0.668260
-37.125671 -17.789200 4.038171 0.572672
-37.212536 -17.588610 3.555540 0.618873
-37.212536 -17.588612 3.108711 0.717157
-37.212536 -17.588610 2.664275 0.635049
-37.212536 -17.588610 2.221267 0.478554
-37.212536 -17.588610 1.778733 0.586397
-37.212536 -17.588610 1.335724 0.768505
-37.212536 -17.588610 0.891289 0.483456
-37.212536 -17.588610 0.444461 0.655392
-37.227947 -17.553019 0.000008 0.537132
-38.217903 -15.266969 -0.000001 0.548774
-38.906021 -13.677935 0.000024 0.553186
-39.412922 -12.507376 0.000003 0.509681
-37.212536 -17.830053 5.442576 0.533211
-37.212536 -17.830057 4.968320 0.708578
-37.212536 -17.830055 4.500721 0.466667
-37.212536 -17.830055 4.038662 0.578431
-37.212536 -17.830057 3.581067 0.655637
-37.212536 -17.830057 3.126906 0.636029
-37.212536 -17.830057 2.675176 0.523039
-37.212536 -17.830055 2.224898 0.452328
-37.212536 -17.830055 1.775102 0.757353
-37.212536 -17.830055 1.324823 0.534681
-37.212536 -17.830057 0.873094 0.656985
-37.212536 -17.830057 0.418933 0.699265
-37.314434 -17.590170 -0.000001 0.542770
-38.288406 -15.297257 -0.000010 0.542770
-38.965420 -13.703446 0.000017 0.528799
-39.464138 -12.529372 -0.000004 0.526103
-37.212532 -18.079578 5.500190 0.478309
-37.212536 -18.079576 5.017995 0.864093
-37.212536 -18.079576 4.542572 0.528799
-37.212536 -18.079576 4.072779 0.640319
-37.212536 -18.079573 3.607526 0.656373
-37.212536 -18.079576 3.145765 0.319363
-37.212536 -18.079575 2.686476 0.397917
-37.212536 -18.079575 2.228662 0.618015
-37.212536 -18.079575 1.771338 0.760662
-37.212536 -18.079575 1.313524 0.740196
-37.212536 -18.079575 0.854235 0.854167
-37.212536 -18.079573 0.392474 0.549877
-37.401180 -17.626711 -0.000007 0.527819
-38.359123 -15.327051 -0.000017 0.544485
-39.024998 -13.728544 0.000010 0.533088
-39.515507 -12.551016 -0.000012 0.513726
-37.212532 -18.337605 5.559939 0.799387
-37.212532 -18.337603 5.069514 0.804044
-37.212532 -18.337605 4.585975 0.689706
-37.212532 -18.337605 4.108162 0.593137
-37.212532 -18.337605 3.634968 0.463358
-37.212532 -18.337601 3.165323 0.467402
-37.212536 -18.337599 2.698194 0.575735
-37.212536 -18.337599 2.232565 0.571446
-37.212536 -18.337599 1.767435 0.641422
-37.212536 -18.337599 1.301805 0.671446
-37.212536 -18.337599 0.834676 0.752328
-37.212532 -18.337601 0.365033 0.597426
-37.488213 -17.662561 -0.000001 0.526593
-38.430077 -15.356279 -0.000011 0.545098
-39.084770 -13.753169 0.000016 0.527451
-39.567066 -12.572206 0.000006 0.549142
-37.212532 -18.604607 5.621943 0.818627
-37.212528 -18.604609 5.122978 0.605392
-37.212528 -18.604610 4.631016 0.805882
-37.212528 -18.604610 4.144881 0.806250
-37.212532 -18.604609 3.663445 0.808211
-37.212532 -18.604601 3.185620 0.698407
-37.212532 -18.604603 2.710355 0.733456
-37.212532 -18.604603 2.236616 0.718750
-37.212532 -18.604601 1.763384 0.682598
-37.212532 -18.604601 1.289645 0.468382
-37.212532 -18.604599 0.814379 0.490074
-37.212532 -18.604601 0.336556 0.391299
-37.575546 -17.697674 0.000026 0.526471
-38.501270 -15.384910 0.000015 0.539828
-39.144749 -13.777290 0.000041 0.532966
-39.618782 -12.593004 0.000032 0.542647
-37.212532 -18.881086 5.686330 0.671569
-37.212532 -18.881086 5.178493 0.865319
-37.212532 -18.881086 4.677786 0.554044
-37.212532 -18.881088 4.183010 0.527941
-37.212532 -18.881086 3.693014 0.598652
-37.212532 -18.881081 3.206696 0.690564
-37.212532 -18.881079 2.722982 0.568505
-37.212532 -18.881079 2.240822 0.621814
-37.212532 -18.881077 1.759178 0.439828
-37.212532 -18.881079 1.277018 0.364951
-37.212532 -18.881079 0.793304 0.576838
-37.212532 -18.881079 0.306986 0.354412
-37.663036 -17.732395 0.000019 0.539093
-38.572598 -15.413209 0.000009 0.526103
-39.204773 -13.801295 -0.000003 0.527083
-39.670589 -12.613567 0.000023 0.532721
-37.212532 -19.167589 5.753232 0.467157
-37.212524 -19.167593 5.236179 0.805025
-37.212524 -19.167593 4.726385 0.411275
-37.212524 -19.167593 4.222629 0.678799
-37.212532 -19.167589 3.723741 0.650245
-37.212536 -19.167580 3.228596 0.842892
-37.212536 -19.167578 2.736104 0.802328
-37.212536 -19.167580 2.245193 0.430025
-37.212536 -19.167580 1.754808 0.301961
-37.212536 -19.167578 1.263896 0.556127
-37.212536 -19.167578 0.771404 0.439338
-37.212536 -19.167576 0.276261 0.431618
-37.750763 -17.766508 0.000011 0.557598
-38.644119 -15.441017 0.000001 0.535907
-39.265030 -13.824719 -0.000010 0.531127
-39.722542 -12.633765 0.000016 0.565441
-36.982536 -20.076115 5.986426 0.678431
-36.982536 -20.076118 5.437247 0.678431
-36.982533 -20.076122 4.895780 0.678431
-36.982536 -20.076117 4.360723 0.678431
-36.982536 -20.076115 3.830840 0.678431
-37.212532 -19.464689 3.251367 0.679167
-37.212536 -19.464687 2.749747 0.587132
-37.212536 -19.464687 2.249737 0.586520
-37.212536 -19.464687 1.750263 0.263848
-37.212536 -19.464689 1.250253 0.836765
-37.212536 -19.464687 0.748632 0.751225
-37.212536 -19.464687 0.244311 0.576103
-37.838795 -17.799833 0.000030 0.556373
-38.715855 -15.468259 0.000006 0.538603
-39.325470 -13.847664 -0.000004 0.565809
-39.774654 -12.653554 0.000021 0.548529
-37.001999 -20.344795 6.047799 0.223652
-36.982533 -20.397655 5.502333 0.678431
-36.982533 -20.397655 4.950611 0.678431
-36.982533 -20.397654 4.405424 0.678431
-36.982533 -20.397652 3.865507 0.678431
-37.212532 -19.773029 3.275062 0.515441
-37.212532 -19.773027 2.763943 0.714461
-37.212532 -19.773027 2.254466 0.834191
-37.212532 -19.773027 1.745534 0.448775
-37.212532 -19.773027 1.236056 0.567770
-37.212532 -19.773027 0.724937 0.582353
-37.212532 -19.773026 0.211068 0.725735
-37.926991 -17.832716 0.000022 0.532353
-38.787758 -15.495064 -0.000002 0.541422
-39.386044 -13.870253 -0.000012 0.521814
-39.826881 -12.673023 0.000014 0.534436
-37.062534 -20.509586 6.081396 0.160784
-37.052059 -20.538666 5.525808 0.172181
-37.052059 -20.538670 4.970389 0.160784
-37.052059 -20.538666 4.421548 0.160784
-37.052059 -20.538666 3.878011 0.155025
-37.212532 -20.093294 3.299736 0.561765
-37.212532 -20.093298 2.778727 0.404044
-37.212532 -20.093296 2.259390 0.604412
-37.212532 -20.093294 1.740610 0.623529
-37.212532 -20.093296 1.221273 0.584436
-37.212532 -20.093292 0.700263 0.700980
-37.212532 -20.093292 0.176449 0.718137
-38.015419 -17.864977 0.000015 0.550000
-38.859848 -15.521362 -0.000008 0.535907
-39.446777 -13.892406 -0.000019 0.499632
-39.879253 -12.692126 0.000007 0.529779
-37.140354 -20.631002 6.103500 0.548284
-37.140354 -20.631002 5.538193 0.337132
-37.140354 -20.631002 4.980823 0.510539
-37.140358 -20.631001 4.430053 0.723162
-37.140358 -20.631001 3.884607 0.619363
-37.212532 -20.426210 3.325450 0.512623
-37.212532 -20.426210 2.794133 0.512500
-37.212532 -20.426212 2.264522 0.424387
-37.212532 -20.426210 1.735478 0.506618
-37.212532 -20.426210 1.205867 0.621936
-37.212532 -20.426208 0.674549 0.812255
-37.212532 -20.426214 0.140372 0.813848
-38.104065 -17.896626 0.000007 0.513113
-38.932114 -15.547163 -0.000016 0.534436
-39.507664 -13.914135 -0.000025 0.536152
-39.931751 -12.710861 0.000001 0.559559
-37.212536 -20.772581 6.131038 0.537255
-37.212536 -20.772579 5.561936 0.749265
-37.212532 -20.772583 5.000827 0.842157
-37.212536 -20.772581 4.446361 0.776471
-37.212536 -20.772581 3.897255 0.856250
-37.212532 -20.772589 3.352270 0.728676
-37.212532 -20.772591 2.810202 0.692892
-37.212532 -20.772591 2.269874 0.594853
-37.212532 -20.772591 1.730126 0.638480
-37.212532 -20.772589 1.189798 0.356618
-37.212532 -20.772589 0.647730 0.599142
-37.212532 -20.772589 0.102744 0.637500
-38.192932 -17.927649 0.000000 0.557476
-39.004566 -15.572454 -0.000023 0.507230
-39.568699 -13.935449 -0.000033 0.570221
-39.984375 -12.729239 -0.000007 0.516912
-37.212532 -21.133286 6.216563 0.382108
-37.212532 -21.133282 5.635679 0.709681
-37.212532 -21.133286 5.062952 0.398039
-37.212532 -21.133280 4.497007 0.583333
-37.212532 -21.133282 3.936534 0.351961
-37.212532 -21.133286 3.380265 0.759191
-37.212532 -21.133284 2.826974 0.718505
-37.212532 -21.133284 2.275461 0.506005
-37.212532 -21.133284 1.724539 0.719730
-37.212532 -21.133282 1.173025 0.375980
-37.212532 -21.133286 0.619735 0.676961
-37.212532 -21.133284 0.063466 0.398897
-38.282120 -17.957750 0.000040 0.521324
-39.077271 -15.597005 0.000015 0.563725
-39.629951 -13.956124 0.000006 0.496078
-40.037186 -12.747073 0.000031 0.572672
-37.212528 -21.509258 6.305918 0.511152
-37.212528 -21.509260 5.712726 0.798162
-37.212528 -21.509260 5.127861 0.595588
-37.212528 -21.509260 4.549924 0.372549
-37.212528 -21.509262 3.977572 0.619363
-37.212528 -21.509258 3.409515 0.607353
-37.212528 -21.509258 2.844500 0.443015
-37.212532 -21.509256 2.281299 0.454779
-37.212532 -21.509256 1.718701 0.721324
-37.212532 -21.509256 1.155500 0.643137
-37.212532 -21.509256 0.590485 0.618873
-37.212532 -21.509254 0.022429 0.672794
-38.371410 -17.987532 0.000033 0.533946
-39.150063 -15.621274 0.000010 0.504902
-39.691280 -13.976575 0.000000 0.482721
-40.090065 -12.764703 0.000025 0.472181
-37.212528 -21.901529 6.399360 0.446201
-37.212528 -21.901537 5.793296 0.776103
-37.212528 -21.901535 5.195739 0.505760
-37.212528 -21.901539 4.605260 0.656250
-37.212528 -21.901535 4.020488 0.565441
-37.212532 -21.901525 3.440102 0.737500
-37.212532 -21.901522 2.862825 0.564583
-37.212528 -21.901527 2.287403 0.501348
-37.212532 -21.901525 1.712597 0.393260
-37.212532 -21.901522 1.137174 0.546569
-37.212532 -21.901524 0.559898 0.672181
-37.266994 -21.732038 -0.000007 0.542157
-38.460907 -18.016689 0.000025 0.547549
-39.223030 -15.645042 0.000002 0.565074
-39.752747 -13.996602 -0.000008 0.530025
-40.143066 -12.781972 0.000017 0.541176
-37.212528 -22.311211 6.497169 0.682230
-36.983223 -23.042282 6.043110 0.277696
-36.982529 -23.044493 5.406622 0.678431
-36.982529 -23.044495 4.777179 0.678431
-36.982529 -23.044495 4.153817 0.678431
-37.212528 -22.311209 3.472120 0.459559
-37.212528 -22.311214 2.882008 0.646936
-37.212528 -22.311209 2.293793 0.499877
-37.212528 -22.311209 1.706207 0.736029
-37.212528 -22.311214 1.117991 0.350123
-37.212528 -22.311209 0.527880 0.826348
-37.382668 -21.768778 -0.000008 0.508701
-38.550606 -18.045218 0.000018 0.533946
-39.296154 -15.668303 -0.000005 0.536029
-39.814354 -14.016199 -0.000016 0.544363
-40.196182 -12.798867 0.000010 0.547672
-37.212528 -22.739553 6.599658 0.524020
-37.062531 -23.229721 6.076710 0.160784
-37.019211 -23.371290 5.461446 0.182843
-37.019211 -23.371294 4.821873 0.150245
-37.019211 -23.371292 4.188479 0.171814
-37.212528 -22.739553 3.505669 0.431618
-37.212532 -22.739550 2.902109 0.734804
-37.212528 -22.739552 2.300488 0.496201
-37.212528 -22.739552 1.699512 0.485662
-37.212532 -22.739550 1.097890 0.689338
-37.212528 -22.739552 0.494331 0.377574
-37.498604 -21.804693 -0.000007 0.533456
-38.640499 -18.073137 0.000008 0.541789
-39.369438 -15.691061 -0.000014 0.553186
-39.876095 -14.035374 -0.000025 0.546814
-40.249416 -12.815403 -0.000000 0.527574
-37.212528 -23.187901 6.707162 0.673897
-37.127522 -23.472795 6.122905 0.538113
-37.127522 -23.472794 5.473425 0.801961
-37.127518 -23.472799 4.831638 0.462377
-37.127522 -23.472795 4.196053 0.455637
-37.212528 -23.187904 3.540860 0.606863
-37.212528 -23.187902 2.923193 0.472549
-37.212528 -23.187902 2.307512 0.702574
-37.212528 -23.187901 1.692489 0.662500
-37.212528 -23.187902 1.076806 0.854534
-37.212528 -23.187901 0.459140 0.672917
-37.614788 -21.839798 -0.000007 0.539093
-38.730659 -18.100180 0.000037 0.543750
-39.442936 -15.713115 0.000013 0.547794
-39.938015 -14.053951 0.000003 0.570956
-40.302811 -12.831420 0.000028 0.532598
-37.212528 -23.657730 6.820052 0.492647
-37.212528 -23.657730 6.156031 0.808578
-37.212540 -23.657696 5.501326 0.451348
-37.212540 -23.657692 4.854383 0.621936
-37.212540 -23.657694 4.213694 0.497059
-37.212528 -23.657730 3.577814 0.608088
-37.212528 -23.657726 2.945334 0.452574
-37.212528 -23.657726 2.314886 0.618873
-37.212528 -23.657726 1.685114 0.496569
-37.212528 -23.657726 1.054666 0.611274
-37.212528 -23.657726 0.422187 0.447549
-37.731216 -21.874098 -0.000007 0.534926
-38.820930 -18.126829 0.000030 0.548652
-39.516537 -15.734835 0.000006 0.554289
-40.000019 -14.072249 -0.000004 0.558456
-40.356274 -12.847195 0.000022 0.521078
-37.212528 -24.150667 6.938735 0.857843
-37.212528 -24.150667 6.258364 0.669118
-37.212536 -24.150644 5.587542 0.700858
-37.212536 -24.150644 4.924668 0.527451
-37.212536 -24.150646 4.268202 0.703186
-37.212536 -24.150646 3.616662 0.590564
-37.212528 -24.150667 2.968611 0.568873
-37.212528 -24.150669 2.322640 0.648775
-37.212528 -24.150665 1.677360 0.451838
-37.212528 -24.150667 1.031389 0.489216
-37.212528 -24.150665 0.383336 0.556740
-37.847874 -21.907579 -0.000007 0.523284
-38.911396 -18.152840 0.000023 0.519608
-39.590279 -15.756044 -0.000001 0.545466
-40.062153 -14.090117 -0.000011 0.555637
-40.409840 -12.862606 0.000013 0.528922
-37.212528 -24.668512 7.063663 0.534436
-37.212528 -24.668512 6.366081 0.717157
-37.212528 -24.668507 5.678292 0.767402
-37.212528 -24.668505 4.998651 0.546446
-37.212528 -24.668510 4.325580 0.436152
-37.212532 -24.668503 3.657557 0.395588
-37.212528 -24.668514 2.993112 0.620956
-37.212528 -24.668516 2.330801 0.770588
-37.212528 -24.668516 1.669199 0.493750
-37.212528 -24.668516 1.006887 0.505147
-37.212528 -24.668514 0.342442 0.488603
-37.964767 -21.940248 -0.000007 0.549020
-39.002052 -18.178156 0.000026 0.532843
-39.664188 -15.776682 0.000002 0.537255
-40.124416 -14.107500 -0.000007 0.525613
-40.463528 -12.877596 0.000017 0.533701
-37.212524 -25.213278 7.195337 0.551348
-37.212524 -25.213285 6.479617 0.505882
-36.982529 -26.070772 5.935484 0.678431
-36.982529 -26.070772 5.208322 0.678431
-36.982525 -26.070776 4.488188 0.678431
-36.982529 -26.070774 3.773456 0.676348
-37.212524 -25.213282 3.018937 0.677696
-37.212524 -25.213285 2.339403 0.644240
-37.212524 -25.213285 1.660597 0.519730
-37.212524 -25.213282 0.981063 0.653309
-37.212524 -25.213284 0.299338 0.584436
-38.081882 -21.972099 -0.000007 0.536642
-39.092869 -18.202904 0.000019 0.558456
-39.738224 -15.796855 -0.000004 0.513848
-40.186790 -14.124502 -0.000015 0.502083
-40.517307 -12.892251 0.000010 0.511765
-37.212524 -25.787155 7.334308 0.722549
-37.212524 -25.787157 6.599442 0.625000
-37.074986 -26.314629 5.974079 0.674387
-37.074986 -26.314627 5.239785 0.600000
-37.074986 -26.314629 4.512589 0.481985
-37.074986 -26.314627 3.790848 0.617525
-37.212524 -25.787163 3.046193 0.787745
-37.212524 -25.787155 2.348482 0.751593
-37.212524 -25.787157 1.651518 0.655270
-37.212524 -25.787163 0.953807 0.512745
-37.212524 -25.787159 0.253847 0.564461
-38.199223 -22.003128 -0.000006 0.545833
-39.183857 -18.227016 0.000012 0.528309
-39.812401 -15.816518 -0.000012 0.557843
-40.249283 -14.141060 -0.000021 0.541054
-40.571186 -12.906534 0.000002 0.496446
-37.212528 -26.392607 7.481194 0.865686
-37.212524 -26.392609 6.726092 0.493873
-37.212524 -26.392611 5.981592 0.628799
-37.212524 -26.392612 5.245911 0.496814
-37.212524 -26.392609 4.517338 0.649020
-37.212524 -26.392609 3.794233 0.557598
-37.212524 -26.392611 3.075001 0.587132
-37.212524 -26.392609 2.358078 0.587132
-37.212524 -26.392609 1.641922 0.549142
-37.212524 -26.392609 0.924999 0.556250
-37.212528 -26.392607 0.205766 0.496446
-38.316772 -22.033350 -0.000007 0.537500
-39.275005 -18.250502 0.000004 0.551225
-39.886711 -15.835656 -0.000019 0.543382
-40.311886 -14.157187 -0.000029 0.525490
-40.625168 -12.920429 -0.000003 0.563480
-37.212528 -27.032373 7.636676 0.617279
-37.212524 -27.032379 6.860158 0.646814
-37.212524 -27.032375 6.094537 0.715686
-37.212528 -27.032373 5.337987 0.542892
-37.212528 -27.032372 4.588748 0.751961
-37.212528 -27.032373 3.845130 0.437623
-37.212524 -27.032379 3.105495 0.546324
-37.212524 -27.032379 2.368236 0.394608
-37.212524 -27.032377 1.631765 0.641176
-37.212524 -27.032381 0.894504 0.505024
-37.212524 -27.032375 0.154869 0.610049
-38.434532 -22.062729 -0.000005 0.539828
-39.366394 -18.273039 0.000043 0.545956
-39.961216 -15.854031 0.000020 0.534559
-40.374653 -14.172670 0.000009 0.523529
-40.679287 -12.933785 0.000034 0.519118
-37.212524 -27.709545 7.801534 0.591667
-37.212524 -27.709547 7.002302 0.735662
-37.212524 -27.709555 6.214292 0.684559
-36.982525 -28.673895 5.582673 0.678431
-36.982525 -28.673889 4.778512 0.678431
-36.982525 -28.673895 3.980384 0.678431
-37.212524 -27.709547 3.137827 0.579167
-37.212524 -27.709545 2.379005 0.618873
-37.212524 -27.709543 1.620995 0.541789
-37.212524 -27.709549 0.862172 0.480882
-37.212524 -27.709549 0.100904 0.438726
-38.552490 -22.091312 -0.000007 0.534314
-39.457867 -18.295242 0.000036 0.534191
-40.035786 -15.872135 0.000013 0.507108
-40.437477 -14.187916 0.000003 0.527206
-40.733456 -12.946939 0.000026 0.544485
-37.212524 -28.427547 7.976623 0.532475
-37.212524 -28.427546 7.153270 0.581618
-37.212521 -28.427557 6.341479 0.592034
-37.062523 -29.076511 5.638101 0.191667
-37.062527 -29.076506 4.821498 0.209436
-37.062527 -29.076509 4.011024 0.200368
-37.212521 -28.427559 3.172168 0.552574
-37.212521 -28.427561 2.390444 0.623162
-37.212521 -28.427559 1.609557 0.574142
-37.212521 -28.427557 0.827832 0.545466
-37.212521 -28.427557 0.043589 0.611274
-38.670650 -22.119047 -0.000005 0.543505
-39.549469 -18.316893 0.000016 0.544730
-40.110481 -15.889706 0.000007 0.531495
-40.500404 -14.202729 -0.000005 0.536397
-40.787716 -12.959706 0.000019 0.536520
-37.212521 -29.190287 8.162922 0.559681
-37.212524 -29.190273 7.313901 0.707843
-37.212521 -29.190289 6.476806 0.704412
-37.212517 -29.190302 5.649626 0.517524
-37.212521 -29.190296 4.830436 0.804167
-37.212521 -29.190296 4.017394 0.595711
-37.212521 -29.190289 3.208705 0.715441
-37.212521 -29.190287 2.402614 0.499877
-37.212521 -29.190287 1.597386 0.509436
-37.212521 -29.190287 0.791295 0.561642
-37.258831 -28.983360 -0.000007 0.540319
-38.789001 -22.145964 -0.000005 0.530637
-39.641243 -18.337812 0.000009 0.523529
-40.185299 -15.906770 -0.000001 0.565074
-40.563435 -14.217094 -0.000010 0.529779
-40.842060 -12.972092 0.000013 0.533824
-37.212532 -30.002098 8.361515 0.777451
-37.212524 -30.002123 7.485145 0.870833
-37.212524 -30.002119 6.621070 0.507353
-37.212532 -30.002098 5.767229 0.649877
-37.212532 -30.002094 4.921643 0.611642
-37.212532 -30.002094 4.082401 0.557353
-37.212521 -30.002131 3.247657 0.617034
-37.212521 -30.002131 2.415588 0.605760
-37.212521 -30.002129 1.584412 0.526471
-37.212521 -30.002131 0.752343 0.530025
-37.425137 -29.019966 -0.000008 0.534314
-38.907532 -22.172064 -0.000006 0.524755
-39.733162 -18.358097 0.000002 0.539828
-40.260235 -15.923295 -0.000006 0.530147
-40.626598 -14.230879 0.000015 0.556740
-40.896496 -12.984099 0.000007 0.539706
-36.998562 -31.890961 8.835446 0.179657
-37.212521 -30.868086 7.668078 0.682476
-37.212521 -30.868092 6.775189 0.503186
-36.999538 -31.886280 6.047177 0.167770
-36.998558 -31.890959 5.139304 0.249510
-36.998558 -31.890959 4.237540 0.241789
-37.212521 -30.868092 3.289266 0.534314
-37.212521 -30.868090 2.429448 0.753676
-37.212521 -30.868090 1.570552 0.575490
-37.212521 -30.868090 0.710733 0.738113
-37.591694 -29.055412 -0.000007 0.542647
-39.026245 -22.197321 -0.000005 0.544363
-39.825226 -18.377686 0.000003 0.545466
-40.335289 -15.939266 -0.000006 0.563971
-40.689835 -14.244331 0.000016 0.543873
-40.951015 -12.995698 0.000008 0.538358
-37.171253 -31.998241 8.853061 0.605882
-37.212521 -31.793840 7.863929 0.651348
-37.212521 -31.793839 6.940187 0.700735
-37.171253 -31.998236 6.058316 0.824387
-37.171253 -31.998234 5.147393 0.467034
-37.171253 -31.998236 4.243305 0.765564
-37.212517 -31.793852 3.333815 0.723039
-37.212517 -31.793852 2.444287 0.452328
-37.212517 -31.793852 1.555712 0.770098
-37.212517 -31.793852 0.666185 0.591176
-37.758488 -29.089701 -0.000008 0.540686
-39.145126 -22.221783 -0.000008 0.527206
-39.917419 -18.396673 -0.000003 0.533578
-40.410450 -15.954747 -0.000012 0.550735
-40.753151 -14.257380 0.000009 0.511765
-41.005604 -13.006997 -0.000011 0.518873
-37.212521 -32.785908 9.044583 0.724877
-37.212521 -32.785927 8.074108 0.575980
-37.212517 -32.785919 7.117255 0.394853
-37.212521 -32.785927 6.171739 0.522181
-37.212521 -32.785904 5.235353 0.694240
-37.212524 -32.785900 4.305999 0.616789
-37.212521 -32.785927 3.381622 0.410417
-37.212521 -32.785927 2.460211 0.619118
-37.212521 -32.785927 1.539788 0.635049
-37.212517 -32.785931 0.618377 0.651961
