# This PCD file was generated using the MATLABÂ® pcwrite function
# from Computer Vision ToolboxÂ®.
# .PCD v.7 - Point Cloud Data file format
VERSION .7
FIELDS x y z intensity
SIZE 4 4 4 4
TYPE F F F F
COUNT 1 1 1 1
WIDTH 1217
HEIGHT 1
VIEWPOINT 0 0 0 1 0 0 0
POINTS 1217
DATA ascii
20.571709 -71.960197 -0.000009 0.509926
21.415092 -73.472389 -0.000018 0.553676
22.036478 -74.586540 -0.000016 0.569730
-0.094816 -34.129597 15.551068 0.569975
-0.094810 -34.129604 13.684241 0.579044
-0.094814 -34.129597 11.843629 0.574265
-0.094807 -34.129608 10.024812 0.757966
-0.094820 -34.129589 8.223578 0.444853
-0.094812 -34.129601 6.435856 0.586520
-0.094809 -34.129608 4.657708 0.441789
-0.094812 -34.129601 2.885269 0.533578
-0.094814 -34.129597 1.114730 0.610294
6.344439 -45.867107 -0.000009 0.539216
14.193710 -60.174809 -0.000010 0.529902
17.563715 -66.317673 -0.000007 0.538358
19.440628 -69.738922 -0.000004 0.523775
20.638861 -71.923065 -0.000007 0.539583
21.471666 -73.441109 -0.000016 0.574510
22.085258 -74.559570 -0.000014 0.554534
0.334333 -34.129597 15.499693 0.681005
0.334339 -34.129601 13.639946 0.695098
0.334337 -34.129597 11.806310 0.735172
0.334339 -34.129608 9.994389 0.657721
0.334337 -34.129597 8.199984 0.561275
0.334332 -34.129593 6.419040 0.702941
0.334343 -34.129612 4.647632 0.789216
0.334337 -34.129597 2.881914 0.650613
0.334335 -34.129597 1.118086 0.666176
6.594086 -45.731251 -0.000010 0.532721
14.343291 -60.093426 -0.000010 0.543750
17.670326 -66.259659 -0.000008 0.522304
19.523298 -69.693909 -0.000009 0.545221
20.706266 -71.886391 -0.000008 0.531495
21.528450 -73.410202 -0.000018 0.517402
22.134228 -74.532936 -0.000012 0.586152
0.760262 -34.129604 15.449362 0.706005
0.760263 -34.129604 13.596545 0.663848
0.760258 -34.129593 11.769749 0.579412
0.760260 -34.129604 9.964584 0.755270
0.760256 -34.129597 8.176867 0.627941
0.760258 -34.129601 6.402563 0.630392
0.760262 -34.129612 4.637760 0.678554
0.760258 -34.129601 2.878626 0.681618
0.760262 -34.129604 1.121374 0.667034
6.844675 -45.597153 -0.000011 0.532843
14.493440 -60.013100 -0.000009 0.529902
17.777340 -66.202393 -0.000008 0.538235
19.606291 -69.649506 -0.000009 0.524265
20.773930 -71.850197 -0.000005 0.533088
21.585453 -73.379707 -0.000017 0.546691
22.183374 -74.506638 -0.000013 0.572794
1.106003 -33.981915 15.441777 0.510294
1.095560 -33.961903 13.594884 0.328799
1.183039 -34.129593 11.733931 0.615809
1.095556 -33.961899 9.963444 0.405637
1.183043 -34.129597 8.154221 0.638726
1.183044 -34.129601 6.386421 0.493137
1.095560 -33.961906 4.637383 0.180147
1.183041 -34.129593 2.875404 0.583578
1.183041 -34.129593 1.124595 0.396324
7.096210 -45.464832 -0.000010 0.538725
14.644147 -59.933815 -0.000009 0.521446
17.884737 -66.145851 -0.000012 0.548162
19.689592 -69.605667 -0.000010 0.545466
20.841839 -71.814461 -0.000007 0.513358
21.642700 -73.349678 -0.000001 0.500980
22.232708 -74.480682 -0.000012 0.528431
1.516758 -33.961903 15.398961 0.160784
1.470917 -33.872509 13.574786 0.678431
1.602755 -34.129604 11.698843 0.572672
1.470921 -33.872513 9.949636 0.678431
1.602755 -34.129597 8.132039 0.552328
1.602757 -34.129604 6.370612 0.605025
1.470917 -33.872509 4.632811 0.678431
1.602755 -34.129601 2.872249 0.548774
1.602755 -34.129601 1.127751 0.591544
7.348663 -45.334270 -0.000010 0.536887
14.795404 -59.855595 -0.000008 0.531373
17.992542 -66.090096 -0.000012 0.536152
19.773201 -69.562424 -0.000009 0.506863
20.910000 -71.779213 -0.000006 0.538113
21.700117 -73.319962 -0.000003 0.578309
22.282209 -74.455055 -0.000017 0.542892
1.934948 -33.961906 15.351486 0.160784
1.889887 -33.872505 13.533778 0.678431
2.019470 -34.129593 11.664480 0.743627
1.889893 -33.872509 9.921473 0.678431
2.019466 -34.129593 8.110312 0.658456
2.019470 -34.129593 6.355125 0.721691
1.889893 -33.872509 4.623483 0.678431
2.019474 -34.129601 2.869159 0.627328
2.019474 -34.129601 1.130842 0.557598
7.602020 -45.205471 -0.000009 0.545343
14.947202 -59.778431 -0.000007 0.528676
18.100731 -66.035088 -0.000012 0.518015
19.857115 -69.519783 -0.000007 0.540441
20.978407 -71.744446 -0.000004 0.545098
21.757746 -73.290665 -0.000003 0.526593
22.331902 -74.429794 -0.000015 0.541667
2.433270 -34.129593 15.258118 0.460784
2.433270 -34.129593 13.431648 0.594240
2.433266 -34.129593 11.630828 0.549632
2.433268 -34.129589 9.851332 0.698897
2.433268 -34.129593 8.089036 0.753922
2.433271 -34.129604 6.339960 0.594730
2.433270 -34.129601 4.600252 0.584804
2.433270 -34.129601 2.866132 0.664216
2.433271 -34.129608 1.133868 0.700858
7.856266 -45.078430 -0.000009 0.538971
15.099534 -59.702324 -0.000006 0.534926
18.209316 -65.980858 -0.000010 0.538725
19.941317 -69.477715 -0.000007 0.521569
21.047054 -71.710152 -0.000003 0.524632
21.815569 -73.261757 -0.000006 0.523775
22.381765 -74.404884 -0.000015 0.519485
2.844213 -34.129593 15.212752 0.599755
2.844213 -34.129593 13.392534 0.566422
2.844212 -34.129585 11.597874 0.758701
2.844215 -34.129593 9.824466 0.673652
2.844213 -34.129593 8.068199 0.490564
2.844212 -34.129585 6.325110 0.593137
2.844215 -34.129597 4.591356 0.532598
2.844217 -34.129597 2.863169 0.701348
2.844217 -34.129597 1.136832 0.685172
8.111620 -44.953636 0.000016 0.536520
15.252371 -59.627235 -0.000010 0.546936
18.318253 -65.927345 -0.000013 0.538603
20.025801 -69.436203 -0.000010 0.523897
21.115917 -71.676285 -0.000012 0.529902
21.873598 -73.233253 -0.000008 0.535172
22.431795 -74.380310 -0.000019 0.511520
3.252378 -34.129597 15.168334 0.571446
3.252375 -34.129597 13.354238 0.550000
3.252377 -34.129601 11.565605 0.569363
3.102804 -33.816704 9.849607 0.678431
3.102804 -33.816704 8.087696 0.678431
3.102800 -33.816700 6.339009 0.678431
3.102804 -33.816708 4.599682 0.678431
3.102804 -33.816711 2.865942 0.678431
3.252378 -34.129601 1.139734 0.566544
8.367617 -44.830173 0.000017 0.538235
15.405724 -59.553204 -0.000015 0.531740
18.427572 -65.874611 -0.000012 0.523652
20.110582 -69.395309 -0.000010 0.534681
21.185032 -71.642952 -0.000012 0.531005
21.931828 -73.205170 -0.000007 0.564093
22.482008 -74.356094 -0.000016 0.586520
3.579931 -33.963688 15.170766 0.514093
3.579929 -33.963680 13.356335 0.527083
3.657827 -34.129601 11.534022 0.520221
3.573887 -33.950806 9.801712 0.160784
3.573885 -33.950802 8.050554 0.160784
3.573887 -33.950806 6.312532 0.165686
3.573883 -33.950798 4.583819 0.160784
3.573889 -33.950809 2.860658 0.160784
3.657833 -34.129608 1.142574 0.406985
8.624439 -44.708435 0.000013 0.533824
15.559598 -59.480263 -0.000018 0.539338
18.537243 -65.822624 -0.000017 0.547059
20.195639 -69.354988 -0.000015 0.540564
21.254372 -71.610077 -0.000016 0.524877
21.990242 -73.177475 -0.000012 0.554657
22.532402 -74.332275 -0.000005 0.519730
3.942095 -33.872490 15.153209 0.678431
3.942097 -33.872494 13.341194 0.678431
4.060617 -34.129597 11.503107 0.495711
3.916376 -33.816704 9.798319 0.678431
3.916378 -33.816708 8.047920 0.678431
3.916380 -33.816708 6.310656 0.678431
3.916374 -33.816696 4.582696 0.678431
3.916378 -33.816704 2.860283 0.678431
4.060625 -34.129604 1.145354 0.582843
8.882122 -44.588539 0.000013 0.537377
15.713997 -59.408440 -0.000018 0.548529
18.647289 -65.771431 -0.000017 0.534191
20.280970 -69.315247 -0.000019 0.543627
21.323948 -71.577713 -0.000015 0.525368
22.048861 -73.150215 -0.000010 0.542770
22.582928 -74.308731 -0.000013 0.539828
4.344486 -33.872498 15.111331 0.678431
4.344486 -33.872505 13.305083 0.678431
4.460836 -34.129597 11.472850 0.468627
4.319233 -33.816700 9.773490 0.678431
4.319235 -33.816704 8.028666 0.678431
4.319237 -33.816708 6.296932 0.678431
4.319235 -33.816704 4.574472 0.678431
4.319235 -33.816704 2.857545 0.678431
4.460836 -34.129601 1.148076 0.716789
9.140692 -44.470558 0.000018 0.540074
15.868911 -59.337730 -0.000014 0.538603
18.757706 -65.721024 -0.000013 0.531863
20.366600 -69.276169 -0.000015 0.555760
21.393761 -71.545853 -0.000010 0.523284
22.107674 -73.123375 -0.000005 0.557476
22.633640 -74.285583 -0.000009 0.540074
4.858528 -34.129601 14.999888 0.544240
4.858532 -34.129612 13.208992 0.549387
4.858522 -34.129589 11.443249 0.465931
4.719547 -33.816700 9.749196 0.678431
4.719547 -33.816696 8.009825 0.678431
4.719549 -33.816704 6.283504 0.678431
4.719549 -33.816704 4.566428 0.678431
4.719549 -33.816700 2.854866 0.678431
4.858530 -34.129604 1.150738 0.492279
9.400030 -44.354290 0.000019 0.538113
16.024294 -59.268070 -0.000014 0.533578
18.868460 -65.671394 -0.000011 0.515931
20.452499 -69.237671 -0.000012 0.528676
21.463783 -71.514473 -0.000009 0.526838
22.166670 -73.096931 -0.000003 0.503922
22.684507 -74.262794 -0.000007 0.526838
5.253763 -34.129604 14.960016 0.461642
5.253763 -34.129604 13.174613 0.559314
5.253759 -34.129597 11.414283 0.721324
5.175835 -33.950802 9.703730 0.160784
5.175842 -33.950817 7.974562 0.160784
5.175838 -33.950813 6.258370 0.160784
5.175837 -33.950806 4.551370 0.160784
5.175840 -33.950813 2.849848 0.160784
5.253765 -34.129608 1.153343 0.655882
9.660151 -44.239761 0.000016 0.536765
16.180140 -59.199440 -0.000018 0.531618
18.979544 -65.622482 -0.000014 0.543137
20.538647 -69.199738 -0.000016 0.540686
21.534019 -71.483559 -0.000010 0.533578
22.225836 -73.070885 -0.000006 0.593873
22.735521 -74.240326 -0.000011 0.544976
5.646593 -34.129601 14.921018 0.598897
5.646599 -34.129612 13.140986 0.615809
5.646595 -34.129601 11.385952 0.689216
5.512812 -33.816700 9.702181 0.678431
5.512814 -33.816704 7.973362 0.678431
5.512810 -33.816696 6.257515 0.678431
5.512810 -33.816696 4.550857 0.678431
5.512812 -33.816711 2.849679 0.678431
5.646593 -34.129604 1.155890 0.595588
9.921116 -44.127193 0.000020 0.537990
16.336498 -59.131996 -0.000014 0.536642
19.090988 -65.574417 -0.000009 0.533211
20.625078 -69.162468 -0.000012 0.546324
21.604479 -71.453171 -0.000006 0.548774
22.285181 -73.045242 -0.000011 0.531250
22.786705 -74.218254 -0.000006 0.538235
6.037090 -34.129589 14.882880 0.603676
6.037096 -34.129608 13.108102 0.687377
6.037090 -34.129593 11.358251 0.597426
5.905890 -33.816700 9.679447 0.678431
5.905888 -33.816692 7.955732 0.678431
5.905888 -33.816696 6.244949 0.678431
5.905890 -33.816700 4.543326 0.678431
5.905890 -33.816700 2.847170 0.678431
6.037098 -34.129608 1.158382 0.707721
10.182777 -44.016228 0.000012 0.537990
16.493277 -59.065521 -0.000020 0.552451
19.202736 -65.527039 -0.000016 0.562132
20.711735 -69.125710 -0.000020 0.533578
21.675127 -71.423210 -0.000013 0.519240
22.344700 -73.020004 -0.000017 0.521201
22.838051 -74.196548 0.000002 0.574020
6.319613 -33.872509 14.915214 0.678431
6.319611 -33.872505 13.135987 0.678431
6.425310 -34.129597 11.331160 0.548162
6.296667 -33.816696 9.657219 0.678431
6.296665 -33.816696 7.938492 0.678431
6.296663 -33.816689 6.232663 0.678431
6.296669 -33.816700 4.535964 0.678431
6.296667 -33.816700 2.844719 0.678431
6.425312 -34.129597 1.160818 0.580024
10.445272 -43.907265 0.000013 0.533946
16.650547 -59.000225 -0.000020 0.525735
19.314838 -65.480522 -0.000013 0.533824
20.798672 -69.089622 -0.000018 0.525000
21.745998 -71.393784 -0.000012 0.561887
22.404413 -72.995224 -0.000014 0.512010
22.889530 -74.175171 0.000003 0.545098
6.707699 -33.872501 14.878565 0.678431
6.707699 -33.872505 13.104384 0.678431
6.811308 -34.129601 11.304680 0.636887
6.685209 -33.816696 9.635488 0.678431
6.685209 -33.816704 7.921639 0.678431
6.685213 -33.816708 6.220649 0.678431
6.685209 -33.816696 4.528769 0.678431
6.685209 -33.816704 2.842321 0.678431
6.811306 -34.129601 1.163199 0.486152
10.708542 -43.800182 0.000018 0.538235
16.808392 -58.936325 0.000008 0.534314
19.427267 -65.434792 -0.000008 0.537377
20.885868 -69.054161 -0.000014 0.540564
21.817070 -71.364845 -0.000014 0.545833
22.464302 -72.970886 -0.000007 0.545833
22.941154 -74.154137 -0.000001 0.512500
7.093605 -33.872501 14.842747 0.678431
7.093607 -33.872509 13.073498 0.658088
7.195135 -34.129593 11.278800 0.681985
7.071568 -33.816696 9.614251 0.678431
7.071566 -33.816692 7.905170 0.678431
7.071571 -33.816704 6.208909 0.678431
7.071569 -33.816700 4.521736 0.678431
7.071571 -33.816704 2.839977 0.678431
7.195139 -34.129608 1.165527 0.536520
10.972500 -43.694813 0.000014 0.532843
16.966537 -58.873192 0.000004 0.532353
19.539988 -65.389801 -0.000011 0.546446
20.973291 -69.019272 -0.000015 0.538480
21.888336 -71.336388 -0.000017 0.540319
22.524342 -72.946915 -0.000012 0.535662
22.992931 -74.133499 0.000002 0.522426
7.576857 -34.129604 14.738696 0.595098
7.576857 -34.129604 12.983787 0.661274
7.576855 -34.129597 11.253514 0.482843
7.507687 -33.950802 9.572172 0.160784
7.507689 -33.950802 7.872535 0.160784
7.507687 -33.950802 6.185651 0.160784
7.507690 -33.950809 4.507800 0.172549
7.507690 -33.950809 2.835336 0.160784
7.576859 -34.129608 1.167801 0.687377
11.237244 -43.591431 0.000019 0.539583
17.125156 -58.811249 0.000008 0.543015
19.653015 -65.345566 -0.000017 0.529779
21.060970 -68.985031 -0.000011 0.537745
21.959814 -71.308479 -0.000014 0.563848
22.584564 -72.923409 -0.000005 0.512132
23.044844 -74.113190 -0.000001 0.509804
7.956516 -34.129601 14.704695 0.495343
7.956516 -34.129604 12.954468 0.548407
7.956514 -34.129601 11.228814 0.655760
7.837978 -33.816711 9.573229 0.678431
7.837978 -33.816711 7.873356 0.678431
7.837976 -33.816704 6.186236 0.678431
7.837978 -33.816708 4.508150 0.678431
7.837975 -33.816704 2.835454 0.678431
7.956516 -34.129604 1.170023 0.772794
11.502645 -43.489750 0.000015 0.539216
17.284174 -58.750332 0.000005 0.539093
19.766354 -65.302147 -0.000020 0.548652
21.148869 -68.951363 -0.000014 0.534804
22.031475 -71.281029 -0.000015 0.541667
22.644945 -72.900314 -0.000000 0.535172
23.096899 -74.093262 -0.000003 0.539583
8.334179 -34.129604 14.671488 0.593873
8.334175 -34.129597 12.925837 0.534436
8.334177 -34.129597 11.204693 0.801348
8.218126 -33.816704 9.553438 0.678431
8.218128 -33.816708 7.858006 0.678431
8.218128 -33.816708 6.175294 0.678431
8.218126 -33.816704 4.501595 0.678431
8.218128 -33.816708 2.833269 0.678431
8.334179 -34.129601 1.172192 0.665074
11.768803 -43.390068 0.000020 0.535417
17.443642 -58.690613 0.000010 0.527819
19.880016 -65.259583 -0.000015 0.538603
21.237026 -68.918365 -0.000008 0.533088
22.103340 -71.254120 -0.000010 0.564338
22.705479 -72.877617 -0.000001 0.537990
23.149090 -74.073677 -0.000005 0.548039
8.657185 -33.984413 14.677759 0.160784
8.649012 -33.961891 12.936417 0.072794
8.709885 -34.129601 11.181144 0.446201
8.596313 -33.816700 9.534114 0.678431
8.596315 -33.816711 7.843017 0.678431
8.596315 -33.816708 6.164613 0.666667
8.596315 -33.816704 4.495194 0.678431
8.596313 -33.816711 2.831137 0.678431
8.709883 -34.129597 1.174309 0.428431
12.035578 -43.292038 0.000013 0.540196
17.603477 -58.631878 0.000004 0.537377
19.993942 -65.217720 -0.000021 0.537745
21.325377 -68.885887 -0.000014 0.531863
22.175367 -71.227661 -0.000016 0.555147
22.766165 -72.855331 -0.000005 0.549755
23.201418 -74.054474 -0.000007 0.523775
8.992403 -33.872501 14.675772 0.678431
9.083693 -34.129597 12.870605 0.502574
9.083693 -34.129593 11.158162 0.635784
8.972591 -33.816711 9.515252 0.678431
8.972588 -33.816704 7.828393 0.678431
8.972589 -33.816704 6.154187 0.678431
8.972589 -33.816704 4.488948 0.678431
8.972589 -33.816708 2.829056 0.678431
9.083698 -34.129604 1.176376 0.572181
12.303064 -43.195976 0.000012 0.535049
17.763775 -58.574413 0.000010 0.538848
20.108196 -65.176773 -0.000014 0.578676
21.413982 -68.854111 -0.000010 0.512377
22.247604 -71.201767 -0.000008 0.556740
22.827013 -72.833496 -0.000003 0.561397
23.253883 -74.035645 -0.000005 0.545833
9.366379 -33.872509 14.644732 0.678431
9.455652 -34.129593 12.843987 0.357353
9.455652 -34.129597 11.135736 0.628676
9.347004 -33.816704 9.496853 0.678431
9.347004 -33.816708 7.814120 0.678431
9.347004 -33.816708 6.144015 0.678431
9.347002 -33.816704 4.482853 0.678431
9.347004 -33.816708 2.827027 0.678431
9.455654 -34.129601 1.178393 0.685539
12.571207 -43.101761 0.000009 0.537377
17.924431 -58.517967 0.000007 0.528922
20.222700 -65.136520 -0.000018 0.531495
21.502766 -68.822853 -0.000022 0.539461
22.320002 -71.176331 -0.000011 0.544853
22.887997 -72.812035 -0.000012 0.523529
23.306473 -74.017166 -0.000008 0.529902
9.768892 -33.961903 14.590811 0.160784
9.825811 -34.129589 12.818027 0.723897
9.825815 -34.129601 11.113863 0.357966
9.719606 -33.816704 9.478903 0.678431
9.719601 -33.816696 7.800203 0.678431
9.719606 -33.816704 6.134094 0.678431
9.719603 -33.816696 4.476911 0.678431
9.719606 -33.816708 2.825047 0.678431
9.825817 -34.129608 1.180360 0.606250
12.839987 -43.009380 0.000005 0.534559
18.085472 -58.462627 0.000004 0.535662
20.337486 -65.097084 -0.000021 0.553186
21.591787 -68.792259 -0.000025 0.512132
22.392591 -71.151443 -0.000005 0.535294
22.949146 -72.791054 -0.000008 0.510294
23.359201 -73.999084 -0.000003 0.546814
10.194227 -34.129601 14.517095 0.450490
10.194225 -34.129601 12.792710 0.588848
10.194225 -34.129593 11.092540 0.648284
10.090450 -33.816708 9.461403 0.678431
10.090445 -33.816692 7.786631 0.678431
10.090448 -33.816696 6.124421 0.678431
10.090446 -33.816700 4.471115 0.678431
10.090448 -33.816704 2.823116 0.678431
10.194227 -34.129601 1.182278 0.545711
13.109472 -42.919060 0.000010 0.537990
18.246929 -58.408512 0.000008 0.529167
20.452566 -65.058510 -0.000017 0.537623
21.681034 -68.762352 -0.000020 0.550000
22.465336 -71.127014 -0.000008 0.543627
23.010431 -72.770477 -0.000012 0.570956
23.412045 -73.981339 -0.000006 0.539951
10.560936 -34.129601 14.488480 0.650123
10.560932 -34.129593 12.768040 0.534681
10.560934 -34.129593 11.071754 0.578064
10.459572 -33.816696 9.444349 0.678431
10.459572 -33.816704 7.773400 0.678431
10.459572 -33.816700 6.114993 0.678431
10.459570 -33.816692 4.465466 0.678431
10.459574 -33.816696 2.821234 0.678431
10.560936 -34.129601 1.184148 0.442402
13.379532 -42.830494 0.000008 0.533824
18.408733 -58.355442 0.000006 0.530637
20.567947 -65.020851 0.000001 0.536152
21.770498 -68.733078 -0.000012 0.551961
22.538258 -71.103127 -0.000005 0.566422
23.071863 -72.750343 -0.000011 0.509804
23.465015 -73.963989 -0.000003 0.517647
10.925989 -34.129593 14.460604 0.575000
10.925987 -34.129585 12.744006 0.488113
10.925989 -34.129601 11.051503 0.645221
10.847795 -33.882339 9.417520 0.236642
10.847797 -33.882343 7.752594 0.207598
10.847795 -33.882339 6.100164 0.216789
10.847799 -33.882355 4.456579 0.231127
10.847799 -33.882355 2.818275 0.226961
10.925991 -34.129601 1.185969 0.701593
13.650202 -42.743805 0.000006 0.532230
18.570900 -58.303493 0.000003 0.538480
20.683531 -64.983818 -0.000002 0.542770
21.860151 -68.704391 -0.000010 0.512500
22.611347 -71.079742 -0.000004 0.502328
23.133440 -72.730652 -0.000007 0.549020
23.518108 -73.947006 -0.000000 0.546569
11.210098 -33.872498 14.500854 0.634069
11.289436 -34.129601 12.720596 0.543505
11.289434 -34.129597 11.031785 0.440319
11.192883 -33.816708 9.411547 0.678431
11.192884 -33.816711 7.747964 0.678431
11.192884 -33.816708 6.096861 0.678431
11.192886 -33.816715 4.454602 0.678431
11.192884 -33.816711 2.817617 0.678431
11.289436 -34.129597 1.187742 0.814706
13.921515 -42.659142 0.000011 0.538848
18.733452 -58.252754 0.000007 0.547304
20.799393 -64.947670 0.000003 0.537868
21.949991 -68.676308 -0.000013 0.567647
22.684586 -71.056839 -0.000007 0.540319
23.195143 -72.711365 -0.000010 0.520956
23.571301 -73.930336 -0.000013 0.547917
11.573946 -33.872501 14.474282 0.678431
11.651320 -34.129601 12.697810 0.474142
11.651318 -34.129597 11.012589 0.531127
11.557154 -33.816708 9.395792 0.678431
11.557152 -33.816704 7.735747 0.678431
11.557154 -33.816711 6.088155 0.678431
11.557152 -33.816708 4.449386 0.678431
11.557152 -33.816708 2.815878 0.678431
11.651318 -34.129601 1.189468 0.805025
14.193361 -42.576221 0.000007 0.538358
18.896328 -58.203075 0.000003 0.543995
20.915485 -64.912262 -0.000001 0.532966
22.040039 -68.648895 -0.000009 0.525000
22.757996 -71.034492 -0.000002 0.537010
23.256989 -72.692535 -0.000005 0.536397
23.624624 -73.914101 -0.000008 0.553186
11.936260 -33.872498 14.448434 0.678431
12.011681 -34.129597 12.675643 0.742892
12.011681 -34.129601 10.993910 0.626225
11.919889 -33.816692 9.380470 0.678431
11.919891 -33.816704 7.723861 0.678431
11.919889 -33.816700 6.079683 0.678431
11.919891 -33.816704 4.444309 0.678431
11.919893 -33.816711 2.814188 0.678431
12.011683 -34.129608 1.191148 0.567034
14.465808 -42.495281 0.000008 0.529657
19.059561 -58.154583 0.000004 0.531005
21.031822 -64.877670 -0.000003 0.551225
22.130274 -68.622101 -0.000006 0.518873
22.831554 -71.012642 -0.000002 0.550245
23.318962 -72.674133 -0.000003 0.537132
23.678059 -73.898224 -0.000008 0.546691
12.370579 -34.129604 14.356314 0.715809
12.370577 -34.129601 12.654080 0.656373
12.370575 -34.129597 10.975748 0.687010
12.319481 -33.950817 9.344874 0.160784
12.319481 -33.950813 7.696255 0.160784
12.319481 -33.950813 6.060008 0.160784
12.319479 -33.950809 4.432522 0.166667
12.319481 -33.950813 2.810260 0.160784
12.370577 -34.129601 1.192781 0.606250
14.738822 -42.416275 0.000010 0.536029
19.223139 -58.107254 0.000007 0.537132
21.148438 -64.844025 0.000011 0.528922
22.220684 -68.595901 -0.000009 0.526593
22.905256 -70.991272 -0.000005 0.551225
23.381056 -72.656136 -0.000006 0.534436
23.731600 -73.882721 -0.000008 0.550858
12.728041 -34.129604 14.332010 0.749387
12.728039 -34.129601 12.633125 0.660294
12.728041 -34.129597 10.958093 0.610172
12.640972 -33.816696 9.351077 0.678431
12.640976 -33.816708 7.701064 0.678431
12.640974 -33.816704 6.063437 0.678431
12.640976 -33.816708 4.434574 0.678431
12.640976 -33.816708 2.810946 0.678431
12.728043 -34.129608 1.194369 0.772917
15.012348 -42.339066 0.000007 0.538480
19.387016 -58.060989 0.000004 0.535294
21.265257 -64.811104 0.000014 0.515564
22.311283 -68.570366 -0.000006 0.547304
22.979107 -70.970428 -0.000009 0.522917
23.443279 -72.638596 -0.000004 0.580392
23.785252 -73.867599 -0.000006 0.556863
13.084116 -34.129604 14.308396 0.280760
13.084118 -34.129601 12.612766 0.548407
13.084118 -34.129601 10.940941 0.474020
12.999401 -33.816704 9.337001 0.678431
12.999399 -33.816700 7.690150 0.678431
12.999399 -33.816700 6.055657 0.678431
12.999401 -33.816704 4.429913 0.678431
12.999401 -33.816700 2.809392 0.678431
13.084118 -34.129601 1.195912 0.850490
15.286433 -42.263874 0.000008 0.534069
19.551228 -58.015919 0.000004 0.546446
21.382299 -64.778984 0.000014 0.537868
22.402052 -68.545448 -0.000007 0.516422
23.053106 -70.950127 -0.000008 0.535417
23.505621 -72.621490 -0.000004 0.576716
23.839006 -73.852852 -0.000004 0.562132
13.438848 -34.129604 14.285479 0.699755
13.438848 -34.129601 12.593004 0.478799
13.438845 -34.129589 10.924292 0.536520
13.356472 -33.816708 9.323338 0.501961
13.356474 -33.816704 7.679554 0.377819
13.356474 -33.816708 6.048102 0.381127
13.356472 -33.816700 4.425390 0.461152
13.356476 -33.816711 2.807886 0.678431
13.438850 -34.129604 1.197409 0.812868
15.561052 -42.190647 0.000014 0.532598
19.715801 -57.972183 0.000020 0.536397
21.499554 -64.747650 0.000011 0.516912
22.492990 -68.521149 -0.000010 0.520588
23.127243 -70.930305 -0.000011 0.533946
23.568077 -72.604790 -0.000006 0.516054
23.892860 -73.838463 -0.000007 0.555392
13.726513 -33.872505 14.329709 0.635662
13.792282 -34.129597 12.573828 0.523284
13.792282 -34.129601 10.908135 0.450613
13.712236 -33.816696 9.310081 0.678431
13.712238 -33.816704 7.669272 0.678431
13.712238 -33.816704 6.040776 0.678431
13.712240 -33.816708 4.420999 0.678431
13.712240 -33.816708 2.806423 0.678431
13.792284 -34.129612 1.198862 0.514216
15.836154 -42.119255 0.000014 0.537500
19.880630 -57.929428 0.000022 0.536765
21.617035 -64.717163 0.000012 0.529412
22.584103 -68.497498 -0.000009 0.539706
23.201517 -70.911034 -0.000011 0.541544
23.630646 -72.588524 -0.000012 0.566054
23.946815 -73.824455 -0.000007 0.529044
14.080593 -33.872498 14.308033 0.678431
14.144453 -34.129597 12.555234 0.671201
14.144453 -34.129597 10.892472 0.779657
14.066734 -33.816700 9.297227 0.678431
14.066734 -33.816708 7.659301 0.678431
14.066734 -33.816708 6.033670 0.678431
14.066730 -33.816696 4.416741 0.678431
14.066734 -33.816700 2.805006 0.678431
14.144453 -34.129601 1.200271 0.555760
16.111715 -42.049664 0.000008 0.536887
20.045757 -57.887840 0.000025 0.545956
21.734734 -64.687531 0.000017 0.533088
22.675381 -68.474518 -0.000006 0.543995
23.275930 -70.892296 -0.000008 0.528554
23.693336 -72.572746 -0.000009 0.529412
24.000870 -73.810844 -0.000004 0.536029
14.433449 -33.872501 14.287022 0.678431
14.495405 -34.129601 12.537220 0.526103
14.495407 -34.129593 10.877293 0.583088
14.420002 -33.816704 9.284773 0.678431
14.420000 -33.816708 7.649643 0.678431
14.420000 -33.816704 6.026786 0.678431
14.420002 -33.816708 4.412616 0.678431
14.420002 -33.816708 2.803631 0.678431
14.495407 -34.129601 1.201635 0.781495
16.387791 -41.982128 0.000009 0.536152
20.211161 -57.847370 0.000026 0.533578
21.852625 -64.658691 0.000018 0.541667
22.766811 -68.452141 -0.000006 0.539216
23.350470 -70.874054 -0.000008 0.545098
23.756134 -72.557373 -0.000009 0.530147
24.055014 -73.797592 -0.000004 0.562745
14.806000 -33.961899 14.243688 0.160784
14.845176 -34.129593 12.519776 0.621936
14.845180 -34.129608 10.862597 0.515686
14.772079 -33.816704 9.272715 0.678431
14.772081 -33.816708 7.640291 0.678431
14.772079 -33.816704 6.020121 0.678431
14.772079 -33.816711 4.408622 0.678431
14.772081 -33.816711 2.802301 0.678431
14.845178 -34.129604 1.202958 0.849877
16.664436 -41.916988 0.000033 0.538725
20.376835 -57.808018 0.000023 0.535907
21.970711 -64.630646 0.000015 0.538848
22.858418 -68.430504 0.000009 0.547549
23.425125 -70.856316 -0.000011 0.539583
23.819035 -72.542442 -0.000010 0.503431
24.109247 -73.784721 -0.000005 0.562990
15.193811 -34.129601 14.180983 0.487990
15.193811 -34.129597 12.502903 0.546078
15.193811 -34.129597 10.848384 0.691789
15.123017 -33.816711 9.261047 0.678431
15.123016 -33.816711 7.631245 0.678431
15.123014 -33.816708 6.013672 0.678431
15.123016 -33.816719 4.404757 0.678431
15.123015 -33.816708 2.801015 0.678431
15.193813 -34.129601 1.204236 0.821569
16.941422 -41.853310 0.000033 0.539828
20.542789 -57.769867 0.000023 0.530392
22.088995 -64.603455 0.000015 0.527451
22.950153 -68.409416 0.000009 0.520588
23.499912 -70.839134 -0.000009 0.534681
23.882038 -72.527962 -0.000010 0.561887
24.163574 -73.772232 -0.000004 0.554044
15.541348 -34.129604 14.162067 0.597181
15.541348 -34.129604 12.486591 0.541544
15.541348 -34.129597 10.834643 0.667402
15.472841 -33.816700 9.249775 0.678431
15.472844 -33.816708 7.622501 0.678431
15.472844 -33.816708 6.007438 0.678431
15.472844 -33.816708 4.401024 0.678431
15.472843 -33.816711 2.799771 0.678431
15.541348 -34.129604 1.205472 0.477696
17.218861 -41.791637 0.000037 0.534681
20.709013 -57.732903 0.000026 0.538113
22.207472 -64.577103 0.000018 0.541544
23.042038 -68.389000 0.000013 0.540686
23.574821 -70.822472 -0.000006 0.544118
23.945145 -72.513924 -0.000007 0.566299
24.217985 -73.760132 -0.000001 0.520466
15.887818 -34.129597 14.143800 0.535172
15.887820 -34.129601 12.470841 0.573775
15.887818 -34.129593 10.821377 0.783456
15.821598 -33.816700 9.238884 0.678431
15.821599 -33.816696 7.614057 0.678431
15.821599 -33.816700 6.001420 0.678431
15.821601 -33.816704 4.397419 0.678431
15.821600 -33.816708 2.798568 0.678431
15.887819 -34.129604 1.206664 0.549510
17.496704 -41.731827 0.000038 0.534069
20.875483 -57.697067 0.000027 0.528554
22.326122 -64.551567 0.000018 0.540564
23.134056 -68.369179 0.000014 0.543137
23.649837 -70.806335 -0.000005 0.529534
24.008343 -72.500320 -0.000006 0.536520
24.272474 -73.748375 -0.000007 0.500735
16.183071 -33.883945 14.188984 0.311765
16.233273 -34.129601 12.455650 0.785784
16.233273 -34.129597 10.808576 0.554779
16.169331 -33.816711 9.228381 0.678431
16.169331 -33.816711 7.605910 0.678431
16.169331 -33.816711 5.995614 0.678431
16.169334 -33.816708 4.393941 0.678431
16.169331 -33.816708 2.797411 0.678431
16.233273 -34.129604 1.207816 0.771324
17.774944 -41.673882 0.000034 0.539583
21.042192 -57.662361 0.000024 0.537868
22.444933 -64.526772 0.000008 0.532230
23.226212 -68.349998 0.000012 0.527083
23.724964 -70.790688 -0.000008 0.532353
24.071634 -72.487137 -0.000010 0.555392
24.327045 -73.737015 -0.000010 0.553554
16.527069 -33.872505 14.174839 0.678431
16.577740 -34.129593 12.441010 0.786520
16.581835 -34.150372 10.792390 0.520711
16.516073 -33.816700 9.218260 0.678431
16.516071 -33.816708 7.598061 0.678431
16.516073 -33.816704 5.990019 0.678431
16.516075 -33.816711 4.390588 0.678431
16.516073 -33.816708 2.796293 0.678431
16.577740 -34.129601 1.208925 0.869485
18.053602 -41.617966 0.000035 0.533946
21.209131 -57.628773 0.000017 0.549387
22.563931 -64.502892 0.000009 0.535784
23.318501 -68.331482 0.000012 0.535907
23.800220 -70.775681 0.000009 0.534191
24.135019 -72.474419 -0.000010 0.509804
24.381699 -73.726051 -0.000010 0.522672
16.872450 -33.872494 14.158408 0.678431
16.921261 -34.129604 12.426916 0.791912
16.913036 -34.086292 10.792390 0.610907
16.861858 -33.816708 9.208517 0.678431
16.861856 -33.816696 7.590506 0.678431
16.861856 -33.816704 5.984633 0.678431
16.861858 -33.816704 4.387362 0.678431
16.861858 -33.816711 2.795220 0.678431
16.921261 -34.129601 1.209993 0.815931
18.332615 -41.563862 0.000029 0.537010
21.376301 -57.596363 0.000012 0.527083
22.683081 -64.479782 0.000003 0.535172
23.410906 -68.313568 0.000007 0.530270
23.875551 -70.761078 0.000004 0.500368
24.198486 -72.462120 -0.000015 0.524632
24.436422 -73.715439 -0.000015 0.567647
17.216921 -33.872501 14.142608 0.668382
17.263872 -34.129601 12.413369 0.577819
17.233578 -33.963703 10.803640 0.391054
17.231218 -33.950802 9.178929 0.160784
17.231220 -33.950806 7.567559 0.160784
17.231220 -33.950813 5.968278 0.160784
17.231220 -33.950806 4.377563 0.160784
17.231220 -33.950813 2.791955 0.160784
17.263870 -34.129604 1.211019 0.440686
18.612028 -41.511841 0.000030 0.534681
21.543711 -57.565197 0.000013 0.537132
22.802404 -64.457565 0.000004 0.531863
23.503445 -68.296341 0.000008 0.528431
23.950993 -70.747032 0.000005 0.544976
24.262043 -72.450294 -0.000013 0.472794
24.491222 -73.705238 -0.000015 0.535049
17.605610 -34.129593 14.062060 0.665196
17.605608 -34.129589 12.400367 0.543015
17.576511 -33.963703 10.792645 0.452328
17.550728 -33.816708 9.190157 0.678431
17.550724 -33.816704 7.576268 0.678431
17.550724 -33.816708 5.974486 0.678431
17.550726 -33.816708 4.381282 0.676103
17.550726 -33.816708 2.793195 0.678431
17.605614 -34.129604 1.212005 0.542647
18.891790 -41.461769 0.000031 0.534926
21.711330 -57.535194 0.000013 0.538235
22.921875 -64.436188 0.000004 0.539338
23.596100 -68.279755 0.000008 0.531863
24.026529 -70.733513 0.000005 0.536274
24.325680 -72.438896 -0.000012 0.553064
24.546093 -73.695419 -0.000014 0.552328
17.946512 -34.129601 14.047600 0.554534
17.946514 -34.129604 12.387895 0.603676
17.909229 -33.907967 10.792388 0.607843
17.893875 -33.816700 9.181540 0.678431
17.893875 -33.816696 7.569584 0.678431
17.893875 -33.816704 5.969721 0.678431
17.893875 -33.816696 4.378428 0.678431
17.893873 -33.816704 2.792243 0.678431
17.946514 -34.129604 1.212949 0.625245
19.171917 -41.413754 0.000036 0.535662
21.879166 -57.506420 0.000018 0.529534
23.041500 -64.415680 0.000010 0.547917
23.688873 -68.263847 0.000013 0.514338
24.102161 -70.720543 0.000010 0.522304
24.389400 -72.427979 -0.000007 0.512255
24.601034 -73.686005 -0.000008 0.548039
18.286615 -34.129601 14.033760 0.614828
18.286613 -34.129597 12.375961 0.680882
18.259895 -33.963703 10.772016 0.238235
18.257818 -33.950798 9.153142 0.160784
18.257818 -33.950806 7.547559 0.160784
18.257818 -33.950806 5.954024 0.160784
18.257818 -33.950802 4.369022 0.160784
18.257818 -33.950806 2.789109 0.160784
18.286615 -34.129601 1.213853 0.705270
19.452349 -41.367565 0.000035 0.536887
22.047186 -57.478752 0.000018 0.530270
23.161257 -64.395958 0.000009 0.535417
23.781740 -68.248497 0.000004 0.543750
24.177868 -70.708031 0.000001 0.547181
24.453188 -72.417473 -0.000008 0.548774
24.656036 -73.676941 -0.000008 0.533333
18.600142 -33.961899 14.063037 0.176348
18.625950 -34.129593 12.364563 0.491422
18.600418 -33.963703 10.762377 0.213971
18.577797 -33.816711 9.165407 0.678431
18.577797 -33.816715 7.557071 0.678431
18.577797 -33.816719 5.960802 0.678431
18.577797 -33.816711 4.373085 0.678431
18.577797 -33.816715 2.790463 0.678431
18.625950 -34.129608 1.214717 0.693382
19.733097 -41.323360 0.000036 0.537623
22.215397 -57.452271 0.000019 0.526348
23.281149 -64.377075 0.000009 0.528554
23.874723 -68.233856 0.000004 0.543505
24.253670 -70.696091 0.000001 0.533578
24.517059 -72.407478 0.000007 0.529779
24.711100 -73.668274 -0.000007 0.552696
18.926832 -33.872501 14.073017 0.678431
18.964565 -34.129604 12.353688 0.706495
18.940218 -33.963699 10.753184 0.121201
18.918644 -33.816700 9.157892 0.678431
18.918644 -33.816704 7.551242 0.678431
18.918644 -33.816700 5.956651 0.678431
18.918644 -33.816704 4.370595 0.678431
18.918644 -33.816704 2.789634 0.678431
18.964565 -34.129601 1.215541 0.563113
20.014156 -41.281143 0.000036 0.533456
22.383789 -57.426956 0.000019 0.527941
23.401176 -64.359047 0.000011 0.535539
23.967808 -68.219872 0.000005 0.543627
24.329556 -70.684692 0.000001 0.509804
24.580990 -72.397873 0.000008 0.516912
24.766224 -73.659988 -0.000007 0.534559
19.266577 -33.872505 14.060952 0.678431
19.302479 -34.129604 12.343342 0.548774
19.279312 -33.963696 10.744441 0.188113
19.258787 -33.816708 9.150738 0.678431
19.258785 -33.816696 7.545698 0.678431
19.258787 -33.816704 5.952696 0.678431
19.258787 -33.816700 4.368226 0.678431
19.258787 -33.816700 2.788845 0.678431
19.302479 -34.129601 1.216325 0.664951
20.295479 -41.240734 0.000031 0.539706
22.552345 -57.402756 0.000013 0.523284
23.521313 -64.341805 0.000005 0.531618
24.060978 -68.206490 0.000000 0.537377
24.405510 -70.673790 -0.000003 0.550613
24.644979 -72.388687 0.000003 0.500980
24.821400 -73.652069 -0.000011 0.526226
19.605667 -33.872501 14.049500 0.678431
19.639738 -34.129597 12.333521 0.672917
19.617752 -33.963699 10.736135 0.156373
19.598272 -33.816711 9.143946 0.678431
19.598270 -33.816708 7.540428 0.678431
19.598270 -33.816704 5.948943 0.678431
19.598269 -33.816700 4.365978 0.678431
19.598270 -33.816700 2.788095 0.678431
19.639738 -34.129597 1.217069 0.668627
20.577095 -41.202431 0.000032 0.535907
22.721073 -57.379807 0.000014 0.539093
23.641575 -64.325432 0.000006 0.543750
24.154247 -68.193802 0.000001 0.541422
24.481546 -70.663437 -0.000002 0.501716
24.709040 -72.379982 0.000004 0.546446
24.876633 -73.644562 -0.000010 0.535049
19.976376 -34.129601 13.973752 0.586152
19.976376 -34.129593 12.324221 0.552941
19.955109 -33.960022 10.728948 0.160784
19.937130 -33.816696 9.137520 0.678431
19.937130 -33.816711 7.535441 0.678431
19.937132 -33.816708 5.945387 0.678431
19.937130 -33.816700 4.363849 0.678431
19.937130 -33.816704 2.787387 0.678431
19.976379 -34.129601 1.217774 0.740441
20.858976 -41.166080 0.000032 0.534926
22.889963 -57.358025 0.000015 0.535784
23.761950 -64.309906 0.000006 0.540809
24.247604 -68.181763 0.000000 0.524510
24.557655 -70.653641 -0.000001 0.505024
24.773151 -72.371674 -0.000003 0.550123
24.931919 -73.637428 -0.000010 0.573529
20.312424 -34.129604 13.963565 0.558333
20.312424 -34.129597 12.315438 0.549632
20.289673 -33.937374 10.725671 0.160784
20.275394 -33.816704 9.131447 0.678431
20.275394 -33.816700 7.530735 0.678431
20.275394 -33.816700 5.942033 0.678431
20.275393 -33.816696 4.361838 0.678431
20.275394 -33.816704 2.786717 0.678431
20.312424 -34.129601 1.218440 0.723162
21.141098 -41.131680 0.000032 0.538480
23.058994 -57.337410 0.000014 0.531618
23.882427 -64.295219 0.000005 0.543873
24.341040 -68.170380 0.000002 0.540809
24.633827 -70.644348 -0.000001 0.538235
24.837324 -72.363853 -0.000004 0.519240
24.987251 -73.630676 -0.000010 0.546569
20.647915 -34.129597 13.953980 0.726593
20.647917 -34.129604 12.307172 0.601961
20.624842 -33.922241 10.721452 0.142402
20.628019 -33.950802 9.105721 0.160784
20.628019 -33.950802 7.510782 0.160784
20.628019 -33.950798 5.927811 0.160784
20.628017 -33.950798 4.353317 0.160784
20.628021 -33.950806 2.783878 0.160784
20.647915 -34.129608 1.219065 0.569240
21.423466 -41.099373 0.000037 0.537255
23.228174 -57.318066 0.000019 0.539093
24.003012 -64.281425 0.000011 0.549265
24.434559 -68.159683 0.000007 0.539461
24.710066 -70.635620 0.000004 0.499142
24.901554 -72.356499 0.000002 0.572794
25.042637 -73.624405 0.000009 0.574877
20.982887 -34.129604 13.944990 0.709559
20.982887 -34.129601 12.299424 0.507353
20.960394 -33.913754 10.716447 0.160784
20.950279 -33.816696 9.120377 0.668995
20.950279 -33.816700 7.522149 0.670956
20.950279 -33.816711 5.935912 0.678431
20.950279 -33.816700 4.358171 0.678431
20.950279 -33.816704 2.785495 0.678431
20.982887 -34.129608 1.219653 0.635907
21.706043 -41.068943 0.000038 0.538603
23.397480 -57.299828 0.000020 0.544363
24.123684 -64.268433 0.000011 0.549387
24.528147 -68.149612 0.000008 0.526471
24.786362 -70.627411 0.000005 0.518382
24.965830 -72.349571 0.000002 0.521078
25.098057 -73.618431 0.000010 0.536397
21.292389 -33.872490 14.001304 0.678431
21.317368 -34.129597 12.292187 0.790441
21.294502 -33.894257 10.713885 0.139216
21.286968 -33.816708 9.115374 0.678431
21.286966 -33.816700 7.518268 0.678431
21.286968 -33.816711 5.933145 0.678431
21.286968 -33.816704 4.356514 0.678431
21.286966 -33.816700 2.784943 0.678431
21.317369 -34.129604 1.220200 0.699755
21.988821 -41.040478 0.000038 0.533456
23.566906 -57.282772 0.000020 0.535294
24.244444 -64.256264 0.000011 0.531618
24.621799 -68.140190 0.000009 0.528676
24.862711 -70.619720 0.000005 0.544976
25.030151 -72.343102 0.000003 0.560049
25.153519 -73.612854 0.000010 0.541176
21.628227 -33.872498 13.993460 0.678431
21.651398 -34.129597 12.285461 0.391544
21.629154 -33.882767 10.710290 0.160784
21.623199 -33.816689 9.110723 0.678431
21.623199 -33.816704 7.514661 0.678431
21.623199 -33.816700 5.930577 0.678431
21.623199 -33.816700 4.354974 0.678431
21.623199 -33.816700 2.784431 0.678431
21.651398 -34.129597 1.220711 0.765809
22.271791 -41.013973 0.000038 0.540564
23.736446 -57.266884 0.000019 0.544485
24.365286 -64.244965 0.000013 0.528186
24.715517 -68.131393 0.000008 0.552696
24.939110 -70.612564 0.000004 0.513358
25.094517 -72.337082 0.000004 0.563725
25.209017 -73.607651 0.000009 0.525613
21.963650 -33.872505 13.986210 0.678431
21.985010 -34.129601 12.279245 0.501838
21.964169 -33.878773 10.705755 0.312010
21.959015 -33.816700 9.106424 0.678431
21.959011 -33.816696 7.511329 0.678431
21.959013 -33.816689 5.928201 0.678431
21.959015 -33.816696 4.353549 0.678431
21.959013 -33.816696 2.783956 0.678431
21.985008 -34.129597 1.221181 0.738235
22.554947 -40.989479 0.000039 0.531618
23.906096 -57.252193 0.000020 0.538725
24.486204 -64.234497 0.000013 0.558701
24.809296 -68.123283 0.000008 0.571569
25.015564 -70.605957 0.000006 0.550858
25.158924 -72.331505 0.000003 0.536274
25.264551 -73.602814 0.000002 0.535417
22.305477 -33.961899 13.957098 0.160784
22.318232 -34.129601 12.273535 0.762010
22.297916 -33.862492 10.703893 0.206250
22.294432 -33.816696 9.102480 0.678431
22.294434 -33.816700 7.508270 0.678431
22.294434 -33.816704 5.926020 0.678431
22.294434 -33.816704 4.352243 0.678431
22.294434 -33.816700 2.783522 0.678431
22.318230 -34.129597 1.221613 0.576226
22.838261 -40.966946 0.000039 0.534926
24.075844 -57.238701 0.000021 0.538358
24.607193 -64.224876 0.000014 0.533946
24.903126 -68.115814 0.000009 0.545343
25.092056 -70.599869 0.000007 0.557476
25.223370 -72.326378 0.000004 0.530515
25.320114 -73.598396 0.000002 0.536029
22.651104 -34.129601 13.908937 0.643505
22.651100 -34.129593 12.268335 0.525123
22.631601 -33.847141 10.702284 0.212990
22.629501 -33.816696 9.098885 0.678431
22.629499 -33.816696 7.505479 0.678431
22.629501 -33.816700 5.924031 0.678431
22.629499 -33.816708 4.351052 0.678431
22.629499 -33.816692 2.783123 0.678431
22.651102 -34.129597 1.222008 0.623162
23.121725 -40.946384 0.000039 0.536029
24.245682 -57.226383 0.000021 0.543382
24.728245 -64.216087 0.000014 0.548774
24.997007 -68.109001 0.000008 0.537990
25.168592 -70.594315 0.000007 0.556495
25.287848 -72.321701 0.000004 0.499387
25.375715 -73.594437 0.000021 0.561642
22.983650 -34.129601 13.903485 0.641912
22.983650 -34.129604 12.263636 0.608333
22.965721 -33.840546 10.699507 0.187990
22.964243 -33.816696 9.095636 0.678431
22.964241 -33.816696 7.502961 0.678431
22.964241 -33.816700 5.922237 0.678431
22.964241 -33.816696 4.349977 0.678431
22.964241 -33.816704 2.782766 0.678431
22.983652 -34.129608 1.222364 0.708824
23.405321 -40.927711 0.000035 0.529779
24.415598 -57.215202 0.000017 0.541054
24.849354 -64.208122 0.000010 0.518260
25.090931 -68.102829 0.000005 0.530025
25.245163 -70.589287 0.000003 0.535662
25.352356 -72.317451 0.000000 0.540809
25.431337 -73.590767 0.000017 0.512500
23.315910 -34.129597 13.898626 0.458824
23.315910 -34.129597 12.259446 0.414706
23.298695 -33.816700 10.700296 0.678431
23.298695 -33.816689 9.092738 0.678431
23.298693 -33.816704 7.500713 0.678431
23.298695 -33.816700 5.920635 0.678431
23.298693 -33.816692 4.349017 0.678431
23.298693 -33.816704 2.782447 0.678431
23.315910 -34.129612 1.222681 0.764583
23.689047 -40.911118 0.000036 0.534069
24.585590 -57.205257 0.000018 0.538358
24.970514 -64.201042 0.000011 0.549020
25.184898 -68.097336 0.000006 0.538848
25.321766 -70.584801 0.000003 0.556985
25.416893 -72.313683 0.000001 0.519485
25.486984 -73.587517 0.000018 0.517157
23.639862 -33.961899 13.936400 0.135417
23.647917 -34.129601 12.255756 0.660784
23.633560 -33.830643 10.694631 0.369363
23.632891 -33.816696 9.090186 0.678431
23.632889 -33.816696 7.498735 0.678431
23.632891 -33.816704 5.919223 0.678431
23.632891 -33.816704 4.348171 0.678431
23.632891 -33.816704 2.782165 0.678431
23.647915 -34.129608 1.222962 0.760539
23.972879 -40.896496 0.000036 0.536029
24.755648 -57.196495 0.000017 0.547794
25.091724 -64.194786 0.000010 0.527206
25.278902 -68.092491 0.000006 0.529167
25.398401 -70.580856 0.000003 0.513971
25.481455 -72.310349 0.000001 0.527206
25.542652 -73.584648 0.000018 0.541054
23.969149 -33.872490 13.955108 0.678431
23.979698 -34.129604 12.252567 0.578309
23.966980 -33.819660 10.693926 0.282966
23.966860 -33.816700 9.087982 0.678431
23.966860 -33.816700 7.497025 0.678431
23.966860 -33.816696 5.918006 0.678431
23.966860 -33.816700 4.347442 0.678431
23.966860 -33.816704 2.781921 0.678431
23.979698 -34.129604 1.223202 0.594975
24.256807 -40.883858 0.000036 0.543627
24.925762 -57.188923 0.000018 0.547672
25.212975 -64.189392 0.000010 0.528064
25.372938 -68.088310 0.000007 0.537132
25.475061 -70.577438 0.000003 0.563725
25.546040 -72.307480 0.000001 0.559069
25.598339 -73.582222 0.000032 0.551348
24.302540 -33.872494 13.951975 0.678431
24.311291 -34.129593 12.249883 0.569730
24.300402 -33.809643 10.693472 0.214828
24.300644 -33.816696 9.086126 0.678431
24.300642 -33.816696 7.495586 0.678431
24.300642 -33.816704 5.916980 0.678431
24.300644 -33.816700 4.346828 0.678431
24.300642 -33.816708 2.781717 0.678431
24.311291 -34.129608 1.223407 0.600123
24.540819 -40.873203 0.000036 0.535417
25.095928 -57.182541 0.000018 0.539706
25.334259 -64.184845 0.000011 0.537010
25.466999 -68.084785 0.000007 0.539461
25.551741 -70.574562 0.000004 0.548162
25.610647 -72.305206 0.000034 0.527819
25.654041 -73.580139 0.000032 0.515931
24.635778 -33.872494 13.949426 0.666667
24.642731 -34.129601 12.247697 0.565686
24.634268 -33.816711 10.690332 0.752941
24.634270 -33.816704 9.084615 0.670588
24.634270 -33.816704 7.494414 0.635294
24.634268 -33.816708 5.916145 0.709804
24.634268 -33.816708 4.346327 0.678431
24.634270 -33.816700 2.781552 0.652206
24.642731 -34.129604 1.223572 0.673162
24.824902 -40.864529 0.000036 0.537377
25.266136 -57.177353 0.000018 0.541299
25.455576 -64.181145 0.000011 0.540074
25.561085 -68.081909 0.000006 0.542157
25.628445 -70.572227 0.000004 0.556985
25.675264 -72.303238 0.000034 0.515564
25.709757 -73.578438 0.000032 0.562010
24.974043 -34.129593 13.883048 0.610784
24.974041 -34.129604 12.246012 0.492157
24.967764 -33.816692 10.688906 0.678431
24.967764 -33.816692 9.083450 0.678431
24.967764 -33.816704 7.493509 0.678431
24.967764 -33.816692 5.915501 0.678431
24.967764 -33.816704 4.345942 0.678431
24.967764 -33.816689 2.781422 0.678431
24.974041 -34.129597 1.223699 0.723774
25.109032 -40.857834 0.000036 0.535907
25.436371 -57.173340 0.000018 0.541667
25.576912 -64.178284 0.000011 0.533333
25.655186 -68.079689 0.000007 0.539583
25.705158 -70.570419 0.000005 0.548039
25.739893 -72.301712 0.000034 0.495833
25.765482 -73.577118 0.000032 0.520098
25.305258 -34.129589 13.881674 0.540931
25.305260 -34.129601 12.244826 0.697181
25.301167 -33.816704 10.687902 0.678431
25.301167 -33.816700 9.082632 0.678431
25.301167 -33.816700 7.492876 0.678431
25.301167 -33.816700 5.915049 0.678431
25.301165 -33.816708 4.345669 0.678431
25.301167 -33.816704 2.781331 0.678431
25.305260 -34.129604 1.223789 0.669118
25.393200 -40.853146 0.000037 0.529534
25.606630 -57.170525 0.000019 0.545711
25.698265 -64.176277 0.000011 0.539706
25.749300 -68.078140 0.000008 0.542157
25.781883 -70.569145 0.000005 0.548039
25.804531 -72.300644 0.000035 0.559681
25.821217 -73.576202 0.000032 0.565319
25.636415 -34.129593 13.880878 0.632353
25.636415 -34.129608 12.244138 0.551103
25.634510 -33.816689 10.687321 0.678431
25.634510 -33.816696 9.082156 0.678431
25.634510 -33.816696 7.492507 0.678431
25.634510 -33.816692 5.914787 0.678431
25.634510 -33.816700 4.345513 0.678431
25.634510 -33.816692 2.781280 0.678431
25.636417 -34.129597 1.223841 0.657966
25.677399 -40.850414 0.000037 0.533333
25.776907 -57.168892 0.000019 0.537990
25.819632 -64.175110 0.000011 0.534436
25.843426 -68.077232 0.000008 0.542647
25.858618 -70.568596 0.000039 0.534191
25.869175 -72.300026 0.000035 0.541054
25.876955 -73.575668 0.000032 0.502574
25.967545 -34.129604 13.880659 0.680392
25.967545 -34.129604 12.243951 0.575123
25.967833 -33.803146 10.689627 0.277206
25.967819 -33.816700 9.082029 0.678431
25.967819 -33.816696 7.492407 0.678431
25.967821 -33.816704 5.914714 0.678431
25.967819 -33.816700 4.345469 0.678431
25.967819 -33.816696 2.781264 0.678431
25.967545 -34.129604 1.223855 0.471446
25.961607 -40.849682 0.000037 0.535049
25.947189 -57.168449 0.000019 0.540564
25.941000 -64.174797 0.000012 0.538603
25.937551 -68.076988 0.000008 0.547059
25.935352 -70.568398 0.000039 0.525368
25.933821 -72.299858 0.000035 0.545711
25.932693 -73.575523 0.000033 0.536765
26.300699 -33.872486 13.945428 0.678431
26.298677 -34.129601 12.244265 0.585539
26.301270 -33.799843 10.690494 0.241667
26.301136 -33.816708 9.082244 0.678431
26.301136 -33.816704 7.492575 0.678431
26.301136 -33.816704 5.914834 0.678431
26.301136 -33.816704 4.345541 0.678431
26.301136 -33.816704 2.781288 0.678431
26.298676 -34.129612 1.223831 0.677206
26.245813 -40.850929 0.000038 0.541667
26.117472 -57.169220 0.000021 0.537255
26.062368 -64.175339 0.000012 0.537990
26.031679 -68.077400 0.000008 0.535907
26.012085 -70.568733 0.000039 0.519240
25.998466 -72.300140 0.000035 0.558824
25.988436 -73.575768 0.000033 0.532353
26.633667 -33.872490 13.946373 0.678431
26.629848 -34.129601 12.245078 0.488480
26.634495 -33.816708 10.688115 0.678431
26.634495 -33.816704 9.082806 0.678431
26.634493 -33.816700 7.493011 0.678431
26.634495 -33.816704 5.915145 0.678431
26.634495 -33.816708 4.345726 0.678431
26.634495 -33.816708 2.781350 0.678431
26.629848 -34.129604 1.223770 0.719730
26.530006 -40.854176 0.000038 0.539583
26.287745 -57.171158 0.000021 0.541422
26.183731 -64.176720 0.000013 0.534926
26.125801 -68.078468 0.000008 0.532843
26.088814 -70.569611 0.000040 0.538113
26.063110 -72.300873 0.000035 0.524510
26.044172 -73.576401 0.000033 0.526593
26.966700 -33.872501 13.947900 0.678431
26.961086 -34.129604 12.246390 0.673284
26.964991 -33.950787 10.664824 0.160784
26.964989 -33.950798 9.063816 0.160784
26.964989 -33.950802 7.478285 0.160784
26.964991 -33.950806 5.904648 0.160784
26.964989 -33.950802 4.339439 0.160784
26.964991 -33.950806 2.779256 0.160784
26.961086 -34.129608 1.223671 0.788358
26.814169 -40.859379 0.000038 0.536397
26.458000 -57.174286 0.000021 0.536274
26.305082 -64.178947 0.000013 0.529534
26.219913 -68.080200 0.000008 0.551348
26.165537 -70.571014 0.000040 0.542034
