# This PCD file was generated using the MATLABÂ® pcwrite function
# from Computer Vision ToolboxÂ®.
# .PCD v.7 - Point Cloud Data file format
VERSION .7
FIELDS x y z intensity
SIZE 4 4 4 4
TYPE F F F F
COUNT 1 1 1 1
WIDTH 1241
HEIGHT 1
VIEWPOINT 0 0 0 1 0 0 0
POINTS 1241
DATA ascii
nan nan nan 0.000000
-55.223839 22.420998 10.051603 0.690441
-55.036835 22.272781 8.528505 0.618750
-55.036827 22.272781 7.063128 0.650490
-37.603882 8.455591 3.784792 0.509069
-36.406876 7.506857 2.994308 0.509314
-36.270546 7.398805 2.328353 0.479902
-36.388954 7.492653 1.669175 0.480025
-37.296982 8.212345 0.949894 0.507475
-39.660706 10.085812 0.000008 0.525368
-34.169777 5.733756 0.000010 0.534069
-31.111633 3.309900 0.000009 0.511152
-29.159294 1.762495 0.000003 0.545098
-27.802328 0.686975 0.000002 0.513113
-26.802570 -0.105422 0.000002 0.584559
nan nan nan 0.000000
nan nan nan 0.000000
-55.260597 22.846954 10.105186 0.717525
-55.036827 22.667034 8.564992 0.673284
-36.745644 7.960539 4.391399 0.487255
-55.036827 22.667034 5.628914 0.653554
-36.516258 7.776109 3.006761 0.470466
-36.484570 7.750633 2.334682 0.499755
-36.751522 7.965268 1.659713 0.414093
-36.575768 7.823959 0.989488 0.515441
-39.554436 10.218868 0.000011 0.534681
-34.094040 5.828597 0.000012 0.549632
-31.052910 3.383463 0.000009 0.542279
-29.111427 1.822472 0.000001 0.522181
-27.761986 0.737493 0.000004 0.556127
-26.767780 -0.061869 0.000006 0.584559
nan nan nan 0.000000
nan nan nan 0.000000
-55.097496 23.115211 10.112840 0.820833
-55.036827 23.065731 8.602211 0.682721
-37.020477 8.371956 4.445757 0.507721
-36.299007 7.783538 3.666877 0.525490
-36.676617 8.091509 3.022634 0.485784
-35.983986 7.526612 2.326009 0.497794
-36.204708 7.706629 1.669330 0.492279
-36.643478 8.064484 0.979466 0.492647
-39.447273 10.351202 0.000011 0.532108
-34.017670 5.922923 0.000011 0.541912
-30.993664 3.456604 0.000011 0.543137
-29.063126 1.882096 0.000004 0.545221
-27.721306 0.787736 0.000003 0.522672
-26.732729 -0.018528 -0.000003 0.544363
nan nan nan 0.000000
nan nan nan 0.000000
nan nan nan 0.000000
-36.937714 8.496115 5.155815 0.496078
-36.622849 8.235636 4.400455 0.458578
-36.777435 8.363523 3.727376 0.474387
-36.283791 7.955142 3.003469 0.482966
-36.702187 8.301273 2.343137 0.468015
-36.442169 8.086164 1.662386 0.486520
-37.571625 9.020533 0.914420 0.495466
-39.339203 10.482798 0.000009 0.542525
-33.940643 6.016723 0.000009 0.545098
-30.933956 3.529375 0.000003 0.525980
-29.014416 1.941391 0.000005 0.495221
-27.680264 0.837684 0.000005 0.550735
-26.697342 0.024541 -0.000000 0.584436
nan nan nan 0.000000
nan nan nan 0.000000
nan nan nan 0.000000
nan nan nan 0.000000
-36.602772 8.408947 4.411443 0.487255
-36.681576 8.475073 3.727192 0.460784
-36.600269 8.406849 3.029619 0.485049
-36.310257 8.163498 2.336766 0.483946
-36.782120 8.559437 1.653154 0.561275
-36.376369 8.218975 0.984740 0.459926
-36.752792 8.534828 0.265185 0.565564
-33.862949 6.109964 0.000009 0.531373
-30.873699 3.601686 0.000004 0.559804
-28.965294 2.000344 0.000005 0.511642
-27.638876 0.887346 0.000007 0.553554
-26.661652 0.067358 0.000003 0.551961
nan nan nan 0.000000
nan nan nan 0.000000
nan nan nan 0.000000
nan nan nan 0.000000
-36.492004 8.506844 4.408979 0.478676
-36.452805 8.473480 3.712780 0.462623
-36.799919 8.768898 3.048591 0.486275
-36.217701 8.273392 2.336770 0.487377
-36.587730 8.588314 1.655279 0.539338
-35.653751 7.793434 1.025348 0.469730
-36.578941 8.580833 0.273638 0.514951
-33.784599 6.202660 0.000011 0.549387
-30.812954 3.673589 0.000002 0.537500
-28.915771 2.058962 0.000003 0.575000
-27.597155 0.936730 0.000005 0.543627
-26.625679 0.109939 0.000001 0.575000
nan nan nan 0.000000
nan nan nan 0.000000
nan nan nan 0.000000
nan nan nan 0.000000
-36.579330 8.775337 4.436707 0.493995
-36.361404 8.587233 3.713160 0.469608
-36.738983 8.913147 3.050930 0.476593
-36.429253 8.645798 2.343364 0.486152
-36.712906 8.890636 1.650504 0.478431
-36.445332 8.659672 0.968127 0.496691
-39.009453 10.872967 0.000011 0.549510
-33.705624 6.294820 0.000010 0.553922
-30.751694 3.745056 0.000003 0.506373
-28.865829 2.117222 0.000004 0.510417
-27.555082 0.985814 0.000006 0.550613
-26.589396 0.152256 0.000003 0.563235
nan nan nan 0.000000
nan nan nan 0.000000
nan nan nan 0.000000
nan nan nan 0.000000
-36.481575 8.886288 4.436595 0.501348
-36.420132 8.832499 3.729988 0.476961
-36.819908 9.182476 3.062610 0.512010
-36.435860 8.846266 2.345598 0.510784
-36.640907 9.025770 1.649942 0.469976
-35.525200 8.049046 1.021924 0.427328
-35.485992 8.014723 0.371810 0.511765
-33.625992 6.386414 0.000010 0.553431
-30.689943 3.816096 0.000002 0.526838
-28.815487 2.175135 0.000004 0.535539
-27.512669 1.034603 0.000006 0.517157
-26.552834 0.194330 0.000000 0.567034
nan nan nan 0.000000
nan nan nan 0.000000
nan nan nan 0.000000
nan nan nan 0.000000
nan nan nan 0.000000
-36.289505 8.913496 3.726346 0.477941
-36.476826 9.079807 3.046632 0.459681
-36.043713 8.695272 2.339151 0.474142
-36.480598 9.083157 1.651289 0.495343
-36.443718 9.050415 0.955542 0.471078
-35.653252 8.348602 0.343418 0.506740
-33.545731 6.477459 0.000010 0.536152
-30.627697 3.886708 0.000002 0.541299
-28.764746 2.232701 0.000003 0.544240
-27.469919 1.083100 0.000005 0.537500
-26.515968 0.236141 0.000001 0.576348
nan nan nan 0.000000
nan nan nan 0.000000
nan nan nan 0.000000
nan nan nan 0.000000
nan nan nan 0.000000
-36.159435 8.994167 3.722804 0.501961
nan nan nan 0.000000
-36.927673 9.685890 2.360739 0.455392
-35.899902 8.760485 1.661892 0.473407
-36.267155 9.091158 0.960674 0.495466
-38.671635 11.256163 0.000010 0.525368
-33.464844 6.567945 0.000009 0.524510
-30.564953 3.956872 0.000003 0.504779
-28.713596 2.289903 0.000004 0.508333
-27.426830 1.131293 0.000005 0.511397
-26.478809 0.277692 0.000003 0.616299
nan nan nan 0.000000
nan nan nan 0.000000
nan nan nan 0.000000
nan nan nan 0.000000
nan nan nan 0.000000
nan nan nan 0.000000
nan nan nan 0.000000
-36.096245 9.135103 2.344606 0.520956
-35.934555 8.987461 1.658978 0.477941
-36.136009 9.171415 0.962799 0.469485
-35.404594 8.503540 0.350070 0.510294
-33.383301 6.657844 0.000011 0.528431
-30.501720 4.026600 0.000004 0.520466
-28.662045 2.346744 0.000005 0.528064
-27.383404 1.179184 0.000005 0.520466
-26.441366 0.318985 0.000003 0.580637
nan nan nan 0.000000
nan nan nan 0.000000
nan nan nan 0.000000
nan nan nan 0.000000
nan nan nan 0.000000
nan nan nan 0.000000
-35.795979 9.057423 3.021114 0.486765
-35.742455 9.007858 2.338934 0.488848
-35.456688 8.743237 1.667439 0.492647
-36.189972 9.422266 0.952506 0.568260
-35.371189 8.664063 0.343177 0.480147
-33.301151 6.747187 0.000010 0.537868
-30.438004 4.095883 0.000005 0.545466
-28.610106 2.403230 0.000005 0.517892
-27.339659 1.226784 0.000001 0.530760
-26.403635 0.360014 0.000004 0.460417
nan nan nan 0.000000
nan nan nan 0.000000
nan nan nan 0.000000
nan nan nan 0.000000
nan nan nan 0.000000
nan nan nan 0.000000
-35.668385 9.136665 3.019184 0.517647
-35.640656 9.110624 2.338863 0.520466
-35.742447 9.206213 1.658852 0.501593
-35.902481 9.356495 0.965039 0.492157
-35.410938 8.894905 0.327884 0.502083
-33.218380 6.835956 0.000010 0.563113
-30.373814 4.164730 0.000004 0.545956
-28.557774 2.459353 0.000004 0.516789
-27.295570 1.274066 0.000001 0.486520
-26.365625 0.400788 0.000001 0.565564
nan nan nan 0.000000
nan nan nan 0.000000
nan nan nan 0.000000
nan nan nan 0.000000
nan nan nan 0.000000
nan nan nan 0.000000
nan nan nan 0.000000
-36.034752 9.685547 2.350013 0.473284
-35.674889 9.342852 1.658119 0.495956
-36.094284 9.742235 0.945172 0.500123
-35.282784 8.969456 0.331319 0.479657
-33.134995 6.924142 0.000009 0.548897
-30.309141 4.233119 0.000003 0.509191
-28.505051 2.515107 0.000004 0.503554
-27.251152 1.321036 0.000001 0.571936
-26.327320 0.441283 0.000003 0.520711
nan nan nan 0.000000
nan nan nan 0.000000
nan nan nan 0.000000
nan nan nan 0.000000
nan nan nan 0.000000
nan nan nan 0.000000
nan nan nan 0.000000
nan nan nan 0.000000
nan nan nan 0.000000
-35.820515 9.686247 0.956783 0.503922
-36.600857 10.439814 0.169867 0.482230
-33.051025 7.011779 0.000003 0.546324
-30.243992 4.301058 0.000003 0.542647
-28.451937 2.570492 0.000004 0.550000
-27.206406 1.367695 0.000001 0.475735
-26.288740 0.481517 0.000002 0.543627
nan nan nan 0.000000
nan nan nan 0.000000
nan nan nan 0.000000
nan nan nan 0.000000
nan nan nan 0.000000
nan nan nan 0.000000
nan nan nan 0.000000
nan nan nan 0.000000
-35.343079 9.426197 1.661077 0.495833
-35.702141 9.777817 0.957816 0.457843
-35.142288 9.229570 0.324790 0.473897
-32.966404 7.098787 0.000004 0.526593
-30.178366 4.368536 0.000004 0.513235
-28.398441 2.625505 0.000004 0.569608
-27.161331 1.414037 0.000003 0.543750
-26.249882 0.521482 0.000002 0.563603
nan nan nan 0.000000
nan nan nan 0.000000
nan nan nan 0.000000
nan nan nan 0.000000
nan nan nan 0.000000
nan nan nan 0.000000
nan nan nan 0.000000
nan nan nan 0.000000
-35.265625 9.553057 1.660522 0.515319
-35.413357 9.699764 0.970610 0.487623
-37.852715 12.122149 0.000010 0.537623
-32.881184 7.185207 0.000004 0.544730
-30.112270 4.435557 0.000004 0.511029
-28.344559 2.680141 0.000004 0.512132
-27.115938 1.460069 0.000003 0.538848
-26.210741 0.561170 0.000002 0.523775
-11.437004 -14.236963 5.237834 0.701716
-11.437006 -14.236963 4.791782 0.399387
-11.437005 -14.236963 4.351994 0.630392
-11.437003 -14.236965 3.917414 0.502083
-11.437007 -14.236961 3.487034 0.730392
-11.437008 -14.236959 3.059884 0.624632
-11.437007 -14.236961 2.635021 0.443015
-11.437005 -14.236961 2.211523 0.680392
-11.437006 -14.236961 1.788477 0.400858
-11.437006 -14.236963 1.364979 0.535294
-11.437006 -14.236961 0.940116 0.757230
-11.437006 -14.236961 0.512966 0.880270
-11.437005 -14.236963 0.082586 0.532843
-12.800145 -12.864273 0.000007 0.544118
-14.020216 -11.635655 0.000004 0.558333
-14.919112 -10.730461 0.000004 0.568015
-11.563310 -14.236963 5.215619 0.461887
-11.563310 -14.236963 4.772628 0.866176
-11.563309 -14.236963 4.335857 0.599877
-11.563310 -14.236963 3.904259 0.542892
-11.563311 -14.236961 3.476832 0.561397
-11.563311 -14.236961 3.052612 0.637255
-11.563311 -14.236961 2.630664 0.623162
-11.563310 -14.236963 2.210071 0.558701
-11.563310 -14.236963 1.789929 0.545833
-11.563310 -14.236961 1.369336 0.651226
-11.563311 -14.236961 0.947387 0.585784
-11.563311 -14.236961 0.523168 0.746324
-11.563312 -14.236961 0.095741 0.635049
-12.854788 -12.918148 0.000008 0.518015
-14.066244 -11.681049 0.000004 0.541176
-14.958802 -10.769600 0.000004 0.605760
-11.687898 -14.236963 5.193862 0.808824
-11.687898 -14.236965 4.753869 0.290931
-11.687900 -14.236961 4.320052 0.705760
-11.687899 -14.236961 3.891375 0.537377
-11.687900 -14.236961 3.466840 0.683824
-11.687900 -14.236961 3.045491 0.699510
-11.687901 -14.236961 2.626397 0.603799
-11.687899 -14.236963 2.208650 0.677696
-11.687899 -14.236961 1.791350 0.435539
-11.687901 -14.236961 1.373603 0.597059
-11.687900 -14.236961 0.954509 0.675490
-11.687899 -14.236963 0.533160 0.373284
-11.687900 -14.236961 0.108626 0.607476
-12.909792 -12.971655 0.000006 0.572549
-14.112592 -11.726120 0.000004 0.549755
-14.998762 -10.808462 0.000003 0.505392
-11.810817 -14.236963 5.172551 0.835172
-11.810819 -14.236961 4.735493 0.590809
-11.810819 -14.236961 4.304571 0.722304
-11.810820 -14.236961 3.878754 0.618750
-11.810821 -14.236959 3.457052 0.620956
-11.810822 -14.236959 3.038514 0.236887
-11.810822 -14.236958 2.622217 0.686029
-11.810820 -14.236961 2.207258 0.617279
-11.810820 -14.236961 1.792742 0.361520
-11.810820 -14.236961 1.377783 0.655392
-11.810819 -14.236963 0.961485 0.612623
-11.810819 -14.236961 0.542948 0.584559
-11.810820 -14.236961 0.121246 0.722304
-12.965181 -13.024762 0.000007 0.570466
-14.159250 -11.770865 0.000004 0.527206
-15.039000 -10.847038 0.000005 0.519975
-11.932114 -14.236963 5.151675 0.550123
-11.932115 -14.236963 4.717493 0.740074
-11.932115 -14.236963 4.289408 0.435172
-11.932116 -14.236961 3.866391 0.795466
-11.932117 -14.236961 3.447464 0.737132
-11.932116 -14.236961 3.031681 0.482721
-11.932116 -14.236961 2.618123 0.796814
-11.932116 -14.236963 2.205894 0.712010
-11.932116 -14.236963 1.794106 0.360662
-11.932116 -14.236963 1.381876 0.615564
-11.932116 -14.236963 0.968319 0.739706
-11.932116 -14.236961 0.552536 0.348284
-11.932117 -14.236961 0.133608 0.582475
-13.020929 -13.077494 0.000005 0.537500
-14.206223 -11.815285 0.000004 0.534559
-15.079494 -10.885344 0.000003 0.563971
-12.051831 -14.236963 5.131224 0.812623
-12.051831 -14.236963 4.699859 0.769730
-12.051831 -14.236961 4.274551 0.743873
-12.051830 -14.236961 3.854281 0.802696
-12.051835 -14.236958 3.438071 0.768627
-12.051834 -14.236959 3.024986 0.687990
-12.051834 -14.236959 2.614112 0.783946
-12.051831 -14.236963 2.204558 0.764093
-12.051831 -14.236961 1.795442 0.495711
-12.051831 -14.236961 1.385888 0.748775
-12.051831 -14.236961 0.975014 0.772672
-12.051833 -14.236961 0.561929 0.841176
-12.051830 -14.236961 0.145719 0.356250
-13.077060 -13.129816 0.000008 0.561152
-14.253502 -11.859373 0.000004 0.529289
-15.120262 -10.923357 0.000003 0.540564
-12.170011 -14.236961 5.111186 0.812255
-12.170011 -14.236961 4.682582 0.466054
-12.170011 -14.236961 4.259995 0.739216
-12.170012 -14.236961 3.842414 0.803186
-12.170012 -14.236959 3.428869 0.608578
-12.170012 -14.236959 3.018426 0.730270
-12.170012 -14.236959 2.610182 0.825980
-12.170011 -14.236961 2.203249 0.758211
-12.170011 -14.236961 1.796751 0.597426
-12.170011 -14.236961 1.389817 0.445956
-12.170011 -14.236961 0.981573 0.707966
-12.170010 -14.236963 0.571131 0.402819
-12.170012 -14.236961 0.157586 0.769485
-13.133546 -13.181755 0.000008 0.555025
-14.301092 -11.903131 0.000004 0.583824
-15.161290 -10.961093 0.000002 0.527819
-12.286693 -14.236961 5.091553 0.800980
-12.286691 -14.236963 4.665654 0.647181
-12.286692 -14.236961 4.245734 0.760172
-12.286693 -14.236961 3.830788 0.812010
-12.286695 -14.236959 3.419852 0.136765
-12.286695 -14.236958 3.012000 0.786765
-12.286695 -14.236959 2.606332 0.840196
-12.286694 -14.236959 2.201966 0.776103
-12.286694 -14.236959 1.798034 0.358824
-12.286692 -14.236961 1.393668 0.345466
-12.286694 -14.236959 0.988000 0.686642
-12.286693 -14.236961 0.580148 0.550490
-12.286694 -14.236961 0.169212 0.838603
-13.190390 -13.233303 0.000007 0.513113
-14.348987 -11.946550 0.000005 0.604657
-15.202591 -10.998528 0.000004 0.494608
-12.401916 -14.236961 5.072315 0.456985
-12.401915 -14.236963 4.649067 0.712623
-12.401917 -14.236961 4.231760 0.810172
-12.401916 -14.236961 3.819396 0.374142
-12.401918 -14.236959 3.411017 0.667892
-12.401919 -14.236958 3.005702 0.826226
-12.401919 -14.236958 2.602559 0.854167
-12.401917 -14.236961 2.200710 0.663480
-12.401917 -14.236961 1.799291 0.800000
-12.401917 -14.236961 1.397441 0.531495
-12.401917 -14.236961 0.994297 0.612868
-12.401917 -14.236961 0.588983 0.744363
-12.401916 -14.236961 0.180604 0.636152
-13.247590 -13.284456 0.000006 0.566544
-14.397179 -11.989643 0.000005 0.508578
-15.244143 -11.035685 0.000003 0.533088
-12.515719 -14.236961 5.053464 0.482598
-12.515720 -14.236961 4.632812 0.744363
-12.515720 -14.236961 4.218066 0.412623
-12.515720 -14.236961 3.808232 0.478309
-12.515721 -14.236959 3.402359 0.723039
-12.515721 -14.236961 2.999532 0.452451
-12.515722 -14.236959 2.598861 0.717770
-12.515720 -14.236961 2.199478 0.625613
-12.515720 -14.236961 1.800522 0.804779
-12.515721 -14.236959 1.401138 0.483824
-12.515721 -14.236961 1.000468 0.429902
-12.515720 -14.236961 0.597641 0.796691
-12.515720 -14.236961 0.191768 0.633333
-13.305147 -13.335207 0.000005 0.542279
-14.445670 -12.032397 0.000004 0.549755
-15.285951 -11.072552 0.000002 0.519608
-12.628141 -14.236961 5.034989 0.650123
-12.628141 -14.236961 4.616882 0.745466
-12.628141 -14.236961 4.204645 0.313971
-12.628140 -14.236961 3.797292 0.656495
-12.628143 -14.236959 3.393874 0.730515
-12.628144 -14.236959 2.993484 0.862132
-12.628143 -14.236959 2.595238 0.680515
-12.628143 -14.236959 2.198271 0.693627
-12.628143 -14.236959 1.801729 0.867647
-12.628141 -14.236961 1.404762 0.511029
-12.628142 -14.236961 1.006516 0.334314
-12.628141 -14.236961 0.606126 0.458333
-12.628140 -14.236961 0.202708 0.752451
-13.363075 -13.385532 0.000009 0.505147
-14.494475 -12.074793 0.000009 0.533824
-15.328031 -11.109110 0.000006 0.523529
-12.677533 -14.309439 5.040722 0.453431
-12.677534 -14.309437 4.621825 0.787010
-12.677534 -14.309439 4.208810 0.382721
-12.677534 -14.309439 3.800686 0.470833
-12.739218 -14.236959 3.385559 0.628922
-12.739218 -14.236961 2.987557 0.637500
-12.739218 -14.236959 2.591687 0.656618
-12.739216 -14.236961 2.197088 0.543382
-12.739216 -14.236961 1.802912 0.251961
-12.739216 -14.236961 1.408313 0.370343
-12.739216 -14.236963 1.012442 0.455515
-12.739216 -14.236963 0.614441 0.443382
-12.739216 -14.236961 0.213431 0.368015
-13.421336 -13.435472 0.000008 0.572304
-14.543552 -12.116873 0.000007 0.542770
-15.370346 -11.145393 0.000003 0.520343
-12.708321 -14.404591 5.053949 0.244608
-12.708321 -14.404591 4.633230 0.200980
-12.708321 -14.404591 4.218418 0.177941
-12.708320 -14.404591 3.808519 0.182230
-12.848978 -14.236961 3.377408 0.611765
-12.848978 -14.236961 2.981748 0.621201
-12.848978 -14.236961 2.588207 0.733824
-12.848978 -14.236961 2.195929 0.483456
-12.848978 -14.236961 1.804071 0.562868
-12.848978 -14.236961 1.411793 0.808824
-12.848978 -14.236961 1.018252 0.834926
-12.848977 -14.236961 0.622591 0.781005
-12.848978 -14.236961 0.223940 0.388113
-13.479944 -13.485006 0.000008 0.544853
-14.592927 -12.158604 0.000005 0.546078
-15.412918 -11.181377 0.000002 0.572917
-12.770571 -14.462873 5.055184 0.181985
-12.770573 -14.462872 4.634295 0.259926
-12.770571 -14.462872 4.219316 0.202941
-12.770573 -14.462872 3.809250 0.132966
-12.957462 -14.236961 3.369420 0.662623
-12.957462 -14.236959 2.976054 0.893627
-12.957462 -14.236961 2.584795 0.776838
-12.957462 -14.236961 2.194793 0.772304
-12.957462 -14.236961 1.805208 0.487745
-12.957461 -14.236961 1.415205 0.447917
-12.957462 -14.236961 1.023945 0.784314
-12.957462 -14.236961 0.630580 0.759191
-12.957461 -14.236961 0.234241 0.537623
-13.538900 -13.534122 0.000008 0.537255
-14.642581 -12.200003 0.000001 0.557966
-15.455736 -11.217066 -0.000001 0.599632
-12.855062 -14.494003 5.047775 0.666544
-12.855062 -14.494003 4.627908 0.678431
-12.855061 -14.494003 4.213934 0.678431
-12.855061 -14.494003 3.804864 0.675000
-13.064699 -14.236961 3.361589 0.629289
-13.064699 -14.236961 2.970473 0.869363
-13.064699 -14.236961 2.581451 0.474510
-13.064699 -14.236961 2.193679 0.490931
-13.064699 -14.236961 1.806321 0.624632
-13.064699 -14.236961 1.418549 0.427941
-13.064699 -14.236961 1.029526 0.724387
-13.064699 -14.236961 0.638411 0.610907
-13.064699 -14.236961 0.244338 0.663725
-13.598188 -13.582838 0.000006 0.519118
-14.692556 -12.241013 0.000008 0.539338
-15.498825 -11.252428 0.000005 0.543505
-12.964056 -14.494003 5.030595 0.670221
-12.964056 -14.494003 4.613093 0.678431
-12.964058 -14.494001 4.201452 0.678431
-12.964056 -14.494003 3.794689 0.666667
-13.170725 -14.236959 3.353913 0.342279
-13.170723 -14.236961 2.965002 0.867402
-13.170724 -14.236959 2.578173 0.620956
-13.170722 -14.236961 2.192587 0.773162
-13.170722 -14.236961 1.807413 0.629044
-13.170723 -14.236961 1.421827 0.474632
-13.170721 -14.236961 1.034997 0.768995
-13.170723 -14.236961 0.646087 0.763113
-13.170723 -14.236961 0.254235 0.689828
-13.657814 -13.631142 0.000003 0.532721
-14.742790 -12.281704 0.000006 0.539093
-15.542139 -11.287514 0.000003 0.547917
-13.071835 -14.494003 5.013752 0.678431
-13.071835 -14.494003 4.598570 0.678431
-13.071836 -14.494003 4.189219 0.678431
-13.071835 -14.494003 3.784715 0.678431
-13.275563 -14.236961 3.346389 0.341176
-13.275562 -14.236961 2.959639 0.359069
-13.275562 -14.236961 2.574960 0.598774
-13.275563 -14.236961 2.191517 0.600858
-13.275563 -14.236961 1.808483 0.643505
-13.275562 -14.236961 1.425040 0.694363
-13.275562 -14.236961 1.040361 0.857843
-13.275563 -14.236961 0.653611 0.606250
-13.275562 -14.236961 0.263938 0.662132
-13.717812 -13.678984 0.000011 0.532966
-14.793306 -12.322046 0.000003 0.517034
-15.585693 -11.322303 -0.000001 0.497794
-13.178425 -14.494003 4.997240 0.678431
-13.178426 -14.494003 4.584333 0.678431
-13.178427 -14.494003 4.177224 0.678431
-13.178426 -14.494003 3.774937 0.678431
-13.379251 -14.236959 3.339012 0.458578
-13.379251 -14.236959 2.954381 0.449387
-13.379251 -14.236959 2.571810 0.294853
-13.379251 -14.236959 2.190467 0.484681
-13.379250 -14.236959 1.809533 0.699755
-13.379250 -14.236961 1.428190 0.564216
-13.379250 -14.236961 1.045618 0.843137
-13.379250 -14.236961 0.660988 0.574632
-13.379249 -14.236961 0.273449 0.597426
-13.778103 -13.726450 0.000008 0.565196
-14.844104 -12.362032 0.000001 0.546324
-15.629516 -11.356750 0.000006 0.515319
-13.283862 -14.494001 4.981052 0.678431
-13.283861 -14.494003 4.570376 0.678431
-13.283862 -14.494001 4.165465 0.678431
-13.283863 -14.494001 3.765351 0.675980
-13.481810 -14.236961 3.331781 0.913725
-13.481810 -14.236961 2.949227 0.440319
-13.481810 -14.236961 2.568722 0.317279
-13.481812 -14.236959 2.189439 0.672181
-13.481811 -14.236961 1.810562 0.723529
-13.481810 -14.236961 1.431278 0.798284
-13.481810 -14.236963 1.050772 0.327206
-13.481810 -14.236961 0.668219 0.608946
-13.481810 -14.236961 0.282773 0.430882
-13.838725 -13.773497 0.000004 0.558946
-14.895185 -12.401655 0.000001 0.550123
-15.673563 -11.390913 0.000007 0.515319
-13.388170 -14.494001 4.965183 0.678431
-13.388168 -14.494003 4.556693 0.678431
-13.388170 -14.494001 4.153938 0.678431
-13.388170 -14.494001 3.755953 0.669363
-13.583277 -14.236958 3.324690 0.642647
-13.583277 -14.236958 2.944174 0.670588
-13.583277 -14.236958 2.565694 0.269363
-13.583277 -14.236959 2.188430 0.738113
-13.583275 -14.236961 1.811570 0.723284
-13.583275 -14.236961 1.434305 0.527819
-13.583275 -14.236961 1.055826 0.740809
-13.583275 -14.236961 0.675309 0.852819
-13.583275 -14.236961 0.291915 0.459191
-13.899674 -13.820120 0.000001 0.541912
-14.946568 -12.440889 0.000009 0.543137
-15.717838 -11.424777 0.000005 0.479657
-13.491377 -14.494003 4.949625 0.678431
-13.491379 -14.494001 4.543278 0.678431
-13.491379 -14.494001 4.142635 0.678431
-13.491379 -14.494001 3.746739 0.678431
-13.683670 -14.236959 3.317740 0.699510
-13.683670 -14.236959 2.939220 0.797917
-13.683670 -14.236959 2.562726 0.474510
-13.683672 -14.236958 2.187441 0.689706
-13.683670 -14.236961 1.812559 0.813480
-13.683670 -14.236961 1.437274 0.583701
-13.683669 -14.236961 1.060780 0.618382
-13.683670 -14.236959 0.682260 0.792892
-13.683669 -14.236961 0.300877 0.443382
-13.960955 -13.866306 0.000000 0.539093
-14.998192 -12.479802 0.000008 0.567157
-15.762349 -11.458332 0.000002 0.580637
-13.593513 -14.494003 4.934371 0.678431
-13.593514 -14.494003 4.530126 0.678431
-13.593514 -14.494001 4.131556 0.678431
-13.593515 -14.494001 3.737706 0.606495
-13.783021 -14.236961 3.310926 0.830637
-13.783022 -14.236961 2.934363 0.662132
-13.783022 -14.236959 2.559816 0.772917
-13.783022 -14.236961 2.186472 0.684314
-13.783021 -14.236961 1.813528 0.828554
-13.783022 -14.236961 1.440184 0.768750
-13.783022 -14.236961 1.065637 0.638603
-13.783021 -14.236961 0.689074 0.437010
-13.783022 -14.236961 0.309664 0.802328
-14.022552 -13.912069 -0.000003 0.539461
-15.050086 -12.518356 0.000005 0.550368
-15.807093 -11.491577 -0.000001 0.544608
-13.694603 -14.494001 4.919415 0.678431
-13.694603 -14.494003 4.517231 0.678431
-13.694603 -14.494001 4.120692 0.678431
-13.694603 -14.494001 3.728850 0.580392
-13.881355 -14.236959 3.304245 0.854412
-13.881354 -14.236961 2.929601 0.552574
-13.881355 -14.236959 2.556963 0.676961
-13.881355 -14.236959 2.185522 0.724510
-13.881354 -14.236961 1.814478 0.425368
-13.881354 -14.236961 1.443037 0.790564
-13.881353 -14.236963 1.070399 0.543015
-13.881353 -14.236961 0.695756 0.453064
-13.881353 -14.236961 0.318279 0.769363
-14.084505 -13.957348 0.000007 0.536520
-15.102245 -12.556550 0.000002 0.520956
-15.852067 -11.524508 -0.000004 0.559436
-13.978695 -14.236961 4.825568 0.495221
-13.978695 -14.236963 4.436312 0.174510
-13.978695 -14.236961 4.052521 0.490441
-13.978695 -14.236963 3.673275 0.535907
-13.978697 -14.236961 3.297694 0.673897
-13.978696 -14.236961 2.924932 0.336765
-13.978697 -14.236959 2.554166 0.521569
-13.978696 -14.236961 2.184590 0.735784
-13.978695 -14.236963 1.815410 0.363113
-13.978695 -14.236961 1.445834 0.826226
-13.978695 -14.236963 1.075068 0.488235
-13.978695 -14.236961 0.702306 0.458333
-13.978695 -14.236961 0.326725 0.408333
-14.146744 -14.002234 0.000007 0.545466
-15.154675 -12.594371 0.000000 0.547304
-15.897302 -11.557081 0.000006 0.559436
-14.075068 -14.236961 4.811584 0.824020
-14.075067 -14.236963 4.424255 0.595956
-14.075068 -14.236963 4.042363 0.468873
-14.075068 -14.236961 3.664993 0.483211
-14.075069 -14.236959 3.291272 0.551838
-14.075069 -14.236959 2.920354 0.636765
-14.075069 -14.236959 2.551423 0.465564
-14.075069 -14.236959 2.183676 0.494118
-14.075068 -14.236961 1.816324 0.826471
-14.075068 -14.236961 1.448577 0.622672
-14.075068 -14.236961 1.079646 0.466544
-14.075068 -14.236961 0.708728 0.756127
-14.075068 -14.236961 0.335007 0.352941
-14.209286 -14.046698 0.000004 0.534559
-15.207367 -12.631826 -0.000001 0.507843
-15.942733 -11.589378 0.000004 0.553309
-14.170496 -14.236963 4.797873 0.520221
-14.170496 -14.236961 4.412432 0.742402
-14.170496 -14.236961 4.032403 0.530392
-14.170496 -14.236963 3.656874 0.514583
-14.170498 -14.236961 3.284975 0.647672
-14.170498 -14.236961 2.915866 0.453064
-14.170496 -14.236961 2.548734 0.555392
-14.170498 -14.236959 2.182781 0.689093
-14.170496 -14.236961 1.817219 0.839216
-14.170496 -14.236963 1.451266 0.604167
-14.170496 -14.236961 1.084134 0.772794
-14.170497 -14.236961 0.715025 0.547059
-14.170496 -14.236961 0.343126 0.799020
-14.272131 -14.090729 0.000001 0.477328
-15.260340 -12.668881 0.000005 0.507843
-15.988386 -11.621361 0.000001 0.558211
-14.265003 -14.236963 4.784431 0.451838
-14.265003 -14.236963 4.400842 0.683333
-14.265003 -14.236961 4.022638 0.755637
-14.265003 -14.236961 3.648914 0.584681
-14.265004 -14.236961 3.278801 0.601471
-14.265005 -14.236961 2.911466 0.771691
-14.265005 -14.236959 2.546098 0.640686
-14.265004 -14.236961 2.181902 0.433946
-14.265003 -14.236963 1.818097 0.853186
-14.265004 -14.236961 1.453902 0.690564
-14.265004 -14.236961 1.088534 0.476961
-14.265003 -14.236963 0.721199 0.503309
-14.265003 -14.236961 0.351086 0.368873
-14.335293 -14.134308 -0.000000 0.513235
-15.313547 -12.705603 0.000003 0.538480
-16.034262 -11.653027 -0.000003 0.511642
-14.358610 -14.236961 4.771252 0.480270
-14.358611 -14.236961 4.389478 0.747794
-14.358610 -14.236963 4.013064 0.466667
-14.358610 -14.236963 3.641109 0.559559
-14.358612 -14.236961 3.272748 0.298652
-14.358610 -14.236961 2.907151 0.805637
-14.358610 -14.236961 2.543513 0.690441
-14.358610 -14.236961 2.181041 0.714338
-14.358610 -14.236961 1.818958 0.340196
-14.358610 -14.236963 1.456487 0.728922
-14.358610 -14.236961 1.092848 0.415196
-14.358611 -14.236961 0.727252 0.574142
-14.358610 -14.236963 0.358891 0.377206
-14.398746 -14.177458 -0.000004 0.531495
-15.367016 -12.741940 0.000003 0.516544
-16.080395 -11.684313 0.000010 0.524510
-14.451342 -14.236961 4.758330 0.368873
-14.451342 -14.236961 4.378336 0.821569
-14.451342 -14.236961 4.003677 0.632598
-14.451341 -14.236961 3.633457 0.765809
-14.451344 -14.236959 3.266813 0.456863
-14.451344 -14.236958 2.902921 0.772181
-14.451342 -14.236959 2.540978 0.685172
-14.451343 -14.236959 2.180197 0.461765
-14.451342 -14.236961 1.819803 0.322917
-14.451342 -14.236961 1.459022 0.400613
-14.451344 -14.236959 1.097078 0.675613
-14.451342 -14.236961 0.733186 0.603554
-14.451341 -14.236961 0.366543 0.723774
-14.451342 -14.236961 -0.003678 0.695466
-15.420724 -12.777924 -0.000003 0.548039
-16.126717 -11.715321 0.000011 0.505637
-14.543215 -14.236961 4.745662 0.537623
-14.543215 -14.236961 4.367413 0.288235
-14.543216 -14.236959 3.994475 0.629044
-14.543216 -14.236961 3.625954 0.766667
-14.543217 -14.236959 3.260995 0.554044
-14.543216 -14.236959 2.898775 0.462500
-14.543217 -14.236959 2.538494 0.700613
-14.543217 -14.236959 2.179370 0.259191
-14.543215 -14.236961 1.820630 0.476225
-14.543216 -14.236961 1.461506 0.688113
-14.543215 -14.236961 1.101225 0.764583
-14.543215 -14.236961 0.739004 0.499142
-14.543216 -14.236961 0.374046 0.396936
-14.543215 -14.236961 0.005525 0.687132
-15.474688 -12.813522 -0.000006 0.521936
-16.173243 -11.746018 0.000007 0.574020
-14.634252 -14.236963 4.733242 0.774142
-14.634253 -14.236961 4.356704 0.655882
-14.634254 -14.236961 3.985453 0.515564
-14.634253 -14.236961 3.618600 0.420711
-14.634254 -14.236959 3.255291 0.457230
-14.634254 -14.236959 2.894709 0.537377
-14.634254 -14.236959 2.536058 0.590809
-14.634254 -14.236958 2.178558 0.243382
-14.634253 -14.236961 1.821442 0.470098
-14.634253 -14.236961 1.463942 0.438726
-14.634253 -14.236961 1.105290 0.407598
-14.634253 -14.236961 0.744709 0.483824
-14.634253 -14.236963 0.381400 0.379902
-14.634254 -14.236961 0.014547 0.577574
-15.528903 -12.848736 -0.000006 0.584681
-16.219980 -11.776394 0.000002 0.524265
-14.724477 -14.236961 4.721065 0.787132
-14.724476 -14.236961 4.346205 0.424142
-14.724476 -14.236961 3.976609 0.349877
-14.724478 -14.236959 3.611389 0.372059
-14.724478 -14.236958 3.249699 0.668995
-14.724478 -14.236959 2.890723 0.489583
-14.724478 -14.236958 2.533669 0.596201
-14.724478 -14.236958 2.177763 0.254044
-14.724476 -14.236961 1.822237 0.508211
-14.724476 -14.236959 1.466330 0.477941
-14.724476 -14.236961 1.109276 0.366299
-14.724476 -14.236961 0.750301 0.636887
-14.724476 -14.236961 0.388611 0.462132
-14.724476 -14.236961 0.023391 0.639583
-15.583403 -12.883511 0.000008 0.578922
-16.266916 -11.806463 -0.000009 0.523162
-14.813902 -14.236961 4.709129 0.668015
-14.813903 -14.236961 4.335913 0.620343
-14.813903 -14.236961 3.967937 0.380147
-14.813903 -14.236961 3.604320 0.562010
-14.813904 -14.236961 3.244217 0.678431
-14.813904 -14.236959 2.886816 0.351593
-14.813904 -14.236959 2.531329 0.659804
-14.813904 -14.236959 2.176983 0.253186
-14.813902 -14.236961 1.823017 0.634314
-14.813902 -14.236961 1.468671 0.352451
-14.813902 -14.236961 1.113184 0.549020
-14.813903 -14.236961 0.755783 0.617157
-14.813902 -14.236963 0.395680 0.344730
-14.813902 -14.236963 0.032062 0.659191
-15.638099 -12.917972 0.000005 0.543873
-16.314083 -11.836170 -0.000010 0.505515
-14.902553 -14.236961 4.697427 0.745221
-14.902552 -14.236963 4.325824 0.619240
-14.902552 -14.236961 3.959437 0.465319
-14.902555 -14.236959 3.597390 0.551593
-14.902554 -14.236959 3.238842 0.450000
-14.902554 -14.236959 2.882986 0.255147
-14.902555 -14.236958 2.529034 0.609069
-14.902554 -14.236959 2.176219 0.222917
-14.902553 -14.236961 1.823781 0.623529
-14.902554 -14.236959 1.470966 0.348407
-14.902554 -14.236961 1.117014 0.533946
-14.902554 -14.236959 0.761157 0.466544
-14.902554 -14.236959 0.402609 0.638971
-14.902553 -14.236961 0.040563 0.620588
-15.693040 -12.952043 0.000003 0.559191
-16.361492 -11.865489 0.000006 0.543137
-14.990444 -14.236961 4.685957 0.589583
-14.990445 -14.236961 4.315933 0.642034
-14.990444 -14.236961 3.951105 0.659559
-14.990446 -14.236959 3.590598 0.594853
-14.990445 -14.236961 3.233575 0.505147
-14.990446 -14.236959 2.879230 0.238848
-14.990446 -14.236959 2.526784 0.817524
-14.990446 -14.236959 2.175469 0.230147
-14.990445 -14.236959 1.824531 0.617279
-14.990445 -14.236959 1.473216 0.264216
-14.990445 -14.236959 1.120769 0.663603
-14.990444 -14.236961 0.766425 0.421936
-14.990445 -14.236959 0.409402 0.601961
-14.990444 -14.236961 0.048894 0.842770
-15.748212 -12.985739 0.000000 0.549020
-16.409065 -11.894541 0.000003 0.513480
-15.077595 -14.236963 4.674713 0.360784
-15.077596 -14.236961 4.306239 0.567647
-15.077596 -14.236961 3.942938 0.638358
-15.077596 -14.236961 3.583940 0.322059
-15.077596 -14.236959 3.228411 0.497426
-15.077597 -14.236959 2.875550 0.456127
-15.077596 -14.236961 2.524579 0.821324
-15.077597 -14.236959 2.174735 0.256127
-15.077596 -14.236961 1.825265 0.610417
-15.077595 -14.236961 1.475421 0.346446
-15.077595 -14.236961 1.124449 0.631985
-15.077595 -14.236961 0.771589 0.357108
-15.077595 -14.236963 0.416060 0.577451
-15.077595 -14.236961 0.057062 0.597917
-15.803612 -13.019057 -0.000006 0.562745
-16.456831 -11.923271 -0.000003 0.565809
-15.164024 -14.236963 4.663693 0.389706
-15.164025 -14.236961 4.296737 0.646324
-15.164024 -14.236961 3.934932 0.837132
-15.164025 -14.236961 3.577413 0.655760
-15.164026 -14.236959 3.223350 0.639461
-15.164026 -14.236961 2.871943 0.465809
-15.164026 -14.236959 2.522418 0.698407
-15.164026 -14.236959 2.174015 0.258824
-15.164024 -14.236963 1.825985 0.695956
-15.164025 -14.236961 1.477582 0.442770
-15.164025 -14.236961 1.128057 0.741789
-15.164025 -14.236961 0.776650 0.532721
-15.164024 -14.236961 0.422586 0.572917
-15.164026 -14.236959 0.065068 0.460784
-15.859259 -13.051965 -0.000005 0.549632
-16.504812 -11.951646 -0.000003 0.511152
-15.178736 -14.359959 4.688468 0.529534
-15.178736 -14.359961 4.318098 0.703431
-15.178736 -14.359961 3.952929 0.462990
-15.249748 -14.236961 3.571017 0.713235
-15.249750 -14.236959 3.218389 0.695711
-15.249750 -14.236959 2.868407 0.400735
-15.249749 -14.236959 2.520299 0.707598
-15.249750 -14.236959 2.173309 0.332230
-15.249748 -14.236961 1.826691 0.706495
-15.249748 -14.236961 1.479701 0.552328
-15.249749 -14.236961 1.131593 0.719975
-15.249749 -14.236961 0.781611 0.869363
-15.249748 -14.236961 0.428983 0.701838
-15.249750 -14.236959 0.072914 0.324755
-15.915119 -13.084505 -0.000011 0.550245
-16.552979 -11.979702 -0.000008 0.489706
-15.239556 -14.404594 4.690598 0.160784
-15.239556 -14.404594 4.319935 0.157353
-15.239557 -14.404593 3.954476 0.160784
-15.334785 -14.236959 3.564748 0.677083
-15.334785 -14.236961 3.213528 0.743137
-15.334785 -14.236959 2.864942 0.726593
-15.334785 -14.236959 2.518223 0.374387
-15.334785 -14.236959 2.172617 0.393995
-15.334785 -14.236961 1.827382 0.690074
-15.334785 -14.236961 1.481777 0.498162
-15.334785 -14.236961 1.135058 0.402206
-15.334785 -14.236961 0.786472 0.727206
-15.334785 -14.236961 0.435252 0.795466
-15.334785 -14.236961 0.080603 0.615931
-15.971216 -13.116640 -0.000012 0.521569
-16.601341 -12.007420 -0.000012 0.585539
-15.277806 -14.489862 4.704502 0.269485
-15.277807 -14.489861 4.331924 0.334926
-15.277806 -14.489862 3.964577 0.316176
-15.419148 -14.236959 3.558605 0.634436
-15.419149 -14.236958 3.208763 0.667770
-15.419148 -14.236959 2.861546 0.737500
-15.419148 -14.236961 2.516189 0.393505
-15.419148 -14.236959 2.171940 0.638848
-15.419147 -14.236961 1.828060 0.837500
-15.419147 -14.236961 1.483811 0.550613
-15.419147 -14.236961 1.138453 0.421078
-15.419147 -14.236961 0.791237 0.711765
-15.419147 -14.236961 0.441395 0.791667
-15.419147 -14.236961 0.088139 0.774877
-16.027584 -13.148293 0.000008 0.542647
-16.649902 -12.034785 -0.000013 0.527696
-15.361547 -14.494003 4.695240 0.678431
-15.361547 -14.494003 4.323938 0.678431
-15.361547 -14.494001 3.957849 0.678431
-15.502857 -14.236959 3.552585 0.689951
-15.502857 -14.236959 3.204094 0.661029
-15.502857 -14.236959 2.858218 0.759314
-15.502857 -14.236959 2.514195 0.799510
-15.502857 -14.236959 2.171276 0.687500
-15.502857 -14.236961 1.828724 0.824387
-15.502857 -14.236961 1.485805 0.557108
-15.502857 -14.236961 1.141781 0.741667
-15.502857 -14.236961 0.795906 0.840074
-15.502857 -14.236959 0.447415 0.652328
-15.502856 -14.236961 0.095523 0.803431
-16.084127 -13.179634 0.000008 0.553922
-16.698692 -12.061743 0.000006 0.556373
-15.446943 -14.494003 4.685000 0.678431
-15.446943 -14.494001 4.315109 0.678431
-15.446943 -14.494001 3.950410 0.678431
-15.585926 -14.236959 3.546687 0.553064
-15.585925 -14.236959 3.199520 0.630882
-15.585924 -14.236961 2.854958 0.706373
-15.585926 -14.236959 2.512241 0.884681
-15.585926 -14.236959 2.170625 0.699265
-15.585924 -14.236961 1.829375 0.441054
-15.585925 -14.236959 1.487758 0.533578
-15.585924 -14.236961 1.145042 0.733578
-15.585924 -14.236961 0.800480 0.818873
-15.585924 -14.236961 0.453313 0.435662
-15.585925 -14.236959 0.102759 0.840931
-16.140875 -13.210602 0.000003 0.555147
-16.747629 -12.088432 0.000005 0.563971
-15.531696 -14.494001 4.674969 0.678431
-15.531697 -14.494001 4.306458 0.678431
-15.531698 -14.494001 3.943123 0.678431
-15.668368 -14.236959 3.540907 0.581740
-15.668369 -14.236959 3.195038 0.150368
-15.668369 -14.236959 2.851764 0.300613
-15.668369 -14.236959 2.510327 0.562868
-15.668369 -14.236959 2.169988 0.454902
-15.668367 -14.236961 1.830012 0.409314
-15.668367 -14.236961 1.489673 0.537990
-15.668368 -14.236959 1.148236 0.524265
-15.668367 -14.236961 0.804962 0.622794
-15.668367 -14.236961 0.459092 0.229534
-15.668367 -14.236961 0.109847 0.815196
-16.197836 -13.241177 -0.000003 0.527206
-16.796749 -12.114786 0.000001 0.531618
-15.615822 -14.494003 4.665141 0.678431
-15.615824 -14.494001 4.297984 0.678431
-15.615824 -14.494001 3.935984 0.678309
-15.750202 -14.236959 3.535246 0.501838
-15.750202 -14.236959 3.190647 0.282230
-15.750201 -14.236959 2.848634 0.297181
-15.750201 -14.236961 2.508453 0.598407
-15.750202 -14.236959 2.169363 0.414951
-15.750200 -14.236961 1.830637 0.820588
-15.750200 -14.236963 1.491547 0.477206
-15.750200 -14.236961 1.151366 0.627451
-15.750200 -14.236961 0.809353 0.670221
-15.750200 -14.236961 0.464754 0.569608
-15.750200 -14.236961 0.116792 0.817647
-16.255024 -13.271324 -0.000002 0.531985
-16.846046 -12.140803 -0.000005 0.543260
-15.699338 -14.494003 4.655514 0.678431
-15.699339 -14.494001 4.289684 0.678431
-15.699339 -14.494001 3.928991 0.678431
-15.831440 -14.236961 3.529700 0.805515
-15.831440 -14.236959 3.186346 0.468995
-15.831440 -14.236961 2.845569 0.737623
-15.831440 -14.236961 2.506616 0.451348
-15.831440 -14.236961 2.168751 0.584069
-15.831440 -14.236961 1.831249 0.807598
-15.831439 -14.236961 1.493384 0.559069
-15.831439 -14.236963 1.154431 0.611520
-15.831440 -14.236961 0.813654 0.584191
-15.831440 -14.236961 0.470300 0.723039
-15.831439 -14.236961 0.123594 0.797181
-16.312405 -13.301104 -0.000009 0.564461
-16.895533 -12.166458 -0.000005 0.561520
-15.782255 -14.494003 4.646084 0.678431
-15.782256 -14.494001 4.281554 0.678431
-15.782256 -14.494001 3.922141 0.678431
-15.912098 -14.236959 3.524268 0.503309
-15.912097 -14.236959 3.182134 0.624265
-15.912098 -14.236958 2.842566 0.801348
-15.912098 -14.236958 2.504817 0.445588
-15.912096 -14.236961 2.168152 0.575858
-15.912096 -14.236963 1.831848 0.792279
-15.912097 -14.236959 1.495183 0.570098
-15.912096 -14.236961 1.157433 0.263848
-15.912096 -14.236961 0.817866 0.604534
-15.912096 -14.236961 0.475731 0.784191
-15.912096 -14.236961 0.130257 0.640564
-16.370007 -13.330452 -0.000009 0.534681
-16.945190 -12.191782 -0.000011 0.535907
-15.864592 -14.494001 4.636849 0.678431
-15.864592 -14.494001 4.273591 0.678431
-15.864592 -14.494001 3.915433 0.678431
-15.992188 -14.236961 3.518950 0.502574
-15.992188 -14.236959 3.178008 0.638603
-15.992188 -14.236961 2.839626 0.420956
-15.992188 -14.236959 2.503055 0.542770
-15.992188 -14.236959 2.167565 0.669976
-15.992188 -14.236959 1.832435 0.821569
-15.992188 -14.236959 1.496945 0.693873
-15.992188 -14.236961 1.160374 0.317892
-15.992188 -14.236961 0.821992 0.523407
-15.992188 -14.236961 0.481051 0.911520
-15.992188 -14.236961 0.136782 0.646324
-16.427860 -13.359303 0.000015 0.555270
-16.995031 -12.216745 -0.000011 0.536520
-15.946358 -14.494001 4.627807 0.678431
-15.946357 -14.494003 4.265794 0.678431
-15.946358 -14.494001 3.908864 0.678431
-16.071724 -14.236961 3.513740 0.423529
-16.071724 -14.236959 3.173968 0.650858
-16.071724 -14.236959 2.836746 0.430637
-16.071726 -14.236959 2.501330 0.522059
-16.071724 -14.236959 2.166991 0.594975
-16.071724 -14.236961 1.833009 0.441422
-16.071724 -14.236961 1.498670 0.371691
-16.071724 -14.236961 1.163253 0.322794
-16.071724 -14.236961 0.826031 0.552451
-16.071724 -14.236961 0.486260 0.885784
-16.071724 -14.236961 0.143172 0.363848
-16.485867 -13.387844 0.000014 0.536029
-17.045086 -12.241272 0.000012 0.565319
-16.027569 -14.494001 4.618953 0.678431
-16.027569 -14.494001 4.258160 0.678431
-16.027569 -14.494003 3.902433 0.678431
-16.150723 -14.236959 3.508640 0.440809
-16.150723 -14.236961 3.170013 0.421324
-16.150723 -14.236961 2.833927 0.706005
-16.150723 -14.236961 2.499641 0.424387
-16.150723 -14.236959 2.166428 0.476838
-16.150723 -14.236961 1.833572 0.381985
-16.150723 -14.236961 1.500359 0.601348
-16.150723 -14.236961 1.166073 0.687255
-16.150723 -14.236961 0.829987 0.379534
-16.150721 -14.236961 0.491360 0.500490
-16.150721 -14.236961 0.149428 0.391176
-16.544071 -13.415976 0.000016 0.520833
-17.095264 -12.265550 0.000007 0.529534
-16.108238 -14.494001 4.610286 0.678431
-16.108238 -14.494003 4.250687 0.678431
-16.108238 -14.494003 3.896137 0.678431
-16.229193 -14.236959 3.503647 0.253186
-16.229193 -14.236961 3.166141 0.745956
-16.229193 -14.236959 2.831167 0.835049
-16.229193 -14.236959 2.497987 0.484681
-16.229193 -14.236959 2.165877 0.446691
-16.229193 -14.236961 1.834123 0.254779
-16.229191 -14.236963 1.502012 0.563603
-16.229191 -14.236961 1.168832 0.861520
-16.229193 -14.236961 0.833859 0.485049
-16.229193 -14.236961 0.496353 0.654534
-16.229191 -14.236961 0.155553 0.642402
-16.602453 -13.443739 0.000008 0.560662
-17.145615 -12.289464 0.000006 0.552206
-16.188379 -14.494001 4.601802 0.678431
-16.188379 -14.494001 4.243372 0.678431
-16.188379 -14.494001 3.889974 0.678431
-16.307150 -14.236961 3.498760 0.411029
-16.307150 -14.236959 3.162351 0.655147
-16.307150 -14.236959 2.828466 0.354779
-16.307148 -14.236961 2.496369 0.435784
-16.307148 -14.236961 2.165338 0.338480
-16.307148 -14.236961 1.834662 0.688113
-16.307148 -14.236963 1.503631 0.547794
-16.307150 -14.236959 1.171534 0.778676
-16.307148 -14.236961 0.837649 0.414583
-16.307150 -14.236961 0.501240 0.467279
-16.307150 -14.236961 0.161548 0.500490
-16.661047 -13.471056 0.000009 0.513848
-17.196123 -12.313045 -0.000001 0.550123
-16.268005 -14.494003 4.593499 0.678431
-16.268005 -14.494001 4.236213 0.678186
-16.268005 -14.494003 3.883943 0.678431
-16.384605 -14.236959 3.493977 0.577206
-16.384605 -14.236959 3.158642 0.754167
-16.384605 -14.236959 2.825822 0.813358
-16.384605 -14.236959 2.494785 0.354167
-16.384605 -14.236959 2.164810 0.451225
-16.384605 -14.236961 1.835189 0.485294
-16.384605 -14.236963 1.505215 0.628799
-16.384605 -14.236961 1.174177 0.902941
-16.384604 -14.236963 0.841358 0.458578
-16.384605 -14.236961 0.506023 0.884191
-16.384605 -14.236961 0.167414 0.459191
-16.719810 -13.498001 0.000001 0.553309
-17.246803 -12.336253 -0.000002 0.551103
-16.461571 -14.236961 4.514895 0.568627
-16.461571 -14.236961 4.168438 0.317157
-16.461571 -14.236961 3.826845 0.389216
-16.461571 -14.236961 3.489297 0.765686
-16.461571 -14.236961 3.155012 0.726471
-16.461571 -14.236961 2.823235 0.806740
-16.461571 -14.236961 2.493235 0.385172
-16.461571 -14.236961 2.164294 0.490809
-16.461571 -14.236963 1.835706 0.626593
-16.461571 -14.236961 1.506765 0.681127
-16.461571 -14.236961 1.176764 0.880515
-16.461571 -14.236963 0.844988 0.351961
-16.461571 -14.236961 0.510702 0.908824
-16.461571 -14.236961 0.173155 0.441912
-16.778780 -13.524496 0.000002 0.548529
-17.297638 -12.359121 -0.000007 0.526961
-16.538059 -14.236961 4.507164 0.602206
-16.538059 -14.236963 4.161772 0.481863
-16.538059 -14.236961 3.821228 0.379044
-16.538061 -14.236959 3.484719 0.727206
-16.538059 -14.236961 3.151461 0.756863
-16.538061 -14.236959 2.820704 0.715931
-16.538061 -14.236959 2.491718 0.362868
-16.538061 -14.236959 2.163789 0.604167
-16.538059 -14.236961 1.836211 0.595466
-16.538061 -14.236959 1.508282 0.661765
-16.538059 -14.236961 1.179296 0.887377
-16.538059 -14.236961 0.848539 0.275368
-16.538061 -14.236961 0.515281 0.873284
-16.538061 -14.236961 0.178772 0.439828
-16.837915 -13.550619 -0.000006 0.542525
-17.348640 -12.381615 -0.000007 0.541422
-16.614084 -14.236961 4.499601 0.355392
-16.614084 -14.236961 4.155251 0.548407
-16.614086 -14.236959 3.815734 0.355147
-16.614084 -14.236961 3.480240 0.733333
-16.614086 -14.236959 3.147987 0.786520
-16.614086 -14.236959 2.818228 0.682843
-16.614086 -14.236959 2.490235 0.397549
-16.614086 -14.236959 2.163295 0.561765
-16.614084 -14.236961 1.836705 0.601838
-16.614084 -14.236961 1.509765 0.659314
-16.614084 -14.236961 1.181771 0.861397
-16.614084 -14.236961 0.852012 0.243382
-16.614084 -14.236961 0.519760 0.871446
-16.614084 -14.236961 0.184265 0.461520
-16.897245 -13.576298 -0.000007 0.550000
-17.399843 -12.403650 0.000021 0.545711
-16.689655 -14.236961 4.492205 0.607598
-16.689655 -14.236961 4.148873 0.612500
-16.689655 -14.236963 3.810362 0.694975
-16.689655 -14.236959 3.475859 0.455147
-16.689655 -14.236961 3.144591 0.544853
-16.689655 -14.236959 2.815807 0.564951
-16.689655 -14.236961 2.488785 0.361642
-16.689655 -14.236959 2.162812 0.396446
-16.689655 -14.236961 1.837188 0.585662
-16.689655 -14.236961 1.511215 0.642402
-16.689655 -14.236961 1.184192 0.822059
-16.689655 -14.236961 0.855409 0.614461
-16.689655 -14.236961 0.524140 0.717525
-16.689655 -14.236961 0.189638 0.659069
-16.956755 -13.601557 -0.000006 0.549142
-17.451153 -12.425430 0.000021 0.533701
-16.764782 -14.236961 4.484973 0.270956
-16.764782 -14.236961 4.142638 0.643873
-16.764782 -14.236963 3.805109 0.562868
-16.764784 -14.236961 3.471577 0.588113
-16.764784 -14.236961 3.141269 0.559926
-16.764784 -14.236961 2.813440 0.583824
-16.764782 -14.236961 2.487366 0.356005
-16.764784 -14.236961 2.162339 0.372549
-16.764784 -14.236961 1.837661 0.616912
-16.764782 -14.236961 1.512634 0.546446
-16.764784 -14.236961 1.186560 0.595956
-16.764784 -14.236961 0.858730 0.562868
-16.764784 -14.236961 0.528423 0.288358
-16.764784 -14.236961 0.194892 0.649877
-17.016489 -13.626276 0.000023 0.522549
-17.502613 -12.446853 0.000021 0.548039
-16.839481 -14.236963 4.477903 0.650490
-16.839481 -14.236961 4.136542 0.600980
-16.839481 -14.236961 3.799973 0.514828
-16.839481 -14.236959 3.467391 0.656985
-16.839481 -14.236959 3.138022 0.587745
-16.839481 -14.236959 2.811126 0.587990
-16.839481 -14.236959 2.485980 0.544853
-16.839481 -14.236959 2.161877 0.354779
-16.839481 -14.236961 1.838122 0.686765
-16.839481 -14.236961 1.514020 0.565074
-16.839481 -14.236961 1.188874 0.565809
-16.839481 -14.236961 0.861978 0.283333
-16.839481 -14.236959 0.532610 0.391299
-16.839481 -14.236961 0.200027 0.775123
-17.076288 -13.650845 -0.000011 0.554657
-17.554211 -12.467945 0.000013 0.543137
-16.913757 -14.236963 4.470994 0.604534
-16.913757 -14.236961 4.130584 0.507475
-16.913757 -14.236959 3.794953 0.637500
-16.913757 -14.236961 3.463299 0.638726
-16.913757 -14.236961 3.134849 0.633333
-16.913757 -14.236959 2.808864 0.523162
-16.913759 -14.236959 2.484624 0.479902
-16.913759 -14.236959 2.161426 0.424510
-16.913757 -14.236961 1.838574 0.675490
-16.913757 -14.236961 1.515375 0.430515
-16.913757 -14.236961 1.191136 0.514951
-16.913757 -14.236963 0.865151 0.382721
-16.913757 -14.236961 0.536701 0.339706
-16.913757 -14.236959 0.205047 0.748652
-17.136349 -13.674761 0.000010 0.494853
-17.605965 -12.488644 0.000013 0.530392
-16.987625 -14.236963 4.464242 0.678064
-16.987625 -14.236963 4.124763 0.348284
-16.987625 -14.236961 3.790049 0.366912
-16.987625 -14.236959 3.459300 0.421569
-16.987625 -14.236959 3.131748 0.441667
-16.987625 -14.236959 2.806654 0.382598
-16.987625 -14.236959 2.483300 0.595221
-16.987625 -14.236959 2.160985 0.668260
-16.987625 -14.236963 1.839015 0.641667
-16.987625 -14.236961 1.516699 0.492770
-16.987625 -14.236961 1.193346 0.664216
-16.987625 -14.236961 0.868251 0.648652
-16.987625 -14.236961 0.540699 0.630392
-16.987625 -14.236961 0.209951 0.496446
-17.196512 -13.698418 -0.000005 0.570956
-17.657854 -12.509009 0.000006 0.547181
-17.061092 -14.236963 4.457648 0.734559
-17.061092 -14.236963 4.119077 0.606495
-17.061094 -14.236961 3.785259 0.367892
-17.061094 -14.236959 3.455395 0.695956
-17.061094 -14.236961 3.128719 0.837500
-17.061094 -14.236961 2.804495 0.595221
-17.061094 -14.236961 2.482007 0.520588
-17.061094 -14.236959 2.160554 0.680147
-17.061094 -14.236959 1.839446 0.299755
-17.061094 -14.236961 1.517993 0.398407
