# This PCD file was generated using the MATLABÂ® pcwrite function
# from Computer Vision ToolboxÂ®.
# .PCD v.7 - Point Cloud Data file format
VERSION .7
FIELDS x y z intensity
SIZE 4 4 4 4
TYPE F F F F
COUNT 1 1 1 1
WIDTH 1274
HEIGHT 1
VIEWPOINT 0 0 0 1 0 0 0
POINTS 1274
DATA ascii
25.660046 35.339138 4.606048 0.622181
25.660055 35.339134 3.561392 0.612377
25.684729 35.332802 2.519675 0.632475
17.859013 37.342106 1.348112 0.625245
18.823067 37.094578 0.091833 0.593995
32.819000 33.501030 -0.000007 0.541176
39.605408 31.758577 -0.000005 0.331985
43.385052 30.788130 -0.000006 0.333701
45.798065 30.168573 -0.000001 0.327696
47.475163 29.737968 -0.000005 0.337500
48.710789 29.420712 -0.000004 0.333824
25.691149 35.560421 9.967628 0.640686
25.691151 35.560421 8.869990 0.641054
25.691135 35.560425 7.787766 0.653554
25.691137 35.560425 6.718356 0.620711
25.691196 35.560410 5.659274 0.642892
25.691179 35.560413 4.608150 0.630760
25.691181 35.560413 3.562652 0.632108
25.664814 35.567379 2.520959 0.650123
25.499798 35.610977 1.476249 0.676348
25.499794 35.610981 0.427623 0.681250
32.861931 33.665817 -0.000007 0.535784
39.636002 31.876030 -0.000004 0.330760
43.408779 30.879219 -0.000006 0.334804
45.817410 30.242832 -0.000001 0.332843
47.491459 29.800528 -0.000005 0.333456
48.724838 29.474655 -0.000004 0.322917
25.690794 35.790630 9.982639 0.625735
25.690786 35.790634 8.882934 0.632598
25.690819 35.790623 7.798663 0.632230
25.690832 35.790619 6.727237 0.654167
25.690775 35.790634 5.666176 0.653431
25.690859 35.790611 4.613061 0.628309
25.690857 35.790611 3.565595 0.657721
25.671192 35.795956 2.521825 0.659314
19.943344 37.352180 1.381046 0.745711
19.980419 37.342106 0.143700 0.649265
32.905998 33.830303 -0.000007 0.539951
39.667412 31.993267 -0.000005 0.333211
43.433140 30.970140 -0.000006 0.330760
45.837269 30.316952 -0.000001 0.334436
47.508186 29.862974 -0.000005 0.334926
48.739265 29.528498 -0.000003 0.331250
25.691212 36.021503 9.997896 0.618505
25.691208 36.021507 8.896090 0.671936
25.691174 36.021515 7.809756 0.632721
25.691162 36.021519 6.736285 0.655515
25.691196 36.021507 5.673182 0.616789
25.691149 36.021523 4.618065 0.631373
25.691269 36.021488 3.568587 0.656373
25.679544 36.024761 2.522688 0.648897
20.925289 37.352173 1.396538 0.769485
20.961353 37.342106 0.190160 0.643750
32.951218 33.994473 -0.000007 0.525980
39.699642 32.110279 -0.000005 0.334804
43.458138 31.060888 -0.000006 0.330637
45.857651 30.390932 -0.000000 0.331005
47.525356 29.925301 -0.000005 0.336397
48.754070 29.582237 -0.000003 0.339461
25.690954 36.253468 10.013778 0.624632
25.690941 36.253471 8.909786 0.641544
25.690962 36.253464 7.821286 0.621814
25.690962 36.253464 6.745681 0.660417
25.690989 36.253456 5.680470 0.669363
25.690941 36.253471 4.623260 0.635907
25.690903 36.253483 3.571708 0.618137
25.649908 36.265236 2.524227 0.642770
21.859299 37.352177 1.411245 0.773407
21.894424 37.342106 0.234267 0.632843
32.997589 34.158325 -0.000007 0.526103
39.732689 32.227066 -0.000005 0.333088
43.483765 31.151461 -0.000006 0.333456
45.878544 30.464769 -0.000000 0.334681
47.542953 29.987507 -0.000006 0.334191
48.769249 29.635872 -0.000003 0.336642
25.690834 36.486324 10.030081 0.629412
25.690828 36.486328 8.923840 0.642402
25.690851 36.486320 7.833126 0.631005
25.690847 36.486320 6.755334 0.639461
25.690769 36.486343 5.687969 0.656740
25.690819 36.486332 4.628597 0.637868
25.690781 36.486343 3.574905 0.622549
25.650017 36.498337 2.525289 0.663971
22.748917 37.352180 1.425224 0.754902
22.783150 37.342102 0.276193 0.639951
33.045094 34.321850 -0.000007 0.539828
39.766548 32.343616 -0.000005 0.334069
43.510025 31.241852 -0.000006 0.334191
45.899956 30.538458 0.000000 0.336029
47.560993 30.049587 -0.000005 0.330025
48.784801 29.689402 -0.000003 0.332475
25.691051 36.720039 10.046753 0.642524
25.691034 36.720047 8.938219 0.635784
25.691050 36.720039 7.845241 0.639216
25.691023 36.720047 6.765215 0.638480
25.691029 36.720047 5.695622 0.628309
25.691080 36.720032 4.634051 0.644363
25.691034 36.720047 3.578173 0.630024
25.650368 36.732323 2.526378 0.640686
23.597328 37.352173 1.438529 0.716054
23.630680 37.342102 0.316095 0.634436
33.093742 34.485039 -0.000007 0.532721
39.801224 32.459930 -0.000005 0.336029
43.536919 31.332056 -0.000006 0.337010
45.921875 30.611996 -0.000000 0.329167
47.579468 30.111540 -0.000005 0.337623
48.800724 29.742819 -0.000003 0.331740
25.690937 36.954849 10.063977 0.662132
25.690962 36.954842 8.953060 0.650368
25.690977 36.954838 7.857744 0.667525
25.690954 36.954845 6.775408 0.644975
25.690958 36.954842 5.703527 0.649142
25.690998 36.954830 4.639686 0.637868
25.690947 36.954845 3.581550 0.615686
25.650560 36.967346 2.527498 0.633946
24.407410 37.352169 1.451206 0.745833
24.439922 37.342102 0.354114 0.623897
33.143532 34.647884 -0.000007 0.533456
39.836708 32.576000 -0.000005 0.335172
43.564438 31.422073 -0.000006 0.333946
45.944309 30.685381 -0.000000 0.329902
47.598370 30.173363 -0.000004 0.331250
48.817028 29.796125 -0.000001 0.338848
25.690922 37.190636 10.081641 0.671446
25.690901 37.190643 8.968303 0.641544
25.690899 37.190643 7.870589 0.658456
25.690943 37.190628 6.785869 0.622181
25.690947 37.190628 5.711639 0.650123
25.690857 37.190655 4.645480 0.637623
25.690918 37.190636 3.585016 0.641054
25.650887 37.203335 2.528649 0.633088
25.181669 37.352180 1.463297 0.746569
25.213419 37.342110 0.390374 0.659681
33.194450 34.810375 -0.000007 0.542770
39.955826 32.665543 0.009991 1.000000
43.592590 31.511892 -0.000006 0.332598
45.967255 30.758604 -0.000000 0.333456
47.617702 30.235052 -0.000004 0.332475
48.833694 29.849316 -0.000002 0.325613
25.857515 37.373341 10.055902 0.751838
25.857557 37.373325 8.946093 0.755270
25.857502 37.373344 7.851888 0.743750
25.857536 37.373333 6.770623 0.739828
25.987476 37.331112 5.684100 0.706495
25.857519 37.373337 4.637047 0.732476
25.857553 37.373325 3.579965 0.750368
25.857498 37.373344 2.526279 0.748162
25.857534 37.373333 1.473721 0.744730
25.958406 37.340557 0.425245 0.736397
33.246506 34.972511 -0.000007 0.544240
39.992744 32.780525 0.009991 1.000000
43.621361 31.601517 -0.000005 0.335172
45.990715 30.831667 -0.000000 0.331373
47.637466 30.296604 -0.000004 0.334681
48.850735 29.902390 -0.000002 0.340564
26.526327 37.387482 9.897860 0.678431
26.919382 37.256729 8.720367 0.694118
26.526331 37.387482 7.737080 0.678431
26.792147 37.299057 6.635482 0.928064
26.526337 37.387478 5.627235 0.678431
26.526329 37.387482 4.585313 0.678431
26.526377 37.387466 3.548968 0.745343
26.526333 37.387482 2.515955 0.678431
26.526333 37.387482 1.484046 0.678431
26.617025 37.357311 0.455725 0.750245
33.299690 35.134281 -0.000007 0.526103
39.948017 32.922676 -0.000005 0.332475
43.650764 31.690937 -0.000006 0.334926
46.014671 30.904570 -0.000003 0.333701
47.657658 30.358019 -0.000004 0.327819
48.868153 29.955341 -0.000000 0.330637
27.209360 37.387482 9.735703 0.678431
27.594143 37.256489 8.582226 0.717525
27.209364 37.387478 7.619289 0.678431
27.234264 37.379002 6.577107 0.721446
27.209368 37.387478 5.552763 0.678431
27.209366 37.387478 4.532233 0.678431
27.209415 37.387463 3.517164 0.729412
27.209370 37.387478 2.505362 0.678431
27.209368 37.387478 1.494639 0.678431
27.238544 37.377544 0.484347 0.742402
33.354004 35.295673 -0.000007 0.535049
39.986732 33.037704 -0.000004 0.537500
43.680786 31.780148 -0.000006 0.329412
46.039146 30.977297 -0.000003 0.337623
47.678276 30.419291 -0.000004 0.330882
48.885933 30.008171 -0.000000 0.335172
27.995224 37.342113 9.545877 0.646814
28.218632 37.264317 8.455247 0.700123
27.995220 37.342117 7.481400 0.660662
27.995222 37.342117 6.468597 0.652206
27.995222 37.342117 5.465584 0.628799
27.995226 37.342113 4.470096 0.651471
27.995230 37.342113 3.479937 0.655147
27.995222 37.342117 2.492961 0.638726
27.995222 37.342117 1.507040 0.641544
27.995228 37.342113 0.520062 0.660784
33.409447 35.456680 -0.000007 0.532721
40.026241 33.152470 -0.000005 0.538235
43.711426 31.869150 -0.000006 0.334926
46.064117 31.049856 -0.000005 0.332843
47.699322 30.480419 -0.000004 0.323407
48.904076 30.060879 -0.000001 0.339828
28.453619 37.402130 9.442568 0.767157
28.594110 37.352104 8.385054 0.762868
28.407490 37.418556 7.415264 0.774755
28.808559 37.275742 6.351529 0.673407
28.567057 37.361736 5.404284 0.822549
28.580853 37.356827 4.425204 0.745956
28.453684 37.402107 3.459673 0.734314
28.594128 37.352097 2.483771 0.790686
28.808519 37.275757 1.519953 0.510294
28.901949 37.242489 0.563703 0.647059
33.466015 35.617294 -0.000007 0.532108
40.066536 33.266956 -0.000008 0.538358
43.742691 31.957935 -0.000006 0.331985
46.089607 31.122236 -0.000005 0.333946
47.720802 30.541393 -0.000003 0.330882
48.922302 30.113558 -0.000078 0.330392
29.060135 37.402122 9.299624 0.744363
29.183813 37.357105 8.265585 0.678431
28.510689 37.602104 7.408909 0.678431
29.424559 37.269482 6.265241 0.671446
29.087643 37.392109 5.349119 0.678431
29.197556 37.352104 4.377495 0.737500
29.060146 37.402115 3.431640 0.755147
29.197544 37.352108 2.474481 0.774265
29.424536 37.269489 1.529473 0.477206
29.475670 37.250877 0.590082 0.637745
33.523689 35.777519 -0.000007 0.531373
40.107651 33.381153 -0.000008 0.544853
43.774582 32.046497 -0.000006 0.336152
46.115597 31.194437 -0.000006 0.342279
47.742699 30.602219 -0.000003 0.330025
48.941402 30.165928 -0.000020 0.336029
29.778547 37.352001 9.126402 0.761397
29.778572 37.351994 8.144648 0.761152
29.778555 37.351997 7.176687 0.734804
29.778557 37.351997 6.220186 0.733456
29.778557 37.351997 5.272931 0.757353
29.778557 37.351997 4.332782 0.737255
29.778564 37.351997 3.397667 0.752083
29.778566 37.351994 2.465556 0.770343
29.778555 37.351997 1.534444 0.746446
29.778566 37.351994 0.602332 0.753676
33.582497 35.937325 -0.000007 0.542525
40.149567 33.495052 -0.000007 0.538971
43.807083 32.134834 -0.000006 0.332353
46.142101 31.266449 -0.000004 0.339461
47.765022 30.662889 -0.000003 0.335784
48.960648 30.218241 -0.000021 0.336642
30.206251 37.402000 9.030525 0.728676
30.232553 37.392006 8.055907 0.678431
30.232553 37.392006 7.101922 0.678431
30.206278 37.401989 6.163405 0.750490
30.232588 37.391994 5.225657 0.678431
30.232590 37.391994 4.299087 0.678431
30.206270 37.401993 3.378863 0.720833
30.232557 37.392006 2.458833 0.678431
30.232557 37.392006 1.541167 0.678431
30.206274 37.401989 0.621137 0.753309
33.642410 36.096725 -0.000007 0.539951
40.192291 33.608658 -0.000004 0.537255
43.840202 32.222946 -0.000006 0.335539
46.169102 31.338280 -0.000004 0.326716
47.787777 30.723402 -0.000001 0.329044
48.980152 30.270460 -0.000050 0.340809
30.748110 37.401993 8.903809 0.744608
30.773865 37.392006 7.946759 0.678431
30.773869 37.392002 7.009967 0.678431
30.748119 37.401989 6.088368 0.720466
30.773882 37.391998 5.167521 0.678431
30.773886 37.391994 4.257651 0.678431
30.748131 37.401985 3.354011 0.744976
30.773865 37.392006 2.450562 0.678431
30.773867 37.392002 1.549437 0.678431
30.748112 37.401993 0.645987 0.739583
33.703430 36.255699 -0.000006 0.541054
40.235786 33.721966 -0.000004 0.522181
43.873932 32.310822 -0.000006 0.334436
46.196606 31.409918 -0.000003 0.337377
47.810944 30.783756 -0.000002 0.331373
49.000130 30.322502 -0.000049 0.332966
31.638943 37.256237 8.682730 0.690686
31.296040 37.392002 7.841755 0.678431
31.296043 37.391998 6.921505 0.678431
31.347351 37.371685 6.003969 0.738480
31.296049 37.391998 5.111592 0.678431
31.296043 37.391998 4.217789 0.678431
31.270828 37.401985 3.330102 0.747549
31.296047 37.391998 2.442607 0.678431
31.296047 37.391998 1.557393 0.678431
31.270792 37.402000 0.669895 0.741667
33.765564 36.414246 -0.000007 0.530147
40.280060 33.834976 -0.000006 0.542647
43.908279 32.398460 -0.000006 0.334681
46.224606 31.481363 -0.000003 0.339093
47.834534 30.843946 -0.000001 0.333946
49.020702 30.374310 0.000013 0.342647
32.135658 37.256428 8.567224 0.705515
31.923578 37.342113 7.711910 0.633578
31.923576 37.342117 6.812116 0.616054
32.134880 37.256744 5.889172 0.728309
31.923582 37.342113 5.042431 0.641789
32.169537 37.242741 4.146743 0.640686
32.170174 37.242485 3.286170 0.667770
31.923576 37.342117 2.432769 0.624387
31.923576 37.342117 1.567230 0.631495
31.923578 37.342117 0.700764 0.605147
33.828804 36.572353 -0.000007 0.537623
40.325142 33.947662 -0.000005 0.546814
43.943233 32.485859 -0.000006 0.333333
46.253086 31.552618 -0.000006 0.327083
47.858528 30.903976 -0.000004 0.330147
49.041397 30.426065 0.000012 0.334681
32.603012 37.261772 8.459340 0.716667
32.359581 37.362106 7.626355 0.826103
32.318970 37.378845 6.748028 0.721691
32.615910 37.256458 5.823091 0.724142
32.273041 37.397778 5.007629 0.793505
32.560638 37.279240 4.118182 0.643505
32.640324 37.246395 3.264858 0.644485
32.359581 37.362106 2.426287 0.850858
32.383842 37.352104 1.574142 0.716176
32.319122 37.378784 0.718074 0.775245
33.893147 36.730019 -0.000007 0.534681
40.371021 34.060028 -0.000002 0.540196
43.978798 32.573009 -0.000006 0.331985
46.282082 31.623665 -0.000006 0.343873
47.882954 30.963833 -0.000004 0.332353
49.062466 30.477673 0.000014 0.338113
32.834126 37.359901 8.415340 0.742402
32.757519 37.392105 7.549498 0.678431
32.733665 37.402134 6.679996 0.764093
33.079556 37.256733 5.759611 0.699755
32.329300 37.572113 5.009361 0.754779
33.014458 37.284096 4.083982 0.660784
32.852654 37.352116 3.257224 0.740564
32.757507 37.392113 2.420464 0.678431
32.852673 37.352108 1.581225 0.769975
32.733719 37.402111 0.736438 0.734314
33.958588 36.887222 -0.000006 0.545711
40.417683 34.172070 0.000001 0.533211
44.077129 32.633781 0.009996 1.000000
46.311569 31.694510 -0.000006 0.337255
47.907806 31.023512 -0.000002 0.334559
49.083889 30.529133 0.000014 0.330270
33.282860 37.362110 8.312089 0.825613
33.212883 37.392105 7.458966 0.678431
33.189499 37.402126 6.603646 0.740686
33.524315 37.258621 5.698992 0.701348
32.722885 37.602116 4.969030 0.678431
33.568108 37.239853 4.040775 0.637868
33.569283 37.239349 3.222652 0.654902
33.212852 37.392117 2.413606 0.678431
33.306202 37.352104 1.588057 0.743260
33.189526 37.402115 0.757051 0.758456
34.025124 37.043976 -0.000006 0.534314
40.465107 34.283794 0.000001 0.535417
44.113724 32.719994 0.009996 1.000000
46.341553 31.765146 -0.000006 0.339338
47.933067 31.083023 -0.000003 0.337745
49.105782 30.580395 0.000045 0.337868
33.745419 37.352005 8.204750 0.746324
33.745396 37.352013 7.349974 0.730760
33.745388 37.352016 6.507195 0.724265
33.754494 37.348038 5.672924 0.729534
33.745399 37.352013 4.849647 0.745833
33.745399 37.352013 4.031087 0.740809
33.744705 37.352314 3.216947 0.726838
33.745419 37.352005 2.405346 0.729412
33.745396 37.352013 1.594653 0.741912
33.745419 37.352005 0.783091 0.748897
34.092751 37.200256 -0.000007 0.542525
40.513298 34.395187 -0.000001 0.527819
44.089134 32.832943 -0.000006 0.334926
46.372028 31.835571 -0.000006 0.319240
47.958740 31.142353 -0.000002 0.324387
49.127693 30.631651 -0.000017 0.336765
34.080750 37.392002 8.131937 0.678431
34.080750 37.391998 7.287189 0.678431
34.058262 37.402012 6.458778 0.746936
34.118790 37.375065 5.625099 0.114828
34.080765 37.391994 4.816203 0.678431
34.080765 37.391994 4.007249 0.678431
34.405357 37.247475 3.185173 0.709926
34.080750 37.391998 2.400589 0.678431
34.080750 37.391998 1.599411 0.678431
34.058273 37.402008 0.796163 0.736397
34.193665 37.341728 0.002883 0.646691
40.562283 34.506237 -0.000000 0.534926
44.127121 32.919067 -0.000006 0.333088
46.402996 31.905781 -0.000006 0.334314
47.984840 31.201500 -0.000000 0.337255
49.150425 30.682547 0.000048 0.342034
34.494453 37.392002 8.037416 0.678431
34.494453 37.391998 7.205688 0.678431
34.472397 37.402004 6.390044 0.753799
34.494469 37.391991 5.575297 0.678431
34.494469 37.391991 4.772792 0.678431
34.494469 37.391994 3.976308 0.678431
34.793613 37.256294 3.167952 0.695343
34.494453 37.391998 2.394414 0.678431
34.494461 37.391998 1.605585 0.678431
34.472404 37.402004 0.814720 0.736274
34.603416 37.342571 0.033500 0.658824
40.612022 34.616947 -0.000002 0.522549
44.165718 33.004917 -0.000004 0.566299
46.434456 31.975773 -0.000005 0.325735
48.011337 31.260468 -0.000000 0.341544
49.173042 30.733494 -0.000015 0.344608
34.895611 37.391998 7.946052 0.678431
34.895611 37.391998 7.126911 0.678431
34.873970 37.402000 6.323606 0.745588
34.895626 37.391994 5.521193 0.678431
34.895630 37.391991 4.730832 0.678431
34.895622 37.391994 3.946401 0.678431
35.188873 37.256493 3.150301 0.714951
34.895615 37.391998 2.388446 0.678431
34.895615 37.391998 1.611554 0.678431
34.873966 37.402000 0.832657 0.739216
35.003525 37.342136 0.063344 0.638358
40.662552 34.727299 -0.000001 0.543137
44.204903 33.090504 -0.000004 0.531127
46.466400 32.045544 -0.000005 0.336275
48.038239 31.319252 -0.000004 0.332843
49.196247 30.784176 -0.000015 0.337990
35.284828 37.391998 7.857692 0.678431
35.284824 37.392002 7.050724 0.678431
35.263588 37.401997 6.259357 0.750490
35.284836 37.391994 5.468868 0.678431
35.284843 37.391991 4.690251 0.678431
35.478500 37.300865 3.899928 0.923774
35.572571 37.256599 3.133219 0.719363
35.284828 37.391998 2.382674 0.678431
35.284828 37.391998 1.617326 0.678431
35.263580 37.401997 0.850004 0.732476
35.391415 37.341843 0.092180 0.649510
40.713848 34.837296 -0.000001 0.546078
44.244686 33.175808 -0.000003 0.534436
46.498829 32.115089 -0.000005 0.331005
48.065559 31.377842 -0.000003 0.333456
49.219814 30.834692 -0.000013 0.333824
35.757195 37.346710 7.745942 0.650980
35.757195 37.346710 6.954368 0.644363
35.757195 37.346710 6.173908 0.628309
35.757195 37.346710 5.402691 0.648529
35.757198 37.346706 4.638928 0.650613
35.757195 37.346706 3.880897 0.645711
35.757217 37.346699 3.126923 0.667034
35.757332 37.346642 2.375371 0.598284
35.757309 37.346653 1.624629 0.673407
35.757278 37.346668 0.873080 0.651961
35.751678 37.349350 0.118601 0.633824
40.765900 34.946938 -0.000002 0.537132
44.285072 33.260834 -0.000001 0.545588
46.531746 32.184410 -0.000005 0.332721
48.093285 31.436245 -0.000005 0.325980
49.243721 30.885046 -0.000014 0.326593
35.824799 37.491913 7.746524 0.631127
35.824799 37.491917 6.954871 0.633333
35.824783 37.491920 6.174334 0.622794
35.824783 37.491924 5.403040 0.612377
35.824787 37.491920 4.639199 0.642279
35.824783 37.491920 3.881090 0.629657
35.824791 37.491920 3.127039 0.628186
35.824806 37.491913 2.375411 0.614461
35.824760 37.491932 1.624588 0.616667
35.824715 37.491955 0.872956 0.650858
35.824677 37.491974 0.118900 0.666422
40.818710 35.056221 -0.000004 0.529167
44.326042 33.345577 -0.000001 0.506250
46.565140 32.253498 -0.000005 0.328309
48.121418 31.494450 -0.000005 0.326961
49.267986 30.935232 -0.000012 0.299510
35.824715 37.670761 7.766323 0.622304
35.824707 37.670765 6.971943 0.677574
35.824703 37.670769 6.188715 0.643873
35.824699 37.670769 5.414764 0.659314
35.824699 37.670769 4.648292 0.633701
35.824699 37.670769 3.887570 0.619363
35.824703 37.670769 3.130923 0.641176
35.824726 37.670757 2.376704 0.604289
35.824692 37.670776 1.623295 0.649142
35.824654 37.670792 0.869074 0.625858
35.824615 37.670811 0.112421 0.614951
40.872299 35.165119 -0.000004 0.540074
44.367607 33.430031 -0.000000 0.564583
46.599022 32.322350 -0.000005 0.333333
48.149963 31.552456 -0.000005 0.334926
49.292603 30.985243 -0.000011 0.335294
35.824684 37.850830 7.786527 0.646814
35.824673 37.850838 6.989364 0.611765
35.824669 37.850838 6.203393 0.587990
35.824669 37.850838 5.426728 0.674265
35.824665 37.850842 4.657571 0.632230
35.824669 37.850838 3.894184 0.646814
35.824669 37.850838 3.134885 0.619485
35.824699 37.850822 2.378025 0.599877
35.824661 37.850842 1.621975 0.658824
35.824623 37.850861 0.865112 0.619608
35.824600 37.850872 0.105809 0.636397
40.926632 35.273651 -0.000005 0.548162
44.409760 33.514194 0.000001 0.484926
46.633381 32.390965 -0.000005 0.335049
48.178913 31.610258 -0.000004 0.331373
49.317562 31.035086 -0.000011 0.335662
35.824684 38.032158 7.807147 0.647426
35.824673 38.032162 7.007144 0.623162
35.824661 38.032166 6.218372 0.660294
35.824665 38.032166 5.438940 0.673284
35.824665 38.032166 4.667041 0.673774
35.824665 38.032166 3.900934 0.634559
35.824661 38.032166 3.138930 0.634681
35.824692 38.032150 2.379372 0.613480
35.824673 38.032162 1.620628 0.643750
35.824623 38.032188 0.861068 0.616054
35.824638 38.032181 0.099063 0.631250
40.981731 35.381794 -0.000005 0.524020
44.452492 33.598064 0.000001 0.534681
46.668217 32.459335 -0.000006 0.341176
48.208260 31.667862 -0.000005 0.336520
49.342876 31.084747 -0.000009 0.330025
35.824295 38.214996 7.828310 0.649755
35.824295 38.214993 7.025388 0.648897
35.824303 38.214989 6.233739 0.634559
35.824303 38.214989 5.451468 0.658456
35.824303 38.214989 4.676757 0.695221
35.824303 38.214989 3.907859 0.633824
35.824306 38.214989 3.143079 0.623897
35.824287 38.215000 2.380754 0.626471
35.824291 38.214996 1.619246 0.668627
35.824333 38.214973 0.856923 0.687990
35.824368 38.214954 0.092146 0.647672
41.037624 35.489532 -0.000000 0.538480
44.495811 33.681633 0.000000 0.549510
46.703529 32.527466 -0.000006 0.330760
48.238022 31.725250 -0.000002 0.331250
49.368530 31.134235 -0.000008 0.333333
35.824398 38.398911 7.849773 0.630637
35.824394 38.398911 7.043896 0.629902
35.824402 38.398907 6.249331 0.655392
35.824402 38.398907 5.464179 0.643995
35.824402 38.398907 4.686615 0.675858
35.824406 38.398903 3.914886 0.665686
35.824402 38.398907 3.147288 0.606005
35.824394 38.398911 2.382157 0.610662
35.824394 38.398911 1.617843 0.663848
35.824413 38.398903 0.852712 0.668505
35.824379 38.398918 0.085111 0.625368
41.094223 35.596893 -0.000001 0.546078
44.539703 33.764900 -0.000001 0.552941
46.739319 32.595341 -0.000005 0.335417
48.268173 31.782436 -0.000001 0.331005
49.394657 31.183474 0.000029 0.327696
35.824471 38.584217 7.871692 0.675000
35.824467 38.584217 7.062795 0.647304
35.824467 38.584217 6.265255 0.628431
35.824471 38.584217 5.477160 0.623039
35.824471 38.584217 4.696682 0.644363
35.824471 38.584217 3.922061 0.675980
35.824471 38.584213 3.151588 0.624020
35.824471 38.584213 2.383589 0.637010
35.824474 38.584213 1.616412 0.647059
35.824467 38.584217 0.848412 0.672304
35.824532 38.584183 0.077944 0.662255
41.151588 35.703854 0.000000 0.529534
44.584183 33.847855 -0.000001 0.559436
46.775589 32.662968 -0.000005 0.338113
48.298714 31.839417 -0.000005 0.336765
49.421005 31.232594 0.000031 0.332966
35.824417 38.770992 7.894100 0.620956
35.824413 38.770992 7.082115 0.617034
35.824417 38.770988 6.281531 0.658824
35.824417 38.770988 5.490429 0.646691
35.824421 38.770988 4.706973 0.635417
35.824417 38.770988 3.929396 0.613603
35.824417 38.770988 3.155982 0.625613
35.824417 38.770988 2.385052 0.621691
35.824417 38.770988 1.614948 0.639583
35.824421 38.770988 0.844018 0.654289
35.824169 38.771126 0.070580 0.627328
41.209648 35.810432 -0.000005 0.522917
44.629227 33.930504 -0.000003 0.553309
46.812317 32.730343 -0.000005 0.331005
48.329662 31.896173 -0.000004 0.335049
49.447685 31.281534 0.000031 0.335539
35.814445 38.964756 7.919814 0.709069
35.814445 38.964756 7.104287 0.722181
35.814438 38.964760 6.300210 0.798162
35.814445 38.964756 5.505657 0.685907
35.814445 38.964752 4.718783 0.751103
35.814445 38.964756 3.937813 0.733456
35.910549 38.911045 3.155617 0.696324
35.814445 38.964756 2.386732 0.708946
35.814445 38.964756 1.613268 0.699510
35.814445 38.964756 0.838974 0.781127
35.824436 38.959171 0.063124 0.624387
41.268497 35.916588 -0.000004 0.538113
44.674850 34.012840 -0.000005 0.518995
46.849522 32.797459 -0.000005 0.329044
48.361004 31.952719 -0.000004 0.335172
49.474594 31.330353 -0.000003 0.334681
35.759941 39.185471 7.958848 0.678431
35.759941 39.185471 7.137945 0.678431
35.814438 39.154514 6.317161 0.782721
35.759941 39.185471 5.528773 0.678431
35.759945 39.185471 4.736711 0.678431
35.759941 39.185471 3.950591 0.678431
35.910309 39.100052 3.160185 0.704167
35.759941 39.185471 2.389282 0.678431
35.759941 39.185471 1.610718 0.678431
35.814442 39.154510 0.834398 0.788971
35.824211 39.148960 0.055469 0.653554
41.328079 36.022327 -0.000004 0.539093
44.721069 34.094837 -0.000003 0.523039
46.887192 32.864311 -0.000005 0.326593
48.392746 32.009033 -0.000002 0.333211
49.501953 31.378920 -0.000005 0.330882
35.759941 39.377239 7.982722 0.678431
35.759941 39.377239 7.158528 0.678431
35.814442 39.345772 6.334457 0.726716
35.759941 39.377239 5.542910 0.678431
35.759941 39.377239 4.747674 0.678431
35.759941 39.377239 3.958406 0.678431
35.910107 39.290543 3.164845 0.729534
35.759941 39.377239 2.390842 0.678431
35.759941 39.377239 1.609158 0.678431
35.814442 39.345772 0.829728 0.786887
35.824501 39.339966 0.047706 0.676103
41.388390 36.127651 -0.000005 0.528554
44.767849 34.176521 -0.000003 0.555637
46.925335 32.930897 -0.000004 0.338725
48.424458 32.065376 -0.000106 0.322426
49.529659 31.427288 -0.000003 0.327819
35.759941 39.570560 8.007081 0.678431
35.759941 39.570560 7.179531 0.678431
35.814442 39.538589 6.352104 0.782721
35.759941 39.570560 5.557336 0.678431
35.759941 39.570560 4.758862 0.678431
35.759941 39.570564 3.966380 0.678431
35.909870 39.482597 3.169601 0.693627
35.759941 39.570560 2.392433 0.678431
35.759941 39.570560 1.607567 0.678431
35.814445 39.538586 0.824963 0.784436
35.824387 39.532753 0.039747 0.648162
41.449448 36.232548 -0.000004 0.512132
44.815208 34.257866 -0.000002 0.546324
46.963936 32.997215 -0.000004 0.342402
48.457256 32.121090 -0.000037 0.315441
49.557705 31.475460 -0.000002 0.337010
35.759941 39.765472 8.031933 0.678431
35.759941 39.765472 7.200960 0.678431
35.814442 39.732983 6.370110 0.768873
35.774929 39.756538 5.569465 0.113235
35.759945 39.765472 4.770276 0.678431
35.759941 39.765472 3.974514 0.678431
35.910141 39.675934 3.174424 0.685539
35.759945 39.765469 2.394056 0.678431
35.759945 39.765469 1.605943 0.678431
35.814442 39.732983 0.820102 0.773284
35.824322 39.727093 0.031630 0.669976
41.511238 36.337009 -0.000003 0.553064
44.863140 34.338875 0.000002 0.533211
47.002983 33.063274 -0.000006 0.333578
48.490154 32.176743 -0.000039 0.330025
49.586075 31.523441 -0.000002 0.324387
35.759941 39.962013 8.057287 0.678431
35.759941 39.962013 7.222823 0.678431
35.814445 39.929008 6.388480 0.784436
35.811989 39.930496 5.578043 0.747672
35.759941 39.962013 4.781921 0.678431
35.759945 39.962013 3.982815 0.678431
35.905457 39.873886 3.179630 0.699387
35.759941 39.962017 2.395713 0.678431
35.759941 39.962017 1.604287 0.678431
35.814445 39.929008 0.815142 0.784314
35.824314 39.923031 0.023355 0.674020
41.573730 36.441059 -0.000006 0.544976
44.911583 34.419586 -0.000005 0.544853
47.042503 33.129051 -0.000006 0.330637
48.523460 32.232155 -0.000037 0.332966
49.614784 31.571222 -0.000002 0.335049
35.759941 40.160225 8.083158 0.678431
35.759941 40.160225 7.245127 0.678431
35.814442 40.126698 6.407221 0.703431
35.814445 40.126694 5.592895 0.699265
35.759941 40.160225 4.793801 0.678431
35.759945 40.160225 3.991282 0.678431
35.900673 40.073647 3.184944 0.701838
35.759941 40.160225 2.397403 0.678431
35.759941 40.160225 1.602597 0.678431
35.814445 40.126694 0.810082 0.777083
35.824318 40.120621 0.014914 0.624387
41.636955 36.544662 -0.000007 0.528676
44.960640 34.499916 -0.000002 0.517770
47.082493 33.194546 -0.000005 0.334559
48.557285 32.287247 -0.000001 0.343382
49.643829 31.618799 -0.000002 0.341667
35.759945 40.360146 8.109545 0.678431
35.759941 40.360146 7.267880 0.678431
35.814442 40.326092 6.426339 0.709926
35.814438 40.326092 5.608482 0.761397
35.759945 40.360146 4.805921 0.678431
35.759949 40.360146 3.999920 0.678431
35.895798 40.275257 3.190367 0.716544
35.759949 40.360146 2.399127 0.678431
35.759949 40.360146 1.600873 0.678431
35.814445 40.326092 0.804920 0.786520
35.824368 40.319893 0.006308 0.660539
41.700916 36.647812 -0.000007 0.528676
45.010227 34.579926 -0.000005 0.550980
47.122932 33.259762 -0.000004 0.327574
48.591351 32.342190 -0.000001 0.333824
49.673203 31.666176 -0.000002 0.325980
35.759949 40.561813 8.136461 0.678431
35.759945 40.561813 7.291089 0.678431
35.759945 40.561813 6.457587 0.678431
35.814438 40.527229 5.624381 0.756985
35.759949 40.561813 4.818284 0.678431
35.759949 40.561813 4.008732 0.678431
35.814445 40.527229 3.200345 0.775490
35.759949 40.561813 2.400886 0.678431
35.759949 40.561813 1.599114 0.678431
35.814445 40.527229 0.799655 0.728431
35.824409 40.520905 -0.002472 0.634436
41.765594 36.750511 -0.000006 0.544730
45.060387 34.659576 -0.000005 0.538358
47.163826 33.324692 -0.000003 0.329412
48.625668 32.396976 -0.000034 0.340931
49.702904 31.713343 -0.000002 0.339093
35.814442 40.730164 8.147683 0.771936
35.814442 40.730164 7.300764 0.780147
35.814445 40.730160 6.465736 0.770098
35.814438 40.730164 5.640599 0.779044
35.814445 40.730160 4.823436 0.766789
35.814445 40.730160 4.012404 0.768505
35.814445 40.730164 3.205716 0.803922
35.814445 40.730164 2.401619 0.780025
35.814445 40.730160 1.598382 0.776593
35.814445 40.730160 0.794283 0.721446
35.941559 40.648239 -0.000005 0.538971
41.831005 36.852753 -0.000004 0.521324
45.111126 34.738857 0.000000 0.544976
47.205170 33.389336 -0.000003 0.330760
48.660786 32.451260 0.000038 0.334436
49.732941 31.760302 -0.000002 0.336029
35.823872 40.928757 8.172795 0.634069
35.823875 40.928757 7.322416 0.644240
35.823887 40.928749 6.483974 0.650613
35.823875 40.928757 5.655470 0.646324
35.823872 40.928757 4.834970 0.639338
35.823883 40.928749 4.020624 0.632721
35.823895 40.928741 3.210640 0.614338
35.823875 40.928757 2.403259 0.650123
35.823952 40.928703 1.596743 0.675490
35.824165 40.928566 0.789375 0.624387
36.034302 40.791054 -0.000005 0.547549
41.897121 36.954533 -0.000002 0.542647
45.162373 34.817810 -0.000003 0.525490
47.246971 33.453690 -0.000001 0.328309
48.695995 32.505474 0.000039 0.337132
49.763298 31.807053 -0.000002 0.341422
35.066078 41.638786 8.429170 0.800490
34.564144 41.972271 7.673626 0.678431
35.886703 41.093567 6.490941 0.635417
35.809441 41.144897 5.674907 0.782475
34.564148 41.972267 5.022039 0.678431
35.886749 41.093533 4.023758 0.643627
35.886253 41.093864 3.212548 0.646691
34.594147 41.952339 2.429279 0.759804
35.886658 41.093594 1.596114 0.648284
35.886719 41.093552 0.787479 0.639828
36.128048 40.933212 -0.000005 0.528799
41.963917 37.055874 -0.000004 0.546936
45.214188 34.896397 -0.000004 0.546936
47.289215 33.517750 -0.000001 0.333333
48.731590 32.559441 0.000041 0.338603
49.793983 31.853586 -0.000001 0.332108
35.165421 41.787910 8.429271 0.803676
34.564148 42.193478 7.700202 0.678431
34.564148 42.193478 6.802253 0.678431
35.879227 41.306446 5.679636 0.686152
34.564148 42.193478 5.036197 0.678431
34.564148 42.193481 4.164050 0.678431
34.814140 42.024857 3.281759 0.700735
34.594139 42.173248 2.431291 0.762010
35.924133 41.276157 1.594961 0.639216
34.564148 42.193481 0.703426 0.678431
36.222786 41.074715 -0.000004 0.532230
42.031460 37.156712 -0.000001 0.544853
45.266563 34.974609 -0.000001 0.540686
47.331890 33.581528 -0.000004 0.336520
48.767277 32.613342 -0.000030 0.325123
49.824993 31.899906 -0.000001 0.329534
35.266113 41.936142 8.429281 0.792402
34.626556 42.374050 7.710976 0.789583
34.626564 42.374046 6.811327 0.791176
35.907829 41.496750 5.691994 0.717770
34.626564 42.374046 5.041934 0.795098
34.626564 42.374050 4.168139 0.796569
34.814140 42.245609 3.287855 0.711275
34.626564 42.374046 2.432698 0.793015
35.924164 41.485561 1.593036 0.673652
34.626564 42.374046 0.700976 0.793260
36.318497 41.215557 -0.000005 0.542525
42.099659 37.257111 -0.000004 0.518137
45.319466 35.052464 -0.000002 0.517770
47.375027 33.644989 -0.000003 0.329167
48.803616 32.666817 -0.000031 0.322059
49.856319 31.946012 -0.000003 0.333333
35.367828 42.083660 8.429293 0.777206
34.829590 42.457748 7.685146 0.674142
34.829590 42.457745 6.789567 0.654044
35.910248 41.706665 5.709380 0.706985
34.829590 42.457745 5.028175 0.679779
34.829590 42.457745 4.158332 0.634436
34.829590 42.457748 3.293148 0.622917
34.829590 42.457745 2.430741 0.654534
35.924294 41.696907 1.591074 0.657721
34.829590 42.457748 0.706851 0.624755
36.415184 41.355728 -0.000005 0.539093
42.168579 37.357014 -0.000003 0.529289
45.372910 35.129948 -0.000004 0.522181
47.418602 33.708153 -0.000002 0.336029
48.840332 32.720024 -0.000029 0.337500
49.887978 31.991894 -0.000002 0.328554
35.470268 42.230686 8.429395 0.793627
35.146950 42.458759 7.629124 0.666054
35.146954 42.458755 6.742369 0.634681
35.910248 41.920315 5.727558 0.698407
35.146954 42.458759 4.998336 0.620343
35.146957 42.458755 4.137064 0.659804
35.146957 42.458755 3.280405 0.651471
35.146954 42.458759 2.426497 0.625980
35.924313 41.910393 1.589071 0.657598
35.146957 42.458755 0.719595 0.618382
36.512859 41.495216 -0.000005 0.524755
42.238194 37.456436 -0.000004 0.536887
45.426891 35.207058 -0.000005 0.519730
47.462624 33.771004 -0.000000 0.333578
48.877422 32.772976 -0.000027 0.334436
49.919949 32.037552 -0.000001 0.334804
35.574032 42.376778 8.429407 0.738358
35.458061 42.459808 7.574483 0.659681
35.897911 42.144905 6.597907 0.660907
35.910248 42.136074 5.746097 0.695833
35.458054 42.459808 4.969233 0.625980
35.897911 42.144905 4.071964 0.654779
35.458065 42.459805 3.267977 0.658824
35.458061 42.459808 2.422357 0.616912
35.924232 42.126060 1.587025 0.656373
35.897911 42.144905 0.758599 0.659314
36.611504 41.634026 -0.000005 0.532843
42.308510 37.555367 -0.000003 0.550368
45.481426 35.283783 -0.000004 0.514706
47.507065 33.833565 -0.000003 0.335784
48.915169 32.825462 0.000052 0.341667
49.952236 32.082993 -0.000002 0.335172
35.759007 42.463882 8.404591 0.625000
35.758999 42.463886 7.522283 0.691422
35.897812 42.363033 6.621138 0.665686
35.910248 42.353996 5.765007 0.693873
35.759003 42.463886 4.941426 0.653431
35.897812 42.363033 4.082434 0.656005
35.758991 42.463894 3.256103 0.654289
35.759007 42.463882 2.418402 0.655760
35.924202 42.343861 1.584940 0.632966
35.897812 42.363029 0.752326 0.649020
36.711105 41.772141 -0.000005 0.557353
42.379501 37.653809 -0.000004 0.533701
45.536507 35.360107 0.000000 0.537377
47.551956 33.895802 -0.000003 0.329044
48.952984 32.877895 0.000052 0.338971
49.984844 32.128204 -0.000002 0.339338
35.825027 42.636978 8.416853 0.638848
35.825020 42.636982 7.532856 0.633946
35.825005 42.636993 6.661269 0.628431
35.910233 42.574158 5.784297 0.706618
35.825020 42.636982 4.947059 0.655515
35.825012 42.636990 4.100518 0.647917
35.825012 42.636990 3.258508 0.641912
35.824921 42.637054 2.419205 0.670343
35.824738 42.637188 1.580791 0.603554
35.824699 42.637218 0.741472 0.633701
36.811691 41.909546 -0.000005 0.540931
42.451176 37.751759 -0.000005 0.557966
45.592075 35.436085 -0.000004 0.541176
47.597267 33.957733 -0.000005 0.338848
48.990883 32.930271 -0.000024 0.335417
50.017765 32.173183 -0.000002 0.332598
35.833267 42.854160 8.447632 0.721814
35.814438 42.868248 7.564470 0.746936
35.814438 42.868248 6.687901 0.749510
35.910217 42.796597 5.803971 0.686397
35.814438 42.868248 4.963898 0.721446
35.814438 42.868248 4.112520 0.734314
35.814438 42.868248 3.265699 0.783333
35.814438 42.868248 2.421598 0.705760
35.814438 42.868248 1.578401 0.716667
35.814438 42.868244 0.734300 0.793505
36.913223 42.046249 -0.000005 0.520956
42.523560 37.849182 -0.000002 0.517892
45.648209 35.511642 -0.000002 0.524142
47.643021 34.019333 -0.000004 0.334436
49.029434 32.982162 -0.000022 0.345833
50.051003 32.217934 -0.000002 0.347059
35.909752 43.021713 8.457588 0.720711
35.759941 43.135426 7.608600 0.678431
35.759941 43.135422 6.725078 0.678431
35.910187 43.021385 5.824042 0.702451
35.759941 43.135426 4.987404 0.678431
35.759941 43.135422 4.129272 0.678431
35.814438 43.094055 3.272375 0.799877
35.759941 43.135422 2.424942 0.678431
35.759941 43.135422 1.575058 0.678431
35.814438 43.094059 0.727624 0.792770
37.015701 42.182251 -0.000005 0.528922
42.596603 37.946114 -0.000003 0.553309
45.704865 35.586811 -0.000000 0.557353
47.689205 34.080616 -0.000004 0.335172
49.068344 33.033794 -0.000022 0.332475
50.084549 32.262451 -0.000002 0.342524
35.909821 43.248817 8.492127 0.701226
35.759937 43.364243 7.638616 0.678431
35.759941 43.364243 6.750367 0.678431
35.910217 43.248508 5.844502 0.686765
35.759941 43.364239 5.003392 0.678431
35.759941 43.364239 4.140668 0.678431
35.814438 43.322269 3.279185 0.803309
35.759941 43.364235 2.427217 0.678431
35.759941 43.364235 1.572784 0.678431
35.814438 43.322269 0.720815 0.792279
37.119125 42.317528 -0.000005 0.539093
42.670334 38.042519 -0.000000 0.514338
45.762024 35.661598 -0.000003 0.556495
47.735817 34.141571 -0.000002 0.336029
49.107620 33.085144 -0.000018 0.333701
50.118404 32.306732 -0.000001 0.329289
35.910400 43.477982 8.527197 0.731495
35.759941 43.595531 7.669232 0.678431
35.759941 43.595535 6.776162 0.678431
35.910202 43.478134 5.865380 0.709069
35.759941 43.595535 5.019700 0.678431
35.759941 43.595535 4.152292 0.678431
35.814438 43.552956 3.286131 0.801103
35.759941 43.595535 2.429536 0.678431
35.759941 43.595535 1.570464 0.678431
35.814438 43.552956 0.713868 0.792279
37.223492 42.452080 -0.000005 0.539093
42.744698 38.138443 -0.000004 0.539093
45.819721 35.735970 -0.000002 0.542402
47.782860 34.202198 -0.000000 0.334191
49.147236 33.136230 -0.000020 0.337745
50.152569 32.350777 -0.000002 0.329167
35.910275 43.710213 8.563194 0.702941
35.759941 43.829361 7.700463 0.678431
35.759941 43.829361 6.802472 0.678431
35.910133 43.710327 5.886687 0.711397
35.759941 43.829369 5.036335 0.678431
35.759941 43.829365 4.164148 0.678431
35.814438 43.786171 3.293216 0.791422
35.759941 43.829361 2.431902 0.678431
35.759941 43.829361 1.568098 0.678431
35.814438 43.786171 0.706783 0.788235
37.328796 42.585903 -0.000005 0.540564
42.819756 38.233822 -0.000004 0.532598
45.877914 35.809952 -0.000004 0.528186
47.830311 34.262505 -0.000001 0.327819
49.187279 33.186985 -0.000002 0.335172
50.187038 32.394585 -0.000002 0.325858
35.910210 43.944977 8.599894 0.700858
35.759941 44.065800 7.732323 0.678431
35.759941 44.065796 6.829312 0.678431
35.909988 43.945160 5.908437 0.693015
35.759941 44.065796 5.053304 0.678431
35.759941 44.065796 4.176243 0.678431
35.814438 44.021980 3.300444 0.783211
35.759941 44.065796 2.434316 0.678431
35.759941 44.065796 1.565684 0.678431
35.814442 44.021980 0.699556 0.802206
37.435043 42.718979 -0.000005 0.541176
42.895470 38.328682 -0.000005 0.550245
45.936661 35.883503 -0.000001 0.535907
47.877945 34.322670 -0.000057 0.340074
49.227615 33.237507 -0.000002 0.341912
50.221817 32.438145 -0.000001 0.341299
35.910294 44.182266 8.637282 0.688235
35.759941 44.304893 7.764821 0.678431
35.759941 44.304893 6.856691 0.678431
35.909756 44.182709 5.930640 0.693505
35.759941 44.304893 5.070615 0.678431
35.759941 44.304893 4.188581 0.678431
35.814438 44.260448 3.307816 0.801961
35.759941 44.304893 2.436778 0.678431
35.759941 44.304893 1.563222 0.678431
35.814438 44.260445 0.692183 0.782966
37.542206 42.851315 -0.000004 0.536887
42.971851 38.423004 -0.000005 0.513603
45.995876 35.956669 -0.000005 0.573284
47.926552 34.382046 0.000017 0.336765
49.268299 33.287743 -0.000001 0.338480
50.256897 32.481464 -0.000001 0.332475
35.910324 44.422329 8.675446 0.705024
35.759941 44.546738 7.797975 0.678431
35.759937 44.546738 6.884623 0.678431
35.814438 44.501656 5.971595 0.804657
35.759937 44.546741 5.088274 0.678431
35.759941 44.546738 4.201168 0.678431
35.814438 44.501656 3.315338 0.788971
35.759941 44.546738 2.439291 0.678431
35.759941 44.546738 1.560710 0.678431
35.814438 44.501656 0.684662 0.792647
37.650295 42.982903 -0.000004 0.524510
43.048870 38.516808 -0.000007 0.547549
46.055618 36.029411 -0.000005 0.562745
47.975113 34.441467 -0.000018 0.341299
49.309334 33.337704 -0.000002 0.339461
50.292278 32.524540 -0.000001 0.332843
35.909344 44.666019 8.714708 0.711642
35.824448 44.737255 7.813610 0.619853
35.824448 44.737259 6.897795 0.628922
35.824448 44.737259 5.992826 0.644485
35.824444 44.737259 5.096602 0.645343
35.824448 44.737259 4.207104 0.653064
35.824444 44.737259 3.322369 0.596201
35.824444 44.737259 2.440475 0.650000
35.824448 44.737255 1.559525 0.620343
35.824448 44.737259 0.677631 0.630515
37.759293 43.113728 -0.000004 0.523407
43.126587 38.610031 -0.000003 0.546814
46.115883 36.101715 -0.000004 0.540074
48.024384 34.500294 0.000018 0.331618
49.350716 33.387367 -0.000002 0.326716
50.327957 32.567364 -0.000001 0.338358
35.824474 44.983994 8.782356 0.653922
35.824478 44.983994 7.848003 0.636275
35.824478 44.983994 6.926769 0.646078
35.824478 44.983994 6.016446 0.635539
35.824478 44.983994 5.114921 0.674877
35.824478 44.983994 4.220160 0.656005
35.824478 44.983994 3.330191 0.615564
35.824471 44.984001 2.443080 0.656373
35.824467 44.984001 1.556919 0.612010
35.824463 44.984005 0.669807 0.667279
37.869209 43.243790 -0.000004 0.530637
43.204926 38.702736 -0.000004 0.518137
46.176632 36.173618 -0.000005 0.552083
48.073921 34.558899 0.000020 0.333333
49.392441 33.436749 -0.000002 0.331740
50.363937 32.609940 -0.000001 0.345098
35.824539 45.233654 8.823041 0.645221
35.824539 45.233654 7.883083 0.638603
35.824539 45.233650 6.956323 0.619608
35.824539 45.233654 6.040539 0.660784
35.824539 45.233650 5.133606 0.624632
35.824539 45.233654 4.233479 0.647917
35.824539 45.233650 3.338171 0.622181
35.824535 45.233658 2.445738 0.648284
35.824509 45.233681 1.554261 0.658946
35.824509 45.233681 0.661826 0.672917
37.980030 43.373081 -0.000004 0.533333
43.283913 38.794891 -0.000004 0.542034
46.237888 36.245087 -0.000005 0.335049
48.123867 34.617153 0.000022 0.334804
49.434513 33.485832 -0.000002 0.328799
50.400215 32.652264 -0.000001 0.321814
35.824554 45.486370 8.864569 0.664706
35.824562 45.486366 7.918888 0.635417
35.824562 45.486366 6.986488 0.607598
35.824554 45.486370 6.065132 0.641667
35.824558 45.486370 5.152679 0.634436
35.824562 45.486366 4.247072 0.613358
35.824562 45.486366 3.346315 0.633333
35.824554 45.486370 2.448451 0.625123
35.824528 45.486397 1.551548 0.602819
35.824524 45.486401 0.653682 0.666054
38.091743 43.501602 -0.000005 0.547672
43.363541 38.886490 -0.000004 0.530147
46.299644 36.316124 -0.000004 0.336765
48.174213 34.675064 0.000023 0.331373
49.476925 33.534622 -0.000002 0.334681
50.436783 32.694332 -0.000001 0.339828
35.824463 45.742302 8.906981 0.673162
35.824463 45.742302 7.955459 0.623775
35.824467 45.742298 7.017297 0.633701
35.824467 45.742302 6.090248 0.688725
35.824463 45.742302 5.172157 0.635417
35.824463 45.742302 4.260956 0.658824
35.824467 45.742302 3.354634 0.618750
35.824467 45.742302 2.451222 0.622181
35.824463 45.742306 1.548778 0.618750
35.824459 45.742306 0.645365 0.623652
38.204361 43.629330 -0.000004 0.540564
43.443825 38.977516 -0.000000 0.543750
46.412315 36.341965 0.009997 1.000000
48.224972 34.732613 0.000026 0.335907
49.519676 33.583118 -0.000002 0.331127
50.473644 32.736145 -0.000002 0.337990
35.824165 46.001610 8.950329 0.646691
35.824169 46.001602 7.992836 0.666176
35.824165 46.001606 7.048786 0.625245
35.824165 46.001606 6.115919 0.619730
35.824165 46.001606 5.192066 0.629044
35.824165 46.001602 4.275146 0.661152
35.824173 46.001602 3.363135 0.624142
35.824154 46.001617 2.454054 0.619976
35.824203 46.001572 1.545947 0.616789
35.824253 46.001526 0.636869 0.626471
38.317863 43.756271 -0.000003 0.517279
43.524708 39.068008 -0.000003 0.526226
46.474735 36.411789 0.009996 1.000000
48.276123 34.789810 0.000028 0.329902
49.562771 33.631310 -0.000001 0.344730
50.510803 32.777699 -0.000001 0.325368
nan nan nan 0.000000
nan nan nan 0.000000
nan nan nan 0.000000
nan nan nan 0.000000
nan nan nan 0.000000
nan nan nan 0.000000
nan nan nan 0.000000
nan nan nan 0.000000
nan nan nan 0.000000
26.381020 54.886711 -0.000012 0.540074
38.432243 43.882423 -0.000004 0.533578
43.606228 39.157928 -0.000004 0.538725
46.537632 36.481186 0.009993 1.000000
48.368134 34.809708 0.009998 1.000000
49.606194 33.679203 -0.000002 0.331985
50.548244 32.818993 -0.000001 0.345466
nan nan nan 0.000000
nan nan nan 0.000000
nan nan nan 0.000000
nan nan nan 0.000000
nan nan nan 0.000000
nan nan nan 0.000000
nan nan nan 0.000000
nan nan nan 0.000000
nan nan nan 0.000000
26.573402 55.095913 -0.000011 0.531250
38.547508 44.007771 -0.000004 0.539583
43.688393 39.247257 -0.000002 0.552083
46.551579 36.595917 -0.000004 0.331863
48.419811 34.865913 0.009997 1.000000
49.649952 33.726791 -0.000002 0.330882
50.585976 32.860023 -0.000001 0.329044
nan nan nan 0.000000
nan nan nan 0.000000
nan nan nan 0.000000
nan nan nan 0.000000
nan nan nan 0.000000
nan nan nan 0.000000
nan nan nan 0.000000
nan nan nan 0.000000
nan nan nan 0.000000
26.767239 55.303780 -0.000012 0.534926
38.663635 44.132317 -0.000004 0.537132
43.771149 39.336044 -0.000005 0.523407
46.615784 36.664749 -0.000001 0.337500
48.471886 34.921753 0.009998 1.000000
49.694038 33.774075 -0.000003 0.328309
50.623989 32.900795 -0.000002 0.337500
nan nan nan 0.000000
nan nan nan 0.000000
nan nan nan 0.000000
nan nan nan 0.000000
nan nan nan 0.000000
nan nan nan 0.000000
nan nan nan 0.000000
nan nan nan 0.000000
nan nan nan 0.000000
26.962523 55.510277 -0.000012 0.539951
38.780632 44.256039 -0.000004 0.530760
43.854565 39.424202 -0.000001 0.533946
46.680466 36.733131 0.000000 0.330882
48.524345 34.977226 0.009998 1.000000
49.738461 33.821041 -0.000002 0.328309
50.662289 32.941292 -0.000001 0.324510
nan nan nan 0.000000
nan nan nan 0.000000
nan nan nan 0.000000
nan nan nan 0.000000
nan nan nan 0.000000
nan nan nan 0.000000
nan nan nan 0.000000
nan nan nan 0.000000
nan nan nan 0.000000
27.159248 55.715408 -0.000011 0.534804
38.898502 44.378944 -0.000004 0.543750
43.938545 39.511826 -0.000005 0.536520
46.745617 36.801067 0.000001 0.327206
48.577194 35.032337 0.009998 1.000000
49.783207 33.867702 -0.000002 0.335049
50.700874 32.981522 -0.000001 0.340074
nan nan nan 0.000000
nan nan nan 0.000000
nan nan nan 0.000000
nan nan nan 0.000000
nan nan nan 0.000000
nan nan nan 0.000000
nan nan nan 0.000000
nan nan nan 0.000000
nan nan nan 0.000000
27.357384 55.919174 -0.000012 0.535294
39.017220 44.501019 -0.000004 0.537255
44.023155 39.598846 -0.000006 0.521569
46.811203 36.868587 -0.000007 0.337868
48.591160 35.125523 -0.000002 0.341054
49.828278 33.914051 -0.000002 0.341789
50.739731 33.021488 -0.000002 0.342402
nan nan nan 0.000000
nan nan nan 0.000000
nan nan nan 0.000000
nan nan nan 0.000000
nan nan nan 0.000000
nan nan nan 0.000000
nan nan nan 0.000000
nan nan nan 0.000000
nan nan nan 0.000000
27.556961 56.121536 -0.000011 0.535539
39.136787 44.622265 -0.000004 0.530025
44.108395 39.685246 -0.000003 0.552696
46.877308 36.935596 -0.000005 0.332598
48.645050 35.180149 0.000001 0.326838
49.873672 33.960079 -0.000001 0.332598
50.778870 33.061176 -0.000001 0.335049
nan nan nan 0.000000
65.600517 18.214794 4.806465 0.937255
65.645920 18.169081 4.376086 0.937255
62.662716 21.173180 3.309047 0.852819
62.662720 21.173180 3.015221 0.820588
62.662716 21.173180 2.723599 0.826226
62.662716 21.173180 2.433538 0.841054
62.662716 21.173180 2.144410 0.853186
62.662716 21.173180 1.855590 0.856985
62.662716 21.173180 1.566461 0.855515
62.662716 21.173182 1.276401 0.844853
62.662716 21.173180 0.984779 0.827451
62.662716 21.173180 0.690953 0.832966
62.662716 21.173182 0.394259 0.693627
62.662716 21.173182 0.094009 0.698039
62.070568 21.769478 -0.000017 0.502451
nan nan nan 0.000000
65.478905 18.209332 4.788862 0.937255
65.518318 18.169081 4.359785 0.937255
62.576485 21.173182 3.300066 0.832353
62.576485 21.173180 3.008255 0.842647
62.576488 21.173180 2.718634 0.849387
62.576485 21.173182 2.430564 0.817647
62.576488 21.173180 2.143419 0.854412
62.576488 21.173180 1.856581 0.857353
62.576485 21.173182 1.569436 0.853554
62.576485 21.173180 1.281366 0.849510
62.576485 21.173182 0.991745 0.854902
62.576485 21.173182 0.699934 0.825858
62.576485 21.173180 0.405276 0.690196
62.576485 21.173182 0.107086 0.689338
62.030865 21.730350 -0.000013 0.517647
nan nan nan 0.000000
65.356148 18.206676 4.770789 0.937255
65.392456 18.169083 4.343818 0.937255
62.491428 21.173182 3.291269 0.817524
62.491428 21.173180 3.001433 0.807843
62.491428 21.173180 2.713772 0.838480
62.491428 21.173182 2.427651 0.849632
62.491428 21.173182 2.142448 0.839706
62.491428 21.173182 1.857552 0.851471
62.491428 21.173182 1.572349 0.856863
62.491428 21.173180 1.286228 0.849265
62.491428 21.173180 0.998567 0.854412
62.491425 21.173182 0.708731 0.850980
62.491428 21.173182 0.416066 0.805147
62.491428 21.173182 0.119893 0.671324
