# This PCD file was generated using the MATLABÂ® pcwrite function
# from Computer Vision ToolboxÂ®.
# .PCD v.7 - Point Cloud Data file format
VERSION .7
FIELDS x y z intensity
SIZE 4 4 4 4
TYPE F F F F
COUNT 1 1 1 1
WIDTH 1193
HEIGHT 1
VIEWPOINT 0 0 0 1 0 0 0
POINTS 1193
DATA ascii
-2.672955 -14.277332 5.702826 0.738971
-2.672955 -14.277332 4.218520 0.696569
-3.498959 -14.236934 2.725445 0.544118
-3.498959 -14.236934 1.274555 0.555515
-7.115795 -14.060040 0.000003 0.537255
-23.415575 -13.262847 0.000002 0.543505
-30.414049 -12.920565 0.000044 0.536397
-34.311687 -12.729938 0.000066 0.542279
-36.799812 -12.608248 0.000053 0.539583
-38.529160 -12.523668 0.000043 0.557966
-39.803139 -12.461360 0.000000 0.515319
-9.043095 -14.236942 11.717753 0.634681
-9.043018 -14.236946 10.379032 0.542770
-9.043026 -14.236946 9.059084 0.506250
-9.042812 -14.236958 7.754804 0.528922
-9.042809 -14.236958 6.463091 0.547426
-9.043030 -14.236946 5.181050 0.542770
-9.043018 -14.236946 3.905900 0.573284
-9.043179 -14.236938 2.634845 0.564828
-9.043186 -14.236937 1.365156 0.583701
-9.043182 -14.236937 0.094106 0.578676
-23.424515 -13.432896 0.000005 0.531127
-30.420042 -13.041785 0.000003 0.539461
-34.316612 -12.823933 0.000065 0.542157
-36.803825 -12.684876 0.000053 0.503309
-38.532539 -12.588226 0.000042 0.558211
-39.806057 -12.517025 0.000000 0.543873
-12.746136 -14.275345 10.792388 0.571078
-12.677536 -14.279661 9.595974 0.582353
-13.356285 -14.236958 8.275636 0.596446
-13.356297 -14.236957 7.116080 0.634191
-12.677536 -14.279661 6.045974 0.529167
-12.677536 -14.279661 4.883767 0.698529
-12.677544 -14.279661 3.727786 0.706005
-13.356564 -14.236940 2.564384 0.576348
-13.356571 -14.236939 1.435616 0.610049
-13.356583 -14.236939 0.305638 0.656740
-23.434622 -13.602881 0.000006 0.533946
-30.427246 -13.162943 0.000004 0.552696
-34.322189 -12.917893 0.000065 0.554902
-36.808372 -12.761477 0.000053 0.542279
-38.536373 -12.652760 0.000042 0.543015
-39.809361 -12.572670 0.000000 0.548407
-16.808071 -14.236956 9.776520 0.630024
-16.808067 -14.236956 8.705210 0.470221
-16.808037 -14.236958 7.648946 0.615319
-16.808041 -14.236958 6.605185 0.640809
-16.808073 -14.236955 5.571509 0.610417
-16.808075 -14.236955 4.545594 0.635417
-16.808258 -14.236942 3.525164 0.565931
-16.808256 -14.236942 2.508025 0.509804
-16.808258 -14.236942 1.491976 0.460662
-16.808264 -14.236942 0.474836 0.694608
-23.445887 -13.772794 0.000003 0.532353
-30.435280 -13.284047 0.000003 0.546691
-34.328423 -13.011812 0.000064 0.540319
-36.813454 -12.838041 0.000052 0.516422
-38.540657 -12.717263 0.000042 0.505270
-39.813057 -12.628289 0.000000 0.538725
-19.633253 -14.236949 9.070745 0.601348
-19.633142 -14.236958 8.096687 0.478922
-19.633139 -14.236958 7.136278 0.552328
-19.633150 -14.236957 6.187243 0.768873
-19.633253 -14.236948 5.247369 0.493873
-19.633251 -14.236949 4.314563 0.440809
-19.633310 -14.236944 3.386750 0.548529
-19.633310 -14.236944 2.461920 0.814828
-19.633318 -14.236944 1.538080 0.574510
-19.633318 -14.236944 0.613251 0.629902
-23.458368 -13.942621 0.000005 0.523284
-30.444178 -13.405092 0.000004 0.535784
-34.335312 -13.105685 0.000063 0.528799
-36.819073 -12.914570 0.000051 0.536397
-38.545387 -12.781737 0.000041 0.520221
-39.817139 -12.683882 0.000000 0.553309
-21.988289 -14.236952 8.482734 0.598897
-21.988184 -14.236959 7.589682 0.511887
-21.988182 -14.236960 6.709141 0.606250
-21.988287 -14.236952 5.839015 0.657353
-21.988291 -14.236952 4.977316 0.577696
-21.988289 -14.236952 4.122082 0.619853
-21.988323 -14.236948 3.271427 0.583946
-21.988319 -14.236949 2.423506 0.418137
-21.988321 -14.236949 1.576494 0.652206
-21.988323 -14.236948 0.728573 0.597672
-23.471996 -14.112361 0.000002 0.536765
-30.453888 -13.526074 0.000001 0.550123
-34.342861 -13.199508 0.000063 0.546078
-36.825226 -12.991057 0.000052 0.555147
-38.550419 -12.846189 0.000008 0.547549
-39.821609 -12.739444 0.000001 0.540074
-23.981720 -14.236959 7.985303 0.642892
-23.981724 -14.236959 7.160754 0.728554
-23.981728 -14.236959 6.347782 0.629902
-23.981709 -14.236961 5.544442 0.593260
-23.981709 -14.236961 4.748862 0.627328
-23.981712 -14.236960 3.959252 0.625613
-23.981829 -14.236950 3.173864 0.682966
-23.981829 -14.236950 2.391008 0.579044
-23.981829 -14.236950 1.608992 0.695343
-23.981833 -14.236950 0.826135 0.680147
-23.981836 -14.236949 0.040758 0.596446
-30.464474 -13.646982 0.000002 0.533333
-34.351059 -13.293275 0.000063 0.559436
-36.831913 -13.067499 0.000051 0.571324
-38.556053 -12.910590 0.000008 0.528064
-39.826469 -12.794973 0.000000 0.529412
-25.691191 -14.236959 7.559002 0.568995
-25.691191 -14.236959 6.793180 0.585784
-25.183342 -14.286755 6.130963 0.781005
-25.183342 -14.286755 5.367682 0.590564
-25.183342 -14.286755 4.611777 0.723652
-25.183340 -14.286755 3.861545 0.625000
-25.691284 -14.236950 3.090256 0.658946
-25.691280 -14.236951 2.363159 0.537623
-25.691280 -14.236951 1.636840 0.542402
-25.691284 -14.236950 0.909743 0.724387
-25.691280 -14.236951 0.180303 0.567892
-30.475931 -13.767811 0.000006 0.514828
-34.359917 -13.386983 0.000062 0.556373
-36.839142 -13.143892 0.000053 0.527819
-38.562138 -12.974951 0.000008 0.566299
-39.831711 -12.850468 0.000000 0.544240
-27.173405 -14.236959 7.189625 0.540931
-27.173407 -14.236959 6.474689 0.539216
-27.173479 -14.236952 5.769780 0.526471
-27.173477 -14.236952 5.073236 0.514338
-27.173483 -14.236951 4.383421 0.586520
-27.173477 -14.236952 3.698785 0.588480
-27.173481 -14.236951 3.017813 0.628799
-27.173479 -14.236952 2.339028 0.532721
-27.173479 -14.236952 1.660971 0.558946
-27.173479 -14.236952 0.982186 0.614216
-27.173479 -14.236952 0.301215 0.526226
-30.488167 -13.888563 0.000003 0.533946
-34.369423 -13.480626 0.000062 0.540931
-36.846897 -13.220233 0.000052 0.551716
-38.568672 -13.039268 0.000008 0.539951
-39.837345 -12.905924 0.000000 0.584069
-28.470961 -14.236960 6.866503 0.574755
-28.470961 -14.236961 6.196083 0.776961
-27.684439 -14.325184 5.679085 0.703064
-27.684437 -14.325184 4.999298 0.425123
-27.684443 -14.325183 4.326080 0.735294
-28.471020 -14.236954 3.593014 0.359559
-28.471016 -14.236955 2.954442 0.562132
-28.471020 -14.236954 2.317920 0.669608
-28.471020 -14.236954 1.682080 0.451716
-28.471016 -14.236955 1.045558 0.778676
-28.471018 -14.236955 0.406985 0.405515
-30.501295 -14.009222 0.000005 0.541667
-34.379581 -13.574203 0.000061 0.531127
-36.855175 -13.296519 0.000051 0.526226
-38.575653 -13.103537 0.000008 0.557230
-39.843365 -12.961340 0.000000 0.532598
-29.616459 -14.236960 6.581470 0.670588
-29.616503 -14.236956 5.950308 0.628064
-29.616501 -14.236956 5.328018 0.673284
-29.616503 -14.236956 4.713097 0.631863
-29.616501 -14.236956 4.104120 0.692402
-29.616510 -14.236955 3.499711 0.491544
-29.616507 -14.236955 2.898540 0.546078
-29.616510 -14.236955 2.299299 0.728309
-29.616510 -14.236955 1.700701 0.568015
-29.616508 -14.236955 1.101460 0.719485
-29.616510 -14.236955 0.500288 0.739706
-30.515226 -14.129789 0.000003 0.543750
-34.390400 -13.667703 0.000060 0.518382
-36.863995 -13.372745 0.000051 0.515074
-38.583080 -13.167755 0.000007 0.536887
-39.849770 -13.016712 0.000000 0.549020
-30.635263 -14.236960 6.328174 0.550368
-30.185640 -14.293760 5.829797 0.623529
-30.185644 -14.293760 5.226489 0.456740
-30.185642 -14.293760 4.630328 0.731373
-30.185644 -14.293760 4.039928 0.464216
-30.635303 -14.236956 3.416797 0.397426
-30.635300 -14.236956 2.848863 0.664706
-30.635303 -14.236956 2.282752 0.807230
-30.635303 -14.236956 1.717248 0.531005
-30.635303 -14.236956 1.151137 0.638113
-30.635305 -14.236955 0.583203 0.700613
-30.635307 -14.236955 0.012212 0.613358
-34.401871 -13.761127 0.000061 0.540319
-36.873344 -13.448907 0.000051 0.525490
-38.590973 -13.231920 0.000010 0.532843
-39.856567 -13.072039 0.000001 0.530515
-31.547398 -14.236955 6.101597 0.590809
-31.547398 -14.236955 5.536552 0.683333
-31.547396 -14.236955 4.979441 0.557843
-31.547398 -14.236955 4.428927 0.368873
-31.547396 -14.236955 3.883734 0.604167
-31.547394 -14.236956 3.342632 0.417892
-31.547390 -14.236956 2.804427 0.364828
-31.547392 -14.236956 2.267951 0.445956
-31.547392 -14.236956 1.732049 0.871814
-31.547390 -14.236956 1.195572 0.755760
-31.547392 -14.236956 0.657367 0.766544
-31.547392 -14.236956 0.116265 0.671201
-34.413994 -13.854469 0.000061 0.551838
-36.883232 -13.525002 0.000051 0.544608
-38.599297 -13.296030 0.000010 0.526961
-39.863750 -13.127316 0.000002 0.494363
-32.368786 -14.236953 5.897754 0.456985
-32.368786 -14.236953 5.360790 0.686275
-32.368782 -14.236954 4.831366 0.607721
-32.368782 -14.236954 4.308213 0.692034
-32.368786 -14.236953 3.790115 0.618750
-32.368763 -14.236957 3.275907 0.451103
-32.368759 -14.236957 2.764450 0.430392
-32.368763 -14.236956 2.254634 0.350123
-32.368763 -14.236956 1.745366 0.733701
-32.368759 -14.236957 1.235550 0.466544
-32.368763 -14.236956 0.724093 0.664951
-32.368767 -14.236956 0.209883 0.551593
-34.426765 -13.947722 0.000060 0.518995
-36.893456 -13.601051 0.000017 0.546936
-38.608070 -13.360079 0.000010 0.530515
-39.871315 -13.182541 0.000001 0.491544
-32.686737 -14.299813 5.821170 0.551225
-32.686741 -14.299812 5.294757 0.450000
-32.686737 -14.299813 4.775734 0.573407
-32.686741 -14.299813 4.262860 0.527941
-32.686741 -14.299813 3.754942 0.631127
-33.112392 -14.236958 3.215555 0.430515
-33.112392 -14.236958 2.728290 0.430025
-33.112392 -14.236959 2.242590 0.530147
-33.112392 -14.236959 1.757410 0.600123
-33.112392 -14.236959 1.271709 0.507843
-33.112392 -14.236958 0.784444 0.587990
-33.112396 -14.236958 0.294557 0.394853
-34.440182 -14.040888 0.000059 0.545343
-36.904400 -13.677003 0.000017 0.533824
-38.617287 -13.424066 0.000009 0.556863
-39.879265 -13.237713 0.000001 0.563480
-32.706097 -14.404585 5.820299 0.293382
-32.706097 -14.404585 5.294006 0.300858
-32.706100 -14.404585 4.775103 0.243015
-32.706100 -14.404585 4.262344 0.205515
-32.706100 -14.404585 3.754542 0.160784
-33.788898 -14.236959 3.160708 0.755637
-33.788898 -14.236959 2.695429 0.481740
-33.788898 -14.236959 2.231644 0.713235
-33.788898 -14.236959 1.768356 0.766176
-33.788898 -14.236959 1.304571 0.557476
-33.788902 -14.236959 0.839291 0.545221
-33.788902 -14.236959 0.371508 0.392892
-34.454250 -14.133957 0.000058 0.549755
-36.915874 -13.752876 0.000016 0.526348
-38.626953 -13.487988 0.000008 0.523897
-39.887604 -13.292829 0.000002 0.484436
-34.407036 -14.236954 5.392911 0.656250
-34.407036 -14.236954 4.925496 0.613603
-34.407036 -14.236954 4.464643 0.588603
-34.407032 -14.236954 4.009250 0.567770
-34.407005 -14.236959 3.558260 0.607721
-34.407005 -14.236959 3.110651 0.632108
-34.407005 -14.236959 2.665437 0.795956
-34.407005 -14.236959 2.221654 0.753676
-34.407005 -14.236959 1.778346 0.562623
-34.407005 -14.236959 1.334563 0.644730
-34.407005 -14.236959 0.889349 0.857353
-34.407005 -14.236959 0.441740 0.639216
-34.468979 -14.226921 0.000059 0.543873
-36.927887 -13.828665 0.000018 0.540686
-38.637070 -13.551838 0.000009 0.534804
-39.896328 -13.347882 0.000003 0.564461
-34.974068 -14.236955 5.252783 0.549387
-34.974068 -14.236956 4.804672 0.464461
-34.974068 -14.236956 4.362853 0.599265
-34.974068 -14.236956 3.926267 0.685662
-34.974045 -14.236959 3.493903 0.545466
-34.974045 -14.236959 3.064780 0.674877
-34.974045 -14.236959 2.637954 0.602941
-34.974045 -14.236959 2.212499 0.634314
-34.974045 -14.236959 1.787501 0.383456
-34.974049 -14.236959 1.362046 0.694853
-34.974045 -14.236959 0.935220 0.631495
-34.974045 -14.236959 0.506097 0.856250
-34.974045 -14.236959 0.073730 0.472917
-36.940418 -13.904371 0.000018 0.545466
-38.647629 -13.615619 0.000010 0.573529
-39.905434 -13.402877 0.000003 0.552083
-35.496140 -14.236956 5.123919 0.633456
-35.496140 -14.236956 4.693561 0.549632
-35.496140 -14.236957 4.269245 0.795956
-35.496140 -14.236957 3.849955 0.698652
-35.496120 -14.236959 3.434719 0.532353
-35.496124 -14.236959 3.022596 0.799265
-35.496120 -14.236959 2.612680 0.655637
-35.496124 -14.236959 2.204081 0.737868
-35.496124 -14.236959 1.795919 0.624632
-35.496124 -14.236959 1.387319 0.533578
-35.496124 -14.236959 0.977403 0.711152
-35.496120 -14.236959 0.565281 0.650858
-35.496124 -14.236959 0.150043 0.402451
-36.953480 -13.979987 0.000018 0.519363
-38.658630 -13.679323 0.000009 0.551103
-39.914917 -13.457806 0.000002 0.586275
-35.978428 -14.236959 5.005021 0.345466
-35.978428 -14.236959 4.591042 0.489706
-35.978428 -14.236959 4.182877 0.806985
-35.978428 -14.236959 3.779544 0.383824
-35.978416 -14.236960 3.380113 0.718382
-35.978416 -14.236960 2.983675 0.738480
-35.978416 -14.236960 2.589361 0.753554
-35.978416 -14.236960 2.196314 0.735662
-35.978416 -14.236960 1.803686 0.674020
-35.978416 -14.236960 1.410639 0.543505
-35.978416 -14.236960 1.016325 0.382843
-35.978416 -14.236960 0.619888 0.647304
-35.978416 -14.236960 0.220454 0.439216
-36.967064 -14.055510 0.000017 0.511520
-38.670082 -13.742948 0.000010 0.555760
-39.924786 -13.512667 0.000002 0.500368
-36.425385 -14.236959 4.894974 0.634314
-36.425385 -14.236959 4.496155 0.699510
-36.425385 -14.236959 4.102937 0.575000
-36.425385 -14.236959 3.714375 0.820098
-36.425377 -14.236961 3.329570 0.555025
-36.425377 -14.236960 2.947652 0.559436
-36.425377 -14.236960 2.567778 0.481005
-36.425377 -14.236960 2.189124 0.588113
-36.425377 -14.236960 1.810876 0.782843
-36.425377 -14.236960 1.432222 0.568873
-36.425377 -14.236960 1.052348 0.865931
-36.425377 -14.236960 0.670430 0.612745
-36.425381 -14.236960 0.285624 0.493137
-36.981178 -14.130936 0.000017 0.554534
-38.681973 -13.806492 0.000009 0.558701
-39.935036 -13.567457 0.000002 0.507108
-36.840786 -14.236959 4.792831 0.342034
-36.840786 -14.236960 4.408086 0.803309
-36.840782 -14.236960 4.028741 0.538603
-36.840786 -14.236959 3.653888 0.555760
-36.840782 -14.236960 3.282660 0.612745
-36.840782 -14.236960 2.914216 0.751471
-36.840782 -14.236960 2.547745 0.694730
-36.840782 -14.236960 2.182451 0.396324
-36.840782 -14.236960 1.817549 0.268995
-36.840782 -14.236960 1.452255 0.595956
-36.840782 -14.236960 1.085784 0.530270
-36.840782 -14.236960 0.717341 0.436642
-36.840786 -14.236960 0.346112 0.838235
-36.995827 -14.206261 0.000018 0.550858
-38.694305 -13.869953 0.000009 0.569240
-39.945679 -13.622174 0.000003 0.580637
-37.212540 -14.240110 4.701705 0.708211
-37.212540 -14.240110 4.329513 0.431863
-37.212540 -14.240110 3.962545 0.740564
-37.212540 -14.240110 3.599924 0.710907
-37.212540 -14.240110 3.240808 0.419118
-37.212540 -14.240110 2.884386 0.806127
-37.212540 -14.240110 2.529873 0.416789
-37.212540 -14.240110 2.176498 0.646569
-37.212540 -14.240110 1.823502 0.607476
-37.212540 -14.240109 1.470127 0.739828
-37.212540 -14.240110 1.115614 0.706618
-37.212540 -14.240110 0.759192 0.346569
-37.212540 -14.240110 0.400076 0.802941
-37.212543 -14.240109 0.037455 0.503309
-38.707096 -13.933322 0.000011 0.512868
-39.956703 -13.676814 0.000004 0.524510
-37.212540 -14.317091 4.705649 0.675735
-37.212536 -14.317092 4.332912 0.464706
-37.212540 -14.317091 3.965409 0.562623
-37.212540 -14.317091 3.602259 0.456618
-37.212540 -14.317091 3.242619 0.508701
-37.212540 -14.317091 2.885677 0.528186
-37.212540 -14.317091 2.530646 0.333088
-37.212540 -14.317091 2.176756 0.646936
-37.212540 -14.317091 1.823244 0.425613
-37.212540 -14.317091 1.469354 0.570588
-37.212540 -14.317091 1.114323 0.418750
-37.212540 -14.317091 0.757381 0.455025
-37.212540 -14.317091 0.397741 0.496324
-37.212543 -14.317091 0.034591 0.406740
-38.720314 -13.996604 0.000011 0.521446
-39.968105 -13.731378 0.000005 0.519118
-37.212540 -14.394301 4.709735 0.640319
-37.212540 -14.394301 4.336436 0.516176
-37.212540 -14.394301 3.968378 0.807108
-37.212540 -14.394301 3.604680 0.788235
-37.212540 -14.394301 3.244496 0.472426
-37.212540 -14.394301 2.887014 0.739461
-37.212540 -14.394301 2.531448 0.501103
-37.212540 -14.394301 2.177022 0.600735
-37.212540 -14.394301 1.822977 0.443382
-37.212540 -14.394301 1.468552 0.805637
-37.212540 -14.394301 1.112985 0.801961
-37.212540 -14.394301 0.755504 0.495833
-37.212540 -14.394301 0.395321 0.739461
-37.212540 -14.394301 0.031622 0.654167
-38.733978 -14.059792 0.000012 0.546078
-39.979885 -13.785861 0.000005 0.541299
-37.212540 -14.471748 4.713967 0.490441
-37.212540 -14.471749 4.340085 0.668873
-37.212540 -14.471748 3.971452 0.552696
-37.212540 -14.471748 3.607185 0.774755
-37.212540 -14.471748 3.246439 0.502451
-37.212540 -14.471748 2.888400 0.526471
-37.212540 -14.471748 2.532278 0.558333
-37.212540 -14.471748 2.177299 0.541912
-37.212540 -14.471748 1.822701 0.468505
-37.212540 -14.471748 1.467722 0.548284
-37.212540 -14.471748 1.111600 0.801225
-37.212540 -14.471748 0.753561 0.552696
-37.212540 -14.471748 0.392815 0.581005
-37.212540 -14.471748 0.028548 0.693382
-38.748077 -14.122883 0.000012 0.563971
-39.992039 -13.840261 0.000004 0.537010
-37.212540 -14.549441 4.718345 0.342770
-37.212540 -14.549442 4.343860 0.574142
-37.212540 -14.549441 3.974632 0.448284
-37.212540 -14.549441 3.609778 0.724265
-37.212540 -14.549441 3.248450 0.563480
-37.212540 -14.549441 2.889833 0.509804
-37.212540 -14.549442 2.533137 0.392157
-37.212540 -14.549441 2.177585 0.628676
-37.212540 -14.549441 1.822415 0.496446
-37.212540 -14.549441 1.466863 0.431863
-37.212540 -14.549441 1.110167 0.630760
-37.212540 -14.549441 0.751550 0.773775
-37.212540 -14.549441 0.390222 0.496936
-37.212540 -14.549440 0.025368 0.568260
-38.762623 -14.185873 0.000011 0.517892
-40.004578 -13.894574 0.000004 0.546201
-37.212540 -14.627388 4.722870 0.532475
-37.212540 -14.627389 4.347762 0.807843
-37.212540 -14.627388 3.977919 0.621569
-37.212540 -14.627388 3.612458 0.776716
-37.212540 -14.627388 3.250528 0.777574
-37.212540 -14.627388 2.891314 0.581495
-37.212540 -14.627388 2.534024 0.428676
-37.212540 -14.627388 2.177881 0.719608
-37.212540 -14.627388 1.822119 0.544730
-37.212540 -14.627388 1.465976 0.645343
-37.212540 -14.627388 1.108686 0.673652
-37.212540 -14.627388 0.749472 0.654167
-37.212540 -14.627388 0.387542 0.576838
-37.212540 -14.627388 0.022081 0.776471
-38.777596 -14.248761 0.000010 0.557108
-40.017498 -13.948797 0.000004 0.537500
-37.212540 -14.705602 4.727543 0.413603
-37.212540 -14.705602 4.351790 0.805147
-37.212540 -14.705602 3.981314 0.667892
-37.212540 -14.705602 3.615225 0.791299
-37.212540 -14.705602 3.252675 0.661887
-37.212540 -14.705602 2.892844 0.584069
-37.212540 -14.705602 2.534940 0.415074
-37.212540 -14.705601 2.178186 0.625735
-37.212540 -14.705601 1.821814 0.403064
-37.212540 -14.705602 1.465060 0.631495
-37.212540 -14.705602 1.107156 0.709436
-37.212540 -14.705602 0.747326 0.590074
-37.212540 -14.705601 0.384775 0.582721
-37.212540 -14.705601 0.018686 0.753186
-38.793022 -14.311543 0.000011 0.546691
-40.030800 -14.002930 0.000006 0.532721
-37.212540 -14.784085 4.732366 0.542034
-37.212540 -14.784086 4.355949 0.829167
-37.212540 -14.784085 3.984817 0.614706
-37.212540 -14.784085 3.618081 0.493750
-37.212540 -14.784085 3.254889 0.584069
-37.212540 -14.784085 2.894423 0.519730
-37.212540 -14.784085 2.535886 0.395466
-37.212540 -14.784085 2.178501 0.697917
-37.212540 -14.784085 1.821499 0.462990
-37.212540 -14.784084 1.464114 0.614216
-37.212540 -14.784085 1.105577 0.877083
-37.212540 -14.784084 0.745111 0.570098
-37.212540 -14.784084 0.381919 0.566422
-37.212540 -14.784084 0.015183 0.867892
-38.808884 -14.374213 0.000012 0.533088
-40.044479 -14.056967 0.000007 0.564338
-37.212540 -14.862852 4.737339 0.779289
-37.212540 -14.862852 4.360238 0.604412
-37.212540 -14.862852 3.988430 0.801961
-37.212540 -14.862852 3.621026 0.687377
-37.212540 -14.862852 3.257173 0.287255
-37.212540 -14.862852 2.896051 0.707843
-37.212540 -14.862852 2.536862 0.381127
-37.212540 -14.862852 2.178826 0.405760
-37.212540 -14.862852 1.821174 0.542647
-37.212540 -14.862852 1.463138 0.737623
-37.212540 -14.862852 1.103949 0.772549
-37.212540 -14.862852 0.742827 0.289583
-37.212543 -14.862851 0.378974 0.648407
-37.212543 -14.862851 0.011571 0.473407
-38.825180 -14.436774 0.000012 0.548162
-40.058525 -14.110909 0.000006 0.537500
-37.212540 -14.941909 4.742464 0.831250
-37.212540 -14.941909 4.364656 0.485662
-37.212540 -14.941910 3.992153 0.686275
-37.212540 -14.941908 3.624061 0.501103
-37.212540 -14.941909 3.259527 0.547304
-37.212540 -14.941909 2.897728 0.802328
-37.212540 -14.941909 2.537867 0.379044
-37.212540 -14.941909 2.179161 0.578799
-37.212540 -14.941909 1.820839 0.501471
-37.212540 -14.941909 1.462133 0.704657
-37.212540 -14.941909 1.102271 0.698775
-37.212540 -14.941909 0.740473 0.346078
-37.212540 -14.941908 0.375939 0.828186
-37.212540 -14.941909 0.007847 0.543015
-38.841919 -14.499216 0.000013 0.564951
-40.072956 -14.164750 0.000007 0.570466
-37.212540 -15.021266 4.747743 0.762745
-37.212540 -15.021267 4.369208 0.862377
-37.212540 -15.021267 3.995987 0.783701
-37.212540 -15.021267 3.627187 0.587010
-37.212540 -15.021267 3.261951 0.764216
-37.212540 -15.021267 2.899456 0.872181
-37.212540 -15.021266 2.538902 0.425245
-37.212540 -15.021267 2.179506 0.572917
-37.212540 -15.021267 1.820494 0.507721
-37.212540 -15.021266 1.461098 0.776471
-37.212540 -15.021266 1.100543 0.848897
-37.212540 -15.021266 0.738049 0.366667
-37.212540 -15.021266 0.372813 0.859681
-37.212540 -15.021266 0.004013 0.634314
-38.859081 -14.561543 0.000012 0.522794
-40.087757 -14.218491 0.000007 0.572304
-37.212540 -15.100935 4.753177 0.542157
-37.212540 -15.100935 4.373894 0.532353
-37.212540 -15.100934 3.999935 0.746691
-37.212540 -15.100934 3.630405 0.363358
-37.212540 -15.100934 3.264447 0.852083
-37.212540 -15.100934 2.901235 0.737868
-37.212540 -15.100934 2.539968 0.424020
-37.212540 -15.100934 2.179861 0.427941
-37.212540 -15.100934 1.820139 0.868015
-37.212540 -15.100933 1.460032 0.634436
-37.212540 -15.100933 1.098765 0.835417
-37.212540 -15.100934 0.735553 0.491789
-37.212540 -15.100934 0.369595 0.674632
-37.212540 -15.100933 0.000066 0.372917
-38.876678 -14.623750 0.000011 0.546324
-40.102936 -14.272126 0.000007 0.464706
-37.212540 -15.180922 4.758767 0.795343
-37.212540 -15.180923 4.378713 0.738971
-37.212540 -15.180922 4.003995 0.552574
-37.212540 -15.180922 3.633715 0.365809
-37.212540 -15.180922 3.267014 0.716054
-37.212540 -15.180922 2.903064 0.869976
-37.212540 -15.180922 2.541064 0.687132
-37.212540 -15.180922 2.180226 0.461029
-37.212540 -15.180922 1.819774 0.643015
-37.212540 -15.180922 1.458936 0.500858
-37.212540 -15.180922 1.096935 0.863971
-37.212540 -15.180922 0.732986 0.584314
-37.212540 -15.180922 0.366285 0.934559
-37.212540 -15.180922 -0.003995 0.433333
-38.894714 -14.685831 0.000011 0.536887
-40.118488 -14.325655 0.000007 0.520711
-37.212540 -15.261238 4.764514 0.806985
-37.212540 -15.261238 4.383669 0.708333
-37.212540 -15.261238 4.008170 0.626103
-37.212540 -15.261238 3.637119 0.495466
-37.212540 -15.261238 3.269654 0.609436
-37.212540 -15.261238 2.904946 0.902696
-37.212540 -15.261238 2.542191 0.605025
-37.212540 -15.261237 2.180602 0.457475
-37.212540 -15.261237 1.819399 0.609804
-37.212540 -15.261238 1.457809 0.602696
-37.212540 -15.261238 1.095054 0.648652
-37.212540 -15.261238 0.730346 0.564706
-37.212540 -15.261237 0.362881 0.776593
-37.255630 -15.248227 0.000020 0.555882
-38.913200 -14.747778 0.000015 0.523039
-40.134418 -14.379070 0.000009 0.531618
-37.212540 -15.341896 4.770422 0.674265
-37.212540 -15.341896 4.388762 0.606373
-37.212540 -15.341896 4.012461 0.576716
-37.212540 -15.341896 3.640617 0.704657
-37.212540 -15.341896 3.272367 0.581495
-37.212540 -15.341896 2.906880 0.677083
-37.212540 -15.341896 2.543350 0.528186
-37.212540 -15.341896 2.180987 0.610417
-37.212540 -15.341896 1.819013 0.632843
-37.212540 -15.341896 1.456650 0.524387
-37.212540 -15.341896 1.093120 0.655270
-37.212540 -15.341895 0.727633 0.752819
-37.212540 -15.341895 0.359383 0.577941
-37.278069 -15.321611 0.000021 0.553309
-38.932102 -14.809602 0.000015 0.519240
-40.150719 -14.432377 0.000009 0.568750
-37.212540 -15.422900 4.776489 0.461642
-37.212540 -15.422899 4.393993 0.671324
-37.212540 -15.422899 4.016869 0.357108
-37.212540 -15.422900 3.644211 0.586029
-37.212540 -15.422899 3.275154 0.570833
-37.212540 -15.422899 2.908866 0.807476
-37.212540 -15.422899 2.544540 0.459191
-37.212540 -15.422900 2.181384 0.673284
-37.212540 -15.422900 1.818616 0.837745
-37.212540 -15.422899 1.455460 0.724632
-37.212540 -15.422899 1.091134 0.658701
-37.212540 -15.422899 0.724847 0.758088
-37.212540 -15.422899 0.355790 0.720588
-37.301018 -15.394833 0.000021 0.536152
-38.951435 -14.871289 0.000015 0.556618
-40.167381 -14.485569 0.000008 0.528064
-37.212540 -15.504266 4.782720 0.461887
-37.212540 -15.504265 4.399366 0.644118
-37.212540 -15.504265 4.021395 0.557353
-37.212540 -15.504265 3.647900 0.626103
-37.212540 -15.504265 3.278015 0.363603
-37.212540 -15.504265 2.910905 0.620711
-37.212540 -15.504265 2.545762 0.472059
-37.212540 -15.504266 2.181791 0.661765
-37.212540 -15.504265 1.818209 0.715931
-37.212540 -15.504265 1.454238 0.390931
-37.212540 -15.504265 1.089094 0.349632
-37.212540 -15.504265 0.721985 0.888603
-37.212540 -15.504265 0.352101 0.389338
-37.324478 -15.467895 0.000021 0.533211
-38.971199 -14.932842 0.000015 0.542647
-40.184425 -14.538641 0.000008 0.514951
-37.212540 -15.586002 4.789115 0.409191
-37.212540 -15.586002 4.404880 0.249020
-37.212540 -15.586002 4.026040 0.448039
-37.212540 -15.586002 3.651687 0.569975
-37.212540 -15.586001 3.280952 0.460049
-37.212540 -15.586002 2.912999 0.649510
-37.212540 -15.586002 2.547016 0.499387
-37.212540 -15.586002 2.182209 0.618260
-37.212540 -15.586002 1.817792 0.773652
-37.212540 -15.586002 1.452984 0.779044
-37.212540 -15.586001 1.087001 0.611887
-37.212540 -15.586001 0.719048 0.933088
-37.212540 -15.586001 0.348313 0.382843
-37.348442 -15.540793 0.000020 0.534681
-38.991379 -14.994260 0.000013 0.552328
-40.201839 -14.591594 0.000009 0.562377
-37.212540 -15.668118 4.795675 0.721446
-37.212540 -15.668118 4.410537 0.453309
-37.212540 -15.668118 4.030806 0.444608
-37.212540 -15.668118 3.655572 0.708824
-37.212540 -15.668118 3.283965 0.574020
-37.212540 -15.668117 2.915147 0.481250
-37.212540 -15.668118 2.548302 0.694730
-37.212540 -15.668117 2.182637 0.575980
-37.212540 -15.668117 1.817363 0.836642
-37.212540 -15.668118 1.451697 0.465686
-37.212540 -15.668117 1.084853 0.620098
-37.212540 -15.668118 0.716035 0.606985
-37.212540 -15.668117 0.344428 0.322794
-37.372917 -15.613521 0.000020 0.518627
-39.012001 -15.055530 0.000014 0.541544
-40.219620 -14.644423 0.000009 0.510294
-37.212540 -15.750625 4.802402 0.406740
-37.212540 -15.750626 4.416338 0.505882
-37.212540 -15.750625 4.035693 0.473652
-37.212540 -15.750625 3.659556 0.659681
-37.212540 -15.750626 3.287055 0.756618
-37.212540 -15.750625 2.917349 0.347059
-37.212540 -15.750625 2.549622 0.682230
-37.212540 -15.750625 2.183077 0.609069
-37.212540 -15.750625 1.816923 0.440441
-37.212540 -15.750625 1.450377 0.379534
-37.212540 -15.750625 1.082651 0.711029
-37.212540 -15.750625 0.712945 0.403431
-37.212540 -15.750624 0.340444 0.281740
-37.397888 -15.686079 0.000019 0.543382
-39.033047 -15.116656 0.000013 0.540319
-40.237762 -14.697130 0.000009 0.537745
-37.212540 -15.833533 4.809301 0.646569
-37.212540 -15.833533 4.422286 0.754902
-37.212540 -15.833534 4.040704 0.751348
-37.212540 -15.833533 3.663642 0.674020
-37.212540 -15.833532 3.290223 0.702328
-37.212540 -15.833533 2.919607 0.348652
-37.212540 -15.833533 2.550975 0.615196
-37.212540 -15.833533 2.183527 0.782721
-37.212540 -15.833533 1.816473 0.807721
-37.212540 -15.833532 1.449025 0.556495
-37.212540 -15.833532 1.080393 0.713726
-37.212540 -15.833532 0.709777 0.919485
-37.212540 -15.833532 0.336359 0.757108
-37.423378 -15.758457 0.000019 0.506250
-39.054527 -15.177630 0.000015 0.531985
-40.256275 -14.749707 0.000008 0.553922
-37.212540 -15.916856 4.816372 0.652206
-37.212540 -15.916856 4.428382 0.618260
-37.212540 -15.916856 4.045839 0.679534
-37.212540 -15.916856 3.667828 0.538358
-37.212540 -15.916855 3.293470 0.730147
-37.212540 -15.916855 2.921921 0.523284
-37.212540 -15.916856 2.552361 0.731250
-37.212540 -15.916855 2.183989 0.553922
-37.212540 -15.916855 1.816011 0.807353
-37.212540 -15.916855 1.447638 0.461029
-37.212540 -15.916855 1.078079 0.718505
-37.212540 -15.916855 0.706530 0.756373
-37.212540 -15.916855 0.332172 0.773529
-37.449371 -15.830656 0.000019 0.531863
-39.076424 -15.238457 0.000014 0.581250
-40.275154 -14.802155 0.000007 0.510049
-37.212540 -16.000603 4.823615 0.805882
-37.212540 -16.000603 4.434628 0.460049
-37.212540 -16.000603 4.051102 0.708824
-37.212540 -16.000603 3.672118 0.429779
-37.212540 -16.000603 3.296797 0.592279
-37.212540 -16.000601 2.924292 0.378186
-37.212540 -16.000601 2.553782 0.422549
-37.212540 -16.000601 2.184462 0.595833
-37.212540 -16.000601 1.815538 0.633701
-37.212540 -16.000601 1.446217 0.472059
-37.212543 -16.000601 1.075707 0.799265
-37.212540 -16.000601 0.703203 0.459559
-37.212540 -16.000601 0.327882 0.694485
-37.475872 -15.902669 0.000020 0.531495
-39.098747 -15.299128 0.000014 0.555637
-40.294399 -14.854468 0.000007 0.504289
-37.212540 -16.084785 4.831035 0.790809
-37.212540 -16.084785 4.441025 0.677451
-37.212540 -16.084785 4.056490 0.869240
-37.212540 -16.084785 3.676512 0.533824
-37.212540 -16.084785 3.300205 0.599020
-37.212540 -16.084785 2.926721 0.523407
-37.212540 -16.084785 2.555238 0.776471
-37.212540 -16.084785 2.184947 0.544363
-37.212540 -16.084785 1.815053 0.764338
-37.212540 -16.084785 1.444762 0.628554
-37.212540 -16.084785 1.073279 0.794976
-37.212540 -16.084785 0.699796 0.713235
-37.212540 -16.084784 0.323489 0.932598
-37.502869 -15.974499 0.000019 0.525000
-39.121483 -15.359644 0.000012 0.532230
-40.314018 -14.906643 0.000009 0.542892
-37.212540 -16.169415 4.838631 0.826961
-37.212540 -16.169415 4.447575 0.748162
-37.212540 -16.169415 4.062009 0.873162
-37.212540 -16.169415 3.681010 0.900858
-37.212536 -16.169415 3.303693 0.525735
-37.212540 -16.169415 2.929208 0.493382
-37.212540 -16.169415 2.556727 0.773529
-37.212540 -16.169415 2.185443 0.593873
-37.212540 -16.169415 1.814557 0.868137
-37.212540 -16.169415 1.443272 0.595833
-37.212540 -16.169415 1.070792 0.768382
-37.212540 -16.169415 0.696306 0.753922
-37.212540 -16.169415 0.318990 0.868627
-37.530369 -16.046137 0.000019 0.537868
-39.144653 -15.419997 0.000013 0.524020
-40.333996 -14.958681 0.000009 0.552574
-37.212540 -16.254505 4.846409 0.772917
-37.212540 -16.254505 4.454281 0.786029
-37.212540 -16.254505 4.067658 0.845833
-37.212540 -16.254505 3.685616 0.427206
-37.212540 -16.254507 3.307265 0.551838
-37.212540 -16.254505 2.931754 0.368873
-37.212540 -16.254505 2.558253 0.443015
-37.212540 -16.254505 2.185951 0.580760
-37.212540 -16.254505 1.814049 0.736152
-37.212540 -16.254505 1.441747 0.226961
-37.212540 -16.254505 1.068246 0.771691
-37.212540 -16.254505 0.692735 0.787377
-37.212540 -16.254505 0.314384 0.844363
-37.558380 -16.117579 0.000022 0.602819
-39.168251 -15.480185 0.000015 0.532843
-40.354340 -15.010579 0.000010 0.569853
-37.212540 -16.340067 4.854367 0.699265
-37.212540 -16.340067 4.461143 0.807843
-37.212540 -16.340067 4.073441 0.740074
-37.212540 -16.340067 3.690330 0.345833
-37.212540 -16.340067 3.310921 0.567034
-37.212540 -16.340067 2.934359 0.627574
-37.212540 -16.340067 2.559814 0.391422
-37.212540 -16.340067 2.186471 0.527696
-37.212540 -16.340065 1.813529 0.776716
-37.212540 -16.340067 1.440186 0.349265
-37.212540 -16.340067 1.065641 0.703799
-37.212540 -16.340067 0.689080 0.807843
-37.212540 -16.340067 0.309671 0.739461
-37.586868 -16.188828 0.000021 0.577083
-39.192261 -15.540207 0.000015 0.585417
-40.375042 -15.062333 0.000011 0.522426
-36.982536 -16.520914 4.924826 0.678431
-36.982536 -16.520914 4.521895 0.678431
-36.982536 -16.520912 4.124621 0.678431
-36.982536 -16.520914 3.732054 0.610172
-37.212540 -16.426113 3.314661 0.455270
-37.212540 -16.426113 2.937025 0.353799
-37.212540 -16.426113 2.561411 0.771691
-37.212540 -16.426113 2.187003 0.433211
-37.212540 -16.426113 1.812997 0.646936
-37.212540 -16.426113 1.438589 0.247181
-37.212540 -16.426113 1.062975 0.358824
-37.212540 -16.426113 0.685339 0.775245
-37.212540 -16.426113 0.304848 0.405392
-37.615864 -16.259874 0.000021 0.558946
-39.216690 -15.600061 0.000016 0.559191
-40.396107 -15.113941 0.000012 0.552083
-36.982536 -16.609339 4.933338 0.678431
-36.982540 -16.609337 4.529234 0.678431
-36.982536 -16.609339 4.130805 0.678431
-36.982536 -16.609337 3.737094 0.585784
-37.212540 -16.512655 3.318487 0.398162
-37.212540 -16.512653 2.939752 0.362500
-37.212540 -16.512653 2.563045 0.618873
-37.212540 -16.512653 2.187547 0.485784
-37.212540 -16.512653 1.812452 0.609191
-37.212540 -16.512653 1.436955 0.310784
-37.212540 -16.512653 1.060248 0.630515
-37.212540 -16.512653 0.681513 0.737990
-37.212540 -16.512653 0.299915 0.479167
-37.645348 -16.330719 0.000020 0.535049
-39.241528 -15.659746 0.000015 0.567524
-40.417526 -15.165401 0.000012 0.568015
-36.982536 -16.698288 4.942043 0.678431
-36.982536 -16.698286 4.536740 0.678431
-36.982536 -16.698286 4.137129 0.678431
-36.982536 -16.698288 3.742250 0.622917
-37.212540 -16.599709 3.322400 0.482966
-37.212540 -16.599709 2.942541 0.603554
-37.212540 -16.599709 2.564716 0.468873
-37.212540 -16.599709 2.188104 0.659314
-37.212540 -16.599709 1.811896 0.789461
-37.212540 -16.599709 1.435284 0.265319
-37.212540 -16.599709 1.057459 0.621324
-37.212540 -16.599709 0.677600 0.703922
-37.212540 -16.599707 0.294870 0.610294
-37.675339 -16.401352 0.000021 0.558946
-39.266785 -15.719255 0.000014 0.543137
-40.439308 -15.216713 0.000011 0.519118
-36.982540 -16.787767 4.950945 0.678431
-36.982536 -16.787769 4.544416 0.678431
-36.982536 -16.787767 4.143595 0.678431
-36.982536 -16.787769 3.747521 0.678431
-37.212536 -16.687284 3.326401 0.541422
-37.212540 -16.687283 2.945393 0.682721
-37.212540 -16.687283 2.566424 0.550735
-37.212540 -16.687283 2.188673 0.677206
-37.212540 -16.687283 1.811327 0.795833
-37.212540 -16.687283 1.433575 0.324265
-37.212540 -16.687283 1.054607 0.356005
-37.212540 -16.687283 0.673599 0.784191
-37.212540 -16.687283 0.289710 0.613971
-37.705814 -16.471775 0.000021 0.522917
-39.292461 -15.778587 0.000014 0.562010
-40.461441 -15.267873 0.000010 0.540686
-36.982536 -16.877796 4.960045 0.678431
-36.982536 -16.877796 4.552263 0.678431
-36.982536 -16.877796 4.150206 0.678431
-36.982536 -16.877796 3.752911 0.678431
-37.212540 -16.775394 3.330492 0.583578
-37.212540 -16.775393 2.948308 0.410294
-37.212540 -16.775393 2.568172 0.321078
-37.212540 -16.775393 2.189255 0.606495
-37.212540 -16.775393 1.810745 0.774510
-37.212540 -16.775393 1.431829 0.841422
-37.212540 -16.775393 1.051692 0.452206
-37.212540 -16.775393 0.669508 0.852328
-37.212540 -16.775393 0.284436 0.386642
-37.736778 -16.541986 0.000021 0.546814
-39.318558 -15.837732 0.000016 0.540441
-40.483936 -15.318873 0.000010 0.521446
-36.982536 -16.968388 4.969347 0.678431
-36.982536 -16.968388 4.560283 0.678431
-36.982536 -16.968388 4.156962 0.678431
-36.982536 -16.968388 3.758419 0.678431
-37.212540 -16.864054 3.334673 0.764338
-37.212540 -16.864054 2.951288 0.643137
-37.212540 -16.864054 2.569957 0.766544
-37.212540 -16.864052 2.189850 0.599265
-37.212540 -16.864052 1.810150 0.836152
-37.212540 -16.864054 1.430043 0.839583
-37.212540 -16.864052 1.048712 0.404044
-37.212540 -16.864052 0.665328 0.434314
-37.212540 -16.864052 0.279045 0.554412
-37.768227 -16.611982 0.000019 0.534559
-39.345055 -15.896700 0.000016 0.568995
-40.506786 -15.369716 0.000011 0.523162
-36.982536 -17.059551 4.978853 0.678431
-36.982536 -17.059551 4.568480 0.678431
-36.982536 -17.059551 4.163867 0.678431
-36.982536 -17.059551 3.764048 0.678431
-37.212540 -16.953276 3.338946 0.512990
-37.212540 -16.953276 2.954334 0.565564
-37.212540 -16.953276 2.571782 0.690196
-37.212540 -16.953276 2.190458 0.545466
-37.212540 -16.953276 1.809542 0.440564
-37.212540 -16.953276 1.428218 0.467647
-37.212540 -16.953274 1.045666 0.389461
-37.212540 -16.953276 0.661055 0.499265
-37.212540 -16.953276 0.273535 0.456740
-37.800163 -16.681755 0.000018 0.566422
-39.371956 -15.955484 0.000013 0.537990
-40.529991 -15.420397 0.000011 0.543627
-36.982536 -17.151306 4.988566 0.678431
-36.982536 -17.151306 4.576856 0.678431
-36.982536 -17.151306 4.170924 0.678431
-36.982536 -17.151306 3.769801 0.678431
-37.212540 -17.043076 3.343312 0.357843
-37.212540 -17.043076 2.957446 0.505882
-37.212540 -17.043076 2.573646 0.673652
-37.212540 -17.043076 2.191079 0.771446
-37.212540 -17.043076 1.808921 0.807843
-37.212540 -17.043076 1.426354 0.433088
-37.212540 -17.043076 1.042554 0.417279
-37.212540 -17.043076 0.656689 0.390564
-37.212540 -17.043076 0.267906 0.467647
-37.832603 -16.751295 0.000020 0.519118
-39.399281 -16.014072 0.000014 0.551471
-40.553543 -15.470918 0.000010 0.503186
-36.982540 -17.243666 4.998490 0.678431
-36.982536 -17.243668 4.585411 0.678431
-36.982536 -17.243668 4.178133 0.678431
-36.982536 -17.243668 3.775677 0.678431
-37.212536 -17.133469 3.347772 0.741667
-37.212540 -17.133469 2.960625 0.539583
-37.212540 -17.133469 2.575551 0.805760
-37.212540 -17.133469 2.191713 0.520588
-37.212540 -17.133469 1.808287 0.804167
-37.212540 -17.133469 1.424449 0.730147
-37.212540 -17.133469 1.039375 0.534314
-37.212540 -17.133469 0.652228 0.435662
-37.212540 -17.133469 0.262154 0.652206
-37.865520 -16.820614 0.000020 0.540319
-39.427017 -16.072468 0.000016 0.550368
-40.577454 -15.521271 0.000010 0.518873
-36.982540 -17.336647 5.008626 0.678431
-36.982540 -17.336647 4.594151 0.678431
-36.982536 -17.336647 4.185495 0.678431
-36.982536 -17.336649 3.781680 0.678431
-37.212536 -17.224470 3.352329 0.280515
-37.212540 -17.224468 2.963872 0.732966
-37.212540 -17.224468 2.577496 0.633211
-37.212540 -17.224468 2.192361 0.527328
-37.212540 -17.224468 1.807639 0.739706
-37.212540 -17.224468 1.422503 0.581250
-37.212540 -17.224468 1.036127 0.853799
-37.212540 -17.224468 0.647672 0.865441
-37.212540 -17.224468 0.256279 0.693873
-37.898914 -16.889700 0.000020 0.526716
-39.455158 -16.130671 0.000016 0.523407
-40.601719 -15.571455 0.000011 0.526716
-36.982536 -17.430264 5.018980 0.678431
-36.982540 -17.430264 4.603078 0.678431
-36.982536 -17.430264 4.193017 0.678431
-36.982536 -17.430264 3.787811 0.678431
-37.212536 -17.316090 3.356982 0.380637
-37.212540 -17.316090 2.967189 0.672181
-37.212540 -17.316090 2.579484 0.720221
-37.212540 -17.316090 2.193023 0.610662
-37.212540 -17.316090 1.806977 0.483701
-37.212540 -17.316090 1.420516 0.696691
-37.212540 -17.316090 1.032811 0.589828
-37.212540 -17.316090 0.643018 0.492525
-37.212540 -17.316090 0.250279 0.415564
-37.932785 -16.958555 0.000018 0.537255
-39.483696 -16.188675 0.000016 0.626471
-40.626335 -15.621466 0.000013 0.561642
-36.982536 -17.524530 5.029553 0.678431
-36.982540 -17.524530 4.612195 0.678431
-36.982540 -17.524530 4.200697 0.678431
-36.982540 -17.524529 3.794072 0.678431
-37.212536 -17.408350 3.361734 0.828799
-37.212540 -17.408348 2.970576 0.651838
-37.212540 -17.408348 2.581513 0.775490
-37.212540 -17.408348 2.193699 0.544118
-37.212540 -17.408348 1.806301 0.870466
-37.212540 -17.408348 1.418487 0.566176
-37.212540 -17.408348 1.029423 0.765074
-37.212540 -17.408348 0.638266 0.845221
-37.212540 -17.408348 0.244151 0.798162
-37.967144 -17.027170 0.000018 0.568750
-39.512634 -16.246487 0.000014 0.550613
-40.651295 -15.671307 0.000013 0.541054
-36.982536 -17.619465 5.040349 0.678431
-36.982536 -17.619463 4.621504 0.673652
-36.982536 -17.619465 4.208539 0.669853
-36.982536 -17.619465 3.800465 0.674510
-37.212540 -17.501259 3.366587 0.837990
-37.212540 -17.501259 2.974035 0.740196
-37.212540 -17.501261 2.583586 0.491912
-37.212540 -17.501259 2.194390 0.422304
-37.212540 -17.501259 1.805610 0.869608
-37.212540 -17.501259 1.416414 0.473284
-37.212540 -17.501259 1.025965 0.550123
-37.212540 -17.501259 0.633414 0.441054
-37.212540 -17.501259 0.237894 0.713113
-38.001987 -17.095539 0.000019 0.532598
-39.541985 -16.304087 0.000014 0.562010
-40.676594 -15.720977 0.000011 0.559559
-37.029465 -17.690548 5.038106 0.137868
-37.029465 -17.690550 4.619570 0.186642
-37.029465 -17.690550 4.206910 0.168015
-37.029465 -17.690550 3.799138 0.160784
-37.212536 -17.594841 3.371542 0.675245
-37.212540 -17.594841 2.977566 0.572672
-37.212540 -17.594841 2.585701 0.775123
-37.212540 -17.594841 2.195094 0.403554
-37.212540 -17.594841 1.804906 0.645098
-37.212540 -17.594841 1.414299 0.628799
-37.212540 -17.594841 1.022434 0.768015
-37.212540 -17.594841 0.628459 0.740686
-37.212540 -17.594841 0.231506 0.641912
-38.037300 -17.163666 0.000019 0.532966
-39.571739 -16.361481 0.000015 0.551593
-40.702248 -15.770464 0.000011 0.513358
-37.062542 -17.768860 5.039927 0.283211
-37.062538 -17.768860 4.621140 0.281863
-37.062538 -17.768862 4.208233 0.276593
-37.062542 -17.768860 3.800216 0.312255
-37.212540 -17.689106 3.376599 0.548162
-37.212540 -17.689106 2.981171 0.662868
-37.212540 -17.689106 2.587861 0.677083
-37.212540 -17.689106 2.195814 0.549020
-37.212540 -17.689106 1.804186 0.546814
-37.212540 -17.689106 1.412139 0.901348
-37.212540 -17.689104 1.018829 0.590196
-37.212540 -17.689106 0.623401 0.709804
-37.212540 -17.689104 0.224985 0.593260
-38.073090 -17.231541 0.000020 0.544608
-39.601894 -16.418663 0.000016 0.533701
-40.728256 -15.819765 0.000015 0.567034
-37.203068 -17.789196 5.011312 0.842402
-37.203064 -17.789196 4.596467 0.339828
-37.203068 -17.789196 4.187447 0.603922
-37.203068 -17.789196 3.783270 0.756005
-37.212540 -17.784075 3.381762 0.573284
-37.212540 -17.784075 2.984851 0.443995
-37.212540 -17.784073 2.590066 0.506250
-37.212540 -17.784075 2.196548 0.694240
-37.212540 -17.784075 1.803452 0.495956
-37.212540 -17.784073 1.409934 0.900245
-37.212540 -17.784075 1.015149 0.496446
-37.212540 -17.784075 0.618238 0.595956
-37.212540 -17.784073 0.218327 0.621691
-38.109348 -17.299171 0.000018 0.550123
-39.632450 -16.475634 0.000017 0.539951
-40.754589 -15.868895 0.000013 0.526961
-37.212536 -17.879763 5.020089 0.869730
-37.212536 -17.879765 4.604035 0.727696
-37.212536 -17.879763 4.193822 0.615441
-37.212540 -17.879763 3.788468 0.464216
-37.212536 -17.879763 3.387032 0.392525
-37.212536 -17.879763 2.988607 0.708824
-37.212540 -17.879761 2.592316 0.578799
-37.212540 -17.879761 2.197298 0.676838
-37.212540 -17.879761 1.802702 0.696691
-37.212540 -17.879761 1.407684 0.515931
-37.212540 -17.879761 1.011393 0.440319
-37.212540 -17.879761 0.612969 0.613113
-37.212540 -17.879761 0.211533 0.635294
-38.146076 -17.366545 0.000018 0.562745
-39.663387 -16.532396 0.000015 0.535417
-40.781277 -15.917830 0.000014 0.506005
-37.212536 -17.976191 5.031799 0.515319
-37.212536 -17.976191 4.614131 0.861520
-37.212536 -17.976191 4.202328 0.416667
-37.212536 -17.976191 3.795402 0.487868
-37.212540 -17.976189 3.392409 0.299020
-37.212540 -17.976191 2.992440 0.349020
-37.212540 -17.976191 2.594612 0.333578
-37.212540 -17.976189 2.198063 0.618137
-37.212540 -17.976189 1.801937 0.774755
-37.212540 -17.976189 1.405387 0.824877
-37.212540 -17.976189 1.007560 0.436887
-37.212540 -17.976189 0.607591 0.479534
-37.212540 -17.976189 0.204598 0.671814
-38.183289 -17.433655 0.000020 0.523652
-39.694729 -16.588940 0.000016 0.502696
-40.808304 -15.966583 0.000015 0.570221
-37.212536 -18.073372 5.043749 0.558701
-37.212536 -18.073372 4.624435 0.846691
-37.212536 -18.073372 4.211009 0.398407
-37.212536 -18.073372 3.802479 0.711642
-37.212540 -18.073372 3.397897 0.537745
-37.212536 -18.073372 2.996351 0.363848
-37.212540 -18.073372 2.596956 0.794730
-37.212540 -18.073370 2.198843 0.565074
-37.212540 -18.073370 1.801157 0.840074
-37.212540 -18.073372 1.403044 0.495588
-37.212540 -18.073370 1.003648 0.791054
-37.212540 -18.073370 0.602103 0.205147
-37.212540 -18.073370 0.197522 0.390196
-38.220955 -17.500509 0.000020 0.528676
-39.726471 -16.645258 0.000017 0.578431
-40.835670 -16.015144 0.000015 0.567770
-37.212536 -18.171326 5.055943 0.433824
-37.212536 -18.171326 4.634949 0.449020
-37.212540 -18.171326 4.219867 0.546814
-37.212536 -18.171326 3.809700 0.460662
-37.212540 -18.171326 3.403498 0.464583
-37.212536 -18.171326 3.000344 0.299387
-37.212540 -18.171326 2.599348 0.471691
-37.212540 -18.171326 2.199640 0.569975
-37.212540 -18.171326 1.800360 0.679167
-37.212540 -18.171326 1.400652 0.451225
-37.212540 -18.171326 0.999656 0.695833
-37.212540 -18.171326 0.596503 0.702696
-37.212540 -18.171326 0.190300 0.507966
-38.259102 -17.567091 0.000022 0.533701
-39.758602 -16.701355 0.000017 0.556250
-40.863365 -16.063520 0.000013 0.512500
-37.212536 -18.270075 5.068386 0.475245
-37.212540 -18.270073 4.645678 0.396936
-37.212536 -18.270075 4.228905 0.371569
-37.212536 -18.270073 3.817069 0.479779
-37.212540 -18.270075 3.409212 0.485294
-37.212536 -18.270075 3.004417 0.228799
-37.212540 -18.270073 2.601788 0.474510
-37.212540 -18.270073 2.200453 0.640686
-37.212540 -18.270073 1.799547 0.540441
-37.212540 -18.270073 1.398212 0.431740
-37.212536 -18.270073 0.995583 0.477083
-37.212540 -18.270073 0.590788 0.702941
-37.212540 -18.270073 0.182932 0.395098
-38.297688 -17.633421 0.000018 0.557843
-39.791058 -16.757265 0.000002 0.545833
-40.891399 -16.111698 0.000012 0.514706
-37.212536 -18.369633 5.081080 0.813113
-37.212536 -18.369633 4.656624 0.501838
-37.212536 -18.369633 4.238127 0.769363
-37.212540 -18.369633 3.824586 0.808456
-37.212540 -18.369633 3.415043 0.666789
-37.212536 -18.369633 3.008572 0.397059
-37.212540 -18.369633 2.604278 0.557843
-37.212540 -18.369631 2.201282 0.500245
-37.212540 -18.369631 1.798718 0.799020
-37.212540 -18.369633 1.395722 0.868137
-37.212540 -18.369633 0.991428 0.629412
-37.212540 -18.369633 0.584958 0.375123
-37.212540 -18.369631 0.175414 0.740686
-38.336739 -17.699476 0.000016 0.539828
-39.823967 -16.812908 0.000002 0.497917
-40.919773 -16.159678 0.000011 0.557230
-37.212540 -18.470026 5.094031 0.759069
-37.212540 -18.470028 4.667790 0.560172
-37.212540 -18.470028 4.247535 0.289093
-37.212540 -18.470026 3.832256 0.693505
-37.212536 -18.470028 3.420991 0.564828
-37.212536 -18.470028 3.012812 0.558211
-37.212540 -18.470026 2.606818 0.508456
-37.212540 -18.470026 2.202128 0.562623
-37.212540 -18.470026 1.797872 0.765196
-37.212540 -18.470026 1.393182 0.538113
-37.212540 -18.470026 0.987188 0.682230
-37.212540 -18.470024 0.579010 0.368873
-37.212540 -18.470024 0.167745 0.586029
-38.376263 -17.765249 0.000017 0.542647
-39.857277 -16.868317 0.000005 0.514216
-40.948479 -16.207458 0.000011 0.537868
-37.212536 -18.571272 5.107245 0.558211
-37.212540 -18.571272 4.679184 0.581740
-37.212536 -18.571272 4.257133 0.598652
-37.212540 -18.571270 3.840080 0.774020
-37.212536 -18.571272 3.427059 0.582108
-37.212540 -18.571272 3.017137 0.766299
-37.212540 -18.571270 2.609409 0.395956
-37.212540 -18.571270 2.202991 0.580270
-37.212540 -18.571270 1.797009 0.876348
-37.212540 -18.571270 1.390591 0.554167
-37.212540 -18.571270 0.982863 0.776716
-37.212540 -18.571270 0.572941 0.752451
-37.212540 -18.571270 0.159920 0.501716
-38.416248 -17.830744 0.000018 0.574142
-39.890953 -16.923500 0.000003 0.520466
-40.977528 -16.255033 0.000013 0.558211
-37.212540 -18.673389 5.120724 0.623897
-37.212536 -18.673391 4.690806 0.518627
-37.212540 -18.673389 4.266924 0.785539
-37.212536 -18.673391 3.848063 0.502696
-37.212536 -18.673391 3.433250 0.519240
-37.212536 -18.673391 3.021549 0.865074
-37.212540 -18.673389 2.612053 0.394363
-37.212540 -18.673389 2.203872 0.509191
-37.212540 -18.673389 1.796128 0.867034
-37.212540 -18.673389 1.387947 0.643382
-37.212540 -18.673389 0.978451 0.505637
-37.212540 -18.673389 0.566750 0.867402
-37.212540 -18.673389 0.151937 0.649755
-38.456688 -17.895958 0.000019 0.535172
-39.925018 -16.978443 0.000004 0.552083
-41.006908 -16.302404 0.000015 0.488358
-37.212540 -18.776402 5.134473 0.734191
-37.212540 -18.776402 4.702661 0.560417
-37.212540 -18.776402 4.276912 0.593260
-37.212540 -18.776402 3.856205 0.694608
-37.212540 -18.776402 3.439565 0.451225
-37.212540 -18.776402 3.026050 0.564951
-37.212540 -18.776402 2.614749 0.568382
-37.212540 -18.776402 2.204770 0.541422
-37.212540 -18.776402 1.795230 0.641176
-37.212540 -18.776402 1.385250 0.734314
-37.212540 -18.776402 0.973950 0.515686
-37.212540 -18.776402 0.560436 0.632966
-37.212540 -18.776402 0.143795 0.732598
-38.497566 -17.960897 0.000017 0.540931
