# This PCD file was generated using the MATLABÂ® pcwrite function
# from Computer Vision ToolboxÂ®.
# .PCD v.7 - Point Cloud Data file format
VERSION .7
FIELDS x y z intensity
SIZE 4 4 4 4
TYPE F F F F
COUNT 1 1 1 1
WIDTH 1221
HEIGHT 1
VIEWPOINT 0 0 0 1 0 0 0
POINTS 1221
DATA ascii
-36.079903 46.635979 4.061949 0.667279
-36.079903 46.635979 3.680961 0.669853
-36.118027 46.661491 3.298378 0.648775
-36.090656 46.643177 2.928120 0.695833
-35.892357 46.510448 2.567798 0.678431
-35.892357 46.510448 2.189131 0.678431
-35.899017 46.514912 1.811000 0.113725
-35.877380 46.500431 1.431317 0.756740
-35.877392 46.500439 1.050838 0.693505
-35.877407 46.500450 0.668313 0.781618
-35.966991 46.560406 0.298885 0.656985
-36.362942 46.825417 0.000022 0.525858
-37.801861 47.788471 0.000016 0.569975
-38.862003 48.498020 0.000014 0.543505
-35.726860 46.300453 4.958858 0.678431
-35.726860 46.300453 4.551240 0.678431
-36.216698 46.633274 4.041588 0.652696
-36.216698 46.633278 3.664362 0.652819
-36.258183 46.661461 3.285012 0.678431
-36.218670 46.634617 2.919809 0.685417
-36.035927 46.510452 2.561951 0.678431
-36.035927 46.510452 2.187183 0.678431
-36.038548 46.512234 1.812869 0.129044
-36.021179 46.500431 1.437174 0.751961
-36.021191 46.500439 1.060614 0.756127
-36.021206 46.500450 0.682028 0.772549
-36.109451 46.560410 0.316405 0.613725
-36.405903 46.761833 0.000035 0.550735
-37.838058 47.734909 0.000029 0.522549
-38.893215 48.451836 0.000028 0.507353
-35.872108 46.300457 4.928836 0.678431
-35.872105 46.300457 4.525353 0.678431
-36.327068 46.614246 4.026971 0.650000
-36.327068 46.614246 3.652446 0.672917
-36.395641 46.661541 3.271958 0.678431
-36.292686 46.590530 2.916844 0.686397
-36.176582 46.510452 2.556248 0.678431
-36.176582 46.510452 2.185283 0.678431
-36.175373 46.509617 1.814692 0.119485
-36.162052 46.500435 1.442884 0.727696
-36.162060 46.500439 1.070145 0.718505
-36.162079 46.500450 0.695401 0.722549
-36.249004 46.560402 0.333487 0.632721
-36.449169 46.698460 0.000017 0.519240
-37.874508 47.681519 0.000012 0.540196
-38.924644 48.405804 0.000010 0.553676
-36.038166 46.317062 4.892303 0.689828
-36.530262 46.661556 4.364116 0.652941
-36.440098 46.598434 4.011724 0.647304
-36.440098 46.598434 3.640017 0.673407
-36.506805 46.645138 3.262533 0.652941
-36.382462 46.558086 2.912317 0.746936
-36.314415 46.510452 2.550687 0.678431
-36.314415 46.510452 2.183431 0.678431
-36.314415 46.510452 1.816568 0.678431
-36.300106 46.500435 1.448454 0.746446
-36.300117 46.500443 1.079441 0.667279
-36.300125 46.500446 0.708443 0.734559
-36.385765 46.560402 0.350146 0.631127
-36.493038 46.635498 0.000035 0.542402
-37.911465 47.628475 0.000029 0.589216
-38.956505 48.360062 0.000026 0.586642
-36.153965 46.300453 4.870997 0.678431
-36.661339 46.660946 4.341056 0.647059
-36.661331 46.660942 3.972272 0.644363
-36.661236 46.660873 3.607871 0.661520
-36.661205 46.660854 3.246975 0.644975
-36.510674 46.553898 2.903924 0.771446
-36.495800 46.543331 2.542475 0.852328
-36.495796 46.543331 2.180696 0.858456
-36.495796 46.543331 1.819304 0.827941
-36.435429 46.500435 1.453887 0.738725
-36.435436 46.500443 1.088509 0.764093
-36.435444 46.500446 0.721165 0.749632
-36.519829 46.560406 0.366398 0.616912
-36.537201 46.572746 0.000021 0.540196
-37.948677 47.575615 0.000017 0.543750
-38.988594 48.314484 0.000015 0.516422
-36.637482 46.550453 4.736062 0.768137
-36.637482 46.550453 4.359136 0.761765
-36.637482 46.550453 3.987503 0.761520
-36.637482 46.550453 3.620270 0.765074
-36.637482 46.550453 3.256587 0.760417
-36.621212 46.538719 2.897278 0.737745
-36.621212 46.538719 2.537596 0.736520
-36.621212 46.538719 2.179071 0.727574
-36.621216 46.538719 1.820929 0.732721
-36.621216 46.538719 1.462403 0.729412
-36.621216 46.538719 1.102722 0.722672
-36.621216 46.538719 0.741106 0.743873
-36.651283 46.560406 0.382254 0.683333
-36.651295 46.560413 0.015596 0.656495
-37.986351 47.523075 0.000029 0.520466
-39.021080 48.269188 0.000028 0.538603
-36.766754 46.550556 4.709847 0.741422
-36.766754 46.550556 4.336534 0.712745
-36.766754 46.550556 3.968460 0.714828
-36.766754 46.550556 3.604746 0.764338
-36.766777 46.550571 3.244545 0.747917
-36.766766 46.550564 2.887051 0.720833
-36.766762 46.550564 2.531469 0.791422
-36.766762 46.550560 2.177030 0.708088
-36.766754 46.550556 1.822970 0.745221
-36.766758 46.550560 1.468530 0.744485
-36.766758 46.550560 1.112949 0.717770
-36.766762 46.550560 0.755453 0.754902
-36.780220 46.560406 0.397729 0.649020
-36.780228 46.560410 0.034577 0.661887
-38.024288 47.470734 0.000014 0.570466
-39.053791 48.224056 0.000013 0.535294
-36.865162 46.529552 4.693129 0.106127
-36.865162 46.529552 4.322117 0.129412
-36.865162 46.529552 3.956315 0.135417
-36.865170 46.529560 3.594843 0.737990
-36.866043 46.530209 3.236742 0.751348
-36.883427 46.543118 2.879713 0.779412
-36.865047 46.529469 2.528198 0.117647
-36.865044 46.529465 2.175940 0.108946
-36.865044 46.529465 1.824060 0.129412
-36.865047 46.529465 1.471802 0.129412
-36.962200 46.601604 1.128332 0.908701
-36.865059 46.529480 0.763117 0.723529
-36.906712 46.560406 0.412832 0.618015
-36.906719 46.560410 0.053104 0.614338
-38.062698 47.418732 0.000028 0.531495
-39.086903 48.179214 0.000026 0.510049
-36.964687 46.510559 4.676014 0.678431
-36.964687 46.510559 4.307360 0.678431
-36.964687 46.510559 3.943882 0.678431
-36.951401 46.500553 3.587177 0.762500
-37.009621 46.544411 3.222536 0.744240
-36.998344 46.535915 2.872521 0.753309
-36.964687 46.510563 2.524834 0.678431
-36.964687 46.510563 2.174819 0.678431
-36.964687 46.510559 1.825180 0.678431
-36.964687 46.510563 1.475166 0.678431
-37.085648 46.601688 1.136442 0.912868
-36.951405 46.500557 0.769079 0.731618
-37.031345 46.560783 0.427670 0.739828
-37.030857 46.560410 0.071192 0.642524
-38.101357 47.366917 0.000012 0.540931
-39.120239 48.134541 0.000010 0.544240
-37.087502 46.510563 4.651507 0.678431
-37.087498 46.510559 4.286231 0.678431
-37.206669 46.601654 3.898788 0.893995
-37.074409 46.500553 3.572642 0.772181
-37.246212 46.631878 3.194772 0.712990
-37.111462 46.528877 2.865481 0.107843
-37.087502 46.510563 2.520028 0.678431
-37.087498 46.510559 2.173219 0.678431
-37.087498 46.510559 1.826781 0.678431
-37.087502 46.510563 1.479972 0.678431
-37.203785 46.599449 1.144047 0.905515
-37.074409 46.500553 0.780351 0.724265
-37.144897 46.554436 0.440520 0.721324
-37.152714 46.560410 0.088854 0.613971
-38.140488 47.315460 0.000026 0.570833
-39.153976 48.090168 0.000023 0.569975
-37.208088 46.510563 4.627574 0.678431
-37.208088 46.510563 4.265594 0.678431
-37.325382 46.601524 3.881687 0.910294
-37.195187 46.500557 3.558446 0.779902
-37.382828 46.646072 3.181323 0.716176
-37.222851 46.522011 2.858588 0.129412
-37.208092 46.510563 2.515334 0.678431
-37.208088 46.510563 2.171655 0.678431
-37.208088 46.510563 1.828345 0.678431
-37.208092 46.510563 1.484666 0.678431
-37.294857 46.577850 1.148883 0.915809
-37.195190 46.500557 0.791360 0.751961
-37.254158 46.546288 0.452624 0.711152
-37.272369 46.560413 0.106106 0.661152
-38.179878 47.264198 0.000013 0.514951
-39.187943 48.045967 0.000009 0.553309
-37.326523 46.510559 4.604195 0.678431
-37.326519 46.510559 4.245436 0.678431
-37.433029 46.594357 3.867054 0.932843
-37.313808 46.500553 3.544580 0.791544
-37.498749 46.646057 3.170815 0.677451
-37.326523 46.510559 2.852466 0.678431
-37.326523 46.510559 2.510748 0.678431
-37.326523 46.510559 2.170128 0.678431
-37.326527 46.510559 1.829872 0.678431
-37.326523 46.510559 1.489251 0.678431
-37.350628 46.529522 1.150048 0.110662
-37.313808 46.500553 0.802114 0.719118
-37.357826 46.535187 0.463728 0.810172
-37.389885 46.560410 0.122957 0.611274
-38.219719 47.213287 0.000025 0.525735
-39.222286 48.002068 0.000020 0.515564
-37.442875 46.510559 4.581352 0.678431
-37.442879 46.510559 4.225740 0.678431
-37.477551 46.538231 3.867047 0.929289
-37.430340 46.500557 3.531031 0.720833
-37.612637 46.646049 3.160547 0.698897
-37.442879 46.510559 2.844989 0.678431
-37.442879 46.510559 2.506268 0.678431
-37.442879 46.510559 2.168636 0.678431
-37.442879 46.510559 1.831364 0.678431
-37.442879 46.510559 1.493731 0.678431
-37.458401 46.522953 1.156639 0.122549
-37.430340 46.500557 0.812622 0.730637
-37.460091 46.524300 0.474615 0.732721
-37.505333 46.560406 0.139421 0.617647
-38.259808 47.162567 0.000007 0.557598
-39.256866 47.958347 0.000007 0.518382
-37.557209 46.510559 4.559031 0.678431
-37.557209 46.510559 4.206492 0.678431
-37.606850 46.550751 3.847283 0.715564
-37.544857 46.500557 3.517791 0.800735
-37.724548 46.646042 3.150513 0.692524
-37.557213 46.510563 2.837682 0.678431
-37.557213 46.510563 2.501890 0.678431
-37.557213 46.510563 2.167177 0.678431
-37.557213 46.510563 1.832823 0.678431
-37.557213 46.510563 1.498109 0.678431
-37.557213 46.510563 1.162318 0.678431
-37.544857 46.500557 0.822889 0.799387
-37.560993 46.513622 0.485289 0.747426
-37.618778 46.560410 0.155510 0.644975
-38.300369 47.112236 0.000025 0.533211
-39.291836 47.914936 0.000021 0.557843
-37.669590 46.510559 4.537214 0.678431
-37.669590 46.510559 4.187682 0.678431
-37.703625 46.538509 3.835044 0.746201
-37.657410 46.500557 3.504851 0.788358
-37.834549 46.646030 3.140706 0.713113
-37.669590 46.510559 2.830541 0.678431
-37.669590 46.510559 2.497612 0.678431
-37.669590 46.510559 2.165752 0.678431
-37.669594 46.510563 1.834248 0.678431
-37.669590 46.510559 1.502388 0.678431
-37.669590 46.510559 1.169459 0.678431
-37.657410 46.500553 0.832925 0.731250
-37.660576 46.503155 0.495756 0.740931
-37.730289 46.560410 0.171235 0.590931
-38.341164 47.062080 0.000007 0.569485
-39.327011 47.871696 0.000005 0.556985
-37.780079 46.510559 4.515888 0.678431
-37.780079 46.510559 4.169293 0.678431
-37.799217 46.526501 3.823034 0.711275
-37.768074 46.500561 3.492203 0.690564
-37.942703 46.646027 3.131119 0.686397
-37.780079 46.510563 2.823560 0.678431
-37.780083 46.510563 2.493429 0.678431
-37.780079 46.510563 2.164359 0.678431
-37.780079 46.510563 1.835641 0.678431
-37.780083 46.510563 1.506571 0.678431
-37.780083 46.510563 1.176440 0.678431
-37.768070 46.500557 0.842734 0.755147
-37.768085 46.500572 0.507800 0.738971
-37.839920 46.560410 0.186606 0.633701
-38.382408 47.012299 0.000020 0.517647
-39.362572 47.828773 0.000017 0.544608
-37.888725 46.510559 4.495037 0.678431
-37.888725 46.510559 4.151317 0.678431
-37.893646 46.514713 3.811248 0.690441
-37.876888 46.500561 3.479836 0.756005
-38.049057 46.646019 3.121746 0.677206
-37.888725 46.510559 2.816735 0.678431
-37.888725 46.510559 2.489340 0.678431
-37.888725 46.510559 2.162997 0.678431
-37.888725 46.510559 1.837003 0.678431
-37.888725 46.510559 1.510660 0.678431
-37.888725 46.510559 1.183265 0.678431
-37.876884 46.500557 0.852325 0.742647
-37.876904 46.500568 0.520167 0.770833
-37.947727 46.560410 0.201635 0.694853
-38.423920 46.962742 0.000008 0.551103
-39.398365 47.786041 0.000006 0.522426
-37.995590 46.510559 4.474650 0.678431
-37.995590 46.510559 4.133737 0.678431
-37.983910 46.500549 3.800410 0.724877
-37.983925 46.500557 3.467744 0.791299
-38.153675 46.646023 3.112579 0.712990
-37.995594 46.510559 2.810061 0.678431
-37.995594 46.510559 2.485341 0.678431
-37.995594 46.510559 2.161665 0.678431
-37.995594 46.510559 1.838335 0.678431
-37.995594 46.510563 1.514658 0.678431
-37.995594 46.510563 1.189939 0.678431
-37.983917 46.500557 0.861703 0.718015
-37.983936 46.500572 0.532258 0.760172
-38.053764 46.560410 0.216329 0.681618
-38.465858 46.913544 0.000021 0.529534
-39.434525 47.743622 0.000018 0.545343
-38.100735 46.510559 4.454712 0.678431
-38.100735 46.510559 4.116545 0.678431
-38.089214 46.500549 3.785903 0.708578
-38.089233 46.500565 3.455918 0.740564
-38.256790 46.646191 3.103586 0.694363
-38.100739 46.510559 2.803534 0.678431
-38.100739 46.510559 2.481431 0.678431
-38.100739 46.510559 2.160362 0.678431
-38.100739 46.510559 1.839638 0.678431
-38.100739 46.510559 1.518569 0.678431
-38.100739 46.510559 1.196466 0.678431
-38.089226 46.500557 0.870874 0.732721
-38.089241 46.500572 0.544084 0.787990
-38.158092 46.560410 0.230701 0.644240
-38.508038 46.864552 0.000005 0.550980
-39.470905 47.701389 0.000006 0.543750
-38.204201 46.510559 4.435210 0.678431
-38.204201 46.510559 4.099730 0.678431
-38.192844 46.500549 3.771715 0.742034
-38.192860 46.500565 3.444351 0.736765
-38.358044 46.646160 3.094823 0.709926
-38.204205 46.510563 2.797150 0.678431
-38.204205 46.510559 2.477606 0.678431
-38.204205 46.510559 2.159088 0.678431
-38.204205 46.510559 1.840912 0.678431
-38.204205 46.510559 1.522393 0.678431
-38.204205 46.510563 1.202850 0.678431
-38.192852 46.500557 0.879845 0.747426
-38.192863 46.500572 0.555651 0.795833
-38.260757 46.560410 0.244757 0.665319
-38.550674 46.815952 0.000021 0.525735
-39.507660 47.659481 0.000020 0.508088
-38.306038 46.510559 4.416132 0.678431
-38.306038 46.510559 4.083281 0.678431
-38.294842 46.500549 3.757835 0.745833
-38.294853 46.500565 3.433035 0.662868
-38.457706 46.646137 3.086250 0.722917
-38.306038 46.510559 2.790905 0.678431
-38.306038 46.510559 2.473865 0.678431
-38.306038 46.510559 2.157842 0.678431
-38.306038 46.510559 1.842158 0.678431
-38.306038 46.510559 1.526135 0.678431
-38.306042 46.510563 1.209095 0.678431
-38.294849 46.500557 0.888620 0.736152
-38.294861 46.500568 0.566966 0.723529
-38.361805 46.560410 0.258508 0.635172
-38.593628 46.767643 0.000033 0.530515
-39.544701 47.617825 0.000032 0.581005
-38.406296 46.510559 4.397469 0.678431
-38.406296 46.510559 4.067187 0.678431
-38.395256 46.500553 3.744256 0.743015
-38.395271 46.500565 3.421965 0.686397
-38.555832 46.646122 3.077862 0.748284
-38.406300 46.510563 2.784796 0.678431
-38.406296 46.510559 2.470204 0.678431
-38.406300 46.510563 2.156623 0.678431
-38.406300 46.510563 1.843377 0.678431
-38.406300 46.510563 1.529796 0.678431
-38.406300 46.510563 1.215204 0.678431
-38.395260 46.500553 0.897205 0.732353
-38.395279 46.500568 0.578036 0.722059
-38.461288 46.560410 0.271961 0.624265
-38.636829 46.719547 0.000016 0.524387
-39.581951 47.576355 0.000016 0.515686
-38.505024 46.510559 4.379204 0.678431
-38.505028 46.510559 4.051439 0.678431
-38.494141 46.500553 3.730967 0.700490
-38.494156 46.500565 3.411132 0.681863
-38.652462 46.646107 3.069653 0.727819
-38.505028 46.510559 2.778817 0.678431
-38.505028 46.510559 2.466622 0.678431
-38.505032 46.510559 2.155429 0.678431
-38.505032 46.510559 1.844570 0.678431
-38.505028 46.510559 1.533378 0.678431
-38.505032 46.510559 1.221183 0.678431
-38.494144 46.500557 0.905607 0.693750
-38.494160 46.500568 0.588868 0.734926
-38.559250 46.560413 0.285126 0.686029
-38.680462 46.671848 0.000031 0.566054
-39.619576 47.535229 0.000031 0.542279
-38.602264 46.510559 4.361330 0.678431
-38.602264 46.510563 4.036028 0.678431
-38.591534 46.500557 3.717963 0.728922
-38.591545 46.500565 3.400531 0.737990
-38.747650 46.646103 3.061618 0.701471
-38.602268 46.510563 2.772966 0.678431
-38.602268 46.510563 2.463116 0.678431
-38.602268 46.510563 2.154262 0.678431
-38.602268 46.510563 1.845738 0.678431
-38.602268 46.510563 1.536883 0.678431
-38.602272 46.510563 1.227034 0.678431
-38.591534 46.500557 0.913828 0.744240
-38.591549 46.500565 0.599469 0.733946
-38.655735 46.560413 0.298009 0.650245
-38.724331 46.624363 0.000016 0.542279
-39.657394 47.494282 0.000015 0.550490
-38.740356 46.550552 4.329255 0.763971
-38.740356 46.550549 4.008372 0.783333
-38.740356 46.550549 3.691995 0.784926
-38.740364 46.550560 3.379361 0.777451
-38.812260 46.618534 3.058370 0.728799
-38.740364 46.550556 2.762466 0.687010
-38.740364 46.550556 2.456826 0.816912
-38.740364 46.550556 2.152166 0.763358
-38.740364 46.550556 1.847834 0.829167
-38.740360 46.550552 1.543174 0.753554
-38.740360 46.550552 1.237533 0.777819
-38.740356 46.550549 0.930246 0.758701
-38.740368 46.550564 0.620639 0.781005
-38.750786 46.560413 0.310618 0.664216
-38.768620 46.577271 0.000027 0.534804
-39.695580 47.453674 0.000026 0.564216
-38.841667 46.557743 4.309634 0.653554
-38.841667 46.557751 3.991453 0.667647
-38.841667 46.557751 3.677740 0.697426
-38.841667 46.557751 3.367743 0.654167
-38.841667 46.557751 3.060741 0.645466
-38.841667 46.557751 2.756044 0.691422
-38.841667 46.557747 2.452978 0.638603
-38.841667 46.557751 2.150885 0.611765
-38.841667 46.557751 1.849115 0.686152
-38.841667 46.557751 1.547022 0.664583
-38.841667 46.557751 1.243956 0.606863
-38.841667 46.557751 0.939258 0.645098
-38.841667 46.557751 0.632257 0.666789
-38.841671 46.557755 0.322260 0.609191
-38.841671 46.557751 0.008548 0.698162
-39.733986 47.413277 0.000015 0.560662
-38.887703 46.512722 4.309171 0.662745
-38.887703 46.512722 3.991055 0.631250
-38.887703 46.512726 3.677404 0.674877
-38.887703 46.512722 3.367469 0.661152
-38.887703 46.512722 3.060529 0.630024
-38.887699 46.512722 2.755893 0.686887
-38.887703 46.512722 2.452887 0.633578
-38.887703 46.512722 2.150854 0.595956
-38.887699 46.512722 1.849146 0.704779
-38.887699 46.512722 1.547113 0.658824
-38.887699 46.512722 1.244107 0.589461
-38.887699 46.512722 0.939470 0.707721
-38.887699 46.512722 0.632530 0.628064
-38.887707 46.512730 0.322597 0.578676
-38.887718 46.512741 0.008950 0.659436
-39.772739 47.373211 0.000029 0.549020
-38.910328 46.444656 4.317050 0.670221
-38.910328 46.444656 3.997848 0.647059
-38.910332 46.444656 3.683127 0.678431
-38.910328 46.444656 3.372135 0.618873
-38.910332 46.444656 3.064147 0.609436
-38.910336 46.444656 2.758471 0.678309
-38.910336 46.444660 2.454432 0.627328
-38.910336 46.444660 2.151369 0.613971
-38.910336 46.444660 1.848631 0.693382
-38.910336 46.444660 1.545568 0.592892
-38.910336 46.444660 1.241529 0.643505
-38.910339 46.444664 0.935853 0.676103
-38.910339 46.444668 0.627867 0.614216
-38.910324 46.444649 0.316870 0.580760
-38.910286 46.444614 0.002140 0.644240
-39.811695 47.333344 0.000014 0.538358
-38.910423 46.353432 4.333133 0.645711
-38.910423 46.353432 4.011715 0.582843
-38.910423 46.353432 3.694810 0.632353
-38.910423 46.353432 3.381659 0.632721
-38.910427 46.353436 3.071534 0.626716
-38.910439 46.353443 2.763735 0.635172
-38.910439 46.353443 2.457586 0.622549
-38.910439 46.353447 2.152420 0.611642
-38.910439 46.353447 1.847581 0.659559
-38.910442 46.353451 1.542415 0.589706
-38.910446 46.353451 1.236266 0.647549
-38.910446 46.353451 0.928469 0.609926
-38.910446 46.353455 0.618346 0.645098
-38.910393 46.353397 0.305181 0.669118
-38.948879 46.391880 0.000029 0.552574
-39.851006 47.293823 0.000027 0.548039
-38.910095 46.260498 4.349707 0.624877
-38.910095 46.260498 4.026006 0.670343
-38.910095 46.260498 3.706850 0.648407
-38.910095 46.260498 3.391474 0.658088
-38.910091 46.260494 3.079147 0.626716
-38.910084 46.260487 2.769163 0.705270
-38.910084 46.260487 2.460838 0.628799
-38.910084 46.260483 2.153503 0.626716
-38.910080 46.260479 1.846497 0.709559
-38.910076 46.260479 1.539161 0.610662
-38.910076 46.260475 1.230835 0.647549
-38.910072 46.260475 0.920850 0.678186
-38.910069 46.260471 0.608520 0.623162
-38.910164 46.260567 0.293167 0.699877
-38.994713 46.346287 0.000018 0.544363
-39.890526 47.254513 0.000017 0.490564
-38.910213 46.166691 4.366473 0.617525
-38.910210 46.166691 4.040462 0.671324
-38.910213 46.166691 3.719029 0.636887
-38.910213 46.166695 3.401403 0.639093
-38.910210 46.166691 3.086847 0.631005
-38.910206 46.166687 2.774651 0.702328
-38.910206 46.166687 2.464126 0.579657
-38.910206 46.166687 2.154598 0.600613
-38.910206 46.166687 1.845402 0.699265
-38.910202 46.166687 1.535874 0.614216
-38.910202 46.166687 1.225349 0.644485
-38.910198 46.166679 0.913152 0.703431
-38.910202 46.166679 0.598595 0.612132
-38.910244 46.166729 0.280979 0.639583
-39.040932 46.301086 0.000030 0.510784
-39.930374 47.215538 0.000028 0.507598
-38.910320 46.071522 4.383601 0.584559
-38.910320 46.071522 4.055231 0.623284
-38.910320 46.071522 3.731472 0.623529
-38.910320 46.071522 3.411546 0.675490
-38.910320 46.071522 3.094712 0.624510
-38.910320 46.071526 2.780257 0.631985
-38.910320 46.071526 2.467484 0.614951
-38.910320 46.071526 2.155717 0.614828
-38.910320 46.071526 1.844283 0.657230
-38.910320 46.071529 1.532516 0.630637
-38.910320 46.071529 1.219744 0.706985
-38.910320 46.071529 0.905288 0.614093
-38.910324 46.071529 0.588456 0.647059
-38.910294 46.071495 0.268522 0.615809
-39.087379 46.256123 0.000015 0.545956
-39.970428 47.176769 0.000012 0.548162
-38.910416 45.974949 4.401100 0.679412
-38.910416 45.974949 4.070319 0.665441
-38.910416 45.974949 3.744183 0.664461
-38.910416 45.974949 3.421908 0.655392
-38.910416 45.974949 3.102749 0.648775
-38.910427 45.974960 2.785984 0.620221
-38.910427 45.974960 2.470916 0.631495
-38.910427 45.974960 2.156860 0.620711
-38.910431 45.974964 1.843140 0.666912
-38.910435 45.974964 1.529084 0.619363
-38.910435 45.974968 1.214017 0.695956
-38.910439 45.974968 0.897254 0.647059
-38.910439 45.974976 0.578096 0.686642
-38.910309 45.974834 0.255788 0.645833
-39.134235 46.211586 0.000029 0.542525
-40.010838 47.138374 0.000030 0.558824
-38.910198 45.876602 4.419095 0.661152
-38.910198 45.876602 4.085835 0.646201
-38.910198 45.876602 3.757254 0.639828
-38.910198 45.876602 3.432565 0.665196
-38.910198 45.876602 3.111013 0.698652
-38.910191 45.876595 2.791876 0.620098
-38.910191 45.876595 2.474446 0.633456
-38.910191 45.876595 2.158036 0.612500
-38.910191 45.876595 1.841964 0.660172
-38.910187 45.876595 1.525554 0.631740
-38.910187 45.876595 1.208123 0.655760
-38.910183 45.876587 0.888984 0.621446
-38.910194 45.876598 0.567434 0.693627
-38.910263 45.876671 0.242763 0.665319
-39.181316 46.167282 0.000016 0.534191
-40.051434 47.100178 0.000017 0.543505
-38.910301 45.777119 4.437360 0.586887
-38.910301 45.777119 4.101583 0.619485
-38.910301 45.777119 3.770522 0.675000
-38.910301 45.777119 3.443381 0.639828
-38.910297 45.777119 3.119402 0.675368
-38.910305 45.777122 2.797853 0.609191
-38.910301 45.777119 2.478028 0.669853
-38.910305 45.777119 2.159229 0.625000
-38.910305 45.777119 1.840771 0.616176
-38.910305 45.777119 1.521972 0.588726
-38.910305 45.777122 1.202146 0.675000
-38.910305 45.777122 0.880599 0.626225
-38.910297 45.777119 0.556619 0.673774
-38.910278 45.777096 0.229473 0.617402
-39.228786 46.123398 0.000028 0.525858
-40.092346 47.062325 0.000024 0.544485
-38.910393 45.676098 4.456028 0.614583
-38.910393 45.676098 4.117681 0.685662
-38.910393 45.676098 3.784083 0.637377
-38.910393 45.676098 3.454437 0.660907
-38.910393 45.676098 3.127976 0.663480
-38.910400 45.676102 2.803965 0.629412
-38.910400 45.676105 2.481689 0.677328
-38.910400 45.676105 2.160448 0.626838
-38.910400 45.676105 1.839552 0.693505
-38.910400 45.676113 1.518311 0.647059
-38.910404 45.676113 1.196036 0.681985
-38.910408 45.676117 0.872027 0.617402
-38.910358 45.676064 0.545556 0.677083
-38.910305 45.676003 0.215893 0.692157
-39.276489 46.079769 0.000019 0.503799
-40.133484 47.024704 0.000015 0.535172
-38.910252 45.573254 4.475195 0.658824
-38.910252 45.573250 4.134207 0.672549
-38.910252 45.573254 3.798006 0.636765
-38.910252 45.573254 3.465786 0.662623
-38.910252 45.573254 3.136779 0.653309
-38.910248 45.573250 2.810240 0.642524
-38.910248 45.573250 2.485449 0.689828
-38.910248 45.573250 2.161701 0.662255
-38.910252 45.573250 1.838299 0.709804
-38.910248 45.573250 1.514551 0.644240
-38.910248 45.573250 1.189760 0.650980
-38.910248 45.573250 0.863221 0.657353
-38.910271 45.573277 0.534217 0.661274
-38.910271 45.573277 0.202000 0.692279
-39.324577 46.036556 0.000034 0.538358
-40.174946 46.987450 0.000032 0.558578
-38.910328 45.469036 4.494702 0.670956
-38.910328 45.469036 4.151026 0.629412
-38.910328 45.469036 3.812176 0.622917
-38.910328 45.469036 3.477338 0.676593
-38.910328 45.469036 3.145737 0.634436
-38.910332 45.469044 2.816624 0.591544
-38.910332 45.469044 2.489274 0.695956
-38.910332 45.469044 2.162975 0.634436
-38.910328 45.469044 1.837025 0.644730
-38.910328 45.469044 1.510726 0.632108
-38.910332 45.469044 1.183376 0.612623
-38.910336 45.469048 0.854264 0.673652
-38.910290 45.468990 0.522653 0.648039
-38.910297 45.469002 0.187816 0.670343
-39.372871 45.993580 0.000019 0.549142
-40.216591 46.950397 0.000018 0.515809
-38.910248 45.362976 4.514702 0.615441
-38.910244 45.362972 4.168272 0.629657
-38.910244 45.362972 3.826705 0.654289
-38.910244 45.362972 3.489183 0.699142
-38.910248 45.362976 3.154923 0.615196
-38.910240 45.362972 2.823173 0.619608
-38.910244 45.362972 2.493197 0.660172
-38.910240 45.362972 2.164282 0.644730
-38.910244 45.362972 1.835718 0.674020
-38.910244 45.362972 1.506803 0.664338
-38.910244 45.362972 1.176827 0.615441
-38.910240 45.362972 0.845076 0.675490
-38.910271 45.363007 0.510823 0.613358
-38.910259 45.362995 0.173299 0.626225
-39.421535 45.951031 0.000029 0.540319
-40.258553 46.913708 0.000028 0.557353
-38.910297 45.255352 4.535100 0.617892
-38.910297 45.255356 4.185858 0.624265
-38.910297 45.255352 3.841521 0.655515
-38.910297 45.255352 3.501262 0.696078
-38.910297 45.255352 3.164291 0.627819
-38.910301 45.255356 2.829849 0.658333
-38.910297 45.255356 2.497197 0.680882
-38.910297 45.255356 2.165614 0.661642
-38.910297 45.255356 1.834386 0.687255
-38.910297 45.255352 1.502803 0.671078
-38.910297 45.255356 1.170151 0.633211
-38.910305 45.255360 0.835710 0.683088
-38.910282 45.255333 0.498735 0.630760
-38.910294 45.255348 0.158477 0.618137
-39.470436 45.908741 0.000018 0.560662
-40.300716 46.877247 0.000017 0.560907
-38.910263 45.145863 4.555989 0.653186
-38.910263 45.145859 4.203871 0.662500
-38.910263 45.145863 3.856695 0.702451
-38.910267 45.145863 3.513632 0.637623
-38.910263 45.145863 3.173885 0.648284
-38.910263 45.145863 2.836687 0.670098
-38.910263 45.145863 2.501294 0.660417
-38.910263 45.145863 2.166979 0.666176
-38.910263 45.145863 1.833021 0.646936
-38.910263 45.145863 1.498706 0.652574
-38.910263 45.145863 1.163313 0.645711
-38.910263 45.145863 0.826115 0.671936
-38.910278 45.145874 0.486370 0.682108
-38.910301 45.145905 0.143314 0.634559
-39.519703 45.866890 0.000032 0.594730
-40.343216 46.841175 0.000037 0.564706
-38.910278 45.034603 4.577334 0.650368
-38.910278 45.034603 4.222275 0.694975
-38.910278 45.034607 3.872200 0.680270
-38.910278 45.034603 3.526273 0.613480
-38.910278 45.034603 3.183688 0.604657
-38.910278 45.034607 2.843674 0.629779
-38.910278 45.034603 2.505481 0.629902
-38.910278 45.034603 2.168373 0.643137
-38.910278 45.034603 1.831627 0.646936
-38.910278 45.034607 1.494519 0.659681
-38.910278 45.034607 1.156326 0.628799
-38.910278 45.034603 0.816312 0.630147
-38.910278 45.034603 0.473727 0.636887
-38.910343 45.034676 0.127816 0.629412
-39.569180 45.825279 0.000018 0.543873
-40.385876 46.805298 0.000023 0.559436
-38.845776 44.842937 4.624624 0.678431
-38.845776 44.842937 4.263050 0.678431
-38.845776 44.842934 3.906553 0.678431
-38.900276 44.909271 3.541542 0.799020
-38.988434 45.016575 3.179554 0.691912
-38.900272 44.909271 2.852115 0.780025
-38.845776 44.842934 2.514755 0.678431
-38.845776 44.842934 2.171463 0.678431
-38.845776 44.842937 1.828537 0.678431
-38.845776 44.842934 1.485245 0.678431
-38.845776 44.842934 1.140846 0.678431
-38.900276 44.909271 0.804470 0.736765
-38.900276 44.909271 0.458458 0.786887
-38.910236 44.921398 0.111925 0.667279
-39.618958 45.784031 0.000008 0.527206
-40.428841 46.769787 0.000031 0.530270
-38.845776 44.726711 4.647183 0.678431
-38.845776 44.726711 4.282501 0.678431
-38.845776 44.726711 3.922939 0.678431
-38.900276 44.794003 3.554792 0.776838
-38.900280 44.793999 3.205806 0.803431
-38.900276 44.793999 2.859438 0.776961
-38.845776 44.726711 2.519180 0.678431
-38.845776 44.726711 2.172936 0.678431
-38.845776 44.726711 1.827064 0.678431
-38.845776 44.726711 1.480820 0.678431
-38.845776 44.726711 1.133461 0.678431
-38.900280 44.793999 0.794194 0.735294
-38.900276 44.794003 0.445208 0.800368
-38.910385 44.806488 0.095740 0.652451
-39.669029 45.743134 -0.000000 0.543505
-40.472012 46.734531 0.000023 0.557353
-38.845772 44.608467 4.670264 0.678431
-38.845776 44.608471 4.302402 0.678431
-38.845776 44.608467 3.939706 0.678431
-38.900276 44.676727 3.568348 0.713726
-38.900276 44.676727 3.216319 0.779167
-38.900276 44.676727 2.866932 0.779534
-38.845776 44.608467 2.523706 0.678431
-38.845776 44.608467 2.174444 0.678431
-38.845776 44.608467 1.825556 0.678431
-38.845776 44.608467 1.476294 0.678431
-38.845776 44.608467 1.125906 0.678431
-38.900276 44.676727 0.783681 0.786765
-38.900276 44.676727 0.431652 0.777328
-38.910301 44.689278 0.079110 0.615319
-39.719444 45.702667 0.000013 0.554657
-40.515411 46.699554 0.000009 0.506127
-38.845776 44.488136 4.693884 0.678431
-38.845776 44.488136 4.322768 0.678431
-38.845776 44.488136 3.956863 0.678431
-38.900276 44.557384 3.582220 0.786887
-38.900276 44.557384 3.227078 0.783701
-38.900276 44.557384 2.874600 0.783578
-38.845776 44.488140 2.528339 0.678431
-38.845776 44.488140 2.175987 0.678431
-38.845776 44.488140 1.824013 0.678431
-38.845776 44.488144 1.471661 0.678431
-38.845776 44.488144 1.118174 0.678431
-38.900276 44.557384 0.772922 0.802328
-38.909096 44.568584 0.419894 0.776471
-38.910240 44.570045 0.062103 0.649387
-39.770073 45.662464 0.000001 0.521446
-40.559067 46.664890 -0.000003 0.584069
-38.845776 44.365658 4.718058 0.678431
-38.845776 44.365658 4.343613 0.678431
-38.845776 44.365662 3.974424 0.678431
-38.900280 44.435909 3.596419 0.781618
-38.900276 44.435905 3.238090 0.807843
-38.900280 44.435905 2.882448 0.792279
-38.845776 44.365658 2.533080 0.678431
-38.845776 44.365658 2.177567 0.678431
-38.845776 44.365658 1.822433 0.678431
-38.845776 44.365658 1.466920 0.678431
-38.845776 44.365658 1.110261 0.678431
-38.900280 44.435909 0.761911 0.807843
-38.910282 44.448799 0.406002 0.660417
-38.910328 44.448864 0.044738 0.621446
-39.821041 45.622700 0.000012 0.564583
-40.603008 46.630592 0.000005 0.528799
-38.845772 44.240948 4.742806 0.678431
-38.845772 44.240948 4.364951 0.678431
-38.845772 44.240948 3.992401 0.678431
-38.900276 44.312218 3.610955 0.789338
-38.900276 44.312222 3.249362 0.803554
-38.900276 44.312218 2.890483 0.787255
-38.845772 44.240948 2.537934 0.678431
-38.845772 44.240948 2.179183 0.678431
-38.845772 44.240948 1.820817 0.678431
-38.845772 44.240948 1.462066 0.678431
-38.845772 44.240948 1.102160 0.678431
-38.900276 44.312222 0.750638 0.793382
-38.910282 44.325298 0.391488 0.663603
-38.910294 44.325317 0.026924 0.632230
-39.872234 45.583218 0.000003 0.546446
-40.647102 46.596497 -0.000021 0.573529
-38.845779 44.113949 4.768143 0.678431
-38.845776 44.113945 4.386798 0.678431
-38.845776 44.113945 4.010807 0.678431
-38.900280 44.186256 3.625836 0.776593
-38.900280 44.186256 3.260904 0.801225
-38.899445 44.185150 2.898823 0.791667
-38.845776 44.113945 2.542903 0.678431
-38.845772 44.113945 2.180839 0.678431
-38.845772 44.113945 1.819162 0.678431
-38.845776 44.113945 1.457097 0.678431
-38.845779 44.113949 1.093866 0.678431
-38.900276 44.186256 0.739096 0.788848
-38.910278 44.199524 0.376628 0.680637
-38.910278 44.199524 0.008692 0.699387
-39.923763 45.544182 0.000018 0.517770
-40.691532 46.562828 -0.000007 0.555025
-38.845776 43.984562 4.794093 0.678431
-38.845776 43.984562 4.409172 0.678431
-38.845776 43.984562 4.029656 0.678431
-38.900280 44.057938 3.641076 0.661887
-38.900276 44.057938 3.272723 0.791789
-38.907108 44.067127 2.906195 0.803554
-38.845779 43.984570 2.547992 0.678431
-38.845776 43.984562 2.182534 0.678431
-38.845776 43.984562 1.817466 0.678431
-38.845779 43.984570 1.452008 0.678431
-38.845776 43.984566 1.085371 0.678431
-38.900280 44.057938 0.727277 0.776471
-38.910278 44.071396 0.361410 0.611397
-38.942978 44.115421 0.000005 0.528431
-39.975487 45.505405 0.000005 0.500980
-40.736137 46.529396 -0.000020 0.532353
-38.845776 43.852726 4.820672 0.678431
-38.845772 43.852726 4.432089 0.678431
-38.845776 43.852726 4.048963 0.678431
-38.900276 43.927181 3.656688 0.721446
-38.900276 43.927181 3.284830 0.797794
-38.949390 43.994267 2.908946 0.708333
-38.845776 43.852726 2.553205 0.678431
-38.845779 43.852730 2.184270 0.678431
-38.845779 43.852730 1.815730 0.678431
-38.845776 43.852726 1.446795 0.678431
-38.845779 43.852730 1.076671 0.678431
-38.900276 43.927181 0.715170 0.788235
-38.910275 43.940830 0.345822 0.659681
-39.004784 44.069931 0.000017 0.512868
-40.027496 45.466995 -0.000005 0.580270
-40.781036 46.496368 -0.000004 0.539951
-38.845776 43.718353 4.847899 0.678431
-38.845776 43.718353 4.455566 0.678431
-38.845776 43.718353 4.068742 0.678431
-38.845776 43.718353 3.686499 0.678431
-38.900280 43.793907 3.297233 0.783824
-38.989445 43.917515 2.912106 0.716422
-38.845776 43.718353 2.558545 0.678431
-38.845776 43.718353 2.186049 0.678431
-38.845776 43.718353 1.813951 0.678431
-38.845776 43.718353 1.441455 0.678431
-38.845776 43.718353 1.067758 0.678431
-38.900280 43.793911 0.702767 0.806127
-38.910355 43.807877 0.329875 0.644118
-39.066830 44.024788 0.000009 0.534436
-40.079765 45.428959 -0.000014 0.545588
-40.826111 46.463570 -0.000012 0.539583
-38.845772 43.581352 4.875801 0.678431
-38.845772 43.581352 4.479624 0.678431
-38.845772 43.581352 4.089009 0.678431
-38.845772 43.581352 3.703022 0.678431
-38.900276 43.658028 3.309943 0.806985
-38.995743 43.792328 2.920151 0.700613
-38.845772 43.581352 2.564017 0.678431
-38.845776 43.581352 2.187872 0.678431
-38.845776 43.581352 1.812129 0.678431
-38.845772 43.581352 1.435982 0.678431
-38.845776 43.581352 1.058625 0.678431
-38.900280 43.658028 0.690058 0.780637
-38.910492 43.672398 0.313548 0.652206
-39.129173 43.980045 -0.000005 0.550490
-40.132355 45.391350 -0.000005 0.487500
-40.871449 46.431137 -0.000005 0.503799
-38.845772 43.441635 4.904397 0.678431
-38.845776 43.441635 4.504282 0.678431
-38.845772 43.441635 4.109782 0.678431
-38.845776 43.441635 3.719956 0.678431
-38.900276 43.519455 3.322968 0.788603
-38.995865 43.655937 2.929283 0.709681
-38.845776 43.441635 2.569626 0.678431
-38.845776 43.441635 2.189740 0.678431
-38.845776 43.441635 1.810260 0.678431
-38.845776 43.441635 1.430374 0.678431
-38.845776 43.441639 1.049264 0.678431
-38.900276 43.519459 0.677032 0.788113
-38.910297 43.533760 0.296728 0.696569
-39.191849 43.935772 -0.000013 0.559681
-40.185150 45.354050 -0.000013 0.577083
-40.916981 46.398983 -0.000011 0.540196
-38.845776 43.299099 4.933713 0.678431
-38.845776 43.299103 4.529557 0.678431
-38.845776 43.299103 4.131077 0.678431
-38.845776 43.299103 3.737316 0.678431
-38.900276 43.378090 3.336321 0.789216
-38.995983 43.516792 2.938646 0.693627
-38.845776 43.299099 2.575375 0.678431
-38.845776 43.299103 2.191655 0.678431
-38.845776 43.299103 1.808345 0.678431
-38.845776 43.299099 1.424624 0.678431
-38.845776 43.299099 1.039668 0.678431
-38.900280 43.378090 0.663679 0.789951
-38.910168 43.392422 0.279502 0.663113
-39.254822 43.891926 -0.000023 0.534436
-40.238205 45.317108 -0.000024 0.557476
-40.962723 46.367126 -0.000022 0.622672
-38.889992 43.218712 4.944068 0.737623
-38.889996 43.218712 4.538486 0.733578
-38.889996 43.218712 4.138599 0.740564
-38.889992 43.218712 3.743449 0.746446
-38.900276 43.233837 3.350013 0.799632
-38.996094 43.374794 2.948247 0.697181
-38.889992 43.218712 2.577406 0.742647
-38.889992 43.218712 2.192331 0.716422
-38.889992 43.218712 1.807669 0.735539
-38.889996 43.218712 1.422593 0.741789
-38.889996 43.218712 1.036278 0.724510
-38.900276 43.233837 0.649987 0.794363
-38.910095 43.248280 0.261855 0.672917
-39.318180 43.848629 -0.000009 0.555637
-40.291580 45.280628 -0.000011 0.549142
-41.008739 46.335670 -0.000011 0.551961
-38.910297 43.101555 4.965551 0.650123
-38.910297 43.101555 4.557010 0.626471
-38.910297 43.101555 4.154204 0.617525
-38.910297 43.101555 3.756171 0.647917
-38.910297 43.101555 3.361984 0.648529
-38.995823 43.229286 2.958150 0.704289
-38.910297 43.101555 2.581620 0.673039
-38.910297 43.101555 2.193735 0.620343
-38.910297 43.101555 1.806265 0.648529
-38.910297 43.101555 1.418380 0.597672
-38.910301 43.101555 1.029246 0.673774
-38.910290 43.101543 0.638014 0.638848
-38.910183 43.101383 0.243799 0.666422
-39.381767 43.805676 -0.000017 0.515809
-40.345158 45.244453 -0.000016 0.573775
-41.054939 46.304478 -0.000015 0.550368
-38.910271 42.951397 4.996881 0.664706
-38.910271 42.951397 4.584024 0.676225
-38.910275 42.951397 4.176963 0.619608
-38.910271 42.951393 3.774724 0.658824
-38.910275 42.951397 3.376372 0.647917
-38.995930 43.081272 2.968253 0.717770
-38.910275 42.951397 2.587764 0.660662
-38.910275 42.951397 2.195781 0.651716
-38.910271 42.951397 1.804219 0.641912
-38.910271 42.951397 1.412235 0.655270
-38.910275 42.951401 1.018990 0.637010
-38.910275 42.951401 0.623628 0.604779
-38.910282 42.951408 0.225278 0.647917
-39.445717 43.763256 -0.000005 0.545588
-40.399033 45.208717 -0.000004 0.487377
-41.101391 46.273666 -0.000003 0.535784
-38.030949 41.444321 5.433368 0.642770
-38.030949 41.444321 4.960380 0.668873
-38.030949 41.444321 4.494032 0.644118
-38.030949 41.444321 4.033208 0.716544
-38.030952 41.444321 3.576837 0.644363
-38.996025 42.930073 2.978622 0.725490
-38.030952 41.444324 2.673370 0.638971
-38.030952 41.444321 2.224297 0.669240
-38.030952 41.444324 1.775704 0.657966
-38.030952 41.444321 1.326629 0.612990
-38.030949 41.444321 0.876109 0.655392
-38.119179 41.580147 0.441796 0.789951
-38.910381 42.798225 0.206274 0.662745
-39.509892 43.721188 -0.000015 0.534559
-40.453094 45.173267 -0.000016 0.572181
-41.148018 46.243114 -0.000010 0.545711
-38.144382 41.444073 5.418026 0.664461
-38.144390 41.444077 4.947149 0.686275
-39.009838 42.797043 4.190648 0.640319
-39.009853 42.797073 3.785876 0.678186
-39.009872 42.797104 3.385016 0.675123
-38.996071 42.775517 2.989272 0.726716
-38.144382 41.444077 2.670361 0.650980
-38.144390 41.444080 2.223294 0.648407
-38.144390 41.444084 1.776706 0.651103
-39.009735 42.796886 1.408532 0.646569
-39.009872 42.797096 1.012828 0.678186
-39.009903 42.797138 0.614989 0.677451
-38.910084 42.641098 0.186659 0.627206
-39.574429 43.679672 -0.000003 0.526593
-40.507465 45.138298 -0.000002 0.554167
-41.194885 46.212944 -0.000001 0.568505
-38.256695 41.443638 5.403041 0.653186
-38.256699 41.443638 4.934230 0.648407
-38.975365 42.584606 4.226645 0.579534
-38.975365 42.584606 3.815226 0.647059
-38.975365 42.584606 3.407783 0.575858
-38.995918 42.617237 3.000236 0.681985
-38.256699 41.443638 2.667423 0.694118
-38.256699 41.443642 2.222315 0.671569
-38.256699 41.443642 1.777685 0.668750
-38.975365 42.584606 1.398822 0.619363
-38.975365 42.584606 0.996602 0.647059
-38.975121 42.584221 0.592164 0.651471
-38.910225 42.481194 0.166645 0.630392
-39.639198 43.638523 -0.000008 0.550245
-40.562031 45.103622 -0.000009 0.492034
-41.241936 46.183052 -0.000007 0.548039
-38.367977 41.443123 5.388376 0.602328
-38.367973 41.443119 4.921587 0.612500
-38.983383 42.435444 4.248888 0.567892
-38.983383 42.435444 3.833358 0.665809
-38.983383 42.435444 3.421846 0.585662
-38.995979 42.455757 3.011461 0.692647
-38.367981 41.443123 2.664546 0.631618
-38.367973 41.443119 2.221357 0.691667
-38.367973 41.443119 1.778643 0.643137
-38.983383 42.435444 1.392817 0.609926
-38.983383 42.435444 0.986579 0.641422
-39.009567 42.477673 0.583870 0.656740
-38.910336 42.317661 0.146083 0.619363
-39.704288 43.597881 -0.000002 0.566544
-40.616863 45.069382 -0.000003 0.537132
-41.289223 46.153538 0.000001 0.554167
-38.478554 41.443008 5.373885 0.648897
-38.478554 41.443012 4.909090 0.634069
-38.967911 42.244518 4.279951 0.532353
-38.967911 42.244514 3.858682 0.653064
-38.967911 42.244514 3.441486 0.612377
-38.996010 42.290539 3.022997 0.706373
-38.478558 41.443008 2.661704 0.682108
-38.478558 41.443008 2.220411 0.664828
-38.478558 41.443012 1.779590 0.659191
-38.967911 42.244518 1.384430 0.625245
-38.967911 42.244518 0.972581 0.652941
-39.009712 42.312981 0.567743 0.657966
-38.910213 42.150017 0.124894 0.606373
-39.769623 43.557632 -0.000009 0.524755
-40.671913 45.035480 -0.000009 0.539461
-41.336685 46.124306 -0.000004 0.525123
-38.587887 41.442379 5.359831 0.635049
-38.587887 41.442375 4.896974 0.634681
-38.983543 42.100708 4.300858 0.480147
-38.983543 42.100708 3.875726 0.650123
-38.983547 42.100712 3.454703 0.635049
-38.995960 42.121372 3.034864 0.723039
-38.587887 41.442379 2.658948 0.672794
-38.587883 41.442379 2.219492 0.676103
-38.587887 41.442375 1.780508 0.624632
-38.983543 42.100712 1.378785 0.651103
-38.983543 42.100708 0.963159 0.655392
-39.010132 42.144947 0.551234 0.647549
-38.910294 41.978832 0.103181 0.680025
-39.835239 43.517845 -0.000015 0.518750
-40.727188 45.001957 -0.000016 0.551838
-41.384350 46.095406 -0.000010 0.512255
-38.696632 41.442291 5.345899 0.646936
-38.696632 41.442291 4.884960 0.615319
-38.969963 41.904369 4.332808 0.400858
-38.969963 41.904369 3.901773 0.650000
-38.969967 41.904369 3.474904 0.636029
-38.995975 41.948338 3.047049 0.717034
-38.696629 41.442291 2.656216 0.615074
-38.696632 41.442291 2.218582 0.668627
-38.696636 41.442299 1.781418 0.640809
-38.969967 41.904366 1.370159 0.634069
-38.969963 41.904369 0.948761 0.672672
-39.010090 41.972202 0.534162 0.652451
-38.910263 41.803440 0.080833 0.615074
-39.901180 43.478592 -0.000004 0.543873
-40.782749 44.968906 -0.000002 0.538971
-41.432243 46.066887 -0.000001 0.539461
-38.804070 41.441494 5.332450 0.661520
-38.804073 41.441494 4.873364 0.689951
-39.010326 41.795792 4.346128 0.664093
-38.983040 41.748920 3.920678 0.655392
-38.983040 41.748920 3.489566 0.635784
-38.995968 41.771122 3.059582 0.717279
-38.804073 41.441494 2.653578 0.642279
-38.804070 41.441494 2.217704 0.651593
-38.804073 41.441490 1.782296 0.648162
-38.983040 41.748920 1.363898 0.658456
-38.983040 41.748917 0.938311 0.671569
-39.010098 41.795399 0.516621 0.641299
-38.910255 41.623894 0.057862 0.639093
-39.967339 43.439724 -0.000012 0.540319
-40.838482 44.936142 -0.000012 0.590686
-41.480309 46.038654 -0.000008 0.549510
-38.885078 41.396053 5.332160 0.695343
-38.885075 41.396049 4.873115 0.679534
-39.010204 41.614483 4.374709 0.643505
-38.980961 41.563431 3.944660 0.647059
-38.980961 41.563431 3.508165 0.638235
-38.996029 41.589741 3.072459 0.689216
-38.885075 41.396049 2.653521 0.632353
-38.885078 41.396053 2.217685 0.666667
-38.885075 41.396049 1.782315 0.644853
-38.980961 41.563431 1.355955 0.638726
-38.980961 41.563431 0.925055 0.659314
-39.006321 41.607700 0.497704 0.650735
-38.910271 41.440033 0.034245 0.630882
-40.033821 43.401398 -0.000002 0.549142
-40.894493 44.903866 0.000001 0.553309
-41.528595 46.010807 0.000001 0.567279
-38.909988 41.251106 5.360644 0.626348
-38.909992 41.251114 4.897673 0.626348
-38.909996 41.251118 4.441203 0.626103
-39.010395 41.429253 3.959808 0.651226
-39.010365 41.429199 3.519920 0.666054
-38.995998 41.403717 3.085722 0.713113
-38.910019 41.251156 2.659105 0.656863
-38.910072 41.251255 2.219543 0.665809
-38.910130 41.251358 1.780459 0.625735
-39.010536 41.429504 1.350952 0.646201
-39.010292 41.429066 0.916664 0.646936
-39.010731 41.429855 0.480167 0.651348
-38.910332 41.251720 0.009963 0.681127
-40.100525 43.363464 -0.000006 0.565564
-40.950691 44.871906 -0.000005 0.544730
-41.577057 45.983265 -0.000001 0.538971
-38.900276 41.040428 5.407896 0.683456
-38.900280 41.040428 4.938416 0.699142
-38.900276 41.040428 4.475529 0.722794
-38.900280 41.040432 4.018123 0.696324
-38.900280 41.040428 3.565138 0.738725
-38.995937 41.212963 3.099377 0.711397
-38.900280 41.040432 2.668374 0.706495
-38.900280 41.040432 2.222632 0.721078
-38.900276 41.040436 1.777368 0.693015
-38.900280 41.040432 1.331625 0.727696
-38.900280 41.040428 0.884447 0.700735
-38.900280 41.040432 0.434862 0.778186
-38.959534 41.147305 0.000005 0.552574
-40.167534 43.326073 0.000004 0.540196
-41.007141 44.840405 0.000006 0.532230
-41.625729 45.956097 0.000008 0.569730
-38.845772 40.742104 5.479954 0.678431
-38.845776 40.742107 5.000546 0.678431
-38.845776 40.742104 4.527871 0.678431
-38.845776 40.742104 4.060795 0.678431
-38.900280 40.842052 3.585136 0.790074
-38.996078 41.017715 3.113400 0.709191
-38.845776 40.742104 2.682507 0.678431
-38.845776 40.742104 2.227340 0.678431
-38.845776 40.742104 1.772660 0.678431
-38.845776 40.742104 1.317493 0.678431
-38.900280 40.842052 0.870193 0.719363
-38.910271 40.860374 0.417265 0.636642
-39.041996 41.101913 -0.000002 0.544240
-40.234760 43.289070 -0.000001 0.522426
-41.063782 44.809235 0.000002 0.524142
-41.674561 45.929207 0.000000 0.557598
-38.845779 40.536903 5.525165 0.678431
-38.845779 40.536900 5.039531 0.678431
-38.845776 40.536900 4.560715 0.678431
-38.845779 40.536900 4.087569 0.678431
-38.900280 40.638523 3.605731 0.795221
-38.995972 40.816940 3.127884 0.689216
-38.845776 40.536903 2.691374 0.678431
-38.845779 40.536900 2.230293 0.678431
-38.845779 40.536900 1.769707 0.678431
-38.845776 40.536903 1.308626 0.678431
-38.900280 40.638523 0.855514 0.776593
-38.910263 40.657143 0.396699 0.653186
-39.124775 41.057102 -0.000007 0.539951
-40.302246 43.252548 -0.000005 0.546691
-41.120632 44.778458 -0.000004 0.526716
-41.723587 45.902687 -0.000001 0.546814
-38.856743 40.347076 5.565857 0.138480
-38.845776 40.326283 5.079694 0.678431
-38.845779 40.326283 4.594551 0.678431
-38.845776 40.326283 4.115153 0.678431
-38.900276 40.429626 3.626949 0.773407
-38.995815 40.610786 3.142815 0.677206
-38.845776 40.326283 2.700510 0.678431
-38.845776 40.326283 2.233337 0.678431
-38.845776 40.326283 1.766664 0.678431
-38.845776 40.326286 1.299490 0.678431
-38.900276 40.429626 0.840391 0.784804
-38.910244 40.448528 0.375510 0.640441
-39.207905 41.012951 0.000001 0.554657
-40.370026 43.216564 0.000005 0.544240
-41.177727 44.748138 0.000004 0.508456
-41.772820 45.876541 0.000007 0.596691
-38.900276 40.215130 5.590092 0.751471
-38.845779 40.110016 5.121086 0.678431
-38.845776 40.110012 4.629422 0.678431
-38.845779 40.110016 4.143581 0.678431
-38.900276 40.215130 3.648816 0.711887
-38.996094 40.399929 3.158125 0.696936
-38.845779 40.110016 2.709925 0.678431
-38.845779 40.110016 2.236473 0.678431
-38.845779 40.110016 1.763527 0.678431
-38.845779 40.110016 1.290075 0.678431
-38.900280 40.215130 0.824806 0.787255
-38.910233 40.234325 0.353672 0.619608
-39.291302 40.969303 -0.000005 0.523284
-40.438004 43.180969 -0.000003 0.541544
-41.235008 44.718159 -0.000001 0.540196
-41.822205 45.850700 0.000004 0.534191
-38.900276 39.994774 5.639182 0.780025
-38.845776 39.887833 5.163763 0.678431
-38.845776 39.887833 4.665376 0.678431
-38.845779 39.887840 4.172893 0.678431
-38.845776 39.887840 3.685169 0.678431
-38.995960 40.182518 3.173985 0.723284
-38.845779 39.887840 2.719632 0.678431
-38.845779 39.887840 2.239706 0.678431
-38.845779 39.887840 1.760294 0.678431
-38.845779 39.887840 1.280368 0.678431
-38.900280 39.994778 0.808737 0.790686
-38.910332 40.014496 0.331186 0.631985
-39.375046 40.926331 0.000006 0.533088
-40.506275 43.145931 0.000007 0.555147
-41.292526 44.688648 0.000010 0.542157
-41.871799 45.825245 0.000013 0.517770
-38.920277 39.808228 5.678629 0.694240
-38.845779 39.659496 5.207780 0.678431
-38.845779 39.659500 4.702459 0.678431
-38.845776 39.659496 4.203124 0.678431
-38.845779 39.659496 3.708614 0.678431
-38.948837 39.865250 3.198947 0.685907
-38.845779 39.659504 2.729644 0.678431
-38.845779 39.659496 2.243041 0.678431
-38.845779 39.659496 1.756959 0.678431
-38.845779 39.659504 1.270356 0.678431
-38.900276 39.768303 0.792162 0.736520
-38.910301 39.788315 0.307960 0.641299
-39.459053 40.883862 0.000003 0.565931
-40.574753 43.111301 0.000002 0.505270
-41.350212 44.659470 0.000005 0.540564
-41.921543 45.800102 0.000010 0.566544
-38.995708 39.729321 5.687929 0.716176
-38.845779 39.424698 5.253201 0.678431
-38.845776 39.424694 4.740726 0.678431
-38.845779 39.424698 4.234320 0.678431
-38.845776 39.424694 3.732808 0.678431
-38.900276 39.535427 3.224940 0.780637
-38.845779 39.424698 2.739976 0.678431
-38.845779 39.424698 2.246483 0.678431
-38.845779 39.424698 1.753518 0.678431
-38.845779 39.424698 1.260024 0.678431
-38.900276 39.535427 0.775059 0.785172
-38.910240 39.555668 0.283985 0.629779
-39.543327 40.841934 -0.000008 0.529779
-40.643467 43.077145 -0.000005 0.567034
-41.408104 44.630692 -0.000002 0.537132
-41.971451 45.775276 -0.000000 0.524510
-38.995857 39.493519 5.740998 0.710907
-38.900272 39.295845 5.273053 0.756618
-38.900272 39.295841 4.757451 0.700735
-38.900276 39.295841 4.247954 0.663725
-38.900272 39.295845 3.743382 0.706005
-38.900276 39.295849 3.242595 0.798774
-38.900276 39.295841 2.744491 0.703676
