# This PCD file was generated using the MATLABÂ® pcwrite function
# from Computer Vision ToolboxÂ®.
# .PCD v.7 - Point Cloud Data file format
VERSION .7
FIELDS x y z intensity
SIZE 4 4 4 4
TYPE F F F F
COUNT 1 1 1 1
WIDTH 1213
HEIGHT 1
VIEWPOINT 0 0 0 1 0 0 0
POINTS 1213
DATA ascii
-14.647999 23.691462 1.117664 0.448775
-15.015628 24.532930 1.206706 0.566054
-14.577752 23.455164 3.084619 0.481985
-14.465171 23.192493 2.996922 0.548529
1.687279 -14.494003 10.300466 0.678431
-14.598682 23.503998 2.634420 0.566667
-14.610652 23.531925 2.488524 0.447304
-14.897322 24.200775 2.288528 0.575368
-14.899797 24.206551 2.172560 0.524020
-14.746946 23.849924 2.063828 0.478554
-14.609390 23.528982 1.930458 0.450245
-14.550887 23.392485 1.783929 0.556985
-14.516558 23.312387 1.632220 0.465564
-14.640582 23.601757 1.520217 0.299755
-14.745955 23.847610 1.421035 0.412745
-14.871287 24.140034 1.347702 0.473897
-14.586321 23.475157 1.069498 0.371201
-14.531807 23.347967 0.886167 0.575858
-14.603722 23.438936 3.085819 0.535539
-14.499085 23.190018 2.994552 0.572672
-14.404634 22.965322 2.882231 0.467402
-14.657961 23.567966 2.622249 0.467892
1.233763 -14.236954 7.200315 0.607353
-15.022864 24.436037 2.266749 0.580392
-14.891838 24.124338 2.176431 0.465931
-15.012283 24.410866 2.053682 0.519608
-14.759591 23.809734 1.935647 0.462132
-14.155464 22.372572 1.730216 0.467402
-14.640664 23.526817 1.652381 0.425368
-14.888878 24.117294 1.585971 0.396201
-14.644173 23.535166 1.372473 0.281618
-14.617023 23.470581 1.217496 0.459926
-14.914695 24.178713 1.237085 0.494975
-15.034011 24.462553 1.192316 0.576593
-14.670495 23.521524 3.060292 0.392402
-14.789948 23.811342 2.846521 0.510539
-14.503007 23.115168 2.850180 0.397059
-14.733074 23.673353 2.603535 0.503064
-14.613285 23.382725 2.504230 0.401593
-15.036304 24.409046 2.268368 0.532598
-14.926929 24.143681 2.174891 0.494730
-14.912485 24.108637 2.058876 0.317157
-14.779651 23.786356 1.935420 0.529412
-5.901277 2.245808 0.661539 0.505515
-14.656579 23.487762 1.649925 0.489338
-14.762535 23.744831 1.540827 0.515809
-14.785149 23.799696 1.416735 0.562010
-14.311673 22.650959 1.058461 0.481250
-14.883498 24.038309 1.206500 0.517034
-15.076283 24.506042 1.206442 0.457843
-14.806447 23.779133 2.987681 0.427574
-14.801214 23.766180 2.854633 0.402083
-14.604406 23.279064 2.815598 0.513235
-14.716991 23.557724 2.620317 0.499510
-14.642118 23.372402 2.504076 0.539951
-14.522586 23.076550 2.385444 0.450123
-15.044683 24.368786 2.162467 0.500735
-14.695694 23.505009 2.069362 0.454534
-14.634501 23.353550 1.927965 0.420711
-14.616457 23.308891 1.781375 0.429289
-14.725971 23.579947 1.659074 0.450000
-14.714609 23.551826 1.518186 0.460539
-14.810694 23.789642 1.416786 0.473039
-14.612696 23.299582 1.188429 0.444485
-14.960381 24.160131 1.237134 0.500000
-15.053230 24.389942 1.177335 0.489461
-14.817942 23.733389 2.997251 0.498407
-14.941437 24.045300 2.787413 0.425123
-14.488192 22.900536 2.887401 0.451961
-14.641570 23.287922 2.661632 0.494118
-14.970151 24.117825 2.410439 0.583211
-15.063684 24.354065 2.271708 0.517034
-15.058483 24.340927 2.163485 0.484069
-14.940469 24.042854 2.059702 0.430392
-14.820204 23.739100 1.934952 0.322672
-14.189104 22.145124 1.720494 0.466176
-14.748531 23.558077 1.658096 0.525735
-14.975447 24.131199 1.591215 0.514216
-14.622622 23.240065 1.330733 0.450613
-14.911735 23.970282 1.321947 0.571201
-14.672083 23.364990 1.054557 0.517279
-14.717678 23.480150 0.934526 0.507598
-14.734118 23.440418 3.073238 0.544240
-14.863525 23.774050 2.848098 0.464216
-14.634990 23.184849 2.829488 0.490196
-14.390003 22.553238 2.776715 0.431495
-0.120028 -14.236958 7.141967 0.773529
-14.971647 24.052805 2.297460 0.461397
-15.072460 24.312716 2.164525 0.466299
-14.883965 23.826748 2.063332 0.518015
-14.865452 23.779016 1.935830 0.527696
-14.661061 23.252068 1.779586 0.484559
-14.771221 23.536076 1.657095 0.547426
-15.003875 24.135893 1.592911 0.392525
-14.582423 23.049324 1.302215 0.456740
-14.655269 23.237133 1.180716 0.565931
-14.691031 23.329332 1.048880 0.551716
-15.030971 24.205750 1.132383 0.506250
-14.890984 23.769136 2.982286 0.451471
-14.836359 23.625336 2.880187 0.499755
-14.639164 23.106215 2.842574 0.454044
-14.675927 23.202995 2.671534 0.457353
-14.730791 23.347425 2.503029 0.484559
-14.987079 24.022106 2.299356 0.464338
-14.983495 24.012672 2.179853 0.472059
-14.969255 23.975187 2.060564 0.404044
-14.356342 22.361683 1.911192 0.467770
-14.664006 23.171616 1.775948 0.580392
-14.731853 23.350224 1.641711 0.436397
-14.776836 23.468643 1.511888 0.463358
-14.900787 23.794945 1.422395 0.508333
-14.980089 24.003708 1.332116 0.373284
-14.746113 23.387760 1.064924 0.523039
-14.248777 22.078516 0.564712 0.537132
-14.911497 23.745756 2.985960 0.488725
-14.848551 23.576496 2.889134 0.542402
-14.672291 23.102549 2.841078 0.566299
-14.798705 23.442467 2.631875 0.442892
-14.757322 23.331190 2.503703 0.477941
-15.012068 24.016180 2.299090 0.470956
-15.058132 24.140043 2.172705 0.479902
-14.965300 23.890425 2.061885 0.492402
-14.882172 23.666901 1.934212 0.519730
-14.763475 23.347736 1.785766 0.514828
-14.953532 23.858784 1.687140 0.381863
-15.017902 24.031870 1.582297 0.579779
-14.922213 23.774567 1.420684 0.468873
-15.051240 24.121511 1.356735 0.541299
-15.031384 24.068121 1.224151 0.540686
-14.768040 23.360008 0.910950 0.580392
-15.014055 23.947186 2.929737 0.502083
-14.691277 23.060360 3.005482 0.580147
-14.628647 22.888283 2.880409 0.557230
-14.820133 23.414389 2.634686 0.479902
-14.791178 23.334835 2.501965 0.546936
-14.719114 23.136841 2.375052 0.520221
-15.081392 24.132193 2.172673 0.476471
-14.973349 23.835346 2.062686 0.461152
-14.903146 23.642464 1.933955 0.526961
-14.809332 23.384714 1.788249 0.495588
-15.121726 24.243010 1.721469 0.393627
-15.089013 24.153131 1.598214 0.493137
-14.959996 23.798660 1.425973 0.391912
-12.524067 17.105995 -0.000055 0.511152
-14.756197 23.238726 1.035513 0.443015
-15.139155 24.290895 1.161884 0.446324
-15.032253 23.921045 2.934353 0.473039
-14.947755 23.683744 2.860039 0.476103
-14.720615 23.045862 2.847763 0.491912
-14.841759 23.386074 2.637552 0.490319
-14.831536 23.357367 2.497953 0.493750
-15.041903 23.948147 2.303496 0.532475
-15.104631 24.124308 2.172651 0.434314
-14.981615 23.778837 2.063510 0.430392
-14.443346 22.267200 1.910232 0.439216
-14.826725 23.343853 1.786650 0.504412
-15.062740 24.006662 1.701597 0.485049
-14.703487 22.997765 1.458133 0.482598
-14.989354 23.800571 1.427715 0.433211
-15.032155 23.920771 1.321223 0.517157
-15.088699 24.079565 1.230708 0.435417
-15.164392 24.292135 1.164317 0.454412
-14.974174 23.675079 2.997299 0.578186
-14.750531 23.032866 3.006783 0.425490
-14.545654 22.444538 2.961540 0.430515
-14.863588 23.357521 2.640471 0.471691
-14.851277 23.322168 2.501018 0.469485
-14.980800 23.694107 2.324808 0.497304
-14.742370 23.009430 2.230223 0.535049
-15.153407 24.189768 2.056234 0.510662
-14.948625 23.601711 1.933577 0.555147
-14.816321 23.221790 1.780824 0.422672
-15.022915 23.815044 1.685693 0.303186
-15.079182 23.976622 1.578705 0.466789
-15.018553 23.802519 1.429426 0.488725
-14.597033 22.592077 1.066887 0.471324
-15.116990 24.085194 1.233884 0.516299
-14.790515 23.147682 0.862814 0.463358
-15.130612 24.048365 2.896132 0.514338
-14.624727 22.562338 3.111718 0.522304
-14.567559 22.394407 2.968867 0.490319
-14.469827 22.107321 2.834834 0.501716
-14.881228 23.315804 2.500589 0.456005
-15.028904 23.749599 2.319221 0.505882
-15.151061 24.108433 2.172637 0.553186
-15.215179 24.296780 2.054249 0.467647
-14.909410 23.398588 1.930225 0.488848
-14.760855 22.962208 1.767879 0.565319
-15.144947 24.090471 1.710304 0.389093
-14.804744 23.091133 1.472108 0.570466
-15.047594 23.804501 1.431107 0.543505
-12.741233 17.029610 -0.000040 0.550858
-14.847421 23.216494 1.037529 0.458946
-14.881016 23.315182 0.909865 0.491912
-15.094820 23.861643 2.943321 0.464216
-15.049540 23.725525 2.844349 0.489583
-14.915366 23.322186 2.788683 0.532353
-14.898348 23.271027 2.650955 0.502083
-14.940766 23.398542 2.489383 0.409926
-15.041245 23.700592 2.322707 0.506618
-15.280943 24.421150 2.156041 0.474510
-2.421103 -14.236961 2.718659 0.445098
-14.935369 23.382317 1.930108 0.482108
-14.872505 23.193340 1.780390 0.506005
-15.153100 24.036839 1.706349 0.480147
-15.120632 23.939238 1.576170 0.496446
-14.861027 23.158834 1.331506 0.502206
-14.836317 23.084557 1.165749 0.582843
-14.876178 23.204380 1.037030 0.567892
-14.910801 23.308462 0.910649 0.514093
-15.129868 23.884428 2.935156 0.473039
-14.883486 23.126144 2.978529 0.457843
-14.625058 22.330784 2.976550 0.480882
-14.930346 23.270367 2.649566 0.482353
-14.940952 23.303009 2.499817 0.544730
-15.068025 23.694098 2.322527 0.414093
-15.161531 23.981880 2.178374 0.529289
-14.915087 23.223404 2.072466 0.506618
-14.961417 23.365993 1.929987 0.420221
-14.906484 23.196926 1.781079 0.496201
-15.103591 23.803560 1.686910 0.484191
-15.016715 23.536182 1.528388 0.484314
-14.864500 23.067711 1.318826 0.537623
-14.867535 23.077053 1.166226 0.568873
-15.080484 23.732443 1.159158 0.472181
-14.868881 23.081196 0.853290 0.551225
-15.120519 23.768759 2.963459 0.511520
-3.064392 -14.236965 11.442283 0.555515
-14.637838 22.247160 2.990327 0.496936
-14.870497 22.980591 2.693207 0.560907
-14.878085 23.004513 2.534723 0.568260
-15.173331 23.935246 2.301061 0.528064
-15.220624 24.084332 2.172694 0.509314
-14.942060 23.206188 2.072599 0.538725
-14.980474 23.327286 1.929480 0.489583
-15.128723 23.794624 1.812374 0.573897
-15.128673 23.794464 1.686829 0.449632
-15.047576 23.538815 1.529762 0.475858
-15.006925 23.410666 1.373722 0.526961
-15.055923 23.565126 1.261262 0.519730
-15.177884 23.949598 1.210245 0.443995
-14.899274 23.071308 0.853260 0.568382
-14.999663 23.287533 3.087538 0.460907
-14.906176 22.985521 3.005998 0.580882
-14.978673 23.219725 2.802914 0.465319
-14.909121 22.995035 2.689448 0.553186
-15.091018 23.582651 2.463932 0.477819
-15.121467 23.681015 2.322224 0.463358
-14.912952 23.007416 2.227699 0.547426
-14.969133 23.188906 2.072737 0.469485
-15.013795 23.333183 1.929735 0.531740
-15.051697 23.455624 1.795351 0.495956
-15.138559 23.736233 1.682515 0.459681
-15.077388 23.538618 1.530766 0.494240
-14.925563 23.048153 1.318799 0.576838
-15.084949 23.563049 1.262481 0.471201
-15.193532 23.913820 1.203882 0.447549
-14.929416 23.060598 0.852957 0.577206
-15.168364 23.741425 2.966456 0.510907
-15.140444 23.648952 2.854177 0.437500
-15.000264 23.184654 2.807868 0.548529
-15.144906 23.663731 2.584365 0.439338
-15.120995 23.584534 2.462716 0.480882
-15.148135 23.674427 2.322102 0.515931
-15.235373 23.963369 2.178157 0.499265
-14.887344 22.810646 2.079047 0.531740
-15.034185 23.297007 1.929266 0.481005
-14.936275 22.972713 1.771005 0.497549
-15.183746 23.792377 1.688001 0.565074
-15.239704 23.977716 1.584532 0.329902
-14.985798 23.136738 1.333978 0.481740
-15.245583 23.997189 1.346570 0.467524
-15.200713 23.848574 1.190859 0.501103
-15.029660 23.282017 0.913338 0.579902
-15.068785 23.307682 3.077701 0.521936
-15.165842 23.637457 2.854990 0.489216
-15.107679 23.439837 2.757787 0.472794
-14.577236 21.637545 2.896453 0.487377
-15.157367 23.608658 2.458861 0.474755
-15.174774 23.667803 2.321998 0.575368
-15.088113 23.373356 2.208001 0.539951
-15.023591 23.154129 2.073024 0.487990
-15.060230 23.278618 1.929100 0.503676
-15.103603 23.425989 1.794694 0.488848
-15.141270 23.553967 1.668272 0.542279
-15.175953 23.671812 1.548712 0.466789
-15.104210 23.428049 1.380408 0.493015
-15.267325 23.982267 1.345098 0.466299
-15.223292 23.832655 1.188957 0.518505
-15.059316 23.275511 0.913898 0.420098
-15.102831 23.317444 3.072974 0.532598
-15.191305 23.625994 2.855833 0.472181
-15.044223 23.113056 2.818107 0.466789
-4.334282 -14.236958 8.430567 0.573529
-15.193142 23.632397 2.455090 0.490441
-15.148196 23.475653 2.337736 0.461029
-15.186503 23.609249 2.195524 0.484191
-15.204605 23.672375 2.064054 0.455882
-15.134902 23.429293 1.931808 0.461275
-15.243889 23.809376 1.814704 0.453799
-15.020611 23.030712 1.624310 0.502819
-15.204382 23.671597 1.549601 0.433578
-15.322018 24.081842 1.482552 0.545588
-15.264989 23.882959 1.327627 0.485417
-15.241992 23.802757 1.183883 0.456495
-14.082695 19.759808 -0.000028 0.550368
-14.919235 22.548679 3.270787 0.554044
-15.183396 23.494797 2.883563 0.490686
-15.111705 23.238026 2.792884 0.491299
-4.648503 -14.236958 8.417878 0.483333
-15.142999 23.350109 2.487909 0.456985
-15.177137 23.472380 2.337348 0.442770
-15.083584 23.137306 2.219210 0.451225
-15.019003 22.906004 2.076948 0.483333
-15.170856 23.449884 1.932293 0.499142
-15.167778 23.438860 1.796171 0.470711
-15.233468 23.674135 1.679827 0.429902
-15.088397 23.154549 1.488733 0.444485
-15.252529 23.742401 1.431296 0.527696
-15.311079 23.952106 1.342017 0.492525
-15.305433 23.931887 1.214450 0.480882
-14.871643 22.378220 0.684883 0.496201
-15.069857 22.967974 3.159510 0.531005
-15.242434 23.603161 2.857613 0.464951
-15.110016 23.115782 2.814410 0.509436
-15.062597 22.941252 2.690758 0.492525
-15.222721 23.530609 2.465454 0.470711
-15.106907 23.104340 2.367972 0.484314
-15.190561 23.412239 2.204793 0.470098
-14.995588 22.694622 2.080384 0.545221
-14.935881 22.474859 1.915889 0.466912
-15.202708 23.456947 1.797483 0.392279
-15.233857 23.571596 1.671730 0.476103
-15.332684 23.935335 1.582794 0.529657
-15.299608 23.813601 1.443333 0.547672
-14.942692 22.499928 1.069469 0.507230
-15.285916 23.763203 1.178206 0.565564
-15.242287 23.602619 1.005223 0.532353
-15.022196 22.661074 3.236856 0.526348
-15.083364 22.892586 3.014746 0.545466
-15.152023 23.152454 2.805986 0.527083
-15.213121 23.383699 2.621584 0.526961
-15.295800 23.696625 2.444830 0.490074
-15.283329 23.649426 2.321056 0.542770
-15.225964 23.432304 2.203390 0.361397
-15.078653 22.874758 2.077185 0.567524
-15.035905 22.712963 1.920076 0.545711
-15.262142 23.569233 1.803567 0.505637
-15.283184 23.648876 1.678898 0.484559
-15.377979 24.007664 1.592180 0.473529
-15.173100 23.232225 1.355175 0.516054
-15.355214 23.921499 1.338748 0.512623
-15.259915 23.560806 1.134528 0.521569
-14.243896 19.715332 -0.000045 0.524632
-5.583983 -14.236958 12.776873 0.498284
-15.293841 23.580448 2.859520 0.471691
-15.151703 23.026855 2.828116 0.460049
-15.233915 23.347050 2.626068 0.419608
-15.279377 23.524111 2.464512 0.384559
-15.310942 23.647049 2.320674 0.477574
-15.274497 23.505108 2.199328 0.471814
-14.958515 22.274437 2.087187 0.463113
-15.032983 22.564468 1.917713 0.509191
-15.295848 23.588264 1.804889 0.433088
-15.276930 23.514582 1.668112 0.526226
-15.396383 23.979824 1.589614 0.455270
-15.335193 23.741501 1.434341 0.568627
-15.198729 23.210011 1.206290 0.568505
-15.341062 23.764359 1.181490 0.547917
-15.281513 23.532434 0.990736 0.421814
-15.047221 22.476467 3.280086 0.514706
-15.148664 22.883327 3.013175 0.562745
-15.225480 23.191425 2.795794 0.518137
-15.254994 23.309799 2.630658 0.434681
-15.358075 23.723236 2.440083 0.574755
-15.292301 23.459431 2.335962 0.578922
-15.314796 23.549652 2.196721 0.493995
-15.138685 22.843307 2.077439 0.433578
-15.265017 23.349995 1.931106 0.571078
-15.329103 23.607037 1.806184 0.542525
-15.333229 23.623583 1.677909 0.478554
-15.543574 24.467232 1.648127 0.530392
-15.362562 23.741234 1.435299 0.309191
-15.308605 23.524818 1.266726 0.541789
-15.370525 23.773169 1.184895 0.486275
-14.351889 19.687641 -0.000036 0.543873
-15.074108 22.435879 3.288353 0.490809
-15.181225 22.878647 3.012479 0.450858
-15.119080 22.621769 2.901073 0.424877
-15.416553 23.851379 2.546924 0.427328
-15.335823 23.517679 2.463659 0.538480
-15.320957 23.456230 2.335657 0.454657
-15.321666 23.459158 2.200958 0.475245
-15.168852 22.827503 2.077573 0.476961
-15.094284 22.519278 1.917238 0.463725
-15.287588 23.318298 1.791922 0.552819
-15.358381 23.610924 1.677393 0.459559
-15.544272 24.379307 1.638323 0.431740
-15.007352 22.159941 1.194937 0.552083
-15.278069 23.278950 1.221955 0.455025
-15.379081 23.696486 1.169252 0.415564
-15.541267 24.366884 1.209292 0.464828
-15.156530 22.630041 3.236258 0.518873
-15.213735 22.873932 3.011843 0.526348
-15.195481 22.796108 2.866992 0.506985
-15.298052 23.233419 2.640168 0.477574
-15.419066 23.749369 2.435511 0.491176
-15.393389 23.639891 2.319631 0.494118
-15.349108 23.451097 2.201031 0.443137
-15.252944 23.041101 2.073854 0.384804
-15.330328 23.371031 1.931692 0.430637
-15.370953 23.544231 1.803669 0.502696
-15.384798 23.603264 1.677284 0.491912
-15.554092 24.325056 1.632514 0.497181
-15.402681 23.679512 1.427799 0.468873
-15.294873 23.219868 1.212206 0.468995
-15.246617 23.014130 1.019258 0.460417
-15.551210 24.312765 1.196682 0.487990
-15.460164 23.810970 2.930921 0.586642
-15.246195 22.869179 3.011266 0.434314
-15.231368 22.803919 2.864139 0.507598
-15.355035 23.348240 2.621671 0.476348
-15.449099 23.762262 2.433289 0.569608
-15.420752 23.637495 2.319318 0.461765
-15.410310 23.591536 2.193632 0.439828
-15.358669 23.364237 2.068312 0.493873
-15.348030 23.317410 1.930902 0.455882
-15.306548 23.134827 1.783359 0.464461
-15.537655 24.152046 1.723948 0.467279
-15.571475 24.300907 1.630256 0.539216
-15.265718 22.955109 1.318527 0.567034
-15.328465 23.231297 1.215607 0.487990
-15.368449 23.407286 1.107915 0.483701
-15.353887 23.343189 0.948920 0.443750
-15.489451 23.823351 2.926294 0.436152
-15.278611 22.864391 3.010748 0.471324
-15.333022 23.111870 2.805419 0.529657
-15.503485 23.887177 2.538849 0.575245
-15.409532 23.459850 2.468234 0.493137
-15.449112 23.639875 2.318620 0.436520
-15.443815 23.615786 2.192110 0.526226
-15.375663 23.305809 2.069185 0.495711
-15.374627 23.301100 1.930736 0.484436
-15.371179 23.285412 1.791272 0.495466
-15.528903 24.002785 1.711848 0.576103
-15.546631 24.083418 1.605215 0.470466
-15.554891 24.120983 1.496662 0.506985
-15.361780 23.242666 1.218948 0.491299
-15.388844 23.365763 1.100124 0.461765
-15.413223 23.476643 0.984786 0.452941
-15.182098 22.253197 3.326986 0.517034
-15.321918 22.910995 2.998933 0.454534
-15.270151 22.667452 2.886876 0.467402
-15.429561 23.417412 2.609276 0.539828
-15.350840 23.047058 2.516076 0.518873
-15.296756 22.792618 2.389163 0.492892
-15.371733 23.145357 2.215447 0.465196
-15.393095 23.245857 2.070083 0.460662
-15.411992 23.334759 1.931404 0.394485
-15.379827 23.183434 1.786465 0.525123
-15.539249 23.933460 1.706471 0.477696
-15.547119 23.970484 1.592528 0.495221
-15.595905 24.200005 1.509404 0.486397
-15.394821 23.253975 1.222230 0.537745
-15.341228 23.001841 1.021126 0.481618
-15.422448 23.383953 0.962581 0.527696
-15.547174 23.847776 2.917303 0.504534
-15.368389 22.976807 2.982967 0.558946
-15.306382 22.674732 2.884231 0.484559
-15.465722 23.450974 2.603306 0.568627
-15.537425 23.800285 2.426866 0.442402
-15.511126 23.672161 2.314973 0.405270
-15.410462 23.181768 2.213307 0.470466
-15.429990 23.276901 2.069463 0.454044
-15.473681 23.489750 1.934093 0.524632
-15.427211 23.263361 1.790784 0.504902
-15.566115 23.940054 1.707451 0.521691
-15.601400 24.111948 1.609736 0.518382
-13.572395 14.227401 -0.000021 0.528799
-15.427594 23.265230 1.225454 0.485662
-15.374689 23.007496 1.023800 0.510662
-15.474259 23.492565 0.991866 0.563971
-15.280880 22.371269 3.293039 0.488848
-15.354632 22.743748 3.032897 0.493627
-15.342411 22.682026 2.881634 0.513603
-15.481596 23.384960 2.612439 0.401838
-15.512977 23.543444 2.456386 0.507230
-15.541612 23.688063 2.313201 0.537132
-15.448429 23.217459 2.211220 0.541544
-15.431688 23.132908 2.071767 0.567279
-15.500637 23.481127 1.934042 0.443750
-15.501419 23.485077 1.802182 0.470588
-15.657389 24.272781 1.735674 0.518505
-15.582622 23.895178 1.584863 0.487377
-15.287491 22.404659 1.239324 0.493382
-15.484169 23.397955 1.251163 0.458824
-15.489656 23.425667 1.117243 0.510784
-15.580292 23.883413 1.093087 0.469118
-15.603805 23.871777 2.908650 0.509681
-15.385276 22.726208 3.035353 0.464216
-15.380588 22.701630 2.876807 0.477696
-15.512163 23.391375 2.610640 0.502574
-15.549704 23.588169 2.450529 0.534804
-15.446318 23.046202 2.366355 0.451103
-15.454396 23.088551 2.217381 0.579902
-15.503171 23.344236 2.068149 0.483578
-15.505977 23.358944 1.932096 0.507721
-15.483515 23.241196 1.790254 0.438358
-15.619317 23.953096 1.709347 0.493750
-15.670945 24.223742 1.623906 0.553309
-15.662006 24.176878 1.507980 0.459926
-15.492362 23.287573 1.231731 0.421446
-15.434381 22.983627 1.021247 0.513113
-15.529959 23.484661 0.992634 0.505760
-15.631726 23.883621 2.904448 0.440564
-15.467737 22.990116 2.976050 0.560539
-15.422168 22.741827 2.868226 0.464461
-15.580799 23.606140 2.577453 0.508333
-15.533072 23.346096 2.478254 0.477328
-15.484914 23.083702 2.362750 0.517770
-8.588115 -14.494003 4.094248 0.678431
-15.487807 23.099470 2.072132 0.523775
-15.552468 23.451778 1.933729 0.548162
-15.421492 22.738142 1.765401 0.447304
-15.539026 23.378536 1.661828 0.485539
-15.728930 24.413239 1.646561 0.464828
-15.726475 24.399864 1.542251 0.495956
-15.335122 22.267553 1.044035 0.487745
-15.557687 23.480213 1.131568 0.443873
-15.561078 23.498690 0.997522 0.515564
-15.659394 23.895367 2.900325 0.491176
-15.500546 22.994499 2.973864 0.511152
-15.579000 23.439436 2.738244 0.577451
-15.562346 23.344984 2.616065 0.440196
-8.935638 -14.236961 6.867934 0.550245
-15.478082 22.867094 2.380330 0.476716
-8.906080 -14.404587 4.087158 0.166912
-15.522311 23.117929 2.071735 0.501225
-15.592314 23.514938 1.934862 0.495098
-15.586437 23.481607 1.802783 0.513603
-15.765560 24.497467 1.755415 0.434926
-15.661531 23.907492 1.587926 0.564216
-15.761107 24.472212 1.553723 0.405515
-15.501769 23.001431 1.180829 0.524877
-15.513875 23.070086 1.042713 0.452819
-15.614722 23.642021 1.035237 0.528676
-15.529223 22.975288 3.132980 0.509069
-15.533209 22.998854 2.971737 0.495221
-15.608772 23.445610 2.736215 0.489216
-15.546377 23.076706 2.655683 0.494975
-15.654457 23.715717 2.433953 0.488725
-15.559869 23.156475 2.355806 0.558333
-12.035499 2.319143 3.251390 0.471201
-15.627873 23.558540 2.064336 0.551716
-15.627820 23.558228 1.935659 0.500858
-15.487573 22.729033 1.765524 0.490809
-15.697857 23.972307 1.712038 0.544363
-15.689332 23.921909 1.590105 0.521324
-15.684925 23.895849 1.467552 0.563725
-15.404531 22.238062 1.040944 0.509069
-15.477427 22.669048 0.956021 0.490441
-15.622471 23.526598 1.007077 0.451225
-15.713990 23.918571 2.892313 0.478554
-15.570995 23.035692 2.962554 0.433088
-9.534142 -14.236965 9.681291 0.483456
-15.718830 23.948454 2.523928 0.497549
-15.687687 23.756170 2.428737 0.469485
-15.539659 22.842216 2.381499 0.493015
-15.533461 22.803949 2.230477 0.385784
-15.582260 23.105247 2.071776 0.531618
-15.652192 23.537020 1.935382 0.493995
-15.646868 23.504143 1.804370 0.484559
-15.632147 23.413256 1.665934 0.475858
-15.715593 23.928469 1.591342 0.502206
-15.750937 24.146685 1.505859 0.504044
-15.657728 23.571198 1.287785 0.521201
-15.596183 23.191206 1.071471 0.564583
-15.633447 23.421280 0.981499 0.461029
-15.495372 22.343819 3.290480 0.489583
-15.615092 23.117168 2.943684 0.506740
-15.566187 22.801262 2.853191 0.466176
-15.662439 23.423014 2.602220 0.455882
-15.720129 23.795662 2.423666 0.466667
-15.548924 22.689753 2.393728 0.409314
-12.340962 1.967573 3.266040 0.492279
-15.686744 23.580011 2.063835 0.481740
-15.681777 23.547928 1.935634 0.511520
-15.691220 23.608927 1.809795 0.471324
-15.749423 23.984892 1.713733 0.483456
-15.732127 23.873171 1.585357 0.460294
-15.566270 22.801796 1.304534 0.522181
-15.474415 22.208445 1.037657 0.486887
-15.624854 23.180225 1.070098 0.507721
-15.583083 22.910402 0.853132 0.464093
-15.554942 22.501028 3.249313 0.466299
-15.548964 22.460539 3.086044 0.403064
-15.618413 22.930851 2.828456 0.537132
-15.769983 23.957283 2.521473 0.524265
-15.731308 23.695374 2.434881 0.585907
-15.572360 22.618977 2.399178 0.491176
-15.591880 22.751171 2.232600 0.481005
-15.652471 23.161489 2.070691 0.527819
-15.711134 23.558752 1.935881 0.472304
-15.660713 23.217302 1.790548 0.479779
-15.744300 23.783350 1.697330 0.500368
-15.756956 23.869061 1.585316 0.485294
-15.698387 23.472433 1.405826 0.490074
-15.510173 22.197849 1.036724 0.477819
-15.699224 23.478106 1.136112 0.511887
-15.690716 23.420485 0.983497 0.454412
-15.577974 22.414719 3.269888 0.477451
-15.662481 23.016020 2.963800 0.550858
-15.647795 22.911518 2.831175 0.453922
-15.776706 23.828764 2.540200 0.453309
-15.758744 23.700962 2.433795 0.466054
-15.626049 22.756786 2.387366 0.491299
-15.628704 22.775682 2.231150 0.492402
-15.661180 23.006763 2.073176 0.522549
-15.723660 23.451323 1.934170 0.579902
-15.692798 23.231731 1.791474 0.454779
-15.760611 23.714243 1.691912 0.476838
-15.781792 23.864952 1.585256 0.411642
-15.715166 23.390892 1.394209 0.462868
-15.553209 22.238508 1.045163 0.503431
-15.727357 23.477633 1.136878 0.501103
-15.714373 23.385242 0.975604 0.536765
-15.609946 22.386726 3.275748 0.472426
-15.669293 22.831512 3.003082 0.466422
-15.677373 22.892065 2.833951 0.530025
-15.820735 23.966516 2.519069 0.491176
-15.811885 23.900188 2.410258 0.579289
-15.639248 22.606331 2.399442 0.465319
-12.886225 1.973368 3.261938 0.471324
-15.703451 23.087517 2.071773 0.525123
-15.700014 23.061754 1.927801 0.473162
-15.736806 23.337494 1.796916 0.534191
-15.638476 22.600552 1.600080 0.498162
-15.726089 23.257172 1.515113 0.499265
-15.696166 23.032915 1.341217 0.516176
-15.580195 22.163757 1.032354 0.473529
-15.719646 23.208885 1.079145 0.494975
-15.741968 23.376184 0.974295 0.533946
-15.705599 22.860203 3.155050 0.565931
-15.726349 23.024460 2.960170 0.492770
-15.837039 23.900663 2.648216 0.507353
-15.839960 23.923786 2.524988 0.505270
-15.842816 23.946394 2.404528 0.492402
-15.607857 22.086496 2.442043 0.498407
-15.728986 23.045334 2.217367 0.504902
-15.736373 23.103807 2.071440 0.447917
-15.722284 22.992287 1.926721 0.500735
-15.769723 23.367798 1.798600 0.486397
-15.681742 22.671356 1.606294 0.483824
-15.831578 23.857433 1.585156 0.473284
-15.833331 23.871307 1.467166 0.532721
-15.736197 23.102413 1.205383 0.443627
-15.751608 23.224407 1.083359 0.488113
-15.282815 19.513523 -0.000012 0.555392
-11.314451 -14.236965 12.512247 0.472549
-15.740656 22.882317 2.990264 0.557476
-15.737134 22.852785 2.839680 0.532721
-15.871088 23.976154 2.516715 0.477574
-15.801811 23.395185 2.468042 0.525858
-15.632364 21.974159 2.450940 0.488971
-15.712072 22.642614 2.237105 0.460907
-15.738737 22.866226 2.075294 0.503186
-15.785630 23.259483 1.931187 0.551593
-15.787395 23.274279 1.794146 0.463358
-15.789151 23.289013 1.657635 0.458946
-15.862211 23.901714 1.590642 0.433333
-15.800321 23.382683 1.394628 0.475490
-14.982075 16.520668 -0.000010 0.528799
-15.783287 23.239836 1.087500 0.481863
-15.764867 23.085358 0.902738 0.468995
-11.609274 -14.236965 12.503758 0.701348
-15.712680 22.345749 3.106079 0.481863
-15.790003 23.035103 2.805619 0.495343
-15.899759 24.013603 2.510708 0.499142
-15.867168 23.723047 2.429710 0.524877
-13.337493 1.170465 4.167079 0.475245
-15.767118 22.831085 2.227597 0.500735
-13.442087 2.102949 2.417132 0.465564
-13.495234 2.576759 1.590670 0.483456
-15.855196 23.616314 1.811221 0.465196
-15.758787 22.756805 1.613999 0.500735
-15.885717 23.888412 1.589432 0.441422
-15.832272 23.411938 1.399484 0.461275
-15.801741 23.139748 1.213540 0.425245
-15.814688 23.255173 1.091570 0.436520
-15.393514 19.500317 -0.000013 0.537377
-11.903633 -14.236958 12.495793 0.355392
-15.819585 23.020851 2.958629 0.378431
-15.926213 24.035351 2.622005 0.491054
-15.921046 23.986187 2.514410 0.494240
-15.893962 23.728504 2.428753 0.359436
-15.756870 22.424154 2.413134 0.493505
-15.796288 22.799191 2.229000 0.452451
-15.806789 22.899109 2.074635 0.482353
-15.850760 23.317459 1.932249 0.536642
-15.873943 23.538033 1.807497 0.582843
-15.850667 23.316572 1.660443 0.505392
-15.915038 23.929029 1.594442 0.422794
-15.907493 23.857237 1.466357 0.389583
-15.134590 16.503555 -0.000011 0.544730
-15.843125 23.244820 1.090010 0.484804
-15.448928 19.494282 -0.000017 0.539583
-12.197560 -14.236965 12.488355 0.482108
-15.850737 23.021019 2.957912 0.525735
-15.852149 23.035423 2.804380 0.353186
-15.945878 23.991350 2.513276 0.475368
-15.920639 23.733936 2.427822 0.479289
-15.791927 22.421232 2.413082 0.510907
-15.835352 22.864115 2.225633 0.501225
-15.837956 22.890678 2.074720 0.510539
-13.843234 2.546917 1.590779 0.473039
-15.883154 23.351635 1.798432 0.392892
-15.873586 23.254055 1.655533 0.520343
-15.939865 23.930019 1.594844 0.461152
-15.861242 23.128168 1.358069 0.509436
-15.865970 23.176380 1.221391 0.554534
-15.856356 23.078323 1.054523 0.518260
-15.504386 19.488661 -0.000014 0.522181
-12.491089 -14.236965 12.481435 0.772059
-15.810075 22.232578 3.128272 0.471691
-15.883153 23.035578 2.803821 0.489338
-15.970613 23.996611 2.512153 0.488603
-15.947201 23.739344 2.426915 0.486642
-15.782957 21.934607 2.452875 0.437868
-15.870622 22.897884 2.223818 0.524755
-15.869198 22.882233 2.074810 0.475858
-15.920599 23.447035 1.934471 0.501838
-15.909892 23.329388 1.797468 0.488725
-15.964565 23.930153 1.711426 0.555392
-15.964643 23.931005 1.595225 0.420221
-15.879882 22.999638 1.339348 0.501716
-15.287333 16.488617 -0.000004 0.549510
-15.886418 23.071455 1.053657 0.465931
-15.559882 19.483427 -0.000011 0.524142
-12.784242 -14.236969 12.475035 0.830024
-12.784242 -14.236969 11.031972 0.365074
-15.914115 23.035727 2.803303 0.506618
-15.995253 24.001966 2.511044 0.518505
-15.973652 23.744730 2.426032 0.481618
-12.766710 -14.445744 5.446115 0.176471
-15.891190 22.762711 2.230346 0.505760
-15.901117 22.880943 2.074785 0.451961
-14.144364 1.960314 1.581666 0.523162
-15.934255 23.275560 1.794938 0.491789
-15.933016 23.260807 1.656526 0.519363
-15.981177 23.834356 1.584315 0.424632
-15.955102 23.523827 1.417781 0.489461
-15.928946 23.212345 1.228947 0.532843
-15.508669 18.207388 -0.000000 0.501348
-15.615411 19.478554 -0.000015 0.524510
-13.077050 -14.236965 12.469153 0.809926
-15.943933 23.021500 2.956055 0.428799
-15.945038 23.035873 2.802825 0.431985
-16.019794 24.007418 2.509945 0.492279
-15.999994 23.750093 2.425174 0.494363
-13.057273 -14.494003 5.448149 0.678431
-13.057272 -14.494003 4.065931 0.678431
-15.933334 22.883774 2.074697 0.453186
-15.911886 22.605026 1.920728 0.441912
-15.972959 23.398731 1.801122 0.431005
-15.974707 23.421448 1.669930 0.476838
-15.882401 22.221821 1.398493 0.576226
-15.984644 23.550592 1.422091 0.459681
-15.959982 23.230087 1.232618 0.436029
-15.963956 23.281731 1.100316 0.518995
-15.670975 19.474094 -0.000012 0.538113
-13.369546 -14.236961 12.463787 0.593873
-13.369546 -14.236965 11.022273 0.681985
-15.975925 23.036015 2.802388 0.432230
-13.369546 -14.236965 8.196554 0.561520
-13.369546 -14.236961 6.805686 0.511275
-13.351572 -14.493999 5.446382 0.678431
-15.973131 22.996048 2.218607 0.500368
-15.965478 22.886597 2.074612 0.492034
-16.006317 23.470640 1.934968 0.542279
-13.443661 -13.177067 -0.000018 0.531373
-16.038656 23.933107 1.712155 0.444485
-16.030405 23.815117 1.582542 0.468995
-15.971650 22.974869 1.336778 0.436274
-15.516794 16.470131 -0.000008 0.528676
-15.637580 18.197441 -0.000006 0.539093
-15.726565 19.469999 -0.000015 0.560417
-13.661758 -14.236961 12.458935 0.478186
-13.661757 -14.236969 11.018090 0.414828
-15.998388 22.902744 2.826313 0.519485
-13.661757 -14.236969 8.193684 0.750980
-13.661758 -14.236961 6.803459 0.572181
-15.991489 22.793091 2.381372 0.483701
-15.996250 22.868759 2.224771 0.535662
-15.984680 22.684872 2.077885 0.491299
-15.974664 22.525660 1.919504 0.484436
-13.727255 -13.195915 -0.000018 0.535172
-16.021547 23.270853 1.657879 0.296814
-16.063328 23.934940 1.596548 0.437990
-16.018288 23.219027 1.373374 0.530882
-15.593364 16.465057 -0.000006 0.530025
-15.702087 18.193169 -0.000004 0.550000
-15.782187 19.466314 -0.000013 0.508946
-13.953709 -14.236969 12.454599 0.686275
-16.033651 22.965534 2.966832 0.562623
-16.037607 23.036289 2.801633 0.555882
-13.953710 -14.236961 8.191114 0.584069
-13.953709 -14.236961 6.801467 0.380392
-13.953710 -14.236958 5.422246 0.489338
-13.953709 -14.236961 4.050411 0.537868
-16.026619 22.839737 2.075315 0.493873
-16.071770 23.647335 1.937921 0.544608
-16.072884 23.667257 1.814611 0.392525
-16.073990 23.687037 1.692200 0.578799
-16.026176 22.831831 1.469614 0.485417
-15.958996 21.630220 1.137589 0.481618
-15.669965 16.460518 -0.000004 0.552696
-15.766621 18.189342 -0.000002 0.524632
-15.837831 19.463015 -0.000011 0.564093
-14.245437 -14.236973 12.450778 0.779657
-14.245437 -14.236965 11.011054 0.466544
-16.068407 23.036419 2.801316 0.448162
-14.245437 -14.236961 8.188849 0.582721
-14.245437 -14.236961 6.799709 0.610049
-14.245438 -14.236958 5.420994 0.757598
-16.068697 23.042339 2.216058 0.508701
-16.061491 22.895012 2.074382 0.494730
-14.245438 -14.236958 1.317268 0.563848
-14.294800 -13.227654 -0.000019 0.537868
-15.092015 3.072599 0.000004 0.533333
-16.026228 22.173994 1.394040 0.483946
-16.045849 22.575159 1.278240 0.504289
-15.746595 16.456490 -0.000006 0.535049
-15.831181 18.185947 -0.000004 0.582966
-15.893497 19.460089 -0.000014 0.524877
-14.536963 -14.236965 12.447462 0.806373
-14.536963 -14.236961 11.008195 0.465319
-16.100613 23.070616 2.794834 0.444118
-16.092501 22.877060 2.676709 0.415074
-14.536963 -14.236961 6.798188 0.312010
-14.536963 -14.236954 5.419909 0.583701
-16.096088 22.962662 2.219908 0.459559
-16.093370 22.897800 2.074312 0.429902
-16.072584 22.401859 1.917565 0.443260
-14.578726 -13.240540 -0.000018 0.535294
-15.262125 3.064894 0.000005 0.538848
-16.131002 23.795708 1.580959 0.511887
-16.079998 22.578751 1.279002 0.533456
-16.095026 22.937300 1.180887 0.569853
-15.895762 18.183025 -0.000002 0.545711
-15.949182 19.457565 -0.000012 0.567647
-14.828321 -14.236965 12.444661 0.746446
-14.828321 -14.236965 11.005781 0.484314
-16.129942 23.036667 2.800802 0.496691
-14.828321 -14.236965 8.185228 0.607476
-14.828321 -14.236961 6.796902 0.537868
-14.828321 -14.236961 5.418993 0.433701
-14.828321 -14.236961 4.048462 0.568627
-16.114613 22.597675 2.079207 0.542034
-14.828321 -14.236961 1.317667 0.566176
-16.144562 23.455336 1.804370 0.470711
-16.161417 23.938007 1.713083 0.449142
-16.098972 22.149836 1.391613 0.497304
-16.131006 23.067131 1.351684 0.483211
-16.126179 22.928879 1.179573 0.377328
-15.960362 18.180534 -0.000004 0.546446
-16.004883 19.455421 -0.000013 0.526838
-15.119534 -14.236969 12.442370 0.461397
-15.119534 -14.236965 11.003807 0.683088
-16.160683 23.036787 2.800605 0.447672
-16.154747 22.824299 2.684208 0.457108
-15.119534 -14.236965 6.795850 0.535294
-15.119534 -14.236958 5.418243 0.532721
-16.161551 23.067860 2.214630 0.478676
-15.119534 -14.236961 2.682183 0.554534
-16.172277 23.451912 1.934795 0.521324
-16.172726 23.467955 1.805033 0.517770
-16.185883 23.938984 1.713227 0.532598
-16.185907 23.939831 1.597749 0.517647
-16.166780 23.255096 1.379719 0.495711
-16.163338 23.131821 1.216694 0.489951
-16.024979 18.178513 -0.000002 0.529657
-16.060596 19.453674 -0.000012 0.556495
-15.410636 -14.236965 12.440587 0.442034
-15.410636 -14.236965 11.002270 0.428554
-15.405252 -14.494003 9.630924 0.678431
-15.410637 -14.236961 8.182817 0.745833
-15.410637 -14.236958 6.795031 0.642402
-15.405252 -14.494003 5.438741 0.678431
-16.181957 22.585644 2.238289 0.525000
-16.181976 22.586582 2.079358 0.574387
-15.410636 -14.236965 1.317933 0.476225
-16.200701 23.480490 1.805682 0.468873
-16.201033 23.496351 1.676974 0.579779
-15.919449 10.053616 -0.000012 0.540564
-16.193060 23.115688 1.359141 0.470098
-16.193893 23.155512 1.221139 0.512500
-16.089607 18.176937 -0.000001 0.534314
-16.116323 19.452316 -0.000011 0.562010
-15.701652 -14.236965 12.439316 0.604779
-15.701652 -14.236965 11.001172 0.464583
-15.698062 -14.494003 9.629993 0.678431
-15.701652 -14.236965 8.182063 0.608456
-15.701652 -14.236961 6.794447 0.387623
-16.222033 23.030437 2.361193 0.477083
-16.222429 23.058828 2.215011 0.489583
-16.215757 22.581020 2.079439 0.467157
-16.228270 23.477108 1.935226 0.355760
-16.228790 23.514364 1.807370 0.468382
-15.942980 3.045872 0.000006 0.538725
-16.202457 21.628471 1.331941 0.539216
-16.225052 23.246687 1.378653 0.531005
-16.224108 23.178947 1.225499 0.519975
-16.154245 18.175806 -0.000002 0.545833
-16.172056 19.451342 -0.000012 0.518627
-15.992609 -14.236965 12.438553 0.719485
-15.992609 -14.236965 11.000514 0.462500
-16.250917 22.762833 2.850161 0.514583
-15.992609 -14.236961 8.181612 0.568137
-15.992609 -14.236961 6.794096 0.651961
-16.253033 23.065632 2.358281 0.454534
-16.252766 23.027428 2.216538 0.477451
-16.249611 22.575447 2.079524 0.456495
-16.255993 23.489582 1.935435 0.530270
-16.256027 23.494650 1.806415 0.478554
-16.256210 23.520979 1.679056 0.503431
-16.162167 10.050230 -0.000012 0.543505
-16.254267 23.242392 1.378061 0.525490
-16.254700 23.304541 1.248408 0.503799
-16.218889 18.175133 -0.000001 0.526471
-16.227795 19.450758 -0.000012 0.558578
-16.283537 -14.236973 12.438299 0.793995
-16.283537 -14.236961 11.000292 0.637010
-16.283537 -14.494003 9.629251 0.625368
-16.283537 -14.236965 8.181461 0.592402
-16.283537 -14.236961 6.793979 0.534926
-16.283537 -14.494003 5.437987 0.569118
-16.283537 -14.493999 4.059842 0.642402
-16.283537 22.569862 2.079614 0.498162
-16.283537 -14.236961 1.318083 0.544485
-16.283537 23.517614 1.807548 0.450245
-16.283537 3.043510 0.000007 0.535662
-16.283537 10.049807 -0.000012 0.556740
-16.283537 23.238037 1.377431 0.451593
-16.283537 23.234798 1.235737 0.504412
-16.283537 18.174908 -0.000000 0.555760
-16.283537 19.450562 -0.000012 0.575000
-16.574471 -14.236965 12.438553 0.726838
-16.574471 -14.236965 11.000514 0.460907
-16.574471 -14.236965 9.582666 0.611397
-16.574471 -14.236961 8.181612 0.639338
-16.574471 -14.236961 6.794096 0.527083
-16.314014 23.069557 2.357960 0.560784
-16.574471 -14.236961 4.047263 0.610294
-16.317543 22.564264 2.079707 0.496691
-16.574471 -14.236961 1.318066 0.584926
-16.310801 23.529837 1.808144 0.542034
-16.453823 3.044104 0.000007 0.561152
-16.404909 10.050234 -0.000012 0.535907
-16.377666 13.952419 -0.000010 0.561152
-16.311117 23.484600 1.281172 0.448162
-16.348185 18.175135 -0.000001 0.536152
-16.339279 19.450758 -0.000012 0.504289
-16.865427 -14.236965 12.439316 0.469730
-16.865427 -14.236965 11.001172 0.564706
-16.865427 -14.236961 9.583220 0.554044
-16.865427 -14.236965 8.182063 0.532966
-16.865427 -14.236961 6.794447 0.576961
-16.865427 -14.236958 5.417243 0.531250
-16.865427 -14.236958 4.047414 0.511642
-16.865427 -14.236958 2.681983 0.796569
-16.865427 -14.236958 1.318016 0.539706
-16.337898 23.541985 1.808727 0.403064
-16.337683 23.557358 1.682016 0.545343
-16.341911 23.254648 1.519036 0.511887
-16.335825 23.690397 1.444478 0.567034
-16.338404 23.505772 1.284972 0.482721
-16.412828 18.175816 0.000000 0.545833
-16.361702 21.837322 0.597703 0.482721
-17.156445 -14.236965 12.440589 0.522794
-17.156445 -14.236965 11.002270 0.422794
-17.156445 -14.236965 9.584146 0.601961
-17.156445 -14.236961 8.182817 0.564461
-17.156445 -14.236958 6.795031 0.651471
-17.156445 -14.236961 5.417660 0.801961
-16.385820 22.552074 2.239938 0.495098
-17.156445 -14.236965 2.682068 0.626838
-16.365154 23.538710 1.936226 0.484681
-17.136133 -13.267326 -0.000019 0.533211
-16.364513 23.569340 1.682960 0.586887
-16.647627 10.053627 -0.000011 0.532843
-16.371735 23.224602 1.375301 0.551716
-16.370312 23.292503 1.246071 0.456618
-16.477468 18.176943 0.000000 0.530760
-16.399405 21.903629 0.614145 0.518382
-17.447542 -14.236969 12.442370 0.625123
-17.447542 -14.236965 11.003807 0.466299
-17.447542 -14.236969 9.585440 0.555637
-17.447542 -14.236965 8.183871 0.608211
-17.447542 -14.236965 6.795850 0.583578
-17.447542 -14.236958 5.418243 0.635662
-17.447542 -14.236961 4.048012 0.391544
-17.447542 -14.236961 2.682183 0.707230
-17.447542 -14.236961 1.317816 0.562623
-17.420263 -13.260365 -0.000018 0.533456
-16.964588 3.053040 0.000009 0.552819
-16.768961 10.056610 -0.000010 0.531373
-16.391485 23.570465 1.426518 0.459191
-16.390512 23.605257 1.302872 0.438480
-16.407169 23.008980 1.043686 0.491789
-16.506477 19.453682 -0.000010 0.537500
-17.738758 -14.236965 12.444661 0.695588
-17.738758 -14.236965 11.005781 0.469853
-17.741800 -14.324070 9.602962 0.164706
-17.738758 -14.236965 8.185228 0.659559
-17.738758 -14.236965 6.796902 0.630515
-17.741800 -14.324070 5.426140 0.139583
-16.454449 22.540771 2.240587 0.535417
-17.738758 -14.236961 2.682333 0.670343
-17.738758 -14.236961 1.317667 0.624755
-16.418228 23.578003 1.810400 0.388113
-17.134790 3.058388 0.000008 0.536887
-16.890274 10.060415 -0.000010 0.531127
-16.754086 13.960316 -0.000007 0.543995
-16.438751 22.990297 1.190755 0.510172
-16.606712 18.180555 0.000001 0.521814
-16.475821 21.928766 0.619905 0.472181
-18.030113 -14.236969 12.447463 0.800245
-18.030113 -14.236961 11.008195 0.640686
-18.040886 -14.494007 9.635950 0.678431
-18.030113 -14.236969 8.186887 0.586275
-18.030113 -14.236961 6.798188 0.519118
-18.040886 -14.493999 5.441004 0.678431
-18.040886 -14.493999 4.061650 0.678431
-18.030113 -14.236958 2.682516 0.470833
-18.030113 -14.236958 1.317484 0.550245
-17.988350 -13.240505 -0.000016 0.538971
-17.304949 3.064913 0.000007 0.536642
-17.011555 10.065065 -0.000011 0.522059
-16.848145 13.963925 -0.000008 0.549020
-16.470480 22.974756 1.187708 0.443260
-16.671312 18.183037 0.000000 0.537255
-16.617893 19.457565 -0.000012 0.531863
-18.321642 -14.236973 12.450778 0.811275
-18.321642 -14.236965 11.011054 0.567770
-18.334213 -14.494011 9.638371 0.678431
-18.321642 -14.236961 8.188849 0.618382
-18.321642 -14.236961 6.799709 0.553186
-18.334213 -14.494003 5.442095 0.678431
-18.334213 -14.493999 4.062304 0.678431
-18.321642 -14.236958 2.682732 0.467279
-16.471754 23.586689 1.936950 0.467524
-18.272278 -13.227646 -0.000019 0.536642
-17.475058 3.072666 0.000010 0.536274
-17.132801 10.070599 -0.000008 0.526226
-16.491875 23.175293 1.367368 0.484804
-16.498007 23.049923 1.201144 0.441667
-16.735893 18.185978 0.000002 0.534559
-16.551600 21.954113 0.625453 0.550613
-18.613365 -14.236973 12.454600 0.566299
-18.613365 -14.236969 11.014353 0.473529
-18.627735 -14.494003 9.641166 0.678431
-18.613365 -14.236961 8.191114 0.549632
-18.613365 -14.236961 6.801467 0.578064
-18.627735 -14.494003 5.443355 0.678431
-18.627735 -14.494007 4.063058 0.678431
-18.613365 -14.236961 2.682983 0.779412
-18.613365 -14.236961 1.317017 0.544608
-18.556103 -13.212753 -0.000018 0.532966
-17.645109 3.081564 0.000008 0.535662
-17.254007 10.076939 -0.000009 0.516422
-16.498272 23.594252 1.429380 0.533946
-16.531921 22.992393 1.190367 0.481740
-16.800451 18.189358 0.000001 0.523897
-16.729244 19.463015 -0.000011 0.522917
-18.905321 -14.236961 12.458935 0.615441
-18.905321 -14.236969 11.018090 0.434681
-18.930426 -14.635990 9.670221 0.569240
-18.905321 -14.236969 8.193683 0.703186
-18.905321 -14.236965 6.803459 0.653309
-18.930426 -14.635990 5.456448 0.595343
-18.930426 -14.635979 4.070903 0.585907
-18.905321 -14.236961 2.683265 0.728922
-18.905321 -14.236958 1.316734 0.751471
-18.839823 -13.195904 -0.000018 0.533946
-17.815094 3.091694 0.000011 0.552696
-17.375164 10.084164 -0.000006 0.525735
-17.130138 13.978734 -0.000004 0.551593
-16.547997 23.231583 1.233640 0.506250
-16.864986 18.193205 0.000004 0.522426
-16.784887 19.466333 -0.000008 0.532230
-19.197531 -14.236965 12.463788 0.696936
-19.197531 -14.236965 11.022273 0.541544
-19.197531 -14.236965 9.600997 0.555637
-19.197531 -14.236969 8.196555 0.650490
-19.197531 -14.236965 6.805686 0.577574
-19.197531 -14.236961 5.425254 0.635417
-19.197531 -14.236961 4.052215 0.443137
-19.197531 -14.236961 2.683583 0.664706
-19.197531 -14.236961 1.316418 0.562623
-19.123415 -13.177063 -0.000018 0.533456
-17.985004 3.102970 0.000010 0.533333
-17.496269 10.092192 -0.000008 0.528186
-16.575550 23.259075 1.379039 0.520588
-16.602467 22.874153 1.168089 0.493260
-16.929491 18.197483 0.000003 0.518750
-16.840508 19.470020 -0.000010 0.536397
-19.490028 -14.236969 12.469154 0.615931
-19.490028 -14.236961 11.026899 0.471814
-19.490028 -14.236965 9.604895 0.537010
-19.490028 -14.236965 8.199733 0.499142
-19.490028 -14.236965 6.808150 0.597059
-19.490028 -14.236965 5.427010 0.704289
-19.490028 -14.236965 4.053267 0.459436
-19.490028 -14.236961 2.683933 0.673774
-19.490028 -14.236961 1.316067 0.629902
-19.406870 -13.156223 -0.000016 0.533824
-18.154835 3.115412 0.000008 0.535662
-17.617317 10.101067 -0.000010 0.517279
-17.317938 13.991843 -0.000007 0.522549
-16.602758 23.286415 1.242897 0.524755
-16.993967 18.202209 0.000001 0.515809
-16.896101 19.474094 -0.000012 0.527941
-19.782839 -14.236969 12.475035 0.824877
-19.782839 -14.236973 11.031973 0.801225
-19.782839 -14.236969 9.609168 0.575490
-19.782839 -14.236961 8.203217 0.485784
-19.782839 -14.236958 6.810853 0.492647
-19.782839 -14.236958 5.428936 0.521078
-19.782839 -14.236961 4.054420 0.739706
-19.782839 -14.236965 2.684318 0.439583
-19.782839 -14.236961 1.315683 0.588971
-19.690182 -13.133530 -0.000021 0.539706
-18.324566 3.129122 0.000012 0.539338
-17.738295 10.110832 -0.000006 0.536887
-17.411760 13.999416 -0.000004 0.520956
-17.203297 16.481956 0.000001 0.518627
-17.058405 18.207409 0.000004 0.560784
-16.951662 19.478579 -0.000008 0.510539
-20.075993 -14.236969 12.481436 0.793505
-20.075993 -14.236965 11.037488 0.853799
-20.075993 -14.236961 9.613816 0.570466
-20.075993 -14.236969 8.207006 0.492892
-20.075993 -14.236973 6.813793 0.566912
-20.075993 -14.236961 5.431031 0.537868
-20.075993 -14.236958 4.055674 0.580637
-20.075991 -14.236958 2.684735 0.477328
-20.075991 -14.236958 1.315265 0.497917
-19.973314 -13.108719 -0.000020 0.535049
-18.494205 3.143930 0.000009 0.542402
-17.859205 10.121393 -0.000008 0.524387
-17.505533 14.007604 -0.000006 0.523162
-16.656221 23.339947 1.251790 0.517157
-17.122808 18.213032 0.000002 0.515564
-17.007193 19.483429 -0.000011 0.539338
-20.369518 -14.236973 12.488357 0.519853
-20.369518 -14.236961 11.043453 0.612745
-20.394722 -14.494011 9.665838 0.678431
-20.369518 -14.236965 8.211103 0.592770
-20.369518 -14.236961 6.816969 0.675613
-20.394722 -14.494003 5.454473 0.678431
-20.394722 -14.494003 4.069719 0.678431
-20.369518 -14.236958 2.685187 0.765074
-20.369518 -14.236958 1.314812 0.525613
-20.256271 -13.081989 -0.000020 0.534804
-18.663729 3.160013 0.000014 0.530025
-17.980036 10.132847 -0.000004 0.547549
-17.599239 14.016492 -0.000001 0.535417
-16.682487 23.366247 1.256104 0.456618
-17.187166 18.219135 0.000006 0.534559
-17.062683 19.488716 0.000000 0.560417
-20.663446 -14.236965 12.495795 0.721446
-20.663446 -14.236969 11.049870 0.554167
-20.690464 -14.494007 9.671275 0.678431
-20.663446 -14.236961 8.215511 0.506373
-20.663446 -14.236961 6.820386 0.786887
-20.690464 -14.494007 5.456924 0.678431
-20.690462 -14.494003 4.071187 0.678431
-20.663446 -14.236965 2.685673 0.747181
-20.663446 -14.236965 1.314326 0.719730
-20.539032 -13.053234 -0.000019 0.534069
-18.833136 3.177265 0.000018 0.539093
-18.100788 10.145086 -0.000007 0.547181
-16.708464 23.392159 1.396989 0.466912
-16.708454 23.392246 1.260333 0.555025
-17.251484 18.225657 0.000004 0.535294
-17.118141 19.494341 -0.000002 0.523039
-20.957808 -14.236969 12.503758 0.437745
-20.957808 -14.236965 11.056736 0.808333
-20.986639 -14.494007 9.677095 0.678431
-20.957808 -14.236969 8.220224 0.674510
-20.957806 -14.236961 6.824043 0.748284
-20.986639 -14.494007 5.459548 0.678431
-20.986639 -14.494003 4.072760 0.678431
-20.957808 -14.236965 2.686194 0.537010
-20.957808 -14.236965 1.313806 0.560294
-20.821594 -13.022598 -0.000021 0.536642
-19.002428 3.195625 0.000015 0.542770
-18.221453 10.158169 -0.000010 0.541912
-17.786469 14.036130 -0.000007 0.537623
-16.734127 23.417953 1.264479 0.450613
-17.315756 18.232624 0.000001 0.525858
-17.173557 19.500349 -0.000005 0.563725
-21.252625 -14.236969 12.512248 0.434559
-21.252625 -14.236969 11.064056 0.450613
-21.283276 -14.494003 9.683301 0.665441
-21.252625 -14.236965 8.225252 0.471078
-21.252625 -14.236965 6.827942 0.660172
-21.283276 -14.494003 5.462342 0.665319
-21.283276 -14.494003 4.074434 0.678431
-21.252625 -14.236965 2.686748 0.657108
-21.252625 -14.236961 1.313251 0.610294
-21.103920 -12.989891 -0.000020 0.536765
-19.171572 3.215267 0.000021 0.542157
