# This PCD file was generated using the MATLABÂ® pcwrite function
# from Computer Vision ToolboxÂ®.
# .PCD v.7 - Point Cloud Data file format
VERSION .7
FIELDS x y z intensity
SIZE 4 4 4 4
TYPE F F F F
COUNT 1 1 1 1
WIDTH 1311
HEIGHT 1
VIEWPOINT 0 0 0 1 0 0 0
POINTS 1311
DATA ascii
-12.166843 28.435774 0.000005 0.340196
nan nan nan 0.000000
nan nan nan 0.000000
nan nan nan 0.000000
nan nan nan 0.000000
nan nan nan 0.000000
nan nan nan 0.000000
nan nan nan 0.000000
nan nan nan 0.000000
nan nan nan 0.000000
-44.599148 32.819405 -0.000023 0.332108
-28.422812 30.661018 -0.000006 0.336029
-21.477831 29.734360 -0.000003 0.331495
-17.609856 29.218262 -0.000002 0.337377
-15.140486 28.888777 -0.000002 0.333211
-13.424181 28.659773 -0.000001 0.331005
-12.159676 28.491053 0.000002 0.328064
nan nan nan 0.000000
nan nan nan 0.000000
nan nan nan 0.000000
nan nan nan 0.000000
nan nan nan 0.000000
nan nan nan 0.000000
nan nan nan 0.000000
nan nan nan 0.000000
nan nan nan 0.000000
-44.560581 33.100990 -0.000023 0.332108
-28.399708 30.829729 -0.000007 0.331985
-21.461361 29.854607 -0.000003 0.333088
-17.597080 29.311518 -0.000002 0.333946
-15.130074 28.964804 -0.000002 0.331250
-13.415407 28.723822 -0.000001 0.327941
-12.152105 28.546276 0.000004 0.336887
nan nan nan 0.000000
nan nan nan 0.000000
nan nan nan 0.000000
nan nan nan 0.000000
nan nan nan 0.000000
nan nan nan 0.000000
nan nan nan 0.000000
nan nan nan 0.000000
nan nan nan 0.000000
-44.520046 33.382305 -0.000023 0.332108
-28.375422 30.998274 -0.000006 0.332108
-21.444052 29.974739 -0.000004 0.335172
-17.583658 29.404686 -0.000002 0.334314
-15.119127 29.040754 -0.000002 0.331740
-13.406189 28.787809 -0.000001 0.331618
-12.144156 28.601448 0.000004 0.334681
nan nan nan 0.000000
nan nan nan 0.000000
nan nan nan 0.000000
nan nan nan 0.000000
nan nan nan 0.000000
nan nan nan 0.000000
nan nan nan 0.000000
nan nan nan 0.000000
nan nan nan 0.000000
-44.477539 33.663330 -0.000023 0.333333
-28.349958 31.166647 -0.000006 0.333088
-21.425903 30.094746 -0.000004 0.332108
-17.569584 29.497757 -0.000002 0.332598
-15.053333 29.108219 0.010000 1.000000
-13.396517 28.851730 -0.000000 0.332475
-12.135818 28.656565 0.000004 0.337010
nan nan nan 0.000000
nan nan nan 0.000000
nan nan nan 0.000000
nan nan nan 0.000000
nan nan nan 0.000000
nan nan nan 0.000000
nan nan nan 0.000000
nan nan nan 0.000000
nan nan nan 0.000000
-44.433071 33.944046 -0.000023 0.332108
-28.323320 31.334835 -0.000006 0.332966
-21.406916 30.214621 -0.000004 0.334559
-17.554857 29.590725 -0.000002 0.333088
-15.041388 29.183630 0.010000 1.000000
-13.386406 28.915583 -0.000001 0.339706
-12.127099 28.711618 0.000004 0.334436
nan nan nan 0.000000
nan nan nan 0.000000
nan nan nan 0.000000
nan nan nan 0.000000
nan nan nan 0.000000
nan nan nan 0.000000
nan nan nan 0.000000
nan nan nan 0.000000
nan nan nan 0.000000
-44.386654 34.224453 -0.000023 0.332475
-28.295504 31.502836 -0.000006 0.332598
-21.387091 30.334366 -0.000004 0.328799
-17.539484 29.683590 -0.000002 0.337010
-15.083115 29.268126 -0.000002 0.337132
-13.375847 28.979362 -0.000000 0.342157
-12.117994 28.766613 0.000004 0.333333
nan nan nan 0.000000
nan nan nan 0.000000
nan nan nan 0.000000
nan nan nan 0.000000
nan nan nan 0.000000
nan nan nan 0.000000
nan nan nan 0.000000
nan nan nan 0.000000
nan nan nan 0.000000
-44.338272 34.504524 -0.000023 0.332108
-28.266516 31.670637 -0.000006 0.334314
-21.366436 30.453966 -0.000004 0.335539
-17.523460 29.776344 -0.000002 0.333701
-15.070053 29.343742 -0.000002 0.332353
-13.364843 29.043068 -0.000001 0.329412
-12.108500 28.821541 0.000005 0.332108
nan nan nan 0.000000
nan nan nan 0.000000
nan nan nan 0.000000
nan nan nan 0.000000
nan nan nan 0.000000
nan nan nan 0.000000
nan nan nan 0.000000
nan nan nan 0.000000
nan nan nan 0.000000
-44.287949 34.784248 -0.000023 0.331740
-28.236374 31.838232 -0.000007 0.333701
-21.344944 30.573418 -0.000004 0.330760
-17.506792 29.868984 -0.000002 0.331618
-15.056467 29.419266 -0.000002 0.331863
-13.353397 29.106693 -0.000001 0.337255
-12.098631 28.876400 0.000005 0.336275
nan nan nan 0.000000
nan nan nan 0.000000
nan nan nan 0.000000
nan nan nan 0.000000
nan nan nan 0.000000
nan nan nan 0.000000
nan nan nan 0.000000
nan nan nan 0.000000
nan nan nan 0.000000
-44.235664 35.063618 -0.000023 0.332230
-28.205046 32.005611 -0.000007 0.331863
-21.322617 30.692717 -0.000004 0.333578
-17.489475 29.961506 -0.000002 0.333088
-15.042351 29.494692 -0.000002 0.334069
-13.341503 29.170238 -0.000001 0.332721
-12.088378 28.931190 0.000005 0.332843
nan nan nan 0.000000
nan nan nan 0.000000
nan nan nan 0.000000
nan nan nan 0.000000
nan nan nan 0.000000
nan nan nan 0.000000
nan nan nan 0.000000
nan nan nan 0.000000
nan nan nan 0.000000
-44.181431 35.342613 -0.000023 0.332108
-28.172558 32.172771 -0.000007 0.332721
-21.299459 30.811859 -0.000004 0.329289
-17.471519 30.053907 -0.000002 0.332598
-15.027706 29.570019 -0.000001 0.330882
-13.329168 29.233700 -0.000001 0.340074
-12.077737 28.985909 0.000006 0.339706
nan nan nan 0.000000
nan nan nan 0.000000
nan nan nan 0.000000
nan nan nan 0.000000
nan nan nan 0.000000
nan nan nan 0.000000
nan nan nan 0.000000
nan nan nan 0.000000
nan nan nan 0.000000
-44.125294 35.621231 -0.000025 0.332353
-28.138899 32.339695 -0.000007 0.332721
-21.275469 30.930836 -0.000004 0.329902
-17.452909 30.146175 -0.000002 0.333456
-15.012537 29.645239 -0.000001 0.331740
-13.316391 29.297071 -0.000001 0.323529
-12.066725 29.040550 0.000005 0.328922
nan nan nan 0.000000
nan nan nan 0.000000
nan nan nan 0.000000
nan nan nan 0.000000
nan nan nan 0.000000
nan nan nan 0.000000
nan nan nan 0.000000
nan nan nan 0.000000
nan nan nan 0.000000
-44.067169 35.899445 -0.000025 0.331740
-28.104071 32.506382 -0.000007 0.333211
-21.250647 31.049641 -0.000004 0.333824
-17.433662 30.238316 -0.000002 0.332598
-14.996847 29.720354 -0.000001 0.334559
-13.303171 29.360353 -0.000001 0.338603
-12.055324 29.095114 0.000005 0.333824
nan nan nan 0.000000
nan nan nan 0.000000
nan nan nan 0.000000
nan nan nan 0.000000
nan nan nan 0.000000
nan nan nan 0.000000
nan nan nan 0.000000
nan nan nan 0.000000
nan nan nan 0.000000
-44.007111 36.177246 -0.000025 0.331863
-27.948923 32.646626 0.009997 1.000000
-21.225000 31.168274 -0.000004 0.335784
-17.413771 30.330318 -0.000002 0.336887
-14.980633 29.795359 -0.000002 0.335172
-13.289509 29.423542 -0.000001 0.330637
-12.004580 29.141031 0.009999 1.000000
nan nan nan 0.000000
nan nan nan 0.000000
nan nan nan 0.000000
nan nan nan 0.000000
nan nan nan 0.000000
nan nan nan 0.000000
nan nan nan 0.000000
nan nan nan 0.000000
nan nan nan 0.000000
-43.945103 36.454620 -0.000025 0.332475
-28.030941 32.839008 -0.000007 0.333701
-21.198523 31.286720 -0.000004 0.331373
-17.393240 30.422182 -0.000002 0.331005
-14.963892 29.870247 -0.000002 0.336275
-13.275408 29.486633 -0.000001 0.337255
-11.992483 29.195160 0.009998 1.000000
nan nan nan 0.000000
nan nan nan 0.000000
nan nan nan 0.000000
nan nan nan 0.000000
nan nan nan 0.000000
nan nan nan 0.000000
nan nan nan 0.000000
nan nan nan 0.000000
nan nan nan 0.000000
-43.881168 36.731552 -0.000025 0.332598
-27.992678 33.004940 -0.000011 0.538725
-21.171223 31.404982 -0.000004 0.332843
-17.372065 30.513897 -0.000003 0.329657
-14.946629 29.945015 -0.000001 0.324632
-13.260864 29.549623 -0.000001 0.336397
-11.980003 29.249201 0.009999 1.000000
nan nan nan 0.000000
nan nan nan 0.000000
nan nan nan 0.000000
nan nan nan 0.000000
nan nan nan 0.000000
nan nan nan 0.000000
nan nan nan 0.000000
nan nan nan 0.000000
nan nan nan 0.000000
-43.815308 37.008034 -0.000025 0.332353
-27.953209 33.170586 -0.000010 0.530515
-21.143089 31.523045 -0.000004 0.332966
-17.350248 30.605461 -0.000002 0.334191
-14.928844 30.019661 -0.000001 0.332721
-13.245882 29.612511 -0.000001 0.333824
-12.005924 29.312532 0.000006 0.328431
nan nan nan 0.000000
nan nan nan 0.000000
nan nan nan 0.000000
nan nan nan 0.000000
nan nan nan 0.000000
nan nan nan 0.000000
nan nan nan 0.000000
nan nan nan 0.000000
nan nan nan 0.000000
-43.747513 37.284054 -0.000025 0.331985
-27.912613 33.335968 -0.000012 0.537377
-21.114140 31.640915 -0.000004 0.328431
-17.327797 30.696875 -0.000002 0.333701
-14.910540 30.094185 -0.000001 0.328431
-13.230461 29.675293 -0.000001 0.335907
-11.992629 29.366667 0.000006 0.322917
nan nan nan 0.000000
nan nan nan 0.000000
nan nan nan 0.000000
nan nan nan 0.000000
nan nan nan 0.000000
nan nan nan 0.000000
nan nan nan 0.000000
nan nan nan 0.000000
nan nan nan 0.000000
-43.677780 37.559582 -0.000025 0.332353
-27.870846 33.501049 -0.000012 0.541912
-21.084368 31.758577 -0.000004 0.333578
-17.304707 30.788126 -0.000002 0.333701
-14.891718 30.168575 -0.000001 0.342157
-13.214603 29.737965 -0.000001 0.330637
-11.978953 29.420704 0.000006 0.337745
nan nan nan 0.000000
nan nan nan 0.000000
nan nan nan 0.000000
nan nan nan 0.000000
nan nan nan 0.000000
nan nan nan 0.000000
nan nan nan 0.000000
nan nan nan 0.000000
nan nan nan 0.000000
-43.606155 37.834629 -0.000025 0.331985
-27.827909 33.665836 -0.000012 0.547181
-21.053774 31.876030 -0.000004 0.334681
-17.280979 30.879215 -0.000002 0.331373
-14.872374 30.242834 -0.000001 0.337990
-13.198307 29.800526 -0.000001 0.334069
-11.964904 29.474648 0.000006 0.338725
nan nan nan 0.000000
nan nan nan 0.000000
nan nan nan 0.000000
nan nan nan 0.000000
nan nan nan 0.000000
nan nan nan 0.000000
nan nan nan 0.000000
nan nan nan 0.000000
nan nan nan 0.000000
-43.532593 38.109161 -0.000025 0.332598
-27.783833 33.830318 -0.000011 0.542034
-21.022358 31.993265 -0.000003 0.336887
-17.256618 30.970135 -0.000002 0.330882
-14.852514 30.316956 -0.000001 0.333946
-13.181574 29.862970 -0.000001 0.337255
-11.950478 29.528488 0.000006 0.333456
nan nan nan 0.000000
nan nan nan 0.000000
nan nan nan 0.000000
nan nan nan 0.000000
nan nan nan 0.000000
nan nan nan 0.000000
nan nan nan 0.000000
nan nan nan 0.000000
nan nan nan 0.000000
-43.457104 38.383171 -0.000024 0.332843
-27.738605 33.994488 -0.000011 0.543382
-20.990129 32.110279 -0.000004 0.333946
-17.231621 31.060884 -0.000002 0.337745
-14.832138 30.390936 -0.000001 0.333946
-13.164406 29.925297 -0.000001 0.329289
-11.935678 29.582230 0.000005 0.334804
nan nan nan 0.000000
nan nan nan 0.000000
nan nan nan 0.000000
nan nan nan 0.000000
nan nan nan 0.000000
nan nan nan 0.000000
nan nan nan 0.000000
nan nan nan 0.000000
nan nan nan 0.000000
-43.379768 38.656666 -0.000026 0.332598
-27.692236 34.158337 -0.000011 0.529779
-20.957083 32.227066 -0.000004 0.330882
-17.205990 31.151455 -0.000002 0.334559
-14.811243 30.464773 -0.000001 0.338725
-13.146805 29.987503 -0.000001 0.326348
-11.920504 29.635866 0.000004 0.335049
nan nan nan 0.000000
nan nan nan 0.000000
nan nan nan 0.000000
nan nan nan 0.000000
nan nan nan 0.000000
nan nan nan 0.000000
nan nan nan 0.000000
nan nan nan 0.000000
nan nan nan 0.000000
-43.300453 38.929596 -0.000026 0.332108
-27.644751 34.321869 -0.000012 0.535172
-20.923225 32.343616 -0.000004 0.331250
-17.179733 31.241848 -0.000003 0.334804
-14.789835 30.538462 -0.000001 0.337255
-13.128767 30.049583 -0.000001 0.331985
-11.904950 29.689394 0.000005 0.332230
-38.142792 37.669289 10.869411 0.669240
-38.142780 37.669289 9.647539 0.643995
-38.142780 37.669289 8.442825 0.659926
-38.142780 37.669289 7.252379 0.629779
-38.142780 37.669289 6.073439 0.631373
-38.142803 37.669296 4.903346 0.645833
-38.142879 37.669319 3.739521 0.645956
-38.145088 37.669983 2.579465 0.624632
-38.145088 37.669983 1.420536 0.661274
-38.145092 37.669983 0.260366 0.644853
-27.596102 34.485058 -0.000012 0.530270
-20.888550 32.459930 -0.000004 0.335539
-17.152840 31.332052 -0.000003 0.335417
-14.767912 30.612000 -0.000001 0.333946
-13.110300 30.111536 -0.000001 0.332721
-11.889027 29.742813 0.000004 0.341544
-37.308262 37.669735 10.669538 0.641912
-37.308262 37.669735 9.475203 0.646446
-37.308262 37.669735 8.297636 0.650123
-37.308258 37.669735 7.134017 0.645221
-37.308262 37.669735 5.981644 0.614461
-37.308254 37.669731 4.837917 0.645588
-37.308292 37.669746 3.700317 0.634314
-37.309067 37.669983 2.566381 0.627083
-37.309067 37.669983 1.433619 0.641667
-37.309071 37.669987 0.299642 0.660539
-27.546310 34.647903 -0.000012 0.540196
-20.853064 32.575996 -0.000004 0.336642
-17.125319 31.422068 -0.000002 0.330515
-14.745476 30.685385 -0.000001 0.330147
-13.091398 30.173361 -0.000001 0.337990
-11.872719 29.796116 0.000007 0.337623
-36.509884 37.669964 10.478721 0.654534
-36.509880 37.669964 9.310674 0.634681
-36.509884 37.669960 8.159025 0.646078
-36.509880 37.669964 7.021018 0.633211
-36.509884 37.669964 5.894009 0.619853
-36.509880 37.669960 4.775455 0.639216
-36.509884 37.669960 3.662893 0.652574
-36.509964 37.669991 2.553904 0.620466
-36.509964 37.669991 1.446097 0.642647
-36.509968 37.669991 0.337103 0.628431
-27.495386 34.810394 -0.000012 0.542402
-20.731516 32.664768 0.010285 1.000000
-17.097170 31.511887 -0.000002 0.329534
-14.722528 30.758608 -0.000001 0.333701
-13.072063 30.235048 -0.000001 0.339828
-11.856051 29.849306 0.000007 0.332230
-35.745396 37.670036 10.296400 0.645098
-35.745396 37.670036 9.153469 0.666054
-35.745399 37.670036 8.026586 0.667770
-35.745396 37.670036 6.913047 0.632721
-35.745399 37.670036 5.810274 0.668015
-35.745396 37.670036 4.715773 0.623162
-35.745384 37.670033 3.627134 0.630270
-35.745247 37.669987 2.541987 0.621324
-35.745243 37.669987 1.458012 0.659926
-35.745243 37.669987 0.372874 0.630760
-27.443333 34.972530 -0.000012 0.526348
-20.696972 32.780506 0.009999 1.000000
-17.068398 31.601511 -0.000002 0.333211
-14.699070 30.831669 -0.000001 0.337990
-13.052301 30.296602 -0.000001 0.331863
-11.839012 29.902380 0.000007 0.332721
-35.012779 37.670017 10.122066 0.683824
-35.012779 37.670017 9.003152 0.621936
-35.012779 37.670017 7.899947 0.647794
-35.012775 37.670017 6.809810 0.642034
-35.012779 37.670017 5.730208 0.637255
-35.012783 37.670017 4.658707 0.660662
-35.012772 37.670013 3.592943 0.624020
-35.012695 37.669991 2.530601 0.637132
-35.012695 37.669991 1.469400 0.678676
-35.012691 37.669987 0.407061 0.670221
-27.390142 35.134300 -0.000011 0.521324
-20.741753 32.922676 -0.000004 0.331250
-17.038994 31.690931 -0.000002 0.334069
-14.675102 30.904568 -0.000001 0.331373
-13.032110 30.358017 -0.000001 0.335294
-11.821601 29.955334 0.000007 0.316912
-34.499924 37.734550 10.005467 0.674020
-34.310265 37.669983 8.859344 0.638235
-34.499924 37.734550 7.815249 0.631618
-34.499920 37.734550 6.740761 0.641054
-34.310253 37.669983 5.653609 0.643995
-34.499920 37.734550 4.620539 0.643505
-34.499920 37.734547 3.570074 0.670711
-34.310272 37.669987 2.519707 0.634681
-34.310272 37.669987 1.480294 0.639093
-34.310272 37.669987 0.439766 0.645833
-27.335831 35.295692 -0.000012 0.518015
-20.703112 33.037731 -0.000012 0.535907
-17.008972 31.780144 -0.000002 0.331495
-14.650629 30.977297 -0.000001 0.335907
-13.011448 30.419273 0.000009 0.335907
-11.803817 30.008163 0.000008 0.337377
-33.821430 37.734535 9.844769 0.678431
-33.636070 37.669987 8.721664 0.660049
-33.821438 37.734539 7.698518 0.678431
-33.821430 37.734535 6.645599 0.678431
-33.636070 37.669987 5.580276 0.621078
-33.821430 37.734535 4.567936 0.678431
-33.664978 37.680054 3.530419 0.750613
-33.636070 37.669987 2.509275 0.643015
-33.636070 37.669987 1.490726 0.657230
-33.636063 37.669983 0.471084 0.628431
-27.280399 35.456707 -0.000012 0.536765
-20.663555 33.152477 -0.000007 0.537132
-16.978329 31.869144 -0.000002 0.332230
-14.625645 31.049852 -0.000001 0.323162
-12.990412 30.480404 0.000006 0.339338
-11.785681 30.060871 0.000005 0.340319
-27.258669 35.629726 8.119083 0.637377
-27.258715 35.629742 7.276117 0.626103
-27.255394 35.628559 6.444331 0.665809
-27.260029 35.630211 5.623878 0.710539
-27.258207 35.629562 4.810246 0.628309
-27.260307 35.630310 4.003187 0.640074
-27.260868 35.630508 3.200222 0.612010
-32.988400 37.669991 2.499278 0.671814
-32.988380 37.669987 1.500722 0.651103
-32.988384 37.669987 0.501096 0.662377
-27.223835 35.617325 -0.000013 0.539093
-20.623240 33.266956 -0.000007 0.541176
-16.947063 31.957928 -0.000003 0.331863
-14.600157 31.122231 -0.000001 0.332598
-12.968943 30.541382 0.000005 0.333946
-11.767166 30.113449 0.000005 0.328186
-26.937395 35.694283 8.048845 0.678431
-26.937399 35.694283 7.215543 0.678431
-26.820660 35.651794 6.371336 0.732476
-26.787739 35.639812 5.558444 0.720833
-26.937433 35.694294 4.778048 0.678431
-26.937441 35.694298 3.980055 0.678431
-26.820654 35.651791 3.180228 0.742157
-27.209652 35.793373 2.399903 0.666422
-27.272392 35.816212 1.599005 0.648897
-27.272398 35.816212 0.796154 0.672426
-26.760445 35.629875 0.035389 0.547549
-20.582170 33.381168 -0.000012 0.519485
-16.915178 32.046494 -0.000002 0.333333
-14.574162 31.194431 -0.000001 0.339216
-12.947041 30.602207 0.000006 0.335049
-11.748283 30.165895 0.000005 0.341544
-26.307295 35.639816 7.896008 0.803309
-26.307289 35.639812 7.083760 0.776961
-26.307289 35.639812 6.282917 0.786029
-26.307281 35.639809 5.491558 0.795956
-26.307283 35.639809 4.707850 0.798162
-26.307281 35.639809 3.930020 0.785172
-26.307280 35.639809 3.156356 0.777696
-27.053886 35.917469 2.398211 0.669485
-27.058491 35.919182 1.601708 0.663971
-27.058485 35.919178 0.804270 0.654289
-26.280573 35.629875 0.072316 0.600613
-20.540270 33.495075 -0.000014 0.548039
-16.882675 32.134830 -0.000002 0.336520
-14.547665 31.266447 -0.000001 0.333088
-12.924719 30.662878 0.000006 0.325735
-11.729038 30.218208 0.000005 0.335784
-25.987965 35.694294 7.825937 0.678431
-25.987968 35.694298 7.023343 0.678431
-25.876060 35.651787 6.210235 0.752574
-25.987955 35.694290 5.450062 0.678431
-25.987961 35.694294 4.675668 0.678431
-25.987957 35.694290 3.907082 0.678431
-25.876093 35.651798 3.136735 0.756863
-31.189024 37.669994 2.471643 0.660539
-31.189024 37.669994 1.528358 0.671691
-31.189024 37.669991 0.584061 0.642157
-25.864342 35.647335 0.103759 0.563971
-20.497614 33.608704 -0.000019 0.523897
-16.849556 32.222939 -0.000002 0.336152
-14.520664 31.338276 -0.000001 0.333824
-12.901962 30.723389 0.000008 0.330392
-11.709418 30.270382 0.000006 0.337255
-25.538963 35.694298 7.720936 0.678431
-25.538960 35.694298 6.932807 0.678431
-25.429359 35.651787 6.134353 0.758211
-25.538948 35.694290 5.387881 0.678431
-25.538956 35.694294 4.627443 0.678431
-25.538952 35.694294 3.872711 0.678431
-25.429390 35.651798 3.116246 0.762377
-30.632601 37.669991 2.463141 0.635172
-30.632603 37.669991 1.536858 0.628799
-30.632601 37.669991 0.609580 0.642402
-25.844715 35.812889 0.100397 0.577819
-20.454117 33.722015 -0.000019 0.520833
-16.815825 32.310814 -0.000002 0.332475
-14.493168 31.409916 -0.000001 0.338113
-12.878798 30.783743 0.000008 0.328676
-11.689445 30.322424 0.000006 0.337255
-25.105825 35.694298 7.619922 0.678431
-25.105824 35.694298 6.845708 0.678431
-24.968220 35.639816 6.055436 0.785539
-25.105816 35.694294 5.328062 0.678431
-25.105814 35.694294 4.581050 0.678431
-25.105818 35.694294 3.839645 0.678431
-24.998484 35.651798 3.096537 0.752574
-30.095844 37.669987 2.454964 0.650000
-30.095844 37.669987 1.545036 0.630024
-30.095852 37.669991 0.634131 0.642034
-25.785702 35.963478 0.100397 0.587255
-20.409786 33.835003 -0.000014 0.531005
-16.781477 32.398453 -0.000002 0.340686
-14.465168 31.481361 -0.000001 0.337623
-12.855207 30.843933 0.000008 0.334681
-11.669099 30.374319 0.000008 0.326961
-24.687710 35.694298 7.522678 0.678431
-24.687710 35.694298 6.761861 0.678431
-24.316679 35.544392 5.938914 0.703922
-24.687698 35.694294 5.270476 0.678431
-24.687696 35.694294 4.536389 0.678431
-24.687696 35.694294 3.807813 0.678431
-24.582518 35.651798 3.077563 0.746078
-29.577711 37.669987 2.447091 0.648407
-29.577711 37.669987 1.552908 0.614583
-29.577726 37.669994 0.657765 0.655515
-25.725958 36.113777 0.100368 0.575000
-20.364717 33.947697 -0.000014 0.545466
-16.746523 32.485851 -0.000002 0.335907
-14.436672 31.552610 -0.000002 0.335294
-12.831202 30.903957 0.000008 0.336887
-11.648401 30.426075 0.000007 0.330882
-24.283789 35.694298 7.429000 0.678431
-24.151594 35.639812 6.650208 0.805637
-23.919359 35.544090 5.871956 0.719730
-24.283777 35.694294 5.215001 0.678431
-24.283777 35.694294 4.493367 0.678431
-24.283777 35.694294 3.777148 0.678431
-24.180670 35.651794 3.059286 0.750368
-29.077168 37.669987 2.439508 0.647181
-29.077166 37.669987 1.560492 0.623407
-29.077177 37.669991 0.680533 0.652574
-25.663807 36.263100 0.100461 0.614583
-20.318792 34.060043 -0.000006 0.551471
-16.710957 32.573002 -0.000002 0.334069
-14.407677 31.623657 -0.000001 0.334681
-12.806770 30.963812 0.000009 0.335662
-11.627337 30.477684 0.000008 0.335172
-23.815077 35.661404 7.317443 0.734681
-23.792200 35.651787 6.579541 0.785784
-23.536268 35.544201 5.807611 0.698039
-23.815063 35.661396 5.148936 0.735049
-23.815063 35.661396 4.442132 0.728799
-23.815063 35.661396 3.740630 0.738603
-23.792225 35.651798 3.041668 0.763480
-28.593306 37.669983 2.432198 0.649142
-28.593313 37.669987 1.567802 0.655270
-28.593325 37.669991 0.702478 0.642647
-25.602137 36.412613 0.100418 0.633333
-20.272190 34.172112 -0.000011 0.533456
-16.612606 32.633762 0.010003 1.000000
-14.378187 31.694500 -0.000001 0.334069
-12.781935 31.023497 0.000007 0.333578
-11.605923 30.529148 0.000006 0.335049
-23.515604 35.694290 7.251610 0.678431
-23.416437 35.651787 6.504834 0.760907
-23.165323 35.544159 5.745479 0.709069
-23.515604 35.694290 5.109953 0.678431
-23.515602 35.694290 4.411899 0.678431
-23.445620 35.664295 3.712838 0.841299
-23.416456 35.651794 3.024674 0.753922
-28.125237 37.669983 2.425148 0.647549
-28.125254 37.669991 1.574852 0.611765
-28.125259 37.669994 0.723645 0.624020
-25.541054 36.562401 0.100229 0.593995
-20.224770 34.283836 -0.000011 0.534804
-16.574612 32.719376 0.010229 1.000000
-14.348206 31.765137 -0.000002 0.341176
-12.756676 31.083008 0.000007 0.329657
-11.584144 30.580460 0.000006 0.334314
-23.025297 35.639809 7.133476 0.771936
-23.025299 35.639809 6.426277 0.770466
-22.806852 35.544373 5.685631 0.731740
-23.025316 35.639816 5.039998 0.774020
-23.025314 35.639816 4.357645 0.750858
-23.025316 35.639816 3.680412 0.758456
-23.025316 35.639816 3.006805 0.750000
-27.672180 37.669983 2.418343 0.626716
-27.672205 37.669991 1.581656 0.633578
-27.672207 37.669991 0.744071 0.641789
-25.471836 36.708675 0.100675 0.546691
-20.176565 34.395226 -0.000011 0.523529
-16.600622 32.832935 -0.000002 0.334681
-14.317728 31.835562 -0.000001 0.337990
-12.731003 31.142340 0.000006 0.338725
-11.562004 30.631617 0.000006 0.335049
-22.651039 35.629791 7.046687 0.638358
-22.651035 35.629787 6.351444 0.701348
-22.462593 35.545891 5.628428 0.707721
-22.651031 35.629787 4.988599 0.628676
-22.651031 35.629787 4.317783 0.637377
-22.651033 35.629787 3.652000 0.629044
-22.651037 35.629787 2.989783 0.615074
-27.256020 37.680061 2.412179 0.772304
-27.256012 37.680058 1.587821 0.760662
-27.233416 37.669994 0.763795 0.617525
-25.409431 36.857906 0.100419 0.626471
-20.127584 34.506275 -0.000011 0.527819
-16.562635 32.919056 -0.000002 0.336152
-14.286762 31.905773 -0.000001 0.338971
-12.704908 31.201487 0.000008 0.328431
-11.539509 30.682617 0.000007 0.336642
-22.405727 35.672962 6.995072 0.786642
-22.359049 35.651787 6.295869 0.768137
-22.333839 35.640350 5.614105 0.726961
-22.405712 35.672955 4.958032 0.793260
-22.405712 35.672955 4.294077 0.791912
-22.332636 35.639805 3.628524 0.803064
-22.332640 35.639809 2.975718 0.699877
-22.702740 35.807693 2.331657 0.627819
-22.702742 35.807693 1.668343 0.683701
-22.702742 35.807693 1.004317 0.675613
-22.702742 35.807693 0.338152 0.677083
-20.077742 34.616943 0.000000 0.538480
-16.524084 33.004929 -0.000007 0.557476
-14.255304 31.975765 -0.000001 0.330637
-12.678410 31.260454 0.000008 0.337377
-11.516654 30.733458 0.000008 0.333211
-22.119999 35.694298 6.932221 0.678431
-22.028004 35.651787 6.230861 0.731495
-22.002075 35.639809 5.559176 0.708578
-22.119989 35.694290 4.920813 0.678431
-22.119987 35.694290 4.265212 0.678431
-22.002075 35.639809 3.603880 0.794976
-22.002081 35.639809 2.960952 0.792647
-22.586634 35.909912 2.330626 0.644608
-22.586634 35.909912 1.669374 0.622672
-22.586637 35.909912 1.007413 0.645221
-22.586634 35.909912 0.343319 0.674755
-20.027220 34.727295 0.000000 0.541667
-16.484894 33.090511 -0.000007 0.531373
-14.223362 32.045536 -0.000001 0.335907
-12.651493 31.319231 0.000008 0.334559
-11.493449 30.784140 0.000008 0.337377
-21.797148 35.694298 6.858928 0.678431
-21.706818 35.651791 6.167990 0.758088
-21.758638 35.676178 5.521830 0.787868
-21.797142 35.694294 4.877411 0.678431
-21.797142 35.694294 4.231552 0.678431
-21.681360 35.639812 3.580047 0.729412
-21.681358 35.639809 2.946672 0.776103
-26.017099 37.680054 2.393744 0.723039
-26.017099 37.680054 1.606256 0.766176
-25.995724 37.669998 0.819082 0.658578
-25.339497 37.361198 0.088453 0.561152
-19.975918 34.837292 0.000001 0.553799
-16.445112 33.175819 -0.000006 0.546814
-14.190933 32.115082 -0.000002 0.336397
-12.624170 31.377821 0.000008 0.331618
-11.469891 30.834658 0.000008 0.328554
-21.483734 35.694298 6.788011 0.678431
-21.395016 35.651791 6.107156 0.748407
-21.483728 35.694294 5.478057 0.678431
-21.483728 35.694294 4.835413 0.678431
-21.483728 35.694294 4.198981 0.678431
-21.395008 35.651787 3.559258 0.758088
-21.370012 35.639809 2.932855 0.751348
-25.628328 37.680054 2.387997 0.734804
-25.628328 37.680054 1.612002 0.759069
-25.607336 37.669998 0.836319 0.697059
-25.208797 37.479050 0.093989 0.560417
-19.923859 34.946930 0.000001 0.541789
-16.404741 33.260853 -0.000007 0.552451
-14.158018 32.184402 -0.000001 0.326225
-12.596437 31.436216 0.000010 0.334191
-11.445978 30.885010 0.000009 0.338603
-21.067614 35.639816 6.688228 0.795466
-21.067612 35.639816 6.042366 0.778554
-21.179316 35.694298 5.428187 0.678431
-21.179316 35.694294 4.794759 0.678431
-21.179312 35.694294 4.167452 0.678431
-21.092161 35.651787 3.536901 0.746324
-21.067608 35.639812 2.919480 0.756005
-25.250738 37.680061 2.382434 0.743505
-25.250736 37.680061 1.617565 0.723652
-25.250738 37.680061 0.851876 0.717770
-25.101566 37.607307 0.097328 0.613725
-19.871038 35.056206 0.000000 0.547426
-16.363771 33.345596 -0.000007 0.526961
-14.124619 32.253487 -0.000001 0.334314
-12.568300 31.494423 0.000009 0.331005
-11.421720 30.935196 0.000009 0.343873
-20.773746 35.639816 6.622180 0.713848
-20.581436 35.544350 5.939047 0.677083
-20.883495 35.694294 5.379891 0.678431
-20.883493 35.694294 4.755386 0.678431
-20.883495 35.694294 4.136917 0.678431
-20.797867 35.651787 3.515249 0.762990
-20.584955 35.546097 2.896172 0.677574
-24.883797 37.680061 2.377047 0.759314
-24.933119 37.704544 1.622052 0.135907
-24.933121 37.704544 0.865345 0.139828
-24.912960 37.694538 0.108046 0.455515
-19.817457 35.165108 -0.000000 0.538848
-16.322208 33.430054 -0.000006 0.536765
-14.090742 32.322342 -0.000002 0.331005
-12.539768 31.552431 0.000007 0.330760
-11.397133 30.985222 0.000002 0.345221
-20.511742 35.651794 6.564841 0.737868
-20.298885 35.544273 5.884473 0.705515
-20.595879 35.694294 5.333097 0.678431
-20.595881 35.694294 4.717238 0.678431
-20.595877 35.694294 4.107331 0.678431
-20.511732 35.651787 3.494271 0.753431
-20.298777 35.544216 2.883560 0.701348
-24.527025 37.680061 2.371827 0.775368
-24.575491 37.704544 1.627285 0.126838
-24.575495 37.704544 0.881055 0.141054
-24.555691 37.694542 0.134240 0.463113
-19.763113 35.273636 -0.000000 0.534314
-16.280025 33.514198 0.000000 0.518750
-14.056379 32.390953 -0.000001 0.337010
-12.510822 31.610237 0.000007 0.335294
-11.372175 31.035065 0.000002 0.337623
-20.233410 35.651794 6.502721 0.771936
-20.024078 35.544212 5.831584 0.704779
-20.316107 35.694294 5.287739 0.678431
-20.316107 35.694294 4.680260 0.678431
-20.316107 35.694294 4.078653 0.678431
-20.233402 35.651791 3.473937 0.759436
-20.024290 35.544319 2.871547 0.710294
-24.180700 37.680428 2.366780 0.780025
-24.227621 37.704540 1.632357 0.129289
-24.189724 37.685062 0.898375 0.461152
-24.208158 37.694538 0.159630 0.462990
-19.708012 35.381775 0.000000 0.541422
-16.237293 33.598068 0.000000 0.537255
-14.021544 32.459328 -0.000002 0.339461
-12.481468 31.667835 0.000008 0.338725
-11.346861 31.084726 0.000004 0.329044
-19.962536 35.651794 6.442482 0.752328
-19.756552 35.544109 5.780274 0.732721
-20.043829 35.694294 5.243752 0.678431
-20.043827 35.694290 4.644403 0.678431
-20.043829 35.694294 4.050845 0.678431
-19.962526 35.651791 3.454217 0.743382
-19.756290 35.543972 2.859850 0.710539
-23.903061 37.711853 2.362983 0.125980
-23.914429 37.717796 1.636807 0.111642
-23.822994 37.669994 0.914711 0.645711
-23.822990 37.669991 0.188595 0.663235
-19.652153 35.489532 0.000000 0.536029
-16.193966 33.681633 0.000001 0.555270
-13.986231 32.527458 -0.000002 0.336520
-12.451712 31.725229 0.000009 0.328309
-11.321208 31.134216 0.000004 0.337132
-19.698809 35.651794 6.384047 0.761152
-19.496113 35.544018 5.730509 0.713726
-19.778736 35.694294 5.201086 0.678431
-19.778734 35.694290 4.609618 0.678431
-19.778734 35.694290 4.023868 0.678431
-19.698797 35.651787 3.435089 0.735907
-19.496241 35.544086 2.848552 0.722426
-23.581894 37.716469 2.358369 0.118137
-23.615881 37.734539 1.641001 0.678431
-23.494486 37.669991 0.928987 0.616667
-23.494484 37.669991 0.212423 0.677819
-19.595552 35.596893 -0.000000 0.553554
-16.150074 33.764900 0.000000 0.555515
-13.950441 32.595333 -0.000002 0.339093
-12.421562 31.782413 0.000009 0.334069
-11.295212 31.183523 0.000004 0.335662
-19.441908 35.651794 6.327334 0.770588
-19.243233 35.544369 5.682410 0.693995
-19.520504 35.694290 5.159676 0.678431
-19.520504 35.694290 4.575860 0.678431
-19.520506 35.694290 3.997687 0.678431
-19.441900 35.651791 3.416525 0.757721
-19.242872 35.544174 2.837584 0.674510
-23.293865 37.734539 2.354356 0.678431
-23.293865 37.734539 1.645645 0.678431
-23.174488 37.669991 0.942842 0.621569
-23.174486 37.669991 0.235547 0.661887
-19.401382 35.629883 0.017892 0.574020
-16.105591 33.847855 0.000000 0.552451
-13.865814 32.636810 0.010003 1.000000
-12.391037 31.839401 0.000003 0.335172
-11.268871 31.232649 0.000003 0.332475
-19.169781 35.639816 6.266051 0.799142
-18.996761 35.544701 5.635707 0.686642
-19.169775 35.639816 5.098900 0.799387
-19.169771 35.639812 4.526313 0.801471
-19.169775 35.639816 3.959261 0.805025
-19.169775 35.639816 3.396464 0.781740
-18.995939 35.544250 2.826935 0.687623
-22.980068 37.734543 2.349847 0.678431
-22.980068 37.734543 1.650153 0.678431
-22.862654 37.669991 0.956292 0.618260
-22.862656 37.669994 0.257995 0.634681
-19.151709 35.629883 0.043110 0.540319
-16.060595 33.930531 -0.000010 0.519118
-13.828232 32.703278 0.010217 1.000000
-12.360085 31.896156 0.000005 0.329412
-11.242186 31.281588 0.000004 0.345833
-18.947485 35.651791 6.218803 0.765074
-18.891960 35.620758 5.623874 0.691789
-19.010181 35.686832 5.077648 0.113358
-19.010181 35.686832 4.508989 0.108333
-19.010178 35.686829 3.945825 0.141422
-18.947489 35.651794 3.380999 0.740931
-18.754660 35.544025 2.816562 0.701838
-22.674128 37.734543 2.345468 0.678431
-22.674126 37.734543 1.654532 0.678431
-22.558628 37.669991 0.969355 0.618627
-22.558626 37.669991 0.279799 0.629044
-18.908283 35.629883 0.067603 0.598407
-16.014963 34.012859 -0.000010 0.526593
-13.791527 32.770226 0.010153 1.000000
-12.328745 31.952702 0.000004 0.340196
-11.215162 31.330341 0.000004 0.328431
-18.709436 35.651791 6.166854 0.758333
-18.688353 35.639812 5.587582 0.778431
-18.784260 35.694298 5.042501 0.678431
-18.784258 35.694294 4.480336 0.678431
-18.784258 35.694294 3.923604 0.678431
-18.709438 35.651791 3.363993 0.736029
-18.519875 35.544106 2.806516 0.698162
-22.375736 37.734539 2.341213 0.678431
-22.375736 37.734539 1.658786 0.678431
-22.262112 37.669991 0.982046 0.675000
-22.262112 37.669991 0.300981 0.633088
-18.678232 35.634064 0.090424 0.586275
-15.968750 34.094864 -0.000009 0.555147
-13.802574 32.864304 -0.000001 0.338113
-12.297014 32.009026 0.000003 0.337745
-11.187805 31.378908 0.000002 0.340319
-18.477177 35.651794 6.116369 0.737868
-18.456423 35.639812 5.544113 0.714828
-18.550787 35.694294 5.005637 0.678431
-18.550789 35.694294 4.450283 0.678431
-18.550787 35.694294 3.900296 0.678431
-18.477171 35.651791 3.347467 0.737132
-18.290762 35.544167 2.796750 0.742034
-22.084599 37.734539 2.337080 0.678431
-22.084599 37.734539 1.662920 0.678431
-21.972797 37.669991 0.994380 0.613971
-21.972797 37.669991 0.321567 0.620588
-18.545496 35.691238 0.100407 0.593505
-15.921970 34.176544 -0.000010 0.563603
-13.764437 32.930893 -0.000001 0.329412
-12.264887 32.065125 0.000003 0.338235
-11.160101 31.427277 0.000003 0.328799
-18.212782 35.629688 6.056346 0.627941
-18.212519 35.629532 5.497468 0.657108
-18.213053 35.629848 4.946626 0.660172
-18.212296 35.629402 4.402045 0.627819
-18.213009 35.629822 3.862981 0.650245
-18.212833 35.629719 3.327824 0.615196
-18.067066 35.544197 2.787253 0.712377
-21.800417 37.734543 2.333061 0.678431
-21.800417 37.734543 1.666940 0.678431
-21.690393 37.669991 1.006371 0.636397
-21.690395 37.669991 0.341580 0.635049
-18.487505 35.790867 0.100407 0.556618
-15.874603 34.257889 -0.000007 0.563480
-13.725826 32.997208 0.000000 0.554779
-12.232359 32.120995 0.000005 0.338235
-11.132055 31.475451 0.000004 0.332598
-17.992271 35.629852 6.008823 0.646814
-17.992273 35.629852 5.456559 0.624387
-17.992298 35.629868 4.912054 0.633211
-17.992289 35.629864 4.373990 0.654167
-17.992323 35.629883 3.841133 0.709191
-17.992260 35.629845 3.312261 0.693627
-17.992329 35.629887 2.786235 0.613358
-18.293762 35.809578 2.267633 0.697672
-18.293762 35.809578 1.732366 0.681373
-18.293764 35.809578 1.196525 0.680270
-18.293768 35.809582 0.658956 0.658456
-18.233892 35.773888 0.126514 0.668873
-15.826685 34.338905 -0.000006 0.545098
-13.686769 33.063259 -0.000000 0.542034
-12.199451 32.176640 0.000005 0.339093
-11.103683 31.523430 0.000004 0.334926
-17.918118 35.715569 6.003958 0.641544
-17.918129 35.715576 5.452368 0.660172
-17.918112 35.715565 4.908514 0.639338
-17.918116 35.715569 4.371106 0.629412
-17.918095 35.715553 3.838889 0.642034
-17.918112 35.715565 3.310670 0.632598
-17.918118 35.715569 2.785278 0.625613
-18.144720 35.852802 2.265907 0.689461
-18.144720 35.852802 1.734093 0.705515
-18.144720 35.852802 1.201707 0.700613
-18.144722 35.852802 0.667607 0.666544
-18.117403 35.836258 0.134305 0.658456
-15.778185 34.419579 -0.000002 0.537990
-13.647259 33.129044 -0.000003 0.512500
-12.166156 32.232056 0.000005 0.331005
-11.074974 31.571211 0.000004 0.340564
-17.918095 35.846573 6.021052 0.618750
-17.918114 35.846584 5.467107 0.639828
-17.918106 35.846581 4.920933 0.671078
-17.918118 35.846588 4.381232 0.620956
-17.918110 35.846581 3.846744 0.674632
-17.918077 35.846565 3.316264 0.659069
-17.918091 35.846569 2.788630 0.645466
-18.109713 35.964455 2.266371 0.694485
-18.109713 35.964455 1.733630 0.654412
-18.109711 35.964455 1.200317 0.694363
-18.109711 35.964455 0.665287 0.647549
-18.075113 35.943172 0.132050 0.684436
-15.729136 34.499916 -0.000001 0.556740
-13.607306 33.194557 -0.000009 0.526716
-12.132469 32.287231 0.000006 0.333211
-11.045924 31.618784 0.000006 0.339951
-17.918077 35.978714 6.038490 0.663848
-17.918060 35.978703 5.482133 0.652206
-17.918062 35.978703 4.933595 0.647059
-17.918089 35.978722 4.391558 0.640686
-17.918089 35.978722 3.854752 0.672549
-17.918072 35.978710 3.321973 0.653676
-17.918032 35.978683 2.792048 0.617034
-20.727989 37.734543 2.318048 0.678431
-20.727989 37.734543 1.681952 0.678431
-20.624689 37.669991 1.051157 0.613603
-20.624691 37.669994 0.416331 0.670466
-18.248640 36.185272 0.100407 0.584191
-15.679523 34.579910 0.000001 0.541422
-13.566851 33.259766 -0.000005 0.553064
-12.098406 32.342178 0.000005 0.335294
-11.016553 31.666161 0.000005 0.326471
-17.917988 36.111961 6.056256 0.731005
-17.917982 36.111958 5.497456 0.666667
-17.917992 36.111965 4.946505 0.690686
-17.917969 36.111950 4.402073 0.616299
-17.917982 36.111958 3.862910 0.666299
-17.917974 36.111954 3.327788 0.641667
-17.918016 36.111980 2.795536 0.634681
-20.474766 37.734543 2.314542 0.678431
-20.474766 37.734543 1.685458 0.678431
-20.373051 37.669994 1.061618 0.674877
-20.373051 37.669994 0.433791 0.661520
-18.187210 36.282818 0.100408 0.619485
-15.629364 34.659557 0.000001 0.541789
-13.525932 33.324680 0.000002 0.499142
-12.063958 32.396881 0.000005 0.327696
-10.986856 31.713331 0.000004 0.334314
-17.917923 36.246414 6.074389 0.678799
-17.917927 36.246418 5.513092 0.658088
-17.917898 36.246399 4.959670 0.658333
-17.917891 36.246395 4.412808 0.639951
-17.917915 36.246410 3.871237 0.666912
-17.917917 36.246414 3.333724 0.599020
-17.917908 36.246407 2.799090 0.635784
-20.227047 37.734543 2.311127 0.678431
-20.227047 37.734543 1.688873 0.678431
-20.126884 37.669994 1.071806 0.699877
-20.126886 37.669998 0.450795 0.633578
-18.125101 36.379932 0.100407 0.611520
-15.578667 34.738869 -0.000002 0.525123
-13.484606 33.389336 -0.000002 0.535539
-12.029127 32.451344 0.000005 0.342034
-10.956824 31.760292 0.000003 0.340074
-17.917801 36.382042 6.092865 0.642157
-17.917810 36.382050 5.529026 0.627819
-17.917791 36.382038 4.973095 0.638726
-17.917795 36.382042 4.423755 0.638726
-17.917830 36.382061 3.879728 0.615564
-17.917786 36.382034 3.339772 0.633701
-17.917789 36.382034 2.802714 0.644240
-19.984636 37.734543 2.307800 0.678431
-19.984636 37.734543 1.692200 0.678431
-19.885996 37.669994 1.081731 0.669118
-19.885996 37.669994 0.467361 0.671569
-18.062319 36.476612 0.100408 0.605147
-15.527407 34.817814 -0.000003 0.538480
-13.442814 33.453693 -0.000002 0.524142
-11.993916 32.505562 0.000005 0.333456
-10.926462 31.807039 0.000004 0.337500
-17.917953 36.519100 6.111796 0.630515
-17.917931 36.519085 5.545340 0.627819
-17.917919 36.519077 4.986841 0.612132
-17.917934 36.519089 4.434963 0.648039
-17.917921 36.519077 3.888413 0.614706
-17.917952 36.519096 3.345970 0.631250
-17.917971 36.519112 2.806428 0.662255
-19.747347 37.734547 2.304558 0.678431
-19.747347 37.734547 1.695442 0.678431
-19.650190 37.669994 1.091403 0.624265
-19.650190 37.669994 0.483503 0.664093
-17.998857 36.572853 0.100408 0.601716
-15.475594 34.896400 -0.000004 0.546201
-13.400576 33.517761 -0.000004 0.553554
-11.958326 32.559532 0.000005 0.330025
-10.895773 31.853573 0.000006 0.338113
-17.917801 36.657227 6.131012 0.649755
-17.917833 36.657249 5.561922 0.657475
-17.917837 36.657249 5.000815 0.655637
-17.917812 36.657234 4.446348 0.644853
-17.917812 36.657234 3.897245 0.638971
-17.917793 36.657219 3.352259 0.638113
-17.917824 36.657242 2.810197 0.654902
-19.514994 37.734547 2.301399 0.678431
-19.514994 37.734547 1.698601 0.678431
-19.419292 37.669994 1.100829 0.649632
-19.419292 37.669998 0.499235 0.639338
-17.934727 36.668644 0.100408 0.520833
-15.423222 34.974609 -0.000002 0.511642
-13.357880 33.581520 -0.000001 0.538235
-11.922368 32.613255 0.000005 0.341299
-10.864767 31.899895 0.000005 0.333701
-17.917885 36.796822 6.150684 0.644608
-17.917883 36.796822 5.578876 0.672059
-17.917896 36.796829 5.015100 0.597549
-17.917883 36.796822 4.457995 0.664093
-17.917896 36.796829 3.906279 0.634559
-17.917889 36.796825 3.358700 0.640196
-17.917870 36.796814 2.814053 0.636152
-19.207825 37.680061 2.296740 0.702941
-19.207827 37.680065 1.703260 0.714828
-19.193121 37.669994 1.110018 0.668015
-19.193119 37.669994 0.514574 0.621324
-17.924425 36.801300 0.092810 0.630515
-15.370316 35.052467 -0.000002 0.544118
-13.314728 33.644974 0.000003 0.535049
-11.847839 32.640575 0.010002 1.000000
-10.833431 31.945995 0.000006 0.344118
-17.917933 36.937733 6.170737 0.615931
-17.917942 36.937740 5.596169 0.656863
-17.917919 36.937725 5.029661 0.695098
-17.917913 36.937721 4.469867 0.664951
-17.917946 36.937744 3.915489 0.664951
-17.917892 36.937706 3.365260 0.643873
-17.917952 36.937748 2.817988 0.632353
-18.971519 37.669998 2.293463 0.634681
-18.971519 37.669998 1.706536 0.656495
-18.971521 37.669998 1.118980 0.642524
-18.971518 37.669994 0.529531 0.642279
-17.917860 36.937683 0.084523 0.632843
-15.316822 35.129913 0.000006 0.548652
-13.271139 33.708126 0.000006 0.549020
-11.811314 32.693523 0.010001 1.000000
-10.801781 31.991879 0.000006 0.335662
-17.917910 37.079971 6.191167 0.645588
-17.917931 37.079987 5.613789 0.622794
-17.917917 37.079975 5.044507 0.701471
-17.917925 37.079983 4.481972 0.663971
-17.917906 37.079967 3.924870 0.693505
-17.917929 37.079987 3.371954 0.617770
-17.917936 37.079990 2.821996 0.639461
-18.763485 37.676460 2.290735 0.698652
-18.763485 37.676460 1.709265 0.681250
-18.754322 37.669998 1.127720 0.635049
-18.754322 37.669994 0.544119 0.619976
-17.917860 37.079937 0.075136 0.600123
-15.262854 35.207035 0.000002 0.541667
-13.227198 33.771038 -0.000010 0.559436
-11.774040 32.745949 0.010101 1.000000
-10.769814 32.037544 0.000004 0.331005
-17.917915 37.223637 6.212015 0.596446
-17.917948 37.223660 5.631767 0.644730
-17.917946 37.223660 5.059656 0.641054
-17.917915 37.223637 4.494315 0.644485
-17.917913 37.223637 3.934445 0.640074
-17.917950 37.223663 3.378780 0.604044
-17.917908 37.223633 2.826082 0.630760
-18.631544 37.734547 2.289526 0.678431
-18.631544 37.734547 1.710474 0.678431
-18.541382 37.669994 1.136248 0.618137
-18.541382 37.669994 0.558351 0.655760
-17.917860 37.223598 0.065562 0.625735
-15.208332 35.283768 0.000001 0.507230
-13.182751 33.833591 -0.000011 0.533824
-11.774792 32.825592 0.000005 0.330882
-10.737535 32.082989 0.000000 0.337010
-17.917913 37.368740 6.233275 0.601471
-17.917910 37.368736 5.650090 0.633088
-17.917919 37.368744 5.075094 0.654167
-17.917898 37.368729 4.506903 0.674510
-17.917910 37.368736 3.944209 0.668015
-17.917900 37.368729 3.385735 0.614216
-17.917938 37.368759 2.830254 0.646324
-18.421400 37.734547 2.286737 0.678431
-18.421400 37.734547 1.713263 0.678431
-18.332560 37.669998 1.144568 0.629779
-18.332558 37.669998 0.572239 0.678431
-17.917862 37.368702 0.055798 0.562623
-15.153255 35.360100 0.000004 0.530270
-13.137850 33.895821 -0.000008 0.583578
-11.736971 32.878021 0.000006 0.333946
-10.704924 32.128197 0.000002 0.345711
-17.917915 37.515327 6.254962 0.616176
-17.917919 37.515331 5.668791 0.646201
-17.917896 37.515312 5.090841 0.633946
-17.917887 37.515305 4.519743 0.630760
-17.917913 37.515327 3.954169 0.621569
-17.917917 37.515327 3.392835 0.658088
-17.917908 37.515320 2.834505 0.618873
-18.215252 37.734543 2.284015 0.678431
-18.215254 37.734543 1.715985 0.678431
-18.127707 37.669998 1.152689 0.624632
-18.127707 37.669998 0.585793 0.624755
-17.917858 37.515285 0.045839 0.557476
-15.097673 35.436066 0.000001 0.547304
-13.092535 33.957748 -0.000010 0.521324
-11.698791 32.930191 0.000005 0.333824
-10.671997 32.173172 0.000003 0.336029
-17.917933 37.663441 6.277086 0.649755
-17.917908 37.663422 5.687859 0.658456
-17.917942 37.663448 5.106919 0.634681
-17.917896 37.663414 4.532843 0.613848
-17.917934 37.663441 3.964330 0.630270
-17.917894 37.663410 3.400073 0.672181
-17.917896 37.663414 2.838843 0.638848
-17.940155 37.680065 2.279869 0.782353
-17.940155 37.680065 1.720130 0.762255
-17.926697 37.669998 1.160617 0.621569
-17.926701 37.669998 0.599025 0.624020
-17.926636 37.669952 0.034419 0.707108
-15.041534 35.511620 0.000005 0.552819
-13.046749 34.019329 -0.000002 0.507475
-11.660267 32.982109 -0.000000 0.500368
-10.638765 32.217926 0.000003 0.332353
-17.770533 37.701214 6.253293 0.780637
-17.742588 37.680004 5.659774 0.792157
-17.770546 37.701225 5.089637 0.727941
-17.770540 37.701221 4.518762 0.769853
-17.770536 37.701218 3.953404 0.738480
-17.770533 37.701214 3.392289 0.756985
-17.746750 37.683163 2.832712 0.740441
-17.770544 37.701221 2.277861 0.723162
-17.770538 37.701218 1.722139 0.781005
-17.770536 37.701218 1.165821 0.670588
-17.770533 37.701214 0.607711 0.762500
-17.729488 37.670059 0.052524 0.644853
-14.984911 35.586811 0.000000 0.532598
-13.000580 34.080620 -0.000005 0.551103
-11.621378 33.033752 -0.000005 0.531985
-10.605219 32.262444 0.000003 0.338480
-17.564285 37.692001 6.210850 0.742034
-17.564302 37.692013 5.630758 0.665441
-17.564301 37.692009 5.058806 0.753554
-17.564299 37.692009 4.493628 0.723529
-17.564299 37.692009 3.933913 0.693505
-17.564283 37.691998 3.378395 0.782721
-17.564297 37.692009 2.825855 0.782966
-17.564299 37.692009 2.275089 0.750123
-17.564299 37.692009 1.724912 0.743873
-17.564299 37.692009 1.174145 0.699020
-17.564283 37.691998 0.621604 0.792525
-17.535707 37.669991 0.070239 0.623284
-14.927721 35.661572 0.000004 0.562377
-12.953968 34.141579 -0.000004 0.499632
-11.582109 33.085106 -0.000004 0.552696
-10.571357 32.306721 0.000004 0.342892
-17.403540 37.715343 6.182619 0.760784
-17.403570 37.715366 5.606420 0.678431
-17.403568 37.715366 5.038302 0.678431
-17.403570 37.715370 4.476912 0.678431
-17.293299 37.629215 3.904851 0.916054
-17.403538 37.715340 3.369153 0.708578
-17.403568 37.715366 2.820320 0.678431
-17.403570 37.715370 2.273244 0.678431
-17.403570 37.715370 1.726755 0.678431
-17.403568 37.715366 1.179680 0.678431
-17.403538 37.715343 0.630846 0.755637
-17.345449 37.669960 0.087536 0.612010
-14.870016 35.735939 0.000007 0.503676
-12.906929 34.202206 -0.000002 0.543015
-11.542477 33.136177 -0.000002 0.534069
-10.537197 32.350769 0.000003 0.332230
-17.215862 37.715340 6.145674 0.739828
-17.215897 37.715370 5.574566 0.678431
-17.215895 37.715366 5.011466 0.678431
-17.215895 37.715366 4.455035 0.678431
-17.106388 37.628574 3.887907 0.909681
-17.215862 37.715340 3.357060 0.746691
-17.215895 37.715366 2.813074 0.678431
-17.215897 37.715370 2.270831 0.678431
-17.215897 37.715370 1.729169 0.678431
-17.215895 37.715366 1.186926 0.678431
-17.215866 37.715343 0.642939 0.712132
-17.158604 37.669960 0.104428 0.645221
-14.811890 35.809975 -0.000009 0.517647
-12.859493 34.262524 -0.000006 0.538480
-11.502514 33.186996 -0.000006 0.539093
-10.502728 32.394577 0.000002 0.331127
-17.031464 37.715340 6.109575 0.693260
-17.031496 37.715366 5.543441 0.678431
-17.031498 37.715370 4.985244 0.678431
-17.031496 37.715366 4.433658 0.678431
-16.923975 37.628918 3.871531 0.888113
-17.031466 37.715340 3.345244 0.687990
-17.031498 37.715366 2.805994 0.678431
-17.031496 37.715366 2.268473 0.678431
-17.031496 37.715366 1.731527 0.678431
-17.031498 37.715366 1.194006 0.678431
-17.031471 37.715347 0.654755 0.783824
-16.975046 37.669979 0.120930 0.631740
-14.753160 35.883537 -0.000009 0.554779
-12.811623 34.322498 -0.000007 0.551716
-11.462164 33.237507 -0.000001 0.512623
-10.467945 32.438133 0.000004 0.340441
-16.850246 37.715340 6.074298 0.757843
-16.850281 37.715370 5.513024 0.678431
-16.850281 37.715370 4.959619 0.678431
-16.850281 37.715370 4.412768 0.678431
-16.824532 37.694366 3.867379 0.725123
-16.850248 37.715343 3.333696 0.771078
-16.850283 37.715370 2.799076 0.678431
-16.850283 37.715370 2.266168 0.678431
-16.850283 37.715370 1.733832 0.678431
-16.850281 37.715370 1.200924 0.678431
-16.850254 37.715347 0.666303 0.742402
-16.794670 37.670013 0.137054 0.615931
-14.693909 35.956673 -0.000005 0.524142
-12.763292 34.382103 0.000002 0.546569
-11.421471 33.287739 0.000001 0.557353
-10.432869 32.481453 0.000004 0.337623
-16.672092 37.715336 6.039814 0.743995
-16.672131 37.715366 5.483291 0.678431
-16.672132 37.715366 4.934570 0.678431
-16.672132 37.715366 4.392347 0.678431
-16.627975 37.678841 3.848772 0.799387
-16.672098 37.715340 3.322408 0.728064
-16.672131 37.715366 2.792312 0.678431
-16.672131 37.715366 2.263916 0.678431
-16.672131 37.715366 1.736085 0.678431
-16.672131 37.715366 1.207687 0.678431
-16.672106 37.715347 0.677590 0.739461
-16.617208 37.669930 0.152835 0.631005
-14.634186 36.029434 -0.000010 0.543750
-12.714605 34.441418 -0.000003 0.543260
-11.380450 33.337708 -0.000003 0.513971
-10.397488 32.524529 0.000003 0.337255
-16.345978 37.588669 5.956746 0.680025
-16.496971 37.715366 5.454226 0.678431
-16.496969 37.715366 4.910083 0.678431
-16.496971 37.715370 4.372385 0.678431
-16.464975 37.688522 3.835078 0.704902
-16.496939 37.715340 3.311374 0.734314
-16.496969 37.715366 2.785701 0.678431
-16.496971 37.715366 2.261713 0.678431
-16.496971 37.715366 1.738287 0.678431
-16.496969 37.715366 1.214299 0.678431
-16.496948 37.715347 0.688625 0.770833
-16.442911 37.670006 0.168235 0.621446
-14.573929 36.101742 -0.000009 0.538848
-12.665483 34.500366 -0.000002 0.559804
