# This PCD file was generated using the MATLAB® pcwrite function
# from Computer Vision Toolbox®.
# .PCD v.7 - Point Cloud Data file format
VERSION .7
FIELDS x y z intensity
SIZE 4 4 4 4
TYPE F F F F
COUNT 1 1 1 1
WIDTH 1316
HEIGHT 1
VIEWPOINT 0 0 0 1 0 0 0
POINTS 1316
DATA ascii
nan nan nan 0.000000
nan nan nan 0.000000
nan nan nan 0.000000
52.632458 33.990009 -0.000019 0.332230
57.240330 18.333801 0.000042 0.544853
59.218529 11.612451 0.000050 0.525490
60.320152 7.869456 -0.000009 0.540931
61.023537 5.479561 -0.000010 0.547794
61.632347 3.411001 0.091731 0.699142
61.872597 2.594703 -0.000014 0.521814
61.699459 3.400735 4.205998 0.937255
61.311611 4.753320 4.205998 0.937255
60.785187 6.589185 4.205997 0.937255
60.027782 9.230571 4.205996 0.937255
58.841400 13.367980 4.205994 0.937255
nan nan nan 0.000000
nan nan nan 0.000000
nan nan nan 0.000000
nan nan nan 0.000000
52.905392 34.069302 -0.000019 0.332598
57.403843 18.381332 0.000039 0.526226
59.335072 11.646337 0.000047 0.521446
60.410542 7.895730 -0.000011 0.536765
61.097221 5.500983 -0.000013 0.535784
61.701878 3.392303 0.099799 0.690686
61.926125 2.610262 -0.000016 0.539216
61.758617 3.417476 4.205999 0.937255
61.380226 4.772735 4.205998 0.937255
60.866627 6.612232 4.205997 0.937255
60.127682 9.258837 4.205996 0.937255
58.970211 13.404429 4.205994 0.937255
nan nan nan 0.000000
nan nan nan 0.000000
nan nan nan 0.000000
nan nan nan 0.000000
53.178871 34.146687 -0.000020 0.331985
57.567707 18.427639 0.000044 0.535049
59.451866 11.679334 0.000053 0.523407
60.501122 7.921326 -0.000006 0.538848
61.171066 5.521852 -0.000008 0.525123
61.761230 3.408119 0.100003 0.693627
61.979767 2.625408 -0.000008 0.571078
61.817894 3.433802 4.205998 0.937255
61.448971 4.791674 4.205999 0.937255
60.948227 6.634708 4.205997 0.937255
60.227779 9.286407 4.205995 0.937255
59.099277 13.439981 4.205994 0.937255
nan nan nan 0.000000
nan nan nan 0.000000
nan nan nan 0.000000
nan nan nan 0.000000
53.506226 34.025829 0.009976 1.000000
57.731869 18.472874 0.000043 0.540196
59.568874 11.711572 0.000052 0.520343
60.591888 7.946261 0.000003 0.556740
61.725647 3.773339 0.333520 0.246936
61.820442 3.424428 0.100003 0.694240
62.033508 2.640218 -0.000010 0.556740
61.877281 3.449717 4.205998 0.937255
61.785358 3.797637 3.979818 0.937255
61.785107 3.798585 3.668116 0.937255
61.785202 3.798233 3.359843 0.937255
61.785500 3.797107 3.054481 0.937255
61.785374 3.797577 2.751621 0.937255
61.785366 3.797606 2.450330 0.937255
61.785404 3.797462 2.150000 0.937255
61.785122 3.798534 1.849982 0.937255
61.785183 3.798297 1.549635 0.937255
61.785206 3.798217 1.248324 0.937255
61.785198 3.798242 0.945384 0.937255
61.785252 3.798034 0.640187 0.937255
61.791779 3.773338 0.336635 0.246936
61.879765 3.440325 0.100002 0.694608
62.087345 2.654657 -0.000013 0.525858
61.936783 3.465212 4.205998 0.937255
61.851093 3.798952 3.976514 0.937255
61.851593 3.796995 3.664787 0.937255
61.851082 3.798998 3.357490 0.937500
61.851429 3.797642 3.052629 0.937255
61.851357 3.797918 2.750285 0.937255
61.851391 3.797782 2.449520 0.937255
61.851463 3.797512 2.149729 0.937255
61.851212 3.798492 1.850255 0.937255
61.851284 3.798198 1.550459 0.937255
61.851311 3.798094 1.249700 0.937255
61.851303 3.798130 0.947314 0.937255
61.851345 3.797972 0.642667 0.937255
61.857670 3.773338 0.339657 0.223529
61.939198 3.455805 0.100002 0.670466
62.141289 2.668713 -0.000014 0.519240
61.996384 3.480296 4.205999 0.937255
61.655979 4.845594 4.205999 0.937255
61.193943 6.698714 4.205998 0.937255
60.529186 9.364917 4.205995 0.787132
59.487919 13.541205 4.205993 0.932843
nan nan nan 0.000000
nan nan nan 0.000000
nan nan nan 0.000000
nan nan nan 0.000000
54.278286 34.435898 0.000041 0.534069
58.226212 18.601631 0.000044 0.535662
59.921139 11.803657 0.000016 0.545466
60.865185 8.017286 0.000027 0.536397
61.893570 3.892669 0.320210 0.223775
61.998734 3.470870 0.100003 0.643382
62.195332 2.682363 -0.000008 0.529167
62.056095 3.494963 4.205999 0.937255
61.725227 4.862605 4.205999 0.937255
61.276138 6.718905 4.205998 0.937255
60.630009 9.389686 4.205995 0.786642
59.617924 13.573148 4.205993 0.932721
nan nan nan 0.000000
nan nan nan 0.000000
nan nan nan 0.000000
nan nan nan 0.000000
54.554283 34.503723 0.000039 0.530882
58.391575 18.642262 0.000043 0.534314
60.038998 11.832633 0.000013 0.525735
60.956593 8.039752 0.000025 0.532353
61.542351 5.618516 0.000001 0.517279
62.058376 3.485520 0.100003 0.656373
62.249466 2.695664 -0.000009 0.523897
62.115902 3.509212 4.205999 0.937255
61.794594 4.879128 4.205998 0.937255
61.358479 6.738518 4.205997 0.937255
60.731010 9.413743 4.205995 0.786765
59.748154 13.604177 4.205994 0.836765
nan nan nan 0.000000
nan nan nan 0.000000
nan nan nan 0.000000
nan nan nan 0.000000
54.830856 34.569187 0.000059 0.536029
58.557278 18.681492 0.000062 0.529167
60.157104 11.860597 0.000032 0.514828
61.048191 8.061436 0.000045 0.532108
61.617085 5.635936 0.000068 0.531127
62.118122 3.499752 0.100003 0.626225
62.303688 2.708588 -0.000011 0.557353
62.175812 3.523043 4.205999 0.937255
61.864071 4.895167 4.205998 0.937255
61.494308 6.522686 4.162172 0.937255
60.832169 9.437099 4.205995 0.929289
59.878593 13.634282 4.205993 0.836765
nan nan nan 0.000000
nan nan nan 0.000000
nan nan nan 0.000000
nan nan nan 0.000000
55.107769 34.633152 0.000058 0.534681
58.723221 18.719685 0.000072 0.538848
60.275360 11.887912 0.000030 0.547181
61.139915 8.082547 0.000054 0.531495
61.691849 5.653205 0.000067 0.536397
62.177963 3.513567 0.100003 0.633946
62.358002 2.721134 -0.000012 0.546936
62.235813 3.536454 4.205998 0.937255
61.933662 4.910723 4.205998 0.937255
61.575268 6.540783 4.162172 0.937255
60.933495 9.459745 4.205995 0.929167
60.009243 13.663486 4.205993 0.836765
nan nan nan 0.000000
nan nan nan 0.000000
nan nan nan 0.000000
nan nan nan 0.000000
55.385052 34.695511 0.000039 0.534559
58.889355 18.757034 0.000054 0.543505
60.393772 11.914542 0.000012 0.548652
61.231750 8.103198 0.000036 0.532108
61.766712 5.670043 0.000049 0.527206
62.237900 3.526964 0.100003 0.615931
62.412392 2.733338 -0.000024 0.531127
62.295910 3.549445 4.205998 0.937255
62.003357 4.925792 4.205998 0.937255
61.656353 6.558314 4.162172 0.937255
61.034973 9.481690 4.205996 0.929044
60.140091 13.691777 4.205994 0.837010
nan nan nan 0.000000
nan nan nan 0.000000
nan nan nan 0.000000
nan nan nan 0.000000
55.662838 34.755600 0.000038 0.536887
59.055786 18.793030 0.000054 0.538603
60.512402 11.940194 0.000012 0.529657
61.323750 8.123091 0.000036 0.542402
61.841713 5.686273 0.000046 0.548774
62.297928 3.539943 0.100003 0.635049
62.466873 2.745127 -0.000026 0.503676
62.356091 3.562021 4.205999 0.937255
62.073158 4.940375 4.205999 0.937255
61.737560 6.575280 4.162172 0.937255
61.136600 9.502918 4.205996 0.928922
60.271133 13.719153 4.205993 0.836887
nan nan nan 0.000000
nan nan nan 0.000000
nan nan nan 0.000000
nan nan nan 0.000000
55.941124 34.813316 0.000058 0.539338
59.222515 18.827618 0.000073 0.543873
60.631241 11.964849 0.000032 0.545343
61.415916 8.142200 0.000057 0.543137
61.916847 5.701852 0.000067 0.524632
62.358047 3.552503 0.100003 0.648529
62.521435 2.756530 -0.000027 0.547304
62.416363 3.574175 4.205999 0.937255
62.143055 4.954468 4.205998 0.937255
61.818878 6.591678 4.162172 0.937255
61.238377 9.523439 4.205995 0.937255
60.402363 13.745620 4.205994 0.937255
nan nan nan 0.000000
nan nan nan 0.000000
nan nan nan 0.000000
nan nan nan 0.000000
56.219715 34.869526 0.000057 0.536887
59.389431 18.861294 0.000072 0.532721
60.750233 11.988748 0.000042 0.515931
61.508183 8.160823 0.000054 0.549387
61.992065 5.717026 0.000066 0.570098
62.418251 3.564640 0.100003 0.626838
62.576077 2.767553 -0.000028 0.522549
62.476715 3.585904 4.205999 0.937255
62.213055 4.968075 4.205999 0.937255
61.900314 6.607508 4.162172 0.937255
61.340290 9.543252 4.205995 0.937255
60.533775 13.771165 4.205994 0.937255
nan nan nan 0.000000
nan nan nan 0.000000
nan nan nan 0.000000
nan nan nan 0.000000
56.498642 34.924076 0.000040 0.540931
59.556541 18.893990 0.000055 0.555882
60.869347 12.012038 0.000026 0.534436
61.600559 8.178889 0.000038 0.558333
62.067337 5.731949 0.000013 0.550735
62.478539 3.576360 0.100003 0.617034
62.630810 2.778124 -0.000012 0.543505
62.537151 3.597214 4.205999 0.937255
62.283142 4.981193 4.205999 0.937255
61.981857 6.622766 4.162172 0.937255
61.442345 9.562346 4.205995 0.937255
60.665363 13.795781 4.205994 0.937255
nan nan nan 0.000000
nan nan nan 0.000000
nan nan nan 0.000000
nan nan nan 0.000000
56.777996 34.976379 0.000039 0.533456
59.723919 18.925308 0.000055 0.542402
60.988640 12.034379 0.000025 0.518015
61.693077 8.196214 0.000037 0.539093
62.142761 5.746078 0.000011 0.549755
62.538902 3.587657 0.100003 0.646569
62.685596 2.788383 -0.000013 0.553431
62.597660 3.608102 4.205999 0.937255
62.353321 4.993816 4.205998 0.937255
62.063503 6.637458 4.162172 0.937255
61.544525 9.580730 4.205995 0.937255
61.575306 9.406180 3.690450 0.300000
nan nan nan 0.000000
nan nan nan 0.000000
nan nan nan 0.000000
nan nan nan 0.000000
57.057709 35.026737 0.000038 0.541667
59.891506 18.955479 0.000054 0.534926
61.108089 12.055882 0.000023 0.527941
61.785713 8.212890 0.000035 0.543505
62.218285 5.759666 0.000011 0.518995
62.599350 3.598530 0.100003 0.631985
62.740459 2.798258 -0.000015 0.513726
62.658249 3.618567 4.205998 0.937255
62.423588 5.005953 4.205998 0.937255
62.105087 6.889058 4.205997 0.717279
61.646835 9.598405 4.205995 0.937255
61.679348 9.406178 3.688413 0.450735
nan nan nan 0.000000
nan nan nan 0.000000
nan nan nan 0.000000
nan nan nan 0.000000
57.337837 35.074738 0.000057 0.536274
60.059341 18.984234 0.000073 0.539338
61.227715 12.076377 0.000043 0.536887
61.878487 8.228789 0.000054 0.545221
62.293915 5.772627 0.000029 0.543873
62.659870 3.608983 0.100004 0.662623
62.795433 2.807467 0.000057 0.619118
62.718906 3.628608 4.205998 0.937255
62.493938 5.017599 4.205998 0.937255
62.188587 6.902884 4.205997 0.928799
61.747028 9.629163 4.208069 0.441176
61.783142 9.406179 3.686463 0.487132
61.745739 9.637106 3.221209 0.937255
61.745621 9.637842 2.731714 0.937255
61.745590 9.638026 2.243734 0.937255
61.745586 9.638061 1.756266 0.937255
61.745575 9.638121 1.268272 0.937255
61.745567 9.638170 0.778703 0.937255
61.749592 9.613336 0.289395 0.236642
61.971329 8.244282 0.000036 0.548774
62.369606 5.785253 0.000012 0.539706
62.720459 3.619015 0.100003 0.682108
62.850418 2.816634 0.000041 0.571936
62.779633 3.638228 4.205999 0.937255
62.564365 5.028752 4.205998 0.937255
62.272186 6.916123 4.205997 0.928922
61.852173 9.629244 4.205641 0.441176
61.886703 9.406179 3.684599 0.192157
61.850891 9.637514 3.219893 0.937255
61.850811 9.638043 2.730915 0.937255
61.850803 9.638080 2.243465 0.937255
61.850815 9.638021 1.756536 0.937255
61.850811 9.638050 1.269084 0.937255
61.850800 9.638117 0.780057 0.937255
61.854637 9.613337 0.291286 0.247059
62.064297 8.259015 0.000035 0.537377
62.445396 5.797258 0.000012 0.550123
62.781120 3.628621 0.100004 0.652574
62.905468 2.825359 0.000039 0.513113
62.840424 3.647418 4.205998 0.937255
62.634869 5.039420 4.205999 0.937255
62.355873 6.928783 4.205997 0.928922
61.954464 9.647131 4.205995 0.937255
61.990044 9.406178 3.682821 0.192157
nan nan nan 0.000000
nan nan nan 0.000000
nan nan nan 0.000000
nan nan nan 0.000000
58.179951 35.208076 0.000059 0.537377
60.563885 19.064117 0.000075 0.526838
61.587334 12.133319 0.000044 0.541176
62.157383 8.272962 0.000054 0.529289
62.521282 5.808639 0.000029 0.658088
62.841843 3.637808 0.100003 0.623039
62.960594 2.833633 0.000055 0.552206
62.901279 3.656188 4.205998 0.937255
62.705448 5.049590 4.205998 0.937255
62.439648 6.940855 4.205997 0.928799
62.057224 9.661937 4.205995 0.937255
62.093170 9.406179 3.681129 0.192157
nan nan nan 0.000000
nan nan nan 0.000000
nan nan nan 0.000000
nan nan nan 0.000000
58.461250 35.248638 0.000057 0.540074
60.732422 19.088406 0.000075 0.541422
61.707462 12.150638 0.000044 0.544240
62.250546 8.286392 0.000053 0.542770
62.597233 5.819591 0.000028 0.511029
62.902630 3.646565 0.100003 0.627696
63.015762 2.841596 0.000052 0.538971
62.962193 3.664532 4.205998 0.937255
62.776096 5.059266 4.205998 0.937255
62.523506 6.952340 4.205997 0.937255
62.160088 9.676028 4.205995 0.937255
61.590839 13.942363 4.205993 0.874510
nan nan nan 0.000000
nan nan nan 0.000000
nan nan nan 0.000000
61.545944 14.278825 1.680655 0.142525
61.545944 14.278825 1.041280 0.138603
61.545944 14.278823 0.399844 0.109559
61.827705 12.167123 0.000042 0.530515
62.343800 8.299173 0.000052 0.525980
62.673267 5.829943 0.000039 0.566299
62.963478 3.654901 0.100004 0.614951
63.070988 2.849156 0.000053 0.513603
63.023163 3.672452 4.205998 0.937255
62.846809 5.068450 4.205998 0.937255
62.607441 6.963242 4.205997 0.937255
62.263046 9.689406 4.205996 0.937255
61.723595 13.959611 4.205993 0.874387
nan nan nan 0.000000
nan nan nan 0.000000
nan nan nan 0.000000
61.683270 14.278827 1.680944 0.158578
61.683270 14.278825 1.042149 0.144853
61.683270 14.278827 0.401295 0.146201
61.948044 12.182904 0.000025 0.538725
62.437126 8.311418 0.000034 0.534314
62.749352 5.839915 0.000023 0.546691
63.024384 3.662811 0.100003 0.668260
63.126255 2.856406 0.000035 0.532966
63.084190 3.679944 4.205998 0.937255
62.917583 5.077141 4.205998 0.937255
62.691448 6.973555 4.205997 0.937255
62.366096 9.702054 4.205996 0.937255
61.856468 13.975919 4.205993 0.874387
nan nan nan 0.000000
nan nan nan 0.000000
nan nan nan 0.000000
61.820351 14.278827 1.681218 0.192157
61.820351 14.278827 1.042969 0.192157
61.820351 14.278825 0.402665 0.192157
62.068508 12.197700 0.000024 0.539583
62.530552 8.322892 0.000033 0.528554
62.825512 5.849270 0.000022 0.534436
63.085339 3.670294 0.100004 0.646324
63.181580 2.863202 0.000034 0.552696
63.145264 3.687011 4.205998 0.937255
62.988419 5.085339 4.205998 0.937255
62.775528 6.983286 4.205997 0.937255
62.469231 9.713992 4.205996 0.937255
61.989452 13.991305 4.205993 0.874265
nan nan nan 0.000000
nan nan nan 0.000000
nan nan nan 0.000000
61.957203 14.278829 1.681475 0.192157
61.957203 14.278829 1.043742 0.192157
62.484936 9.573975 0.792150 0.352941
62.484940 9.573947 0.305370 0.355392
62.624069 8.333580 0.000053 0.528554
62.901752 5.857976 0.000044 0.530515
63.146347 3.677355 0.100004 0.682843
63.236961 2.869526 0.000055 0.515686
63.206387 3.693653 4.205999 0.937255
63.059307 5.093041 4.205999 0.937255
62.859673 6.992425 4.205997 0.937255
62.572449 9.725198 4.205996 0.937255
62.122540 14.005767 4.205993 0.933701
nan nan nan 0.000000
nan nan nan 0.000000
nan nan nan 0.000000
62.093842 14.278829 1.681717 0.192157
62.093842 14.278827 1.044467 0.192157
62.596909 9.492443 0.799787 0.331985
62.596909 9.492465 0.316081 0.352941
62.717644 8.343749 0.000052 0.548162
62.978035 5.866273 0.000041 0.576471
63.207405 3.683988 0.100003 0.675000
63.292374 2.875548 0.000054 0.539338
63.267555 3.699866 4.205999 0.937255
63.130249 5.100247 4.205999 0.937255
62.943878 7.000978 4.205997 0.937255
62.675739 9.735692 4.205996 0.937255
62.255730 14.019292 4.205993 0.933701
62.214878 14.435897 3.606645 0.905882
nan nan nan 0.000000
nan nan nan 0.000000
62.164295 14.951810 1.670877 0.192157
62.164295 14.951810 1.011924 0.192157
62.699032 9.498139 0.800169 0.199510
62.700409 9.484094 0.318242 0.352941
62.811287 8.353275 0.000050 0.543015
63.054379 5.874031 0.000041 0.546691
63.268505 3.690194 0.100003 0.730637
63.347828 2.881192 0.000052 0.552451
63.328766 3.705652 4.205999 0.937255
63.201237 5.106956 4.205998 0.937255
63.028145 7.008945 4.205997 0.937255
62.779102 9.745463 4.205996 0.937255
62.389008 14.031894 4.205993 0.929044
62.352238 14.435897 3.605586 0.905882
62.343208 14.535117 2.966868 0.937255
62.338825 14.583270 2.322850 0.223529
62.338829 14.583268 1.677150 0.223529
62.338829 14.583268 1.030756 0.223529
62.800728 9.507827 0.800163 0.312745
62.798828 9.528692 0.314199 0.352941
62.904984 8.362253 0.000032 0.546569
63.130764 5.881339 0.000025 0.535539
63.329647 3.695972 0.100004 0.682843
63.403309 2.886592 0.000013 0.518382
63.390015 3.711013 4.205999 0.937255
63.272274 5.113170 4.205999 0.937255
63.112461 7.016323 4.205997 0.937255
62.882530 9.754512 4.205996 0.937255
62.522369 14.043555 4.205993 0.928922
62.489422 14.435895 3.604605 0.905882
62.481091 14.535115 2.966278 0.937255
62.470329 14.663278 2.323967 0.223529
62.470329 14.663278 1.676033 0.223529
62.470329 14.663278 1.027404 0.223529
62.470329 14.663276 0.376684 0.223529
62.672230 12.258897 0.000039 0.536274
62.998753 8.370461 0.000032 0.552206
63.207207 5.888031 0.000024 0.530882
63.390831 3.701325 0.100003 0.669730
63.458836 2.891444 0.000014 0.544485
63.451302 3.715941 4.205999 0.937255
63.343349 5.118887 4.205998 0.856863
63.196827 7.023109 4.205997 0.937255
62.986019 9.762838 4.205996 0.937255
62.655807 14.054297 4.205993 0.928922
62.626446 14.435897 3.603704 0.905882
62.618813 14.535117 2.965735 0.937255
62.608948 14.663278 2.323785 0.223529
62.608948 14.663278 1.676215 0.352941
62.608948 14.663278 1.027950 0.352941
62.608952 14.663278 0.377596 0.352941
62.793221 12.268464 0.000057 0.549755
63.092587 8.377869 0.000052 0.527451
63.283703 5.894076 0.000044 0.524510
63.452045 3.706250 0.100004 0.693750
63.514404 2.895855 0.000029 0.576961
63.512619 3.720443 4.205998 0.937255
63.414467 5.124109 4.205998 0.856863
63.281242 7.029307 4.205997 0.937255
63.089561 9.770444 4.205996 0.937255
62.789322 14.064103 4.205993 0.928922
62.763321 14.435895 3.602882 0.905882
63.506413 3.809179 2.437022 0.934926
63.506413 3.809178 2.145570 0.934559
63.506413 3.809178 1.854430 0.937255
63.506413 3.809179 1.562978 0.937255
63.506413 3.809177 1.270587 0.937255
63.506413 3.809178 0.976622 0.937255
63.506413 3.809178 0.680434 0.937255
63.506413 3.809178 0.381356 0.937255
63.513298 3.710748 0.100004 0.683088
63.569996 2.899940 0.000029 0.554657
63.573967 3.724519 4.205998 0.937255
63.485615 5.128836 4.205998 0.856863
63.365696 7.034919 4.205997 0.937255
63.193157 9.777322 4.205995 0.937255
62.922897 14.072972 4.205993 0.928922
62.900066 14.435899 3.602139 0.905882
63.568642 3.809178 2.436819 0.925490
63.568642 3.809178 2.145502 0.936642
63.568642 3.809178 1.854497 0.937255
63.568642 3.809178 1.563180 0.937255
63.568642 3.809179 1.270925 0.937255
63.568642 3.809178 0.977096 0.937255
63.568642 3.809178 0.681046 0.937255
63.568642 3.809177 0.382107 0.937255
63.574577 3.714819 0.100004 0.701593
63.625614 2.903636 0.000028 0.539338
63.635342 3.728167 4.205999 0.937255
63.556797 5.133064 4.205999 0.856863
63.450184 7.039937 4.205997 0.937255
63.296799 9.783477 4.205995 0.937255
63.056534 14.080909 4.205993 0.928922
63.036686 14.435897 3.601474 0.905882
63.630814 3.809180 2.436638 0.926225
63.630814 3.809179 2.145442 0.934559
63.630814 3.809179 1.854558 0.937255
63.630814 3.809180 1.563361 0.937255
63.630814 3.809178 1.271227 0.937255
63.630814 3.809178 0.977520 0.937255
63.630814 3.809177 0.681592 0.937255
63.630814 3.809177 0.382777 0.937255
63.635883 3.718460 0.100004 0.671569
63.681252 2.906996 0.000015 0.530515
63.696743 3.731382 4.205999 0.937255
63.628006 5.136796 4.205998 0.856863
63.534710 7.044371 4.205997 0.937255
63.400478 9.788910 4.205995 0.937255
63.190224 14.087920 4.205993 0.928922
63.173203 14.435895 3.600888 0.905882
63.692936 3.809177 2.436479 0.906005
63.692936 3.809178 2.145389 0.925490
63.692936 3.809178 1.854611 0.937255
63.692936 3.809177 1.563521 0.937255
63.692936 3.809178 1.271493 0.937255
63.692936 3.809178 0.977894 0.937255
63.692936 3.809177 0.682075 0.937255
63.692936 3.809178 0.383368 0.937255
63.697216 3.721675 0.100004 0.678064
63.736916 2.909929 0.000010 0.530392
63.758160 3.734171 4.205998 0.933946
63.699238 5.140032 4.205998 0.856863
63.619263 7.048206 4.205997 0.937255
63.504196 9.793626 4.205995 0.937255
63.323956 14.093995 4.205993 0.928922
63.309628 14.435895 3.600381 0.905882
63.755016 3.809178 2.436340 0.908333
63.510250 9.649178 2.240992 0.921569
63.510250 9.649178 1.759008 0.937255
63.510250 9.649179 1.276507 0.937255
63.510250 9.649178 0.792451 0.937255
63.510250 9.649179 0.305791 0.937255
63.562355 8.405939 0.000029 0.541667
63.666679 5.916834 0.000044 0.546691
63.758568 3.724459 0.100004 0.711887
63.792606 2.912374 0.000032 0.527819
63.819599 3.736530 4.205998 0.933946
63.770493 5.142769 4.205998 0.856863
63.703838 7.051455 4.205997 0.937255
63.607941 9.797609 4.205995 0.937255
63.457729 14.099130 4.205993 0.928922
63.445969 14.435897 3.599952 0.905882
63.817062 3.809178 2.436223 0.918995
63.613125 9.649179 2.240927 0.919608
63.613125 9.649179 1.759073 0.937255
63.613125 9.649179 1.276701 0.937255
63.613125 9.649179 0.792775 0.937255
63.613125 9.649178 0.306245 0.952819
63.825932 3.555199 0.720543 0.949020
63.825932 3.555199 0.430556 0.937255
63.819939 3.726819 0.100004 0.693995
63.848305 2.914514 0.000031 0.493137
63.881054 3.738463 4.205999 0.934314
63.841763 5.145008 4.205998 0.856863
63.788437 7.054115 4.205997 0.937255
63.711716 9.800870 4.205995 0.937255
63.591537 14.103333 4.205993 0.928922
63.582245 14.435897 3.599601 0.905882
63.879078 3.809178 2.436127 0.934926
63.715950 9.649179 2.240874 0.922549
63.715950 9.649179 1.759125 0.937255
63.715950 9.649179 1.276860 0.937255
63.715950 9.649178 0.793040 0.937255
63.715950 9.649179 0.306616 0.937255
63.886169 3.555199 0.720824 0.946691
63.886169 3.555200 0.430900 0.989461
63.885551 3.577427 0.132699 0.400000
63.904018 2.916267 0.000031 0.549632
63.942516 3.739966 4.205999 0.934314
63.913048 5.146749 4.205998 0.856618
63.873055 7.056184 4.205997 0.937255
63.815506 9.803404 4.205995 0.937255
63.725368 14.106606 4.205993 0.928922
63.718472 14.435897 3.599329 0.905882
63.941067 3.809179 2.436053 0.934926
63.713078 14.693280 2.323393 0.223529
63.713078 14.693280 1.676607 0.352941
63.713078 14.693278 1.029128 0.352941
63.824059 9.395200 0.814075 0.928676
63.824059 9.395199 0.336130 0.935049
63.946388 3.555198 0.721042 0.925490
63.946388 3.555198 0.431168 1.000000
63.945923 3.577427 0.133017 0.394485
63.959740 2.917698 0.000014 0.524632
64.003990 3.741038 4.205998 0.934314
63.984344 5.147995 4.205998 0.856618
63.957680 7.057661 4.205997 0.937255
63.919315 9.805216 4.205995 0.937255
63.859219 14.108941 4.205993 0.928922
63.854652 14.435895 3.599133 0.905882
64.003036 3.809178 2.436000 0.936029
63.851059 14.693280 2.323353 0.223529
63.851059 14.693278 1.676646 0.352941
63.851059 14.693278 1.029246 0.352941
63.925041 9.395199 0.814220 0.931373
63.925041 9.395200 0.336332 0.915074
64.006584 3.555198 0.721198 0.925490
64.006584 3.555197 0.431359 1.000000
64.006279 3.577426 0.133245 0.407230
64.015472 2.918671 0.000014 0.526961
64.065468 3.741683 4.205999 0.934314
64.055649 5.148741 4.205998 0.856618
64.042313 7.058546 4.205997 0.937255
64.023132 9.806303 4.205995 0.937255
63.993084 14.110351 4.205993 0.928922
63.990810 14.435895 3.599017 0.905882
64.065002 3.809178 2.435968 0.937255
63.989014 14.693278 2.323330 0.223529
63.989014 14.693278 1.676670 0.223529
63.989014 14.693278 1.029317 0.223529
64.026001 9.395199 0.814307 0.915564
64.026001 9.395200 0.336454 0.953554
64.066772 3.555198 0.721291 0.949020
64.066772 3.555198 0.431474 1.000000
64.066620 3.577427 0.133381 0.401471
64.071213 2.919184 0.000031 0.531618
64.126953 3.741898 4.205999 0.934314
64.126953 5.148993 4.205998 0.856618
64.126953 7.058841 4.205997 0.937255
64.126953 9.806667 4.205995 0.937255
64.126953 14.110816 4.205993 0.928922
64.126953 14.435897 3.598978 0.905882
64.126953 3.790684 2.435049 0.930882
64.126953 14.693280 2.323322 0.223529
64.126953 3.577840 1.858570 0.942770
64.126953 3.577839 1.575407 0.945956
64.126953 3.577840 1.291332 0.129412
64.126953 3.577832 1.005729 0.927206
64.126953 3.577828 0.717966 0.946324
64.126953 3.577842 0.427392 0.998162
64.126953 3.577425 0.133427 0.390441
64.126953 2.919452 0.000013 0.524265
64.188438 3.741683 4.205999 0.934314
64.198257 5.148741 4.205998 0.856618
64.211594 7.058546 4.205997 0.937255
64.230774 9.806303 4.205995 0.937255
64.260826 14.110351 4.205993 0.928922
64.263100 14.435897 3.599017 0.905882
64.188766 3.788424 2.434948 0.937255
64.264893 14.693278 2.323330 0.223529
64.187294 3.577839 1.858567 0.925735
64.187294 3.577841 1.575397 1.000000
64.187134 3.555386 1.293156 0.107843
64.187012 3.538030 1.010283 0.295833
64.186897 3.521000 0.726364 0.290196
64.186462 3.458457 0.449077 0.290196
64.187286 3.577426 0.133381 0.400368
64.182693 2.919256 0.000013 0.542279
64.249916 3.741039 4.205999 0.934314
64.269562 5.147996 4.205999 0.856618
64.296227 7.057661 4.205997 0.937255
64.334595 9.805217 4.205995 0.937255
64.394691 14.108941 4.205993 0.928922
64.399254 14.435895 3.599133 0.905882
64.250549 3.786166 2.434869 0.937255
64.402847 14.693280 2.323353 0.223529
64.247635 3.577840 1.858556 0.928554
64.247635 3.577840 1.575366 0.966912
64.247635 3.577839 1.291263 0.244485
64.247635 3.577840 1.005631 0.937255
64.247635 3.577836 0.717840 0.937255
64.247635 3.577856 0.427236 1.000000
64.247635 3.577425 0.133245 0.412500
64.238434 2.918671 0.000014 0.530392
64.311394 3.739964 4.205999 0.934314
64.340858 5.146749 4.205998 0.856618
64.380852 7.056179 4.205997 0.937255
64.438400 9.803405 4.205995 0.937255
64.528542 14.106608 4.205993 0.928922
64.535439 14.435899 3.599329 0.905882
64.312309 3.783908 2.434812 0.937255
64.540833 14.693282 2.323393 0.223529
64.307991 3.577840 1.858539 0.943260
64.307991 3.577841 1.575314 0.937255
64.307991 3.577840 1.291177 0.129412
64.307991 3.577840 1.005510 0.937255
64.307991 3.577835 0.717684 0.937255
64.307991 3.577856 0.427044 1.000000
64.307983 3.577426 0.133018 0.400000
64.294167 2.917628 0.000031 0.510417
64.372856 3.738463 4.205999 0.934314
64.412140 5.145007 4.205998 0.856863
64.465469 7.054116 4.205997 0.937255
64.542191 9.800870 4.205995 0.937255
64.662369 14.103333 4.205993 0.928922
64.671661 14.435897 3.599601 0.905882
64.374062 3.781649 2.434774 0.937255
64.678848 14.693282 2.323448 0.223529
64.368370 3.577840 1.858515 0.937255
64.368370 3.577840 1.575242 1.000000
64.367767 3.556211 1.292830 0.108211
64.367577 3.549468 1.008605 0.293750
64.367317 3.540359 0.723026 0.290196
64.368477 3.581635 0.426088 0.286029
64.368355 3.577426 0.132699 0.404534
64.349892 2.916267 0.000031 0.509559
64.434311 3.736532 4.205999 0.934314
64.483414 5.142769 4.205998 0.856863
64.550064 7.051456 4.205997 0.937255
64.645966 9.797610 4.205995 0.937255
64.796181 14.099130 4.205993 0.928922
64.807938 14.435899 3.599952 0.905882
64.435806 3.779393 2.434759 0.937255
64.815880 14.663280 2.323028 0.223529
64.428764 3.577839 1.858484 0.937255
64.428764 3.577840 1.575149 0.970588
64.428764 3.577839 1.290900 0.327083
64.428764 3.577840 1.005122 0.937255
64.428764 3.577833 0.717184 0.937255
64.428764 3.577850 0.426432 1.000000
64.428749 3.577428 0.132289 0.401348
64.405602 2.914588 0.000013 0.519118
64.495743 3.734172 4.205999 0.933946
64.554672 5.140032 4.205998 0.856863
64.634644 7.048207 4.205997 0.937255
64.749710 9.793627 4.205996 0.937255
64.929955 14.093995 4.205993 0.928922
64.944283 14.435897 3.600381 0.905882
64.497543 3.777139 2.434765 0.937255
64.953812 14.663280 2.323114 0.223529
64.489197 3.577839 1.858446 0.937255
64.489197 3.577839 1.575035 0.947426
64.489197 3.577838 1.290710 0.169853
64.489197 3.577839 1.004855 0.937255
64.489197 3.577832 0.716840 0.937255
64.489197 3.577849 0.426010 0.987990
64.489174 3.577429 0.131787 0.432230
64.461304 2.912448 0.000013 0.555515
64.557167 3.731382 4.205999 0.937255
64.625900 5.136796 4.205998 0.856863
64.719200 7.044370 4.205997 0.937255
64.853432 9.788911 4.205995 0.937255
65.063683 14.087922 4.205993 0.928922
65.080704 14.435897 3.600888 0.905882
64.559296 3.774887 2.434792 0.937255
65.091827 14.663278 2.323217 0.223529
64.549660 3.577840 1.858401 0.937255
64.549660 3.577839 1.574900 1.000000
64.548393 3.552040 1.292603 0.106618
64.547546 3.534731 1.009505 0.295833
64.546738 3.518129 0.725299 0.290196
64.543785 3.457767 0.447386 0.290196
64.549637 3.577431 0.131195 0.404167
64.516991 2.909922 0.000012 0.583333
64.618561 3.728167 4.205999 0.937255
64.697113 5.133063 4.205998 0.856863
64.803719 7.039937 4.205997 0.937255
64.957108 9.783478 4.205996 0.937255
65.197372 14.080909 4.205993 0.928922
65.217216 14.435897 3.601474 0.905882
64.621048 3.772635 2.434840 0.937255
65.229935 14.663280 2.323335 0.223529
64.610161 3.577839 1.858349 0.937255
64.610161 3.577840 1.574744 0.949020
64.610161 3.577839 1.290225 0.129412
64.610161 3.577838 1.004175 0.937255
64.610161 3.577827 0.715964 0.935417
64.610161 3.577841 0.424936 0.951838
64.610138 3.577434 0.130510 0.400245
64.572647 2.906935 0.000030 0.532721
64.679939 3.724520 4.205999 0.937255
64.768295 5.128837 4.205998 0.856863
64.888214 7.034921 4.205997 0.937255
65.060753 9.777324 4.205996 0.937255
65.331009 14.072972 4.205993 0.928922
65.353844 14.435901 3.602139 0.905882
64.682823 3.770385 2.434910 0.937255
65.368149 14.663280 2.323469 0.223529
64.670708 3.577839 1.858291 0.937255
64.670708 3.577838 1.574568 0.942892
64.670715 3.577840 1.289931 0.177206
64.670708 3.577839 1.003762 0.937255
64.670708 3.577827 0.715431 0.925490
64.670708 3.577837 0.424284 0.956127
64.670685 3.577435 0.129734 0.406373
64.628296 2.903628 0.000030 0.562990
64.741287 3.720443 4.205998 0.937255
64.839439 5.124110 4.205998 0.856863
64.972664 7.029308 4.205997 0.937255
65.164345 9.770445 4.205996 0.937255
65.464584 14.064105 4.205993 0.928922
65.490585 14.435897 3.602882 0.905882
64.744621 3.768138 2.435001 0.937255
65.500893 14.583282 2.322307 0.223529
64.731316 3.577840 1.858225 0.937255
64.731316 3.577839 1.574370 1.000000
64.729462 3.551362 1.291778 0.106495
64.728340 3.535302 1.008206 0.295956
64.727180 3.518746 0.723621 0.290196
64.723579 3.467200 0.443733 0.290196
64.731285 3.577437 0.128866 0.395588
64.683914 2.900008 0.000012 0.526348
64.802605 3.715941 4.205999 0.937255
64.910561 5.118886 4.205998 0.856863
65.057083 7.023110 4.205997 0.937255
65.267891 9.762840 4.205996 0.937255
65.598099 14.054299 4.205993 0.928922
65.627464 14.435899 3.603704 0.905882
64.806763 3.769920 2.435312 0.937255
65.638802 14.583278 2.322472 0.223529
64.791977 3.577839 1.858152 0.937255
64.791977 3.577840 1.574152 0.941054
64.791977 3.577839 1.289237 0.162010
64.791977 3.577838 1.002789 0.937255
64.791985 3.577851 0.714173 0.939461
64.791977 3.577825 0.422746 0.952574
64.791946 3.577439 0.127907 0.401225
64.739510 2.895916 0.000014 0.571814
64.863892 3.711013 4.205999 0.937255
64.981636 5.113171 4.205999 0.937255
65.141449 7.016323 4.205997 0.937255
65.371376 9.754513 4.205996 0.937255
65.731544 14.043555 4.205993 0.928922
65.764488 14.435897 3.604605 0.905882
64.869026 3.772114 2.435665 0.937255
65.776863 14.583278 2.322654 0.223529
64.852707 3.577841 1.858072 0.937255
64.852707 3.577840 1.573913 0.937255
65.341209 9.395198 0.810162 0.937255
65.341209 9.395198 0.330640 0.969975
64.850807 3.555199 0.716822 0.911274
64.850807 3.555199 0.425991 0.943015
64.852676 3.577442 0.126854 0.400000
64.795067 2.891444 0.000015 0.543995
64.925140 3.705653 4.205999 0.937255
65.052666 5.106956 4.205998 0.937255
65.225761 7.008945 4.205997 0.937255
65.474808 9.745465 4.205996 0.937255
65.864906 14.031894 4.205993 0.928922
65.901672 14.435899 3.605586 0.905882
64.931389 3.774311 2.436039 0.937255
65.915085 14.583278 2.322850 0.223529
64.913506 3.577839 1.857986 0.937255
64.913506 3.577838 1.573653 0.915564
65.442932 9.395201 0.809436 0.937255
65.442932 9.395201 0.329620 0.991054
64.911446 3.555199 0.716038 0.916054
64.911446 3.555200 0.425030 0.937255
64.913475 3.577447 0.125709 0.398162
64.850594 2.886518 0.000031 0.541789
64.986351 3.699865 4.205998 0.937255
65.123657 5.100248 4.205999 0.937255
65.310028 7.000978 4.205997 0.937255
65.578171 9.735694 4.205996 0.937255
65.998184 14.019294 4.205993 0.874755
66.039032 14.435899 3.606645 0.905882
64.993866 3.776513 2.436436 0.937255
66.053482 14.583280 2.323064 0.223529
64.974388 3.577839 1.857892 0.937255
64.974388 3.577839 1.573371 0.915564
65.544785 9.395199 0.808650 0.937255
65.544785 9.395198 0.328517 0.999755
64.972168 3.555198 0.715191 0.926103
64.972168 3.555198 0.423990 0.825368
64.974350 3.577449 0.124471 0.401471
64.906082 2.881196 0.000050 0.547672
65.047516 3.693652 4.205998 0.937255
65.194603 5.093042 4.205999 0.937255
65.394234 6.992427 4.205997 0.937255
65.681458 9.725199 4.205996 0.937255
66.131371 14.005769 4.205993 0.874265
66.176575 14.435897 3.607785 0.905882
65.056458 3.778722 2.436854 0.937255
66.192070 14.583282 2.323292 0.223529
65.035347 3.577840 1.857791 0.937255
65.035347 3.577840 1.573068 0.915564
65.646774 9.395200 0.807805 0.937255
65.646774 9.395199 0.327332 1.000000
65.032967 3.555199 0.714279 0.933456
65.032967 3.555199 0.422872 0.833211
65.035309 3.577453 0.123139 0.413603
64.961540 2.875632 0.000033 0.537377
65.108643 3.687012 4.205998 0.937255
65.265488 5.085340 4.205999 0.937255
65.478378 6.983287 4.205997 0.937255
65.784676 9.713994 4.205996 0.937255
66.264458 13.991307 4.205993 0.874265
66.314323 14.435901 3.609005 0.905882
65.119179 3.780933 2.437295 0.937255
66.330856 14.583282 2.323538 0.223529
65.096397 3.577840 1.857683 0.937255
65.096397 3.577840 1.572745 0.915564
65.748917 9.395200 0.806900 0.937255
65.748917 9.395199 0.326063 0.999265
65.093857 3.555199 0.713304 0.937255
65.093857 3.555198 0.421676 0.864706
65.096352 3.577457 0.121715 0.403676
65.016960 2.869610 0.000034 0.536152
65.169716 3.679945 4.205998 0.937255
65.336327 5.077142 4.205999 0.937255
65.562454 6.973556 4.205997 0.937255
65.887810 9.702056 4.205996 0.937255
66.397438 13.975921 4.205993 0.874387
66.452286 14.435897 3.610305 0.905882
65.182022 3.783154 2.437758 0.993382
66.469864 14.583282 2.323799 0.223529
65.157539 3.577841 1.857568 0.937255
65.157539 3.577839 1.572399 0.918627
65.851219 9.395201 0.805936 0.937255
65.851219 9.395200 0.324710 1.000000
65.154846 3.555199 0.712264 0.937255
65.154846 3.555197 0.420400 0.918015
65.157501 3.577461 0.120196 0.395711
65.072319 2.863138 0.000050 0.536642
65.230743 3.672454 4.205999 0.937255
65.407097 5.068450 4.205998 0.937255
65.646469 6.963242 4.205997 0.937255
65.990860 9.689408 4.205996 0.937255
66.530312 13.959613 4.205994 0.894853
66.590485 14.435899 3.611686 0.905882
65.245010 3.785381 2.438244 1.000000
66.609100 14.583280 2.324077 0.223529
65.218788 3.577840 1.857446 0.937255
65.218788 3.577840 1.572033 0.926593
66.522339 13.896468 0.432895 0.898529
66.305847 12.182761 0.000041 0.533701
65.215927 3.555200 0.711160 0.937255
65.215927 3.555198 0.419046 0.924755
65.218742 3.577466 0.118583 0.407230
65.127647 2.856342 0.000051 0.529657
65.291718 3.664533 4.205998 0.937255
65.477814 5.059267 4.205998 0.937255
65.730400 6.952341 4.205997 0.937255
66.093819 9.676030 4.205996 0.937255
66.663071 13.942365 4.205993 0.933701
66.728920 14.435897 3.613148 0.905882
65.308136 3.787618 2.438752 1.000000
66.748589 14.583278 2.324372 0.223529
65.280144 3.577839 1.857317 0.937255
65.280144 3.577839 1.571644 0.926593
66.750191 14.595277 0.373667 0.352941
66.426201 12.167115 0.000043 0.538603
65.277130 3.555199 0.709991 0.937255
65.277122 3.555197 0.417611 0.918260
65.280098 3.577472 0.116875 0.398775
65.182922 2.849163 0.000051 0.525245
65.352631 3.656189 4.205999 0.937255
65.548462 5.049590 4.205998 0.937255
65.814255 6.940856 4.205997 0.928799
66.196678 9.661938 4.205995 0.937255
66.795700 13.924195 4.205993 0.933701
66.867615 14.435901 3.614692 0.905882
65.371422 3.789936 2.439287 1.000000
66.888329 14.583282 2.324682 0.223529
65.341614 3.577839 1.857180 0.937255
65.341614 3.577840 1.571235 0.926593
66.890015 14.595281 0.372111 0.352941
66.546471 12.150830 0.000021 0.536029
65.338432 3.555198 0.708756 0.959191
65.338432 3.555198 0.416098 0.937255
65.341568 3.577477 0.115072 0.409436
65.238159 2.841674 0.000032 0.545588
65.413483 3.647419 4.205998 0.937255
65.619034 5.039420 4.205999 0.937255
65.898033 6.928784 4.205997 0.928799
66.299446 9.647132 4.205996 0.937255
66.928207 13.905108 4.205994 0.933701
67.006584 14.435901 3.616317 0.905882
65.434860 3.792172 2.439841 1.000000
67.028351 14.583282 2.325008 0.223529
65.403206 3.577839 1.857036 0.937255
65.403206 3.577841 1.570803 0.926593
67.030121 14.595281 0.370472 0.352941
66.666603 12.133519 0.000021 0.550123
65.399864 3.555198 0.707457 0.962500
65.399864 3.555200 0.414503 0.950858
65.403152 3.577482 0.113174 0.397181
65.293327 2.833720 0.000033 0.528186
65.474274 3.638229 4.205999 0.937255
65.689545 5.028754 4.205998 0.937255
65.981720 6.916125 4.205997 0.928922
66.402100 9.631609 4.205996 0.937255
67.060577 13.885085 4.205993 0.933701
67.145844 14.435899 3.618024 0.905882
65.498459 3.794422 2.440417 1.000000
67.168663 14.583280 2.325352 0.223529
67.170517 14.595281 1.674450 0.352941
67.168663 14.583278 1.023247 0.223529
67.170517 14.595279 0.368751 0.352941
66.786583 12.115216 0.000039 0.538480
65.461426 3.555200 0.706091 0.947059
65.461426 3.555199 0.412828 0.950735
65.464874 3.577486 0.111179 0.402819
65.348427 2.825300 0.000054 0.564951
65.535004 3.628609 4.205999 0.937255
65.759972 5.017600 4.205998 0.937255
66.065315 6.902884 4.205997 0.928799
66.504646 9.615366 4.205996 0.937255
67.192795 13.864146 4.205994 0.937255
67.285400 14.435901 3.619815 0.905882
65.562225 3.796684 2.441017 1.000000
67.309273 14.583282 2.325712 0.223529
67.311218 14.595283 1.674089 0.352941
67.309273 14.583278 1.022166 0.223529
67.311211 14.595279 0.366946 0.352941
66.906456 12.096217 0.000040 0.536520
65.523109 3.555199 0.704660 0.937255
65.523109 3.555199 0.411072 0.951471
65.526726 3.577494 0.109088 0.388358
65.403481 2.816569 0.000057 0.542525
65.595657 3.618565 4.205999 0.937255
65.830322 5.005954 4.205998 0.937255
66.148827 6.889061 4.205997 0.717279
66.607079 9.598406 4.205995 0.937255
67.324875 13.842282 4.205994 0.937255
67.425278 14.435901 3.621688 0.905882
67.442055 14.535117 2.976565 0.937255
67.450203 14.583282 2.326088 0.223529
67.452232 14.595283 1.673712 0.352941
67.450203 14.583280 1.021035 0.223529
67.452232 14.595279 0.365058 0.352941
67.026192 12.076390 0.000041 0.525858
65.584946 3.555200 0.703162 0.993260
65.584946 3.555200 0.409234 0.948529
65.588715 3.577498 0.106900 0.393382
65.458473 2.807467 0.000056 0.504902
65.656250 3.608103 4.205999 0.937255
65.900589 4.993818 4.205998 0.937255
66.232231 6.874656 4.205998 0.718015
66.709381 9.580732 4.205995 0.937255
67.456795 13.819499 4.205994 0.937255
67.565483 14.435899 3.623644 0.905882
67.582977 14.535119 2.977743 0.937255
67.591469 14.583283 2.326482 0.223529
67.593582 14.595284 1.673319 0.352941
67.591469 14.583278 1.019854 0.223529
67.593582 14.595281 0.363085 0.352941
67.145821 12.055890 0.000023 0.537623
65.646919 3.555199 0.701597 0.984681
65.646919 3.555199 0.407315 0.952941
65.650848 3.577505 0.104614 0.394975
65.513412 2.798053 0.000038 0.535172
65.716759 3.597215 4.205999 0.937255
65.970764 4.981194 4.205999 0.937255
66.315529 6.859668 4.205998 0.717525
66.811562 9.562350 4.205996 0.937255
67.588547 13.795787 4.205994 0.937255
67.706032 14.435899 3.625685 0.905882
67.724236 14.535121 2.978972 0.937255
67.733078 14.583283 2.326893 0.223529
67.735283 14.595284 1.672908 0.352941
67.733078 14.583282 1.018622 0.223529
67.735283 14.595279 0.361027 0.352941
67.265244 12.034253 0.000039 0.533824
65.709045 3.555200 0.699965 0.937255
65.709045 3.555200 0.405313 0.946078
65.713142 3.577512 0.102231 0.648284
65.568260 2.788128 0.000051 0.519608
65.777191 3.585904 4.205999 0.937255
66.040855 4.968076 4.205999 0.937255
66.398727 6.844097 4.205998 0.717279
66.913620 9.543253 4.205995 0.937255
67.720139 13.771169 4.205994 0.937255
67.846939 14.435899 3.627811 0.905882
67.865868 14.535119 2.980253 0.937255
67.875053 14.583283 2.327319 0.223529
67.877342 14.595283 1.672480 0.352941
67.875053 14.583280 1.017339 0.223529
67.877342 14.595279 0.358884 0.352941
67.384537 12.011910 0.000041 0.541176
65.771332 3.555199 0.698265 0.937255
65.771332 3.555201 0.403228 0.952328
65.775589 3.577518 0.099748 0.649632
65.623047 2.777863 0.000055 0.526226
65.837547 3.574175 4.205999 0.937255
66.110855 4.954469 4.205999 0.937255
66.481812 6.827949 4.205998 0.937255
67.015533 9.523440 4.205995 0.937255
67.851547 13.745624 4.205994 0.937255
67.988228 14.435899 3.630021 0.905882
68.007874 14.535117 2.981583 0.937255
68.017410 14.583282 2.327764 0.223529
68.019783 14.595283 1.672036 0.352941
68.017410 14.583280 1.016004 0.223529
68.019783 14.595279 0.356656 0.352941
67.503716 11.988931 0.000021 0.541422
65.833786 3.555200 0.696498 0.937255
65.833786 3.555200 0.401060 0.993505
65.838211 3.577525 0.097166 0.653064
65.677795 2.767360 0.000021 0.565686
65.897812 3.562019 4.205999 0.937255
66.180748 4.940375 4.205999 0.937255
66.564781 6.811218 4.205998 0.937255
67.117310 9.502921 4.205996 0.928922
67.982773 13.719157 4.205994 0.836887
68.129898 14.435899 3.632318 0.905882
68.150269 14.535117 2.982966 0.937255
68.160156 14.583280 2.328226 0.223529
68.162621 14.595281 1.671573 0.352941
68.160156 14.583278 1.014619 0.223529
68.162621 14.595279 0.354341 0.352941
67.622711 11.965072 0.000005 0.549877
66.838020 8.142341 0.000035 0.516299
66.337082 5.701947 0.000049 0.531863
65.895859 3.552504 0.100003 0.661765
65.732430 2.756338 0.000022 0.577696
65.958000 3.549445 4.205999 0.937255
66.250549 4.925793 4.205999 0.937255
66.647629 6.793909 4.205998 0.937255
67.218933 9.481691 4.205996 0.929044
68.113815 13.691781 4.205994 0.837010
68.271988 14.435899 3.634700 0.905882
68.293076 14.535117 2.984401 0.937255
68.303314 14.583282 2.328705 0.223529
68.305862 14.595283 1.671094 0.352941
68.303314 14.583280 1.013180 0.223529
68.305862 14.595281 0.351939 0.352941
67.741516 11.940238 0.000006 0.538113
66.930161 8.123092 0.000036 0.529044
66.412193 5.686256 0.000049 0.530515
65.955978 3.539945 0.100003 0.675613
65.786995 2.744941 0.000021 0.569118
66.018097 3.536455 4.205999 0.937255
66.320244 4.910725 4.205998 0.937255
66.730362 6.776023 4.205997 0.937255
67.320419 9.459749 4.205996 0.929167
68.244667 13.663489 4.205994 0.836887
68.414497 14.435899 3.637169 0.905882
68.436310 14.535117 2.985888 0.937255
68.446899 14.583282 2.329201 0.223529
68.449539 14.595281 1.670597 0.352941
68.446899 14.583280 1.011690 0.223529
68.449539 14.595279 0.349450 0.352941
67.860123 11.914460 0.000022 0.535172
67.022141 8.103104 0.000050 0.521569
66.487175 5.669957 0.000065 0.549632
66.016006 3.526966 0.100003 0.693873
65.841469 2.733102 0.000036 0.522917
66.078094 3.523045 4.205999 0.937255
66.389839 4.895171 4.205999 0.937255
66.812958 6.757559 4.205997 0.937255
67.421738 9.437104 4.205996 0.929167
68.375313 13.634286 4.205994 0.836765
68.557442 14.435899 3.639726 0.905882
68.579979 14.535119 2.987428 0.937255
68.590927 14.583282 2.329716 0.223529
68.593651 14.595283 1.670083 0.352941
68.590919 14.583278 1.010146 0.223529
68.593651 14.595277 0.346872 0.352941
67.978600 11.888127 0.000005 0.541176
67.114021 8.082680 0.000034 0.521691
66.562080 5.653302 0.000049 0.527574
66.075943 3.513570 0.100002 0.661520
65.895874 2.720974 0.000028 0.547672
66.138000 3.509212 4.205999 0.937255
66.459312 4.879128 4.205999 0.937255
66.895432 6.738520 4.205998 0.937255
67.522903 9.413747 4.205996 0.786765
68.505760 13.604180 4.205994 0.836765
68.700836 14.435903 3.642371 0.905882
68.724106 14.535121 2.989021 0.937255
68.735405 14.583282 2.330247 0.223529
68.738220 14.595281 1.669551 0.352941
68.735405 14.583283 1.008549 0.223529
68.738220 14.595281 0.344205 0.352941
68.096855 11.860805 0.000007 0.539216
67.205757 8.061593 0.000021 0.554534
66.636848 5.636031 0.000050 0.548897
66.135788 3.499753 0.100003 0.665686
65.950180 2.708435 0.000028 0.553431
66.197815 3.494964 4.205999 0.937255
66.528679 4.862604 4.205999 0.937255
66.977768 6.718907 4.205998 0.937255
67.623894 9.389686 4.205996 0.786642
68.635979 13.573148 4.205994 0.932721
68.844704 14.435901 3.645105 0.905882
68.868706 14.535119 2.990667 0.937255
68.880363 14.583283 2.330797 0.223529
68.880356 14.583282 1.669203 0.223529
68.880356 14.583283 1.006899 0.223529
68.880356 14.583282 0.342461 0.223529
68.214890 11.832557 0.000022 0.533701
67.297295 8.039681 0.000035 0.543750
66.711494 5.618257 0.000049 0.533946
66.195526 3.485521 0.100002 0.673162
66.004395 2.695475 0.000040 0.539093
66.257523 3.480297 4.205999 0.937255
66.597931 4.845596 4.205999 0.937255
67.059967 6.698715 4.205998 0.937255
67.724724 9.364920 4.205996 0.787132
68.765991 13.541213 4.205994 0.932721
68.989059 14.435903 3.647929 0.905882
69.013802 14.535121 2.992367 0.937255
69.025810 14.583282 2.331365 0.223529
69.028801 14.595284 1.668433 0.352941
69.025810 14.583283 1.005194 0.223529
69.028801 14.595283 0.338602 0.352941
68.332756 11.803601 0.000022 0.542892
67.388702 8.017220 0.000037 0.550245
66.786011 5.599945 0.000050 0.542034
66.255173 3.470872 0.100002 0.654534
66.058525 2.682158 0.000045 0.524510
66.317123 3.465212 4.205998 0.937255
66.667053 4.828103 4.205999 0.937255
67.142021 6.677957 4.205998 0.937255
67.825371 9.339452 4.205996 0.937255
68.895775 13.508378 4.205994 0.932843
69.133919 14.435901 3.650842 0.905882
69.159393 14.535119 2.994121 0.937255
69.171761 14.583280 2.331951 0.223529
69.174843 14.595283 1.667846 0.352941
69.171761 14.583282 1.003435 0.223529
69.174843 14.595283 0.335665 0.352941
68.450455 11.773965 0.000006 0.537377
67.479980 7.994243 0.000019 0.528554
66.860420 5.581212 0.000033 0.558333
66.314713 3.455806 0.100002 0.666667
66.112556 2.668479 0.000046 0.566422
66.376625 3.449715 4.205998 0.937255
66.736061 4.810126 4.205998 0.937255
67.210442 6.605584 4.196394 0.937255
67.925842 9.313277 4.205996 0.937255
69.025322 13.474629 4.205994 0.932843
69.279305 14.435899 3.653847 0.905882
69.305519 14.535119 2.995931 0.937255
69.318237 14.583282 2.332555 0.223529
69.321411 14.595284 1.667242 0.352941
69.318245 14.583283 1.001622 0.223529
69.321411 14.595283 0.332635 0.352941
68.567902 11.743356 0.000008 0.534804
67.571068 7.970503 0.000021 0.540809
66.934677 5.561863 0.000035 0.526593
66.374146 3.440325 0.100002 0.667034
66.166496 2.654422 0.000048 0.566299
66.436012 3.433803 4.205999 0.937255
66.804939 4.791676 4.205999 0.937255
67.242531 6.402279 4.162172 0.937255
68.026131 9.286409 4.205996 0.937255
69.154633 13.439984 4.205994 0.937255
69.425217 14.435901 3.656944 0.905882
69.452171 14.535119 2.997796 0.937255
69.465256 14.583282 2.333177 0.223529
69.468521 14.595284 1.666619 0.352941
69.465256 14.583282 0.999753 0.223529
69.468521 14.595283 0.329513 0.352941
68.685005 11.711471 0.000064 0.539216
67.661964 7.946056 0.000035 0.534314
67.008781 5.541929 0.000048 0.534926
66.433464 3.424432 0.100002 0.688113
66.220329 2.639947 0.000061 0.518627
66.495285 3.417476 4.205999 0.937255
66.873680 4.772735 4.205999 0.937255
67.328056 6.400112 4.165925 0.937255
68.126228 9.258842 4.205996 0.937255
69.283699 13.404435 4.205995 0.937255
69.571686 14.435899 3.660132 0.905882
69.599388 14.535115 2.999716 0.937255
69.612839 14.583282 2.333819 0.223529
69.616188 14.595283 1.665977 0.352941
69.612839 14.583280 0.997827 0.223529
69.616188 14.595283 0.326298 0.352941
68.802010 11.679225 0.000066 0.545343
67.752693 7.921008 0.000043 0.525858
67.082771 5.521615 0.000037 0.524020
66.492676 3.408121 0.100002 0.686520
66.274063 2.625137 0.000062 0.534926
66.554451 3.400736 4.205999 0.937255
66.942299 4.753320 4.205999 0.937255
67.414505 6.400112 4.170208 0.937255
68.226128 9.230575 4.205996 0.937255
69.412514 13.367988 4.205995 0.937255
69.718727 14.435897 3.663415 0.905882
69.747177 14.535117 3.001693 0.937255
69.760994 14.583283 2.334480 0.223529
69.764435 14.595284 1.665317 0.352941
69.760994 14.583280 0.995846 0.223529
69.764435 14.595283 0.322988 0.352941
68.918831 11.646319 0.000049 0.548407
67.843300 7.895483 0.000027 0.527451
67.156639 5.500825 0.000017 0.550245
66.550423 3.386689 0.101060 0.661642
66.327782 2.610256 -0.000015 0.535172
66.613487 3.383580 4.205998 0.937255
67.010773 4.733427 4.205999 0.937255
67.501305 6.400112 4.174614 0.937255
68.325829 9.201608 4.205996 0.937255
69.541069 13.330634 4.205994 0.937255
69.866364 14.435899 3.666793 0.905882
69.895569 14.535119 3.003727 0.937255
69.909744 14.583282 2.335158 0.223529
69.913277 14.595284 1.664637 0.352941
69.909744 14.583282 0.993806 0.223529
