# This PCD file was generated using the MATLABÂ® pcwrite function
# from Computer Vision ToolboxÂ®.
# .PCD v.7 - Point Cloud Data file format
VERSION .7
FIELDS x y z intensity
SIZE 4 4 4 4
TYPE F F F F
COUNT 1 1 1 1
WIDTH 1229
HEIGHT 1
VIEWPOINT 0 0 0 1 0 0 0
POINTS 1229
DATA ascii
48.107353 26.338610 -0.000006 0.332721
48.918678 30.155609 -0.000004 0.335294
49.436653 32.592484 0.000008 0.333333
49.796650 34.286137 0.000005 0.325613
50.061886 35.533958 0.000006 0.331005
39.061954 -14.236973 16.767754 0.688235
39.005444 -14.494011 14.790156 0.678431
39.061954 -14.236973 12.727442 0.401593
39.025494 -14.402813 10.770513 0.138358
38.993156 -14.549889 8.819222 0.678431
38.993160 -14.549881 6.860400 0.678431
38.993160 -14.549877 4.912071 0.678431
38.993156 -14.549885 2.969996 0.678431
39.061958 -14.236969 1.035246 0.674020
42.980038 3.583473 0.000041 0.535049
46.510368 19.640324 0.009995 1.000000
47.988720 26.364256 -0.000006 0.331250
48.826679 30.175507 -0.000002 0.337132
49.361649 32.608696 0.000008 0.327819
49.733463 34.299801 0.000006 0.331373
50.007401 35.545738 0.000006 0.331985
38.639877 -14.236973 16.790817 0.625000
38.596069 -14.429798 14.795910 0.648284
38.639877 -14.236973 12.744195 0.504534
38.602200 -14.402817 10.784208 0.163480
38.568787 -14.549877 8.829870 0.678431
38.568787 -14.549877 6.867992 0.678431
38.568787 -14.549885 4.916619 0.678431
38.568787 -14.549881 2.971512 0.678431
38.639877 -14.236969 1.033739 0.760662
42.702675 3.645477 0.000041 0.540686
46.317989 19.558344 -0.000006 0.333333
47.870270 26.390732 -0.000007 0.331985
48.734814 30.196032 -0.000004 0.334559
49.286762 32.625435 0.000008 0.337990
49.670372 34.313904 0.000006 0.326716
49.952999 35.557896 0.000006 0.321078
38.216457 -14.236984 16.814682 0.584069
38.216461 -14.236977 14.773776 0.630882
38.216461 -14.236977 12.761527 0.603309
38.186775 -14.363529 10.792393 0.583824
38.143066 -14.549885 8.840886 0.678431
38.143066 -14.549885 6.875844 0.678431
38.143066 -14.549892 4.921325 0.678431
38.143066 -14.549881 2.973079 0.678431
38.216461 -14.236969 1.032181 0.803676
42.425755 3.709438 0.000042 0.534681
46.152161 19.597040 0.000026 0.527819
47.752010 26.418034 -0.000007 0.333824
48.643101 30.217209 -0.000003 0.337990
49.211990 32.642689 0.000006 0.337745
49.607384 34.328445 0.000006 0.331985
49.898689 35.570435 0.000006 0.333211
37.791656 -14.236977 16.839336 0.690564
37.791660 -14.236969 14.795038 0.575245
37.791656 -14.236977 12.779440 0.585294
37.784241 -14.267632 10.792395 0.624755
37.748402 -14.415775 8.836402 0.155270
37.748402 -14.415775 6.872648 0.160784
37.748402 -14.415779 4.919408 0.155270
37.748402 -14.415775 2.972440 0.160784
37.791656 -14.236973 1.030569 0.545221
42.149284 3.775295 0.000042 0.536765
45.986511 19.636496 0.000026 0.542770
47.633945 26.446163 -0.000007 0.333456
48.551537 30.239023 -0.000003 0.334926
49.137344 32.660465 0.000005 0.333701
49.544495 34.343433 0.000007 0.332475
49.844463 35.583351 0.000005 0.337868
37.365406 -14.236980 16.864807 0.711520
37.365406 -14.236977 14.816998 0.716299
37.365402 -14.236980 12.797943 0.542525
37.382370 -14.168930 10.792395 0.613971
37.287388 -14.549889 8.864037 0.678431
37.287388 -14.549889 6.892344 0.678431
37.287388 -14.549889 4.931208 0.678431
37.287388 -14.549881 2.976372 0.678431
37.365406 -14.236969 1.028906 0.700735
41.873272 3.843079 0.000042 0.537745
45.821140 19.677111 0.000026 0.537623
47.516075 26.475113 -0.000007 0.334926
48.460121 30.261475 -0.000004 0.334681
49.062817 32.678749 0.000001 0.331985
49.481712 34.358852 0.000007 0.337745
49.790329 35.596649 0.000005 0.332598
36.937679 -14.236973 16.891090 0.607843
36.871681 -14.494015 14.896976 0.678431
36.937675 -14.236984 12.817033 0.600858
36.937679 -14.236973 10.818361 0.541299
36.891769 -14.415779 8.860243 0.172794
36.891769 -14.415775 6.889641 0.160784
36.891769 -14.415771 4.929588 0.160784
36.891769 -14.415775 2.975832 0.160784
36.937679 -14.236965 1.027189 0.748162
41.597755 3.912811 0.000042 0.536642
45.656063 19.718880 0.000026 0.535784
47.398415 26.504883 -0.000007 0.333456
48.368870 30.284567 -0.000003 0.330025
48.988422 32.697559 -0.000002 0.321814
49.419041 34.374710 0.000007 0.340809
49.736294 35.610329 0.000007 0.331985
36.508408 -14.236973 16.918194 0.564461
36.440498 -14.494007 14.920450 0.678431
36.508408 -14.236973 12.836721 0.596446
36.508411 -14.236965 10.834412 0.603799
36.425732 -14.549892 8.888688 0.678431
36.425732 -14.549889 6.909915 0.678431
36.425728 -14.549896 4.941736 0.678431
36.425732 -14.549885 2.979879 0.678431
36.508408 -14.236965 1.025418 0.803676
41.322712 3.984432 0.000042 0.536887
45.491276 19.761806 0.000025 0.529902
47.280960 26.535475 -0.000007 0.332230
48.277782 30.308300 -0.000002 0.339583
48.914169 32.716930 0.000003 0.335049
49.356480 34.391006 0.000007 0.325613
49.682350 35.624378 0.000007 0.335539
36.077557 -14.236977 16.946129 0.587255
36.077560 -14.236965 14.887112 0.551961
36.077553 -14.236984 12.857015 0.646936
36.077560 -14.236965 10.850952 0.664216
35.992538 -14.549885 8.901586 0.678431
35.992538 -14.549889 6.919108 0.678431
35.992538 -14.549889 4.947244 0.678431
35.992538 -14.549892 2.981712 0.678431
36.077560 -14.236965 1.023593 0.545221
41.048187 4.057980 0.000041 0.538358
45.326794 19.805870 0.000025 0.536152
47.163723 26.566887 -0.000007 0.337010
48.186863 30.332657 -0.000003 0.332598
48.840050 32.736794 0.000004 0.333578
49.294037 34.407745 0.000008 0.332966
49.628510 35.638805 0.000007 0.336642
35.645065 -14.236969 16.974894 0.589093
35.645065 -14.236969 14.911922 0.672304
35.645065 -14.236980 12.877911 0.490809
35.645065 -14.236973 10.867990 0.595956
35.557701 -14.549885 8.914871 0.678431
35.557701 -14.549885 6.928575 0.678431
35.557701 -14.549881 4.952916 0.678431
39.750969 0.468716 2.728440 0.467892
35.645065 -14.236969 1.021714 0.727083
40.774197 4.133507 0.000043 0.536152
45.162628 19.851105 0.000026 0.532475
47.046707 26.599113 -0.000008 0.332475
48.096111 30.357651 -0.000004 0.332843
48.766060 32.757137 -0.000002 0.334069
49.231712 34.424911 0.000008 0.333088
49.574772 35.653610 0.000007 0.335417
35.210884 -14.236980 17.004509 0.512377
35.210888 -14.236969 14.937454 0.838848
35.210884 -14.236984 12.899424 0.580270
35.210888 -14.236969 10.885524 0.566299
35.121162 -14.549881 8.928543 0.678431
35.121162 -14.549881 6.938321 0.678431
35.121162 -14.549881 4.958755 0.678431
35.121159 -14.549889 2.985549 0.678431
39.562828 0.940048 1.278144 0.482475
40.500763 4.211006 0.000050 0.533333
44.998783 19.897476 0.000026 0.533211
46.929924 26.632160 -0.000008 0.333088
48.005539 30.383282 -0.000003 0.334681
48.692226 32.778038 -0.000000 0.330637
49.169506 34.442513 0.000008 0.335907
49.521130 35.668766 0.000002 0.329657
34.774963 -14.236973 17.034973 0.525613
34.699314 -14.494003 15.021587 0.655025
34.774963 -14.236980 12.921552 0.514461
34.774963 -14.236969 10.903564 0.506005
34.682869 -14.549885 8.942611 0.678431
34.682869 -14.549877 6.948347 0.678431
34.682869 -14.549885 4.964763 0.678431
39.239025 0.930607 2.723484 0.485662
39.317085 1.195831 1.281040 0.493750
41.120491 7.323273 0.155369 0.523407
44.835258 19.944973 0.000026 0.549142
46.813370 26.666018 -0.000008 0.331495
47.915150 30.409538 -0.000004 0.336765
48.618542 32.799465 0.000002 0.332108
49.107426 34.460548 0.000008 0.332721
49.467602 35.684319 0.000002 0.346446
34.337246 -14.236984 17.066298 0.643873
34.259647 -14.494003 15.048717 0.678431
34.286636 -14.404602 12.976166 0.193627
34.337250 -14.236965 10.922115 0.647672
34.242775 -14.549892 8.957077 0.678431
34.242775 -14.549885 6.958657 0.678431
39.002956 1.216591 4.161851 0.479902
40.701797 6.843422 2.623921 0.456495
39.469055 2.760391 1.306287 0.489338
39.955101 4.370243 -0.000014 0.533088
44.672073 19.993616 0.000026 0.536520
46.697060 26.700691 -0.000009 0.328799
47.824944 30.436432 -0.000004 0.332108
48.545006 32.821388 0.000003 0.336520
49.045471 34.479012 0.000007 0.332598
49.414181 35.700241 0.000002 0.337010
33.897671 -14.236980 17.098492 0.570956
33.818108 -14.494003 15.076598 0.678431
33.845779 -14.404606 12.999618 0.174877
33.897675 -14.236969 10.941180 0.611887
33.800812 -14.549892 8.971941 0.678431
33.800808 -14.549892 6.969253 0.678431
38.642929 1.092468 4.172853 0.478309
40.394958 6.752357 2.626813 0.501593
40.539772 7.220177 1.381201 0.522672
39.683296 4.453350 -0.000015 0.536765
44.509228 20.043406 0.000026 0.532843
46.580986 26.736177 -0.000009 0.333824
47.734928 30.463959 -0.000003 0.326593
48.471615 32.843803 -0.000001 0.331495
48.983646 34.497917 0.000007 0.335172
49.360874 35.716541 0.000002 0.326471
33.456207 -14.236980 17.131556 0.562500
33.456215 -14.236961 15.046997 0.562255
33.456211 -14.236969 12.991710 0.757230
33.456211 -14.236969 10.960764 0.574020
33.356949 -14.549885 8.987210 0.678431
33.356949 -14.549885 6.980136 0.678431
40.158936 6.892696 3.878673 0.504534
38.322769 1.104370 2.725149 0.474510
40.252457 7.187515 1.379285 0.483946
39.412090 4.538342 -0.000015 0.539093
44.346729 20.094290 0.000022 0.528309
46.465172 26.772469 -0.000009 0.336275
47.645111 30.492107 -0.000003 0.333701
48.398384 32.866722 -0.000006 0.334436
48.921959 34.517250 0.000007 0.337990
49.307686 35.733208 0.000002 0.327819
33.012775 -14.236980 17.165516 0.437377
33.012779 -14.236965 15.076276 0.611397
33.012779 -14.236961 13.016374 0.637010
33.012779 -14.236969 10.980869 0.576838
32.954681 -14.415775 8.986668 0.160784
32.954681 -14.415783 6.979750 0.160784
40.063568 7.463123 3.853422 0.475980
40.100258 7.576042 2.615423 0.468995
40.068638 7.478729 1.382902 0.486029
39.141479 4.625225 -0.000014 0.534804
44.184597 20.146345 0.000022 0.535294
46.349609 26.809568 -0.000009 0.329412
47.555485 30.520872 -0.000004 0.334559
48.325329 32.890213 -0.000000 0.338848
48.860401 34.536999 0.000004 0.332843
49.254612 35.750252 0.000003 0.308333
32.567318 -14.236980 17.200365 0.683088
32.567326 -14.236961 15.106324 0.661520
32.567322 -14.236969 13.041689 0.625980
32.567322 -14.236969 11.001510 0.609559
32.463230 -14.549881 9.018982 0.678431
32.463226 -14.549892 7.002781 0.676961
39.666443 7.103767 3.876287 0.474755
39.946541 7.945770 2.610462 0.481740
40.005836 8.124023 1.392613 0.465074
41.851391 13.671955 0.463772 0.460784
44.022823 20.199522 0.000022 0.545711
46.234306 26.847479 -0.000009 0.333456
47.466064 30.550274 -0.000004 0.332843
48.252426 32.914169 -0.000002 0.328431
48.798988 34.557190 0.000004 0.335662
49.201660 35.767666 0.000004 0.333333
32.119804 -14.236980 17.236120 0.606863
32.032303 -14.494007 15.195797 0.679412
32.032303 -14.494007 13.117068 0.673897
32.119804 -14.236973 11.022682 0.445221
32.013275 -14.549892 9.035494 0.570221
32.013279 -14.549892 7.014551 0.621201
39.290733 6.827480 3.895037 0.466054
39.546963 7.580151 2.618218 0.467524
40.022297 8.976440 1.405919 0.482966
41.734783 14.006830 0.477537 0.480637
43.861439 20.253838 0.000022 0.542034
46.119274 26.886187 -0.000010 0.334314
47.376850 30.580296 -0.000004 0.331127
48.179699 32.938648 -0.000002 0.335662
48.737713 34.577797 0.000001 0.335294
49.148830 35.785446 0.000004 0.328064
31.670143 -14.236980 17.272785 0.719853
31.580637 -14.494003 15.227555 0.678431
31.580639 -14.494003 13.143823 0.678431
31.670147 -14.236969 11.044398 0.752819
31.561178 -14.549885 9.052427 0.678431
31.561180 -14.549881 7.026619 0.678431
39.282677 7.623230 3.858203 0.483946
41.109970 12.870497 2.528036 0.511520
39.736702 8.927010 1.403633 0.473039
41.391083 13.677742 0.456754 0.478309
43.700439 20.309303 0.000024 0.539338
46.004528 26.925743 -0.000005 0.334069
47.287849 30.610939 -0.000004 0.337500
48.107143 32.963627 -0.000003 0.334314
48.676582 34.598835 -0.000000 0.325980
49.096123 35.803589 0.000003 0.339583
31.218300 -14.236988 17.310383 0.648775
31.158615 -14.404598 15.239620 0.161152
31.158615 -14.404602 13.153987 0.147181
31.218306 -14.236973 11.066662 0.638603
31.154638 -14.415771 9.053410 0.160784
31.154634 -14.415775 7.027320 0.160784
38.982521 7.567478 3.865685 0.497549
31.154636 -14.415775 3.003309 0.160784
38.870083 7.251709 1.373064 0.460049
41.135178 13.612833 0.449570 0.485539
43.539825 20.365870 0.000025 0.535784
45.890045 26.966042 -0.000006 0.331618
47.199066 30.642202 -0.000005 0.336397
48.034763 32.989109 -0.000004 0.329412
48.615620 34.620346 0.000007 0.336765
49.043545 35.822102 0.000002 0.337868
30.764196 -14.236992 17.348919 0.598407
30.764206 -14.236973 15.234410 0.532353
30.764206 -14.236973 13.149598 0.657353
30.764206 -14.236965 11.089478 0.541422
30.650316 -14.549881 9.087578 0.678431
30.650312 -14.549889 7.051674 0.678431
38.743729 7.686581 3.864153 0.515564
40.680908 13.008930 2.528257 0.503064
40.199844 11.687220 1.448727 0.466544
41.100189 14.160896 0.474321 0.463848
43.379608 20.423544 0.000024 0.535662
45.775841 27.007139 -0.000009 0.334804
47.110500 30.674088 -0.000005 0.330882
47.962563 33.015110 -0.000003 0.334926
48.554779 34.642204 -0.000002 0.331005
48.991100 35.840988 0.000003 0.337868
30.307789 -14.237000 17.388393 0.504412
30.307800 -14.236969 15.268447 0.463113
30.307800 -14.236969 13.178273 0.506618
30.307798 -14.236977 11.112855 0.450735
30.191429 -14.549885 9.105806 0.678431
30.191431 -14.549877 7.064665 0.678431
40.743942 13.824963 3.547210 0.479779
40.389839 12.872814 2.531992 0.469240
40.975021 14.446314 1.495480 0.472794
37.531139 5.186001 -0.000015 0.534314
43.219803 20.482346 0.000024 0.539461
45.661926 27.049025 -0.000012 0.329044
47.022163 30.706589 -0.000005 0.329779
47.890549 33.041603 -0.000003 0.335049
48.494114 34.664543 0.000002 0.337255
48.938786 35.860233 0.000003 0.335172
29.849007 -14.236984 17.428825 0.627819
29.785339 -14.404591 15.342039 0.167279
29.785337 -14.404598 13.240272 0.162745
29.849010 -14.236973 11.136801 0.485784
29.730148 -14.549885 9.124476 0.678431
29.730148 -14.549885 7.077971 0.678431
40.519836 13.854160 3.549741 0.468137
40.700424 14.329573 2.507890 0.485907
40.363407 13.442364 1.476580 0.496078
37.265091 5.285992 -0.000015 0.533824
43.060429 20.542320 0.000030 0.543873
45.548313 27.091721 -0.000012 0.333701
46.934052 30.739708 -0.000005 0.334804
47.818718 33.068607 -0.000002 0.335417
48.433598 34.687286 0.000001 0.337745
48.886612 35.879848 0.000003 0.325858
29.387779 -14.236988 17.470224 0.548529
29.322771 -14.404594 15.377841 0.143260
29.288086 -14.494011 13.287885 0.678431
29.387787 -14.236969 11.161317 0.560417
29.266417 -14.549885 9.143593 0.678431
40.204964 13.651365 4.611377 0.489951
40.041771 13.230635 3.586754 0.478186
39.830875 12.686916 2.538083 0.533824
40.412922 14.187517 1.488254 0.479534
36.999756 5.387859 -0.000015 0.537623
42.901459 20.603346 0.000030 0.532843
45.435005 27.135216 -0.000012 0.334314
46.846176 30.773438 -0.000005 0.329779
47.747082 33.096107 -0.000002 0.331863
48.373245 34.710453 0.000002 0.329779
48.834572 35.899822 0.000003 0.335049
28.924044 -14.236992 17.512615 0.521324
28.857683 -14.404598 15.414495 0.158578
28.822283 -14.494011 13.318812 0.678431
28.924051 -14.236977 11.186419 0.565319
28.800159 -14.549885 9.163166 0.678431
28.800161 -14.549881 7.105549 0.678431
28.800161 -14.549881 5.058948 0.678431
40.152550 14.122967 2.514284 0.499877
40.195499 14.231451 1.487625 0.484069
39.923412 13.544235 0.425466 0.573162
42.742912 20.665470 0.000029 0.533333
45.322002 27.179518 -0.000011 0.334069
46.758537 30.807781 -0.000005 0.330270
47.675632 33.124107 -0.000002 0.330760
48.313046 34.734024 -0.000003 0.332843
48.782673 35.920166 0.000003 0.320221
28.457750 -14.236980 17.555986 0.609681
28.457754 -14.236969 15.412957 0.598407
28.457752 -14.236980 13.300020 0.534804
28.457752 -14.236973 11.212108 0.839828
28.331327 -14.549881 9.183195 0.678431
39.810226 13.861389 4.607280 0.463480
28.331329 -14.549881 5.067502 0.678431
40.015369 14.369129 2.511377 0.493627
39.922508 14.139284 1.484566 0.468260
39.884563 14.045370 0.447617 0.490809
42.584808 20.728712 0.000029 0.534804
45.209351 27.224684 0.000001 0.335172
46.671139 30.842735 -0.000005 0.331250
47.604385 33.152599 -0.000003 0.334314
48.270367 34.800957 0.009997 1.000000
48.730915 35.940861 0.000003 0.335784
27.988804 -14.236977 17.600368 0.622794
27.988806 -14.236977 15.451228 0.638235
27.988804 -14.236980 13.332259 0.577451
27.988806 -14.236977 11.238390 0.676225
27.915108 -14.415779 9.187005 0.160784
39.304672 13.217367 4.671835 0.508333
39.542969 13.795513 3.570089 0.486152
27.915110 -14.415775 3.022312 0.160784
39.644524 14.041901 1.481372 0.474387
39.721222 14.227991 0.452891 0.565196
42.427143 20.793045 0.000029 0.545343
45.096977 27.270542 0.000001 0.332966
46.583988 30.878304 -0.000005 0.338235
47.533337 33.181599 -0.000002 0.337132
48.210808 34.825260 0.009996 1.000000
48.679306 35.961926 0.000003 0.328799
27.517164 -14.236984 17.645771 0.511887
27.517170 -14.236977 15.490374 0.736520
27.517168 -14.236980 13.365241 0.701103
27.517172 -14.236969 11.265272 0.448529
27.385635 -14.549881 9.224655 0.678431
27.385633 -14.549885 7.149376 0.678431
39.584923 14.471079 3.538657 0.503799
39.313721 13.825920 2.523971 0.485539
39.522186 14.321838 1.484832 0.498652
39.475372 14.210466 0.447455 0.474877
42.269936 20.858473 0.000028 0.534681
44.984909 27.317144 -0.000004 0.330392
46.497089 30.914474 -0.000005 0.334926
47.462494 33.211082 -0.000003 0.335172
48.151424 34.849979 0.009996 1.000000
48.627846 35.983345 0.000003 0.341544
26.932570 -14.494015 17.762253 0.678431
27.042736 -14.236977 15.530411 0.617034
26.932570 -14.494011 13.449855 0.678431
27.042738 -14.236969 11.292771 0.511887
26.966101 -14.415779 9.229313 0.160784
26.966101 -14.415779 7.152693 0.160784
38.767273 13.118414 3.615521 0.527574
39.185684 14.094637 2.520743 0.506250
38.951565 13.548395 1.469533 0.471324
39.475506 14.770844 0.472799 0.494853
42.113186 20.925011 0.000028 0.549020
44.873177 27.364550 -0.000006 0.333946
46.410442 30.951252 -0.000005 0.334804
47.391857 33.241066 -0.000003 0.329412
48.092209 34.875114 0.009996 1.000000
48.576534 36.005127 0.000003 0.333578
26.453165 -14.494015 17.809948 0.678431
26.565466 -14.236973 15.571348 0.510294
26.453167 -14.494011 13.484497 0.678431
26.565464 -14.236977 11.320890 0.604412
26.428755 -14.549889 9.268021 0.678431
26.428757 -14.549881 7.180285 0.678431
26.428761 -14.549877 5.103725 0.678431
39.026424 14.285028 2.518918 0.475858
39.201393 14.685520 1.488234 0.498284
39.502712 15.375208 0.500578 0.499142
41.956829 20.992456 0.000012 0.524632
44.761772 27.412720 -0.000010 0.332843
46.324055 30.988636 -0.000006 0.335907
47.321430 33.271542 -0.000003 0.330025
48.033176 34.900658 0.009995 1.000000
48.525375 36.027260 0.000002 0.339583
26.085274 -14.236977 17.788219 0.452696
26.085274 -14.236977 15.613203 0.569975
26.085278 -14.236965 13.468716 0.546201
26.085272 -14.236977 11.349635 0.571569
25.945955 -14.549885 9.290436 0.678431
25.945955 -14.549885 7.196259 0.678431
25.945957 -14.549889 5.113298 0.678431
38.871941 14.482344 2.516984 0.473162
26.085276 -14.236973 0.968581 0.538603
40.805489 18.825163 0.681480 0.480270
41.801025 21.061176 0.000012 0.539828
44.650745 27.461750 -0.000004 0.335172
46.237930 31.026619 -0.000006 0.333578
47.251221 33.302509 -0.000003 0.331618
47.974319 34.926617 0.009995 1.000000
48.474373 36.049751 0.000001 0.336152
25.602079 -14.236984 17.837839 0.604167
25.602083 -14.236977 15.655979 0.737868
25.602085 -14.236973 13.504756 0.575123
25.602083 -14.236973 11.379014 0.741544
25.460140 -14.549889 9.313345 0.678431
25.460142 -14.549885 7.212588 0.678431
25.460136 -14.549892 5.123082 0.678431
25.460140 -14.549885 3.040283 0.678431
38.338196 13.839619 1.469842 0.494975
40.620964 18.871954 0.679860 0.482598
41.645702 21.130972 0.000011 0.535662
44.540028 27.511475 -0.000007 0.333456
46.152069 31.065197 -0.000007 0.331985
47.181229 33.333965 -0.000003 0.331985
47.915649 34.952984 0.009995 1.000000
48.423527 36.072594 -0.000000 0.318995
25.115831 -14.236977 17.888540 0.471078
25.115831 -14.236977 15.699700 0.444240
25.115829 -14.236977 13.541589 0.460172
25.115831 -14.236973 11.409041 0.593627
24.971243 -14.549889 9.336760 0.678431
24.971245 -14.549889 7.229276 0.678431
24.971241 -14.549900 5.133080 0.678431
24.971241 -14.549892 3.043615 0.680270
25.115831 -14.236969 0.962026 0.616667
40.471886 18.996559 0.682377 0.467279
41.490875 21.201859 0.000011 0.525735
44.429680 27.562016 -0.000005 0.335049
46.066498 31.104412 -0.000002 0.329167
47.111458 33.365910 -0.000003 0.334436
47.857162 34.979759 0.009995 1.000000
48.372841 36.095795 -0.000002 0.334436
24.505478 -14.494011 18.011505 0.678431
24.626429 -14.236977 15.744371 0.533824
24.505472 -14.494022 13.630918 0.678431
24.626431 -14.236973 11.439724 0.457475
24.479189 -14.549881 9.360683 0.678431
24.479185 -14.549885 7.246327 0.678431
24.479185 -14.549885 5.143294 0.678431
24.479187 -14.549885 3.047017 0.678431
41.042076 20.648043 1.589542 0.478799
40.467983 19.428032 0.701507 0.489461
41.336548 21.273827 0.000012 0.544118
44.356705 27.691988 0.009998 1.000000
45.981182 31.144176 -0.000005 0.334314
47.041912 33.398342 -0.000002 0.332353
47.798862 35.006943 0.009994 1.000000
48.322327 36.119358 -0.000001 0.333333
24.010647 -14.494015 18.064674 0.678431
24.133801 -14.236977 15.790009 0.650613
24.010643 -14.494026 13.669538 0.678431
24.133799 -14.236977 11.471067 0.477819
23.983873 -14.549900 9.385126 0.678431
23.983879 -14.549889 7.263748 0.678431
40.408497 19.730928 3.286304 0.478554
23.983881 -14.549885 3.050493 0.678431
24.133802 -14.236973 0.955184 0.643873
41.130920 21.238741 0.795833 0.506618
41.182720 21.346861 0.000011 0.534436
44.247616 27.743788 0.009998 1.000000
45.896145 31.184536 -0.000007 0.338113
46.972595 33.431263 -0.000001 0.335049
47.740757 35.034531 0.009994 1.000000
48.271980 36.143284 0.000004 0.333824
23.589184 -14.336773 18.075159 0.535784
23.637861 -14.236965 15.836625 0.564093
23.589186 -14.336773 13.677151 0.588358
23.637857 -14.236977 11.503086 0.409069
23.485239 -14.549892 9.410091 0.678431
23.485241 -14.549885 7.281544 0.678431
40.097816 19.510925 3.302677 0.469118
40.595634 20.531609 2.415332 0.455637
40.566246 20.471346 1.583570 0.508456
40.653084 20.649393 0.759549 0.531740
41.029396 21.420954 0.000009 0.531005
44.138885 27.796345 0.009997 1.000000
45.811401 31.225510 -0.000006 0.339093
46.903507 33.464657 -0.000002 0.340564
47.682842 35.062531 0.009994 1.000000
48.221794 36.167545 0.000005 0.336765
23.138536 -14.236973 18.102568 0.621078
23.138538 -14.236973 15.884241 0.555882
23.138533 -14.236984 13.697062 0.823162
23.138535 -14.236980 11.535788 0.600123
22.983206 -14.549885 9.435589 0.678431
40.036331 19.803404 4.154946 0.472917
40.471066 20.679171 3.243086 0.488235
40.423447 20.583241 2.415818 0.566667
40.614109 20.967327 1.591199 0.476225
40.160259 20.053051 0.722573 0.479167
40.876614 21.496140 0.000010 0.529902
43.991875 27.771797 -0.000004 0.336397
45.726944 31.267065 -0.000007 0.329289
46.834656 33.498535 -0.000002 0.336029
47.625126 35.090927 0.009994 1.000000
48.171780 36.192158 0.000005 0.324265
22.635738 -14.236973 18.158960 0.535294
22.635740 -14.236969 15.932864 0.414706
22.635735 -14.236977 13.738029 0.570098
22.635736 -14.236977 11.569182 0.611887
22.477674 -14.549881 9.461628 0.678431
22.477676 -14.549881 7.318277 0.678431
40.243034 20.619537 3.250721 0.474387
40.344597 20.820599 2.412924 0.464951
40.533089 21.193750 1.593918 0.492034
40.609142 21.344309 0.789169 0.514338
40.724350 21.572388 0.000010 0.539583
43.883350 27.826141 -0.000004 0.333578
45.642773 31.309200 -0.000009 0.328676
46.766041 33.532894 -0.000002 0.336887
47.546741 35.078415 -0.000003 0.328309
48.121925 36.217091 -0.000002 0.338113
21.997278 -14.494019 18.288933 0.678431
22.129385 -14.236969 15.982515 0.603064
21.997276 -14.494019 13.832441 0.678431
22.129383 -14.236973 11.603280 0.500858
39.715355 19.981621 5.021772 0.481127
22.037489 -14.415779 7.324867 0.160784
39.544827 19.649813 3.308742 0.478676
39.714241 19.979454 2.429871 0.478309
40.014961 20.564592 1.580895 0.478922
40.381950 21.278677 0.781229 0.484804
40.572624 21.649689 0.000009 0.538725
43.775208 27.881241 -0.000004 0.331373
45.558907 31.351936 -0.000008 0.334436
46.697670 33.567730 -0.000003 0.340931
47.489140 35.107765 -0.000003 0.338848
48.072262 36.242397 -0.000002 0.322059
21.484997 -14.494015 18.347984 0.678431
21.619370 -14.236977 16.033207 0.409926
21.484997 -14.494011 13.875333 0.678431
21.619371 -14.236977 11.638100 0.643873
39.510536 19.985649 5.032205 0.459926
39.505173 19.975391 4.162153 0.563848
39.526272 20.015753 3.293200 0.566054
39.544655 20.050913 2.430109 0.568260
39.929405 20.786877 1.583480 0.502696
39.578346 20.115360 0.712322 0.559314
40.421444 21.728058 0.000010 0.535784
43.667454 27.937099 -0.000003 0.329779
45.475342 31.395267 -0.000006 0.332966
46.629536 33.603039 -0.000004 0.338235
47.431744 35.137520 -0.000002 0.330025
48.022774 36.268055 -0.000001 0.337868
21.087978 -14.270199 18.344776 0.538235
21.105642 -14.236977 16.084957 0.800735
21.087984 -14.270191 13.873003 0.635172
21.105644 -14.236973 11.673639 0.603064
20.939268 -14.549877 9.543079 0.678431
39.454277 20.271784 4.142603 0.471936
39.808510 20.938000 3.246655 0.513848
39.363960 20.101927 2.430750 0.465809
39.495899 20.350069 1.573848 0.490931
32.609032 7.397747 -0.000030 0.533088
40.270821 21.807480 0.000010 0.533211
43.560093 27.993706 -0.000003 0.333946
45.392078 31.439169 -0.000006 0.335172
46.561661 33.638828 -0.000003 0.338848
47.374557 35.167671 -0.000002 0.338971
47.973473 36.294060 0.000002 0.319485
20.588066 -14.236984 18.396618 0.739951
20.588070 -14.236980 16.137783 0.550980
20.588074 -14.236973 13.910663 0.667525
20.588072 -14.236973 11.709919 0.761275
20.418873 -14.549896 9.571371 0.678431
20.418877 -14.549889 7.396496 0.678431
39.195911 20.177504 3.293804 0.490319
39.439941 20.628826 2.422564 0.476348
39.417519 20.587355 1.576665 0.455392
39.480644 20.704102 0.735606 0.493627
40.120758 21.887974 0.000012 0.537500
43.453129 28.051060 -0.000003 0.334314
45.309128 31.483662 -0.000004 0.333578
46.494034 33.675095 -0.000003 0.339461
47.317581 35.198219 -0.000003 0.325368
47.924339 36.320393 -0.000001 0.340441
20.066586 -14.236980 18.459146 0.642647
20.066586 -14.236977 16.191696 0.728676
20.066582 -14.236984 13.956086 0.641544
20.066587 -14.236969 11.746948 0.812745
19.894558 -14.549896 9.600245 0.678431
39.062851 20.317102 4.154599 0.487623
39.234482 20.629301 3.273408 0.504779
39.350368 20.840096 2.420230 0.454412
39.552567 21.207895 1.586638 0.485907
38.846619 19.923782 0.687039 0.479044
39.928726 21.892130 -0.007226 0.505392
43.346569 28.109161 -0.000003 0.334314
45.226490 31.528723 -0.000004 0.335784
46.426659 33.711823 -0.000004 0.335784
47.260826 35.229168 -0.000002 0.333088
47.875397 36.347069 -0.000002 0.329902
19.397419 -14.494003 18.596716 0.678431
19.541065 -14.236977 16.246723 0.605392
19.397415 -14.494003 14.056016 0.678431
19.541065 -14.236977 11.784741 0.602696
19.366184 -14.549889 9.629713 0.678431
38.988613 20.560308 4.140108 0.477819
39.045071 20.661325 3.276544 0.503431
39.064789 20.696602 2.424550 0.470098
39.129799 20.812923 1.577631 0.498652
31.860388 7.805855 -0.000033 0.541176
39.822075 22.051613 -0.000028 0.539216
43.240410 28.167999 -0.000003 0.330637
45.144169 31.574375 -0.000000 0.333456
46.359543 33.749023 -0.000004 0.335417
47.204281 35.260506 -0.000003 0.333578
47.826641 36.374084 -0.000004 0.330515
18.865417 -14.494015 18.662138 0.678431
19.011436 -14.236977 16.302877 0.502083
18.865421 -14.494011 14.103539 0.678431
19.011436 -14.236977 11.823308 0.537500
18.833675 -14.549896 9.659786 0.678431
18.833675 -14.549900 7.459513 0.678431
19.326649 -13.682106 5.221995 0.853922
38.846836 20.679630 2.426542 0.462255
39.043388 21.025625 1.579969 0.495221
38.616940 20.274939 0.696593 0.491422
39.673717 22.135204 -0.000028 0.541667
43.134670 28.227577 -0.000004 0.335907
45.062160 31.620577 -0.000001 0.328554
46.319836 33.834488 0.009997 1.000000
47.147961 35.292244 -0.000002 0.332108
47.778080 36.401459 -0.000002 0.332966
18.477596 -14.236977 18.654547 0.670833
18.477592 -14.236984 16.360180 0.682476
18.477600 -14.236973 14.098025 0.687500
18.477596 -14.236977 11.862662 0.731985
18.321896 -14.506660 9.684730 0.269608
18.321896 -14.506657 7.477293 0.212868
18.929329 -13.454556 5.221995 0.890564
38.676659 20.748817 2.426944 0.493505
38.872360 21.087784 1.579461 0.466422
38.716953 20.818609 0.722212 0.504779
39.525948 22.219830 -0.000029 0.537745
43.029350 28.287895 -0.000004 0.333578
44.980473 31.667343 -0.000004 0.327941
46.253578 33.872421 0.009995 1.000000
47.091862 35.324379 -0.000001 0.330637
47.729713 36.429165 -0.000000 0.340074
17.939430 -14.236977 18.722359 0.699020
17.939426 -14.236984 16.418648 0.416667
17.939434 -14.236973 14.147280 0.412500
17.939434 -14.236977 11.902821 0.631618
17.755844 -14.549892 9.721785 0.678431
17.755840 -14.549896 7.503706 0.678431
27.453857 1.979965 4.355998 0.465564
38.598145 20.974936 2.424392 0.487132
38.590199 20.961399 1.575351 0.484191
38.632446 21.033403 0.729244 0.489338
39.378769 22.305483 -0.000029 0.535417
42.924454 28.348953 -0.000003 0.335172
44.899117 31.714684 -0.000005 0.332966
46.159779 33.863434 -0.000004 0.329289
47.035984 35.356888 -0.000003 0.333333
47.681541 36.457214 0.000001 0.341667
17.396839 -14.236984 18.791544 0.550858
17.396843 -14.236984 16.478302 0.618627
17.396847 -14.236973 14.197537 0.590319
17.396847 -14.236977 11.943790 0.589461
17.290257 -14.415775 9.735770 0.160784
17.290257 -14.415783 7.513671 0.160784
27.044876 1.947742 4.367587 0.568873
38.485710 21.139919 2.423004 0.494363
27.628237 2.926342 1.230011 0.475858
38.382141 20.966183 0.720142 0.485294
39.232197 22.392168 -0.000029 0.544976
42.819984 28.410736 -0.000003 0.333824
44.818089 31.762585 -0.000008 0.337010
46.093727 33.902489 -0.000004 0.334681
46.980339 35.389793 -0.000003 0.338971
47.633560 36.485580 -0.000000 0.329412
16.694046 -14.494011 18.937393 0.678431
16.849705 -14.236984 16.539164 0.467402
16.694042 -14.494011 14.303491 0.678431
16.849716 -14.236969 11.985589 0.685784
16.660202 -14.549892 9.786326 0.678431
16.660210 -14.549881 7.549706 0.678431
27.108402 2.702133 4.334211 0.481863
26.861290 2.294105 2.785321 0.469853
26.846283 2.269329 1.214205 0.500613
38.203747 21.022722 0.718009 0.500858
39.086231 22.479872 -0.000029 0.541912
42.715946 28.473246 -0.000003 0.329167
44.737411 31.811077 -0.000005 0.327696
46.027958 33.942024 -0.000001 0.336520
46.924927 35.423096 -0.000003 0.337010
47.585770 36.514278 -0.000004 0.339461
16.173439 -14.439350 18.993654 0.160662
16.297939 -14.236980 16.601252 0.649755
16.173443 -14.439335 14.344352 0.160784
16.297939 -14.236977 12.028234 0.639338
16.105431 -14.549889 9.819578 0.678431
16.105431 -14.549892 7.573407 0.678431
17.356125 -12.516922 5.222002 0.888113
26.920176 3.029217 2.774552 0.517402
27.296976 3.641697 1.237216 0.467157
38.201595 21.366901 0.732386 0.482843
38.940884 22.568598 -0.000029 0.528676
42.612350 28.536480 -0.000004 0.334314
44.657078 31.860134 -0.000003 0.331863
45.962486 33.982048 0.000008 0.544608
46.869747 35.456779 -0.000002 0.334069
47.538193 36.543320 -0.000005 0.323039
15.741402 -14.236973 19.007597 0.461765
15.741398 -14.236980 16.664591 0.543382
15.741402 -14.236977 14.354483 0.615931
15.741394 -14.236988 12.071739 0.615074
15.545876 -14.549877 9.853497 0.678431
15.545879 -14.549877 7.597582 0.678431
16.966976 -12.275646 5.222002 0.891912
25.919935 2.052082 2.796767 0.471324
26.035944 2.237732 1.206816 0.465686
30.148071 8.818512 -0.000033 0.535049
38.796139 22.658306 -0.000031 0.528186
42.509197 28.600439 -0.000003 0.337010
44.577076 31.909737 -0.000003 0.332966
45.897274 34.022491 0.000009 0.544853
46.814804 35.490845 -0.000002 0.333578
47.490818 36.572693 -0.000004 0.339828
15.180004 -14.236973 19.082529 0.357230
15.179996 -14.236977 16.729202 0.595466
15.180004 -14.236965 14.408916 0.648162
15.179996 -14.236977 12.116113 0.589583
14.981422 -14.549881 9.888102 0.678431
14.981419 -14.549885 7.622245 0.678431
16.723316 -11.805096 5.208819 0.879779
16.603489 -11.993916 3.072503 0.092770
25.657127 2.272335 1.203992 0.469363
29.907747 8.970242 -0.000016 0.528431
38.652046 22.749048 -0.000031 0.532230
42.406494 28.665115 -0.000003 0.332353
44.497421 31.959885 -0.000005 0.329902
45.832336 34.063374 0.000008 0.509436
46.760098 35.525291 -0.000003 0.336642
47.443653 36.602402 -0.000002 0.326838
14.447933 -14.494019 19.235573 0.678431
14.613583 -14.236988 16.795116 0.559314
14.447945 -14.494007 14.520085 0.678431
14.613583 -14.236984 12.161383 0.561275
14.498360 -14.415775 9.905046 0.160784
14.498360 -14.415775 7.634321 0.160784
16.180828 -11.805096 5.223178 0.795098
14.498363 -14.415775 3.124450 0.160784
14.613602 -14.236958 0.879032 0.560417
29.668316 9.123386 -0.000016 0.536152
38.508575 22.840780 -0.000033 0.549632
42.304245 28.730503 -0.000004 0.332108
44.418121 32.010597 -0.000005 0.338603
45.767677 34.104702 0.000004 0.507475
46.705635 35.560127 -0.000002 0.343873
47.396694 36.632439 -0.000002 0.343995
13.873856 -14.494026 19.313890 0.678431
14.042057 -14.236992 16.862347 0.556373
13.873859 -14.494015 14.576977 0.678431
14.042065 -14.236980 12.207554 0.527696
13.837296 -14.549896 9.959404 0.678431
13.837288 -14.549904 7.673069 0.678431
15.633446 -11.805092 5.237824 0.748529
13.837292 -14.549900 3.132182 0.678431
14.042068 -14.236965 0.873938 0.380760
29.429951 9.278175 -0.000016 0.533088
38.365761 22.933525 -0.000033 0.536152
42.202454 28.796606 -0.000003 0.330760
44.339180 32.061867 -0.000004 0.337132
45.703350 34.146534 0.000013 0.551348
46.651417 35.595333 -0.000003 0.332598
47.349945 36.662796 -0.000001 0.331127
13.465290 -14.236969 19.316471 0.644240
13.465279 -14.236988 16.930920 0.644118
13.465290 -14.236969 14.578853 0.574877
13.465279 -14.236988 12.254654 0.606250
13.257385 -14.549889 9.996128 0.678431
13.257385 -14.549896 7.699241 0.678431
15.081017 -11.805103 5.252765 0.902083
13.257374 -14.549908 3.137405 0.678431
13.465290 -14.236969 0.868742 0.580637
29.192665 9.434631 -0.000016 0.533578
38.223717 23.027451 -0.000014 0.551471
42.101128 28.863419 -0.000004 0.336152
44.260597 32.113686 -0.000004 0.332230
45.639290 34.188782 0.000013 0.556250
46.597443 35.630920 -0.000003 0.330025
47.303406 36.693478 -0.000003 0.337745
12.883144 -14.236977 19.397593 0.611152
12.883133 -14.236988 17.000862 0.511029
12.883141 -14.236977 14.637783 0.543873
12.883133 -14.236992 12.302691 0.700490
12.672077 -14.549896 10.033588 0.678431
12.672073 -14.549896 7.725940 0.678431
14.523457 -11.805107 5.268002 0.887990
12.672070 -14.549900 3.142735 0.678431
12.883144 -14.236973 0.863442 0.537132
28.956497 9.592751 -0.000016 0.535907
38.082211 23.122177 -0.000015 0.543382
42.000271 28.930939 -0.000003 0.333578
44.182381 32.166046 -0.000004 0.332966
45.575520 34.231461 0.000013 0.556863
46.543724 35.666882 -0.000003 0.344853
47.257084 36.724483 -0.000003 0.352083
12.119480 -14.494022 19.558367 0.667034
12.295467 -14.236992 17.072206 0.809191
12.119484 -14.494015 14.754566 0.678431
12.295464 -14.236992 12.351691 0.638971
12.081230 -14.549881 10.071790 0.678431
12.081226 -14.549885 7.753171 0.680025
13.960617 -11.805103 5.283544 0.902083
12.081226 -14.549885 3.148169 0.678431
12.295490 -14.236958 0.858038 0.562377
28.721416 9.752495 -0.000016 0.539461
37.941376 23.217903 -0.000014 0.552206
41.899887 28.999161 -0.000003 0.332353
44.104523 32.218952 -0.000004 0.338971
45.512047 34.274590 0.000011 0.547059
46.519447 35.745857 0.011158 1.000000
47.210983 36.755821 -0.000002 0.323039
11.523533 -14.494019 19.643135 0.678431
11.702171 -14.236988 17.144970 0.598529
11.523537 -14.494015 14.816142 0.678431
11.702171 -14.236996 12.401666 0.562132
11.484703 -14.549889 10.110760 0.678431
11.484703 -14.549889 7.780945 0.678431
13.392368 -11.805119 5.299397 0.902083
13.258625 -11.997547 3.102847 0.093627
13.258625 -11.997547 0.897152 0.095221
28.487448 9.913853 -0.000018 0.536152
37.801201 23.314590 -0.000014 0.531495
41.799980 29.068077 -0.000004 0.337745
44.027046 32.272404 -0.000004 0.334804
45.448875 34.318146 0.000008 0.548774
46.463795 35.778423 0.010122 1.000000
47.165100 36.787472 -0.000003 0.342034
11.083412 -14.264870 19.659346 0.594853
11.103073 -14.237000 17.219193 0.702328
11.083416 -14.264870 14.827923 0.610417
11.103077 -14.236992 12.452637 0.764583
10.882351 -14.549892 10.150507 0.662500
10.882355 -14.549889 7.809277 0.610172
12.624458 -12.080296 5.332108 0.901961
10.882359 -14.549885 3.159364 0.673897
12.279839 -12.568829 0.880308 0.893382
28.254627 10.076874 -0.000018 0.533701
37.661697 23.412245 -0.000016 0.520833
41.700562 29.137695 -0.000004 0.331127
43.949940 32.326393 -0.000004 0.333333
45.386013 34.362156 0.000007 0.593750
46.410202 35.814037 0.009783 1.000000
47.119442 36.819447 -0.000002 0.342279
10.498070 -14.236977 19.738588 0.555760
10.498058 -14.236992 17.294884 0.657230
10.498062 -14.236984 14.885487 0.520466
10.498058 -14.236988 12.504624 0.507475
10.274044 -14.549892 10.191045 0.678431
10.274040 -14.549896 7.838170 0.678431
11.616238 -12.675137 5.384622 0.878309
10.274029 -14.549908 3.165132 0.678431
12.117680 -11.974728 0.886695 0.890931
28.022951 10.241512 -0.000018 0.541789
37.522896 23.510895 -0.000016 0.531863
41.601624 29.208000 -0.000004 0.331495
43.873215 32.380920 -0.000004 0.337868
45.323460 34.406601 0.000006 0.535907
46.331387 35.814461 -0.000003 0.334069
47.074001 36.851734 -0.000002 0.338113
9.886974 -14.236977 19.828127 0.709191
9.886963 -14.236992 17.372091 0.684926
9.886974 -14.236973 14.950526 0.769608
9.886967 -14.236984 12.557650 0.525368
9.659618 -14.549904 10.232393 0.678431
9.659630 -14.549892 7.867640 0.678431
10.575695 -13.289036 5.438985 0.900858
9.659618 -14.549900 3.171013 0.678431
11.530609 -11.974705 0.881075 0.890319
27.792440 10.407780 -0.000017 0.538235
37.384785 23.610506 -0.000015 0.541789
41.503185 29.278999 -0.000004 0.337010
43.796871 32.435986 -0.000004 0.334436
45.261227 34.451496 0.000007 0.563358
46.278954 35.852280 -0.000002 0.338358
47.028793 36.884342 -0.000002 0.338603
9.091534 -14.478558 19.994638 0.107353
9.269630 -14.236992 17.450836 0.773529
9.080147 -14.494007 15.074970 0.678431
9.269634 -14.236984 12.611734 0.421569
9.038940 -14.549892 10.274563 0.678431
9.038944 -14.549892 7.897697 0.678431
9.501114 -13.923019 5.495296 0.895221
9.038933 -14.549904 3.177012 0.678431
9.269650 -14.236965 0.829350 0.580637
27.563086 10.575638 -0.000018 0.532966
37.247276 23.710953 -0.000029 0.538358
41.405243 29.350681 -0.000004 0.333946
43.720913 32.491577 -0.000004 0.326103
45.199314 34.496834 0.000010 0.541789
46.226788 35.890461 -0.000002 0.327451
46.983814 36.917267 -0.000001 0.334191
8.582253 -14.322098 20.039234 0.599510
8.645920 -14.236992 17.531155 0.369608
8.582256 -14.322090 15.103874 0.645466
8.645920 -14.236992 12.666896 0.571569
8.512169 -14.415775 10.298306 0.160784
8.512165 -14.415787 7.914623 0.160784
8.512165 -14.415779 5.543699 0.160784
8.512169 -14.415775 3.180388 0.160784
8.645939 -14.236961 0.823265 0.701716
27.334913 10.745098 -0.000018 0.535294
37.110565 23.812481 -0.000029 0.531985
41.307804 29.423046 -0.000004 0.334069
43.645344 32.547699 -0.000004 0.328064
45.137688 34.542557 0.000004 0.526838
46.174911 35.929039 0.000007 0.513603
46.939060 36.950497 -0.000003 0.331250
8.015659 -14.236977 20.107618 0.628186
8.015652 -14.236988 17.613077 0.619118
8.015667 -14.236973 15.153550 0.575613
8.015652 -14.236988 12.723163 0.580270
7.778145 -14.549889 10.361451 0.678431
7.778141 -14.549896 7.959626 0.678431
7.778149 -14.549889 5.570662 0.678431
7.778149 -14.549889 3.189372 0.678431
8.015675 -14.236958 0.817059 0.592647
27.107903 10.916119 -0.000019 0.536765
36.974567 23.914965 -0.000029 0.525368
41.210876 29.496092 -0.000004 0.333211
43.610939 32.658058 0.009998 1.000000
45.076408 34.588741 0.000005 0.555392
46.123276 35.967941 0.000005 0.546078
46.894543 36.984043 -0.000003 0.322794
7.378689 -14.236980 20.204529 0.573162
7.378681 -14.236988 17.696634 0.546691
7.378696 -14.236973 15.223946 0.532353
7.378681 -14.236992 12.780552 0.590441
7.137718 -14.549885 10.406199 0.678431
7.137718 -14.549885 7.991520 0.678431
7.137718 -14.549889 5.589771 0.678431
7.137722 -14.549885 3.195737 0.678431
7.378708 -14.236958 0.810727 0.624387
26.882116 11.088737 -0.000020 0.540196
36.839279 24.018372 -0.000031 0.527819
41.114460 29.569809 -0.000004 0.335049
43.536533 32.714935 0.009998 1.000000
45.015450 34.635349 0.000005 0.536642
46.071918 36.007202 0.000005 0.554657
46.850262 37.017899 -0.000003 0.333578
6.734818 -14.236977 20.303381 0.536765
6.534000 -14.494015 17.852314 0.678431
6.556870 -14.464741 15.348349 0.221814
6.734806 -14.236992 12.839088 0.623407
6.490341 -14.549892 10.451847 0.678431
6.490341 -14.549896 8.024055 0.678431
6.490337 -14.549896 5.609266 0.678431
6.490341 -14.549892 3.202228 0.678431
18.896343 1.329063 1.127515 0.462377
26.657551 11.262955 -0.000019 0.536642
36.704735 24.122757 -0.000029 0.532721
41.018555 29.644199 -0.000004 0.333211
43.462524 32.772335 0.009997 1.000000
44.954834 34.682404 0.000010 0.557476
46.020844 36.046833 0.000007 0.519240
46.806217 37.052063 -0.000003 0.333578
6.083885 -14.236980 20.404211 0.624877
6.083897 -14.236973 17.868801 0.690196
6.083897 -14.236965 15.368996 0.721691
6.083870 -14.236996 12.898801 0.545343
5.835869 -14.549901 10.498406 0.678431
5.835865 -14.549901 8.057240 0.678431
5.835865 -14.549905 5.629148 0.678431
5.835873 -14.549893 3.208853 0.678431
6.083893 -14.236973 0.797681 0.547549
26.434181 11.438698 -0.000020 0.537255
36.570908 24.228064 -0.000029 0.532843
40.923172 29.719252 -0.000004 0.332843
43.347042 32.777416 -0.000004 0.333946
44.894516 34.729843 0.000007 0.533824
45.970039 36.086815 0.000008 0.544363
46.762409 37.086536 -0.000002 0.337377
5.425705 -14.236981 20.507067 0.685294
5.425709 -14.236974 17.957491 0.639706
5.425716 -14.236966 15.443712 0.619608
5.425713 -14.236970 12.959707 0.603799
5.276112 -14.423039 10.527175 0.160417
5.276112 -14.423039 8.077746 0.161275
5.276115 -14.423036 5.641434 0.157230
17.803196 1.157508 2.885796 0.470956
18.496483 2.019787 1.132309 0.565564
26.212219 11.616220 -0.000006 0.534926
36.437817 24.334293 -0.000030 0.543627
40.828316 29.794975 -0.000003 0.334191
43.273479 32.836143 -0.000004 0.339461
44.834545 34.777714 0.000006 0.522059
45.919514 36.127144 0.000007 0.574755
46.718849 37.121315 -0.000002 0.341544
4.760120 -14.236981 20.611988 0.704534
4.550488 -14.494012 18.119596 0.678431
4.760124 -14.236970 15.519929 0.737132
4.550488 -14.494008 13.071044 0.629044
4.504913 -14.549893 10.594350 0.677941
4.504906 -14.549901 8.125626 0.678431
4.504910 -14.549897 5.670120 0.678431
17.991337 1.986095 2.873321 0.520833
18.175560 2.211979 1.131448 0.506373
25.991383 11.795124 -0.000004 0.533701
36.305481 24.441458 -0.000030 0.530147
40.733997 29.871353 -0.000004 0.336397
43.200333 32.895378 -0.000004 0.325980
44.774929 34.826027 0.000011 0.547059
45.869289 36.167843 0.000011 0.551961
46.675529 37.156391 -0.000002 0.329779
4.086876 -14.236981 20.719030 0.571324
3.874237 -14.494020 18.212305 0.678431
4.086876 -14.236985 15.597687 0.644118
3.874237 -14.494023 13.134716 0.678431
3.828007 -14.549901 10.643779 0.682353
3.828007 -14.549901 8.160855 0.678431
17.522301 2.003650 4.635796 0.472672
3.828007 -14.549901 3.229531 0.678431
17.202251 1.616779 1.113813 0.462500
25.771751 11.975523 -0.000004 0.535784
36.173889 24.549545 -0.000031 0.537132
40.640205 29.948391 -0.000004 0.336275
43.127636 32.955177 0.000006 0.516299
44.715614 34.874710 0.000006 0.556373
45.819317 36.208862 0.000007 0.554779
46.632454 37.191772 -0.000003 0.336765
3.405842 -14.236978 20.828228 0.693260
3.405846 -14.236978 18.234407 0.553799
3.405842 -14.236978 15.677009 0.680760
3.405849 -14.236970 13.149895 0.681373
3.143276 -14.549893 10.694201 0.678431
3.143280 -14.549890 8.196794 0.678431
17.202789 2.205585 4.638223 0.492647
17.153637 2.147003 2.880030 0.511887
17.699818 2.797916 1.133874 0.517157
25.553406 12.157461 -0.000004 0.536274
36.043175 24.658678 -0.000016 0.532598
40.546963 30.026083 -0.000004 0.332843
43.055325 33.015434 0.000007 0.538848
44.656662 34.923836 0.000007 0.543627
45.769665 36.250256 0.000011 0.538725
46.589630 37.227455 -0.000002 0.331985
2.716766 -14.236970 20.939636 0.480515
2.716759 -14.236985 18.330473 0.493505
2.716763 -14.236974 15.757938 0.471446
2.716763 -14.236978 13.215874 0.438235
2.716770 -14.236966 10.698375 0.531373
2.716770 -14.236970 8.199768 0.609559
2.716766 -14.236970 5.714541 0.390564
17.255302 2.845752 2.870223 0.454167
17.971203 3.686928 1.147852 0.467034
25.336317 12.340906 -0.000004 0.533578
35.913101 24.768587 -0.000017 0.536765
40.454258 30.104425 -0.000003 0.328186
42.983456 33.076221 0.000013 0.555025
44.598072 34.973389 0.000012 0.492402
45.720284 36.291985 0.000011 0.570833
46.615978 37.344421 0.026637 1.000000
2.019447 -14.236974 21.053307 0.603799
1.797573 -14.494016 18.501816 0.678431
2.019440 -14.236981 15.840509 0.406740
1.797569 -14.494023 13.333554 0.678431
1.874752 -14.404607 10.776054 0.161642
2.019447 -14.236970 8.236979 0.507966
1.797581 -14.494012 5.753517 0.678431
16.902592 3.005310 2.871996 0.523162
17.161720 3.305515 1.134492 0.498039
33.500374 22.234020 0.630028 0.528799
35.783829 24.879429 -0.000014 0.529657
40.362103 30.183409 -0.000004 0.337255
42.911964 33.137451 0.000008 0.580270
44.539791 35.023308 0.000008 0.537500
45.671185 36.334038 0.000006 0.501225
46.535431 37.335278 0.011767 1.000000
1.313683 -14.236985 21.169294 0.695466
1.166946 -14.404595 18.576603 0.126716
1.313686 -14.236974 15.924759 0.610539
1.166943 -14.404603 13.384917 0.173039
1.379295 -14.162030 10.792392 0.618382
1.166939 -14.404603 8.293214 0.179902
1.166950 -14.404592 5.770526 0.150245
16.364700 2.955657 2.878384 0.463848
15.802979 2.314006 1.107660 0.481740
33.359886 22.369099 0.630508 0.479044
35.655277 24.991106 -0.000019 0.549877
40.270504 30.263035 -0.000004 0.336275
42.840935 33.199215 0.000010 0.539461
44.481880 35.073650 0.000008 0.577206
45.622410 36.376465 0.000010 0.534191
46.488785 37.366119 0.009932 1.000000
0.599224 -14.236989 21.287643 0.566544
0.599220 -14.236989 18.630535 0.452819
0.599236 -14.236970 16.010729 0.515441
0.599232 -14.236974 13.421956 0.540564
0.599228 -14.236974 10.858203 0.710907
0.599232 -14.236974 8.313686 0.736520
0.599220 -14.236985 5.782795 0.555637
0.599224 -14.236981 3.260032 0.525613
32.059822 21.197935 1.515384 0.528186
32.272934 21.437967 0.560882 0.501348
35.527557 25.103737 -0.000017 0.536397
40.179462 30.343300 -0.000004 0.331740
42.770329 33.261463 0.000010 0.532966
44.424316 35.124393 0.000008 0.557966
45.573917 36.419220 0.000011 0.534314
46.446941 37.402534 0.009843 1.000000
-0.124138 -14.236989 21.408415 0.768015
-0.124134 -14.236985 18.734667 0.615441
-0.124123 -14.236974 16.098457 0.691789
-0.124130 -14.236981 13.493477 0.553922
-0.124126 -14.236978 10.913669 0.687132
-0.124123 -14.236970 8.353220 0.712868
-0.124123 -14.236978 5.806480 0.781985
-0.124126 -14.236978 3.267921 0.589951
31.631763 21.031507 1.508685 0.503309
32.658875 22.172230 0.600410 0.515686
35.400513 25.217129 -0.000029 0.534069
40.088982 30.424198 -0.000004 0.332598
42.700157 33.324203 0.000010 0.509926
44.367130 35.175560 0.000012 0.537010
45.525711 36.462296 0.000007 0.508578
46.406013 37.439972 0.010000 1.000000
-0.856651 -14.236985 21.531664 0.573652
-1.091370 -14.494031 18.916119 0.678431
-0.856640 -14.236974 16.187988 0.828064
-1.091370 -14.494027 13.618100 0.678431
-0.856647 -14.236978 10.970273 0.524142
-1.091362 -14.494023 8.422109 0.639828
-1.091366 -14.494023 5.847756 0.678431
31.600439 21.308056 2.488307 0.485662
-0.856655 -14.236989 0.724027 0.485539
32.571716 22.371738 0.604795 0.492402
35.274361 25.331511 -0.000029 0.538113
39.999069 30.505728 -0.000003 0.335662
42.630417 33.387421 0.000008 0.531005
44.310272 35.227093 0.000009 0.547181
45.477810 36.505711 0.000003 0.533824
46.338001 37.447739 -0.000002 0.328554
-1.598553 -14.236981 21.657454 0.678922
-1.598553 -14.236978 18.949396 0.468995
-1.598553 -14.236978 16.279364 0.361642
-1.598553 -14.236978 13.640957 0.377328
-1.598553 -14.236974 11.028044 0.503431
-1.598545 -14.236974 8.434741 0.599755
-1.598549 -14.236974 5.855324 0.566789
32.168972 22.228624 2.470921 0.497672
