# This PCD file was generated using the MATLABÂ® pcwrite function
# from Computer Vision ToolboxÂ®.
# .PCD v.7 - Point Cloud Data file format
VERSION .7
FIELDS x y z intensity
SIZE 4 4 4 4
TYPE F F F F
COUNT 1 1 1 1
WIDTH 1244
HEIGHT 1
VIEWPOINT 0 0 0 1 0 0 0
POINTS 1244
DATA ascii
36.664711 18.630520 -0.000026 0.534804
37.282604 34.938553 -0.000008 0.540074
37.547874 41.939877 -0.000028 0.536520
37.695625 45.839394 -0.000024 0.535417
37.789948 48.328903 -0.000021 0.526593
37.855507 50.059219 -0.000014 0.533946
37.903812 51.334042 -0.000007 0.553922
34.905037 -14.236967 20.441803 0.674632
34.905037 -14.236975 17.901218 0.518995
34.905037 -14.236967 15.396302 0.548652
34.905037 -14.236967 12.921060 0.601961
34.890995 -14.549879 10.505770 0.678431
34.890991 -14.549887 8.062492 0.678431
34.890991 -14.549887 5.632293 0.678431
34.890995 -14.549879 3.209899 0.678431
34.905037 -14.236967 0.795226 0.660784
36.380730 18.642204 -0.000030 0.534069
37.112461 34.945553 -0.000011 0.533456
37.426601 41.944851 -0.000032 0.536029
37.601570 45.843262 -0.000028 0.530882
37.713276 48.332066 -0.000022 0.531250
37.790913 50.061867 -0.000021 0.545588
37.848114 51.336334 -0.000010 0.544608
34.390366 -14.236984 20.448034 0.704779
34.377029 -14.494011 17.962179 0.673652
34.381668 -14.404596 15.431374 0.252206
34.390366 -14.236977 12.924750 0.702206
34.374130 -14.549887 10.508646 0.678799
34.374130 -14.549887 8.064539 0.637132
34.374130 -14.549887 5.633519 0.651226
34.374130 -14.549887 3.210309 0.642034
34.390366 -14.236959 0.794819 0.663235
36.096832 18.655743 -0.000039 0.541422
36.942368 34.953686 -0.000020 0.542402
37.305370 41.950653 -0.000040 0.547917
37.507553 45.847755 -0.000036 0.541422
37.636627 48.335739 -0.000029 0.539093
37.726341 50.064968 -0.000025 0.528431
37.792435 51.338978 -0.000023 0.554044
33.875313 -14.236986 20.455168 0.638358
33.860176 -14.494006 17.968351 0.678431
33.863762 -14.433150 15.441770 0.603922
33.865440 -14.404599 12.953879 0.170343
33.856888 -14.549887 10.511932 0.680760
33.856888 -14.549887 8.066885 0.678431
33.856888 -14.549888 5.634925 0.678431
33.856888 -14.549888 3.210775 0.678431
33.875313 -14.236969 0.794352 0.576471
35.813065 18.671776 -0.000024 0.534926
36.772354 34.963276 -0.000005 0.536765
37.184189 41.957481 -0.000026 0.545098
37.413574 45.853073 -0.000019 0.540441
37.560013 48.340054 -0.000015 0.533456
37.661793 50.068615 -0.000009 0.568260
37.736782 51.342102 -0.000012 0.524877
33.359833 -14.236975 20.463207 0.632475
33.359833 -14.236975 17.919674 0.487010
33.359833 -14.236975 15.411854 0.489828
33.359833 -14.236966 12.933734 0.601471
33.339214 -14.549881 10.515640 0.678431
33.339218 -14.549881 8.069525 0.678431
33.339211 -14.549898 5.636511 0.678431
33.339214 -14.549881 3.211304 0.678431
33.359833 -14.236974 0.793828 0.655637
35.529392 18.689392 -0.000028 0.544730
36.602394 34.973843 -0.000008 0.530760
37.063049 41.965027 -0.000028 0.534069
37.319622 45.858906 -0.000023 0.541422
37.483425 48.344875 -0.000009 0.521324
37.597267 50.072594 -0.000019 0.563848
37.681145 51.345566 -0.000014 0.532353
32.843887 -14.236978 20.472153 0.635417
32.843887 -14.236978 17.927389 0.591422
32.843887 -14.236978 15.418353 0.588480
32.843887 -14.236978 12.939033 0.586887
32.830849 -14.415776 10.504301 0.160784
32.830849 -14.415784 8.061443 0.160784
32.830849 -14.415768 5.631666 0.160784
32.830849 -14.415776 3.209691 0.172549
32.843887 -14.236978 0.793244 0.766789
35.245850 18.708984 -0.000032 0.535784
36.432507 34.985508 -0.000018 0.542402
36.941967 41.973389 -0.000033 0.552083
37.225712 45.865349 -0.000034 0.525858
37.406876 48.350174 -0.000010 0.512500
37.532776 50.077065 -0.000021 0.524755
37.625534 51.349411 -0.000017 0.553186
32.327408 -14.236979 20.482012 0.611642
32.314011 -14.404615 17.972210 0.169240
32.327408 -14.236979 15.425515 0.619730
32.314011 -14.404600 12.969816 0.190931
32.302399 -14.549881 10.524316 0.678431
32.302399 -14.549889 8.075706 0.678431
32.302399 -14.549889 5.640213 0.678431
32.302399 -14.549889 3.212536 0.678431
32.327412 -14.236963 0.792599 0.587255
34.962463 18.730764 -0.000026 0.535294
36.262722 34.998573 -0.000011 0.542525
36.820953 41.982712 -0.000024 0.551348
37.131863 45.872597 -0.000023 0.534926
37.330368 48.356083 0.000001 0.538725
37.468319 50.082020 -0.000014 0.554167
37.569954 51.353622 -0.000027 0.543260
31.810358 -14.236971 20.492781 0.581740
31.788006 -14.494006 18.000898 0.678431
31.806332 -14.283230 15.441785 0.586887
31.795780 -14.404598 12.976206 0.144363
31.783146 -14.549885 10.529284 0.672304
31.783146 -14.549885 8.079248 0.607843
31.783146 -14.549877 5.642332 0.639216
31.783146 -14.549885 3.213244 0.570343
31.810356 -14.236963 0.791896 0.547181
34.679256 18.754734 -0.000009 0.534191
36.093044 35.012959 0.000007 0.536520
36.700012 41.992935 -0.000009 0.532353
37.038071 45.880527 -0.000007 0.523284
37.253902 48.362553 0.000018 0.541422
37.403896 50.087456 -0.000001 0.554412
37.514408 51.358318 -0.000012 0.567402
31.292679 -14.236980 20.504465 0.642402
31.268520 -14.494006 18.011007 0.672059
31.292679 -14.236980 15.441825 0.560539
31.268520 -14.494006 12.996464 0.521936
31.263268 -14.549890 10.534672 0.692892
31.263268 -14.549891 8.083088 0.678431
31.263269 -14.549882 5.644635 0.678431
31.263268 -14.549898 3.214010 0.678431
31.292679 -14.236980 0.791132 0.612623
34.396191 18.780270 -0.000013 0.537255
35.923450 35.028255 0.000004 0.527451
36.579132 42.003838 -0.000012 0.520956
36.944321 45.888985 -0.000011 0.552451
37.177479 48.369457 0.000015 0.530147
37.339512 50.093266 -0.000004 0.527696
37.458893 51.363308 -0.000019 0.551471
30.774323 -14.236983 20.517069 0.505147
30.774323 -14.236975 17.966116 0.498039
30.774323 -14.236975 15.450980 0.563725
30.774323 -14.236967 12.965630 0.503799
30.742702 -14.549887 10.540483 0.678431
30.742706 -14.549879 8.087233 0.678431
30.742706 -14.549879 5.647117 0.678431
30.742704 -14.549887 3.214837 0.678431
30.774326 -14.236967 0.790310 0.575858
34.113308 18.807743 -0.000018 0.538358
35.753960 35.044716 -0.000001 0.530270
36.458344 42.015724 0.000000 0.538480
36.850632 45.898090 -0.000016 0.524387
37.101105 48.376881 0.000011 0.539951
37.275166 50.099510 -0.000011 0.495711
37.403412 51.368702 -0.000023 0.539216
30.255228 -14.236985 20.530594 0.758211
30.255230 -14.236978 17.977777 0.675858
30.255230 -14.236978 15.460802 0.640564
30.255226 -14.236977 12.973637 0.666299
30.221401 -14.549883 10.546721 0.686275
30.221401 -14.549891 8.091677 0.678431
30.221399 -14.549891 5.649779 0.678431
30.221399 -14.549891 3.215724 0.673407
30.255230 -14.236969 0.789425 0.489093
33.830620 18.837233 -0.000022 0.534681
35.584591 35.062363 -0.000006 0.527574
36.337624 42.028320 -0.000003 0.536152
36.757011 45.907867 -0.000018 0.552206
37.024765 48.384708 -0.000017 0.636520
37.210865 50.106220 -0.000014 0.523407
37.347973 51.374550 -0.000011 0.539338
35.824711 38.635586 7.213609 0.619118
35.824699 38.635506 6.495387 0.651471
35.893162 39.229927 5.678357 0.701716
35.824696 38.635418 5.087475 0.657966
35.824692 38.635426 4.394464 0.629902
35.824692 38.635426 3.706655 0.625123
35.910301 39.378742 2.985770 0.722672
35.824730 38.635738 2.340595 0.642892
35.824730 38.635735 1.659405 0.682598
35.824680 38.635296 0.977465 0.643137
35.824738 38.635799 0.293376 0.639706
36.217003 42.041744 -0.000008 0.535662
36.663464 45.918285 -0.000022 0.537745
36.948502 48.393196 -0.000022 0.548284
37.146614 50.113380 -0.000017 0.513480
37.292576 51.380722 -0.000015 0.529534
35.759953 39.303337 7.049423 0.678431
35.814449 39.749092 6.256812 0.792647
35.814453 39.749111 5.586234 0.672549
35.759956 39.303337 4.990220 0.678431
35.759956 39.303345 4.319039 0.678431
35.814453 39.749111 3.616072 0.775980
35.910240 40.532661 2.929477 0.692647
35.759956 39.303345 2.329870 0.678431
35.759956 39.303345 1.670129 0.678431
35.759956 39.303337 1.009680 0.678431
35.824570 39.831871 0.390763 0.647304
36.096470 42.056011 -0.000012 0.532843
36.569988 45.929352 -0.000026 0.540319
36.872295 48.402229 -0.000024 0.549510
37.082417 50.120995 -0.000019 0.525858
37.237221 51.387280 -0.000018 0.548529
35.898430 41.471054 6.506349 0.656373
35.909981 41.560356 5.866097 0.698897
35.826508 40.914978 5.375482 0.629902
35.826504 40.914959 4.751793 0.620956
35.898430 41.471058 4.069623 0.652328
35.898430 41.471058 3.475125 0.627328
35.826504 40.914974 2.911355 0.629657
35.826504 40.914974 2.303568 0.663848
35.826321 40.913540 1.696408 0.649142
35.898430 41.471058 1.116190 0.652206
35.923470 41.664661 0.540882 0.648652
35.976063 42.071266 0.000000 0.538725
36.476601 45.941162 -0.000016 0.522304
36.796165 48.411858 -0.000015 0.548162
37.018280 50.129112 -0.000008 0.525980
37.181915 51.394272 -0.000009 0.523407
35.910164 42.486042 6.253936 0.663235
35.900639 42.416260 5.683116 0.695711
35.723064 41.114845 5.341910 0.608088
35.723068 41.114838 4.724423 0.607476
35.910164 42.486065 3.953696 0.654902
35.910164 42.486042 3.392499 0.653799
35.758102 41.371597 2.889561 0.794853
35.723068 41.114838 2.300549 0.635294
35.723068 41.114838 1.699451 0.643750
35.910164 42.486042 1.165695 0.655515
35.910164 42.486042 0.607501 0.653799
35.855743 42.087215 -0.000005 0.536397
36.383301 45.953640 -0.000005 0.547426
36.720097 48.421955 -0.000018 0.521691
36.954193 50.137596 -0.000014 0.505147
37.126663 51.401615 -0.000009 0.543750
35.824913 42.726517 6.197243 0.614583
35.824932 42.726677 5.618987 0.619730
35.824913 42.726528 5.048916 0.635417
35.824913 42.726517 4.485567 0.649510
35.824909 42.726517 3.927660 0.641299
35.824909 42.726517 3.373940 0.620343
35.824886 42.726368 2.823193 0.627451
35.824642 42.724651 2.274230 0.626471
35.824619 42.724506 1.725768 0.632598
35.824619 42.724506 1.176714 0.600858
35.824619 42.724506 0.625893 0.637623
35.824505 42.723705 0.072012 0.617402
36.290085 45.966675 -0.000007 0.528186
36.644096 48.432564 -0.000023 0.555515
36.890167 50.146549 -0.000017 0.510662
37.071457 51.409317 -0.000015 0.578554
35.910137 44.077084 5.859437 0.693260
35.759953 43.080502 5.545424 0.678431
35.759953 43.080509 4.986913 0.678431
35.759953 43.080505 4.435019 0.678431
35.759953 43.080505 3.888458 0.678431
35.814457 43.442165 3.316010 0.797304
35.776066 43.187420 2.801133 0.125613
35.759953 43.080509 2.268623 0.678431
35.759953 43.080509 1.731377 0.678431
35.759953 43.080509 1.193555 0.678431
35.814457 43.442165 0.683989 0.788848
35.824806 43.510868 0.161609 0.635049
36.196953 45.980347 -0.000011 0.558824
36.568176 48.443718 -0.000026 0.540196
36.826199 50.155907 -0.000029 0.518382
37.016304 51.417416 -0.000019 0.555270
35.898438 44.692860 5.707443 0.711887
35.759953 43.815533 5.388527 0.678431
35.759953 43.815533 4.854733 0.678431
35.759956 43.815533 4.327262 0.678431
35.759953 43.815533 3.804889 0.678431
35.814461 44.160831 3.257772 0.795588
35.759953 43.815533 2.770757 0.678431
35.759956 43.815536 2.256736 0.678431
35.759956 43.815536 1.743265 0.678431
35.759956 43.815533 1.229243 0.678431
35.814461 44.160831 0.742228 0.792034
35.824257 44.222916 0.242557 0.649142
36.103920 45.994675 -0.000015 0.527696
36.492329 48.455387 -0.000031 0.536029
36.762302 50.165749 -0.000031 0.527941
36.961208 51.425888 -0.000026 0.505637
35.824665 44.880451 5.663998 0.649387
35.824665 44.880455 5.159237 0.634436
35.824661 44.880451 4.661564 0.635784
35.824665 44.880451 4.169785 0.630392
35.824661 44.880451 3.682758 0.670098
35.824665 44.880455 3.199386 0.629657
35.824650 44.880371 2.718607 0.645956
35.824593 44.880043 2.239370 0.650613
35.824593 44.880047 1.760630 0.637010
35.824593 44.880047 1.281377 0.649755
35.824593 44.880047 0.800579 0.643995
35.824673 44.880508 0.317248 0.640196
36.010990 46.009647 -0.000019 0.543995
36.416584 48.467674 -0.000021 0.545098
36.698475 50.176041 -0.000035 0.555147
36.906174 51.434757 -0.000030 0.529412
35.824886 45.483528 5.515028 0.648039
35.824886 45.483528 5.030790 0.684436
35.824886 45.483532 4.553349 0.662255
35.824886 45.483528 4.081565 0.616422
35.824886 45.483532 3.614340 0.644853
35.824894 45.483601 3.150615 0.603676
35.824913 45.483685 2.689378 0.634804
35.824856 45.483383 2.229633 0.630392
35.824806 45.483078 1.770361 0.643995
35.824753 45.482765 1.310576 0.642524
35.824753 45.482765 0.849314 0.673039
35.824753 45.482765 0.385570 0.641789
35.918186 46.025417 -0.000001 0.546078
36.340935 48.480534 -0.000001 0.557230
36.634739 50.186867 -0.000017 0.487255
36.851215 51.444080 -0.000016 0.516667
35.824795 46.037888 5.378268 0.613358
35.824795 46.037888 4.912871 0.625613
35.824795 46.037888 4.454008 0.631618
35.824799 46.037888 4.000578 0.649632
35.824795 46.037888 3.551532 0.622549
35.824810 46.037952 3.105849 0.672426
35.824821 46.038029 2.662557 0.626838
35.824799 46.037910 2.220696 0.663725
35.824780 46.037788 1.779301 0.630515
35.824757 46.037659 1.337425 0.608211
35.824734 46.037529 0.894115 0.635294
35.824711 46.037395 0.448411 0.622549
35.824707 46.037369 -0.000656 0.699755
36.265350 48.493793 -0.000006 0.559314
36.571068 50.198036 -0.000022 0.552696
36.796318 51.453716 -0.000019 0.529534
35.763496 46.222664 5.335503 0.647672
35.763496 46.222668 4.875996 0.668382
35.763496 46.222664 4.422942 0.656495
35.763496 46.222664 3.975253 0.633211
35.763496 46.222664 3.531891 0.663971
35.763496 46.222664 3.091856 0.650245
35.763504 46.222713 2.654174 0.664461
35.763523 46.222797 2.217901 0.670711
35.763535 46.222874 1.782100 0.671446
35.763550 46.222946 1.345837 0.640686
35.763561 46.223019 0.908173 0.632475
35.763573 46.223080 0.468158 0.667647
35.763577 46.223095 0.024812 0.694118
36.189865 48.507591 -0.000009 0.521324
36.507469 50.209656 -0.000025 0.536029
36.741478 51.463737 -0.000023 0.525858
35.670708 46.232502 5.337426 0.626961
35.670708 46.232498 4.877655 0.614951
35.670708 46.232498 4.424339 0.671446
35.670708 46.232498 3.976393 0.597426
35.670708 46.232502 3.532774 0.667770
35.670708 46.232502 3.092485 0.631250
35.670708 46.232498 2.654554 0.615686
35.670708 46.232502 2.218029 0.683701
35.670708 46.232502 1.781971 0.666667
35.670708 46.232502 1.345446 0.642524
35.670712 46.232506 0.907515 0.613113
35.670712 46.232506 0.467227 0.610784
35.670712 46.232510 0.023609 0.707353
36.114475 48.521904 -0.000014 0.554412
36.443958 50.221725 -0.000028 0.545098
36.686718 51.474140 -0.000026 0.515441
35.575832 46.232502 5.342030 0.613113
35.575832 46.232502 4.881624 0.660784
35.575832 46.232502 4.427683 0.663603
35.575832 46.232502 3.979118 0.613358
35.575832 46.232502 3.534889 0.677819
35.575832 46.232502 3.093992 0.639583
35.575832 46.232502 2.655457 0.693137
35.575832 46.232506 2.218329 0.662868
35.575832 46.232506 1.781670 0.668505
35.575832 46.232510 1.344544 0.641789
35.575836 46.232513 0.906008 0.646201
35.575836 46.232517 0.465113 0.656618
35.575836 46.232521 0.020885 0.670711
36.039185 48.536739 -0.000019 0.526226
36.380527 50.234219 -0.000035 0.532843
36.632023 51.484905 -0.000033 0.559191
35.480686 46.232502 5.346809 0.648529
35.480686 46.232502 4.885745 0.643627
35.480686 46.232502 4.431155 0.667647
35.480686 46.232502 3.981949 0.611152
35.480686 46.232498 3.537084 0.658088
35.480686 46.232502 3.095557 0.651961
35.480686 46.232506 2.656394 0.691054
35.480686 46.232510 2.218642 0.671569
35.480690 46.232513 1.781358 0.621446
35.480690 46.232517 1.343606 0.620711
35.480690 46.232521 0.904444 0.611765
35.480690 46.232525 0.462919 0.667157
35.480690 46.232529 0.018056 0.668260
35.964005 48.552124 -0.000021 0.535907
36.317192 50.247185 -0.000035 0.528064
36.577431 51.496166 -0.000014 0.516544
35.385262 46.232502 5.351766 0.643015
35.385262 46.232502 4.890020 0.653799
35.385262 46.232502 4.434756 0.631618
35.385262 46.232502 3.984884 0.638358
35.385262 46.232502 3.539361 0.659436
35.385262 46.232498 3.097180 0.637623
35.385262 46.232502 2.657367 0.660784
35.385265 46.232510 2.218966 0.677451
35.385265 46.232517 1.781035 0.659069
35.385269 46.232521 1.342634 0.624142
35.385269 46.232529 0.902822 0.612745
35.385269 46.232533 0.460643 0.658701
35.385273 46.232536 0.015121 0.667034
35.888931 48.568008 -0.000026 0.554412
36.253944 50.260582 -0.000038 0.520711
36.522896 51.507713 -0.000017 0.491667
35.289555 46.232502 5.356903 0.642647
35.289555 46.232502 4.894448 0.620833
35.289555 46.232502 4.438487 0.647059
35.289555 46.232502 3.987926 0.644485
35.289555 46.232502 3.541719 0.676961
35.289551 46.232502 3.098861 0.647059
35.289555 46.232506 2.658374 0.640809
35.289558 46.232513 2.219301 0.666299
35.289558 46.232517 1.780699 0.646201
35.289562 46.232525 1.341627 0.643627
35.289558 46.232533 0.901141 0.611765
35.289562 46.232540 0.458285 0.656985
35.289562 46.232548 0.012081 0.685049
35.813999 48.584545 -0.000008 0.529902
36.190807 50.274479 -0.000026 0.487623
36.468460 51.519707 -0.000004 0.546691
35.193546 46.232502 5.362218 0.631250
35.193546 46.232502 4.899032 0.638358
35.193546 46.232502 4.442348 0.619240
35.193546 46.232502 3.991073 0.644485
35.193546 46.232502 3.544160 0.628799
35.193546 46.232502 3.100601 0.618505
35.193546 46.232506 2.659416 0.647672
35.193550 46.232513 2.219648 0.628799
35.193550 46.232521 1.780352 0.626593
35.193550 46.232529 1.340585 0.639461
35.193550 46.232536 0.899402 0.640074
35.193554 46.232548 0.455845 0.653922
35.193554 46.232548 0.008934 0.645221
35.739155 48.601490 -0.000011 0.560049
36.127754 50.288742 -0.000033 0.665319
36.414097 51.532013 -0.000007 0.552451
35.097225 46.232502 5.367715 0.633456
35.097225 46.232502 4.903771 0.632721
35.097229 46.232498 4.446342 0.645343
35.097229 46.232502 3.994329 0.634926
35.097225 46.232502 3.546685 0.628309
35.097229 46.232498 3.102400 0.632230
35.097225 46.232506 2.660494 0.607476
35.097229 46.232510 2.220007 0.646814
35.097229 46.232521 1.779993 0.662255
35.097233 46.232533 1.339507 0.639093
35.097237 46.232536 0.897603 0.634559
35.097240 46.232548 0.453320 0.608701
35.097240 46.232555 0.005679 0.671814
35.664429 48.618946 -0.000016 0.531373
36.064800 50.303459 -0.000036 0.527819
36.359814 51.544701 -0.000010 0.546569
35.000591 46.232502 5.373394 0.615686
35.000591 46.232502 4.908669 0.627941
35.000591 46.232502 4.450467 0.641667
35.000591 46.232502 3.997692 0.650368
35.000591 46.232502 3.549294 0.666176
35.000591 46.232502 3.104259 0.624265
35.000591 46.232502 2.661608 0.663971
35.000591 46.232513 2.220378 0.663848
35.000591 46.232521 1.779622 0.639216
35.000595 46.232533 1.338393 0.634559
35.000599 46.232544 0.895744 0.633701
35.000603 46.232552 0.450713 0.647917
35.000603 46.232555 0.002316 0.672426
35.589828 48.636925 -0.000022 0.567524
36.001953 50.318607 -0.000039 0.513848
36.305630 51.557777 -0.000010 0.568260
34.903618 46.232498 5.379259 0.618505
34.903618 46.232502 4.913724 0.625000
34.903618 46.232502 4.454726 0.656127
34.903622 46.232502 4.001164 0.660294
34.903618 46.232502 3.551986 0.647304
34.903618 46.232498 3.106179 0.611765
34.903622 46.232506 2.662758 0.669118
34.903625 46.232513 2.220761 0.632475
34.903625 46.232521 1.779239 0.647181
34.903625 46.232540 1.337243 0.638603
34.903629 46.232548 0.893824 0.616789
34.903633 46.232559 0.448020 0.650368
34.903633 46.232563 -0.001156 0.624265
35.515358 48.655430 -0.000025 0.550735
35.939209 50.334202 -0.000042 0.534559
36.251530 51.571209 -0.000018 0.531495
34.806305 46.232502 5.385308 0.609681
34.806305 46.232506 4.918940 0.636152
34.806305 46.232502 4.459121 0.657353
34.806305 46.232502 4.004746 0.633824
34.806305 46.232502 3.554765 0.641912
34.806305 46.232502 3.108159 0.666667
34.806309 46.232510 2.663944 0.648897
34.806309 46.232517 2.221156 0.639828
34.806313 46.232529 1.778844 0.657475
34.806316 46.232540 1.336057 0.646569
34.806320 46.232548 0.891844 0.641912
34.806324 46.232559 0.445242 0.637990
34.814297 46.263237 -0.000036 0.536765
35.441017 48.674461 -0.000027 0.578186
35.876579 50.350220 -0.000048 0.566176
36.197525 51.585022 -0.000024 0.533333
34.708641 46.232506 5.391544 0.632475
34.708641 46.232506 4.924317 0.647794
34.708641 46.232506 4.463651 0.657475
34.708641 46.232506 4.008440 0.629902
34.708641 46.232502 3.557630 0.646078
34.708641 46.232506 3.110200 0.667157
34.708645 46.232506 2.665168 0.673284
34.708649 46.232517 2.221564 0.651103
34.708645 46.232529 1.778436 0.623407
34.708649 46.232540 1.334834 0.663480
34.708652 46.232548 0.889803 0.635417
34.708656 46.232559 0.442378 0.662132
34.723270 46.287220 -0.000038 0.561152
35.366806 48.694000 -0.000032 0.504534
35.814056 50.366684 -0.000052 0.535539
36.143620 51.599205 -0.000031 0.543260
34.610611 46.232506 5.397970 0.622181
34.610611 46.232506 4.929859 0.662500
34.610611 46.232502 4.468319 0.660907
34.610611 46.232506 4.012245 0.634559
34.610611 46.232506 3.560580 0.627451
34.610611 46.232506 3.112304 0.639216
34.610615 46.232506 2.666428 0.678309
34.610615 46.232521 2.221983 0.632598
34.610619 46.232529 1.778016 0.645466
34.610619 46.232540 1.333574 0.641299
34.610622 46.232552 0.887700 0.638848
34.610626 46.232563 0.439427 0.644853
34.632454 46.311970 -0.000021 0.531250
35.292774 48.714176 -0.000014 0.533456
35.751686 50.383686 -0.000034 0.524877
36.089836 51.613857 -0.000013 0.497181
34.512203 46.232502 5.404586 0.637623
34.512203 46.232502 4.935563 0.684314
34.512203 46.232502 4.473125 0.651838
34.512203 46.232502 4.016164 0.603799
34.512203 46.232502 3.563619 0.651838
34.512199 46.232498 3.114470 0.654779
34.512203 46.232506 2.667726 0.687132
34.512207 46.232517 2.222416 0.663725
34.512211 46.232525 1.777584 0.623039
34.512215 46.232540 1.332276 0.637500
34.512215 46.232548 0.885534 0.669363
34.512218 46.232559 0.436388 0.674020
34.541775 46.337219 -0.000023 0.550123
35.218842 48.734745 -0.000020 0.538113
35.689404 50.401009 -0.000040 0.546691
36.036137 51.628803 -0.000017 0.577941
34.413406 46.232506 5.411395 0.671569
34.413403 46.232502 4.941434 0.689338
34.413403 46.232502 4.478070 0.662868
34.413403 46.232502 4.020196 0.616912
34.413406 46.232506 3.566746 0.633211
34.413403 46.232502 3.116699 0.680760
34.413406 46.232506 2.669061 0.705392
34.413410 46.232517 2.222861 0.657353
34.413410 46.232525 1.777139 0.649387
34.413414 46.232540 1.330941 0.621569
34.413418 46.232552 0.883305 0.643627
34.413422 46.232563 0.433261 0.646691
34.451309 46.363232 -0.000006 0.537868
35.145100 48.755959 -0.000001 0.550123
35.627270 50.418880 -0.000021 0.542402
35.982563 51.644211 0.000001 0.532966
34.314209 46.232510 5.418398 0.672304
34.314209 46.232510 4.947472 0.648775
34.314209 46.232510 4.483157 0.683211
34.314209 46.232506 4.024343 0.629167
34.314209 46.232506 3.569962 0.645098
34.314209 46.232506 3.118991 0.622549
34.314209 46.232510 2.670434 0.718873
34.314217 46.232525 2.223318 0.649632
34.314217 46.232533 1.776682 0.647059
34.314220 46.232544 1.329567 0.634069
34.314224 46.232555 0.881013 0.636887
34.314228 46.232563 0.430045 0.663725
34.360996 46.389744 -0.000008 0.545833
35.071468 48.777569 -0.000004 0.553431
35.565239 50.437088 -0.000025 0.533088
35.929077 51.659904 -0.000003 0.538725
34.214600 46.232506 5.425596 0.686152
34.214600 46.232506 4.953678 0.675735
34.214600 46.232506 4.488387 0.667279
34.214600 46.232506 4.028606 0.728676
34.214600 46.232502 3.573268 0.652451
34.214600 46.232506 3.121348 0.672304
34.214600 46.232502 2.671846 0.698775
34.214596 46.232491 2.223789 0.668995
34.214592 46.232479 1.776211 0.656005
34.214588 46.232468 1.328151 0.622181
34.214584 46.232456 0.878648 0.632353
34.214581 46.232449 0.426725 0.653309
34.270847 46.416832 -0.000019 0.534804
34.997978 48.799652 -0.000014 0.543260
35.503326 50.455696 -0.000034 0.535417
35.875698 51.675961 -0.000010 0.547549
34.114563 46.232506 5.432994 0.651348
34.114563 46.232506 4.960057 0.684436
34.114563 46.232510 4.493760 0.651471
34.114563 46.232506 4.032987 0.700613
34.114563 46.232506 3.576665 0.637868
34.114563 46.232506 3.123769 0.678309
34.114563 46.232502 2.673297 0.664583
34.114559 46.232494 2.224272 0.645221
34.114555 46.232479 1.775727 0.646324
34.114552 46.232468 1.326701 0.632843
34.114548 46.232456 0.876227 0.658701
34.114548 46.232452 0.423328 0.637623
34.180946 46.444733 -0.000002 0.541422
34.924690 48.822403 0.000004 0.536520
35.441582 50.474850 -0.000018 0.534191
35.822460 51.692486 0.000008 0.520466
34.014088 46.232502 5.440592 0.624142
34.014088 46.232502 4.966608 0.639706
34.014088 46.232506 4.499279 0.664828
34.014088 46.232506 4.037485 0.656250
34.014088 46.232502 3.580155 0.643382
34.014088 46.232502 3.126256 0.631250
34.014088 46.232502 2.674787 0.693873
34.014084 46.232487 2.224768 0.630760
34.014080 46.232475 1.775231 0.644730
34.014076 46.232464 1.325211 0.630760
34.014072 46.232456 0.873740 0.640319
34.014072 46.232452 0.419839 0.627819
34.091202 46.473114 -0.000006 0.534436
34.851532 48.845558 0.000002 0.532598
35.379940 50.494335 -0.000025 0.545588
35.769318 51.709301 0.000005 0.527574
33.913166 46.232510 5.448390 0.632598
33.913162 46.232506 4.973333 0.625490
33.913166 46.232510 4.504945 0.651961
33.913166 46.232510 4.042104 0.685417
33.913162 46.232506 3.583737 0.654902
33.913162 46.232506 3.128809 0.641789
33.913162 46.232502 2.676317 0.663848
33.913158 46.232491 2.225278 0.676716
33.913155 46.232479 1.774722 0.628554
33.913155 46.232468 1.323681 0.630024
33.913147 46.232456 0.871186 0.658211
33.913147 46.232456 0.416257 0.660907
34.001656 46.502129 -0.000010 0.541912
34.778530 48.869198 -0.000004 0.526471
35.318439 50.514267 -0.000028 0.530515
35.716282 51.726471 -0.000003 0.520833
33.811779 46.232510 5.456394 0.651348
33.811779 46.232510 4.980234 0.637868
33.811775 46.232510 4.510758 0.662255
33.811775 46.232510 4.046844 0.688358
33.811775 46.232506 3.587413 0.635539
33.811775 46.232510 3.131429 0.679534
33.811775 46.232502 2.677886 0.669608
33.811771 46.232494 2.225801 0.656250
33.811768 46.232479 1.774199 0.645588
33.811768 46.232471 1.322111 0.643750
33.811764 46.232460 0.868567 0.644485
33.811760 46.232456 0.412581 0.666176
33.912315 46.531776 -0.000013 0.542034
34.705696 48.893368 -0.000007 0.516544
35.257084 50.534626 -0.000031 0.567770
35.663376 51.744019 -0.000007 0.506127
33.709915 46.232510 5.464604 0.658824
33.709915 46.232510 4.987312 0.640196
33.709915 46.232510 4.516722 0.639951
33.709915 46.232510 4.051705 0.636152
33.709915 46.232506 3.591183 0.656863
33.709915 46.232506 3.134116 0.649265
33.709915 46.232502 2.679497 0.672672
33.709908 46.232491 2.226337 0.656495
33.709904 46.232479 1.773662 0.655270
33.709900 46.232468 1.320501 0.621078
33.709896 46.232456 0.865879 0.653676
33.709896 46.232456 0.408811 0.633456
33.823181 46.562023 -0.000020 0.535294
34.633034 48.918030 -0.000012 0.521201
35.195866 50.555412 -0.000035 0.517770
35.610592 51.761929 -0.000014 0.562990
33.607559 46.232510 5.473023 0.652696
33.607559 46.232506 4.994572 0.668260
33.607559 46.232506 4.522838 0.620588
33.607559 46.232506 4.056691 0.666299
33.607559 46.232506 3.595049 0.653676
33.607559 46.232502 3.136872 0.664093
33.607559 46.232502 2.681148 0.665319
33.607555 46.232491 2.226887 0.643382
33.607548 46.232479 1.773113 0.647917
33.607544 46.232471 1.318850 0.613603
33.607540 46.232460 0.863123 0.675123
33.607540 46.232460 0.404945 0.646078
33.734264 46.592915 -0.000022 0.544730
34.560543 48.943211 -0.000015 0.537500
35.134789 50.576618 -0.000041 0.578799
35.557941 51.780231 -0.000014 0.557108
33.504700 46.232510 5.481653 0.689951
33.504700 46.232510 5.002013 0.669363
33.504700 46.232510 4.529106 0.617157
33.504700 46.232510 4.061802 0.664338
33.504700 46.232510 3.599013 0.689461
33.504700 46.232510 3.139697 0.648775
33.504700 46.232506 2.682841 0.663848
33.504696 46.232494 2.227451 0.641912
33.504692 46.232487 1.772549 0.626593
33.504684 46.232475 1.317158 0.616422
33.504684 46.232464 0.860299 0.632475
33.504684 46.232468 0.400982 0.649387
33.645615 46.624561 -0.000004 0.549755
34.488274 48.969002 0.000001 0.547917
35.073902 50.598354 -0.000022 0.546324
35.505444 51.798981 0.000007 0.483211
33.401325 46.232510 5.490496 0.632721
33.401325 46.232510 5.009638 0.622917
33.401325 46.232510 4.535531 0.628554
33.401325 46.232513 4.067039 0.635662
33.401325 46.232513 3.603075 0.682108
33.401325 46.232510 3.142591 0.650000
33.401321 46.232506 2.684575 0.676103
33.401321 46.232498 2.228029 0.638358
33.401318 46.232487 1.771971 0.622794
33.401314 46.232475 1.315423 0.636642
33.401314 46.232471 0.857404 0.642524
33.401314 46.232468 0.396920 0.639093
33.557133 46.656670 -0.000011 0.532843
34.416145 48.995197 -0.000001 0.535417
35.013138 50.620415 -0.000026 0.546324
35.453053 51.818005 0.000004 0.559804
33.297421 46.232513 5.499556 0.669485
33.297417 46.232513 5.017449 0.613725
33.297417 46.232510 4.542111 0.663235
33.297417 46.232510 4.072404 0.628431
33.297417 46.232513 3.607235 0.667525
33.297417 46.232510 3.145557 0.630024
33.297417 46.232510 2.686352 0.680392
33.297417 46.232498 2.228621 0.615319
33.297409 46.232491 1.771379 0.623775
33.297405 46.232479 1.313647 0.609804
33.297401 46.232471 0.854439 0.653799
33.297405 46.232475 0.392760 0.633211
33.468887 46.689426 -0.000011 0.543137
34.344196 49.021873 -0.000007 0.536152
34.952522 50.642891 -0.000032 0.539583
35.400787 51.837399 0.000000 0.539583
33.192966 46.232510 5.508834 0.669608
33.192966 46.232510 5.025450 0.636765
33.192966 46.232510 4.548851 0.643137
33.192966 46.232506 4.077898 0.653064
33.192966 46.232510 3.611496 0.672794
33.192966 46.232506 3.148595 0.631250
33.192963 46.232502 2.688172 0.683088
33.192959 46.232498 2.229227 0.608701
33.192955 46.232491 1.770773 0.681618
33.192955 46.232483 1.311827 0.610907
33.192951 46.232475 0.851402 0.676838
33.192951 46.232475 0.388499 0.630882
33.380875 46.722805 -0.000011 0.554289
34.272434 49.049061 -0.000012 0.550980
34.892075 50.665817 -0.000032 0.520956
35.348663 51.857147 -0.000004 0.526103
33.087952 46.232506 5.518333 0.633333
33.087952 46.232506 5.033640 0.637745
33.087952 46.232510 4.555752 0.637623
33.087952 46.232506 4.083524 0.663848
33.087952 46.232510 3.615859 0.658456
33.087952 46.232510 3.151704 0.625000
33.087948 46.232506 2.690035 0.677574
33.087948 46.232498 2.229847 0.640564
33.087940 46.232494 1.770152 0.644485
33.087940 46.232487 1.309964 0.632108
33.087936 46.232479 0.848293 0.706250
33.087936 46.232483 0.384137 0.637132
33.293083 46.756760 -0.000018 0.551348
34.200871 49.076759 -0.000015 0.548774
34.831776 50.689137 -0.000039 0.504044
35.296684 51.877281 -0.000004 0.541054
32.982361 46.232510 5.528056 0.632475
32.982361 46.232510 5.042024 0.666422
32.982361 46.232510 4.562815 0.618137
32.982361 46.232510 4.089282 0.648529
32.982361 46.232510 3.620326 0.663725
32.982361 46.232510 3.154887 0.627941
32.982361 46.232506 2.691942 0.663971
32.982357 46.232498 2.230483 0.649387
32.982357 46.232498 1.769517 0.662868
32.982353 46.232491 1.308057 0.681495
32.982353 46.232491 0.845110 0.680392
32.982353 46.232491 0.379672 0.683578
33.205536 46.791348 -0.000020 0.538603
34.129505 49.104958 -0.000018 0.516544
34.771656 50.712906 -0.000038 0.523039
35.244835 51.897743 -0.000011 0.560784
32.876183 46.232513 5.538007 0.634069
32.876183 46.232513 5.050603 0.648529
32.876183 46.232513 4.570043 0.629167
32.876183 46.232513 4.095174 0.670588
32.876183 46.232510 3.624895 0.663603
32.876183 46.232513 3.158144 0.609436
32.876183 46.232510 2.693893 0.642157
32.876179 46.232506 2.231133 0.682721
32.876179 46.232502 1.768867 0.659926
32.876175 46.232494 1.306106 0.670956
32.876175 46.232498 0.841854 0.653799
32.876175 46.232494 0.375103 0.672794
33.118233 46.826534 -0.000025 0.529044
34.058327 49.133636 -0.000023 0.532966
34.711697 50.737076 -0.000042 0.553431
35.193134 51.918583 -0.000015 0.546324
32.769394 46.232510 5.548187 0.650123
32.769394 46.232513 5.059380 0.714338
32.769394 46.232510 4.577438 0.615196
32.769394 46.232513 4.101202 0.663848
32.769398 46.232513 3.629570 0.658824
32.769394 46.232506 3.161477 0.588358
32.769394 46.232506 2.695889 0.609191
32.769394 46.232502 2.231797 0.636765
32.769390 46.232498 1.768202 0.663480
32.769390 46.232498 1.304110 0.621936
32.769390 46.232498 0.838522 0.647426
32.769390 46.232502 0.370429 0.614093
33.031235 46.862476 -0.000006 0.542647
33.987408 49.162933 -0.000005 0.542892
34.651947 50.761765 -0.000022 0.531618
35.141579 51.939774 -0.000021 0.567034
32.661991 46.232513 5.558599 0.649877
32.661991 46.232510 5.068358 0.609681
32.661991 46.232510 4.585001 0.657843
32.661991 46.232510 4.107369 0.638726
32.661991 46.232513 3.634352 0.643260
32.661991 46.232510 3.164885 0.644730
32.661987 46.232506 2.697932 0.635172
32.661987 46.232506 2.232477 0.647059
32.661987 46.232506 1.767522 0.649755
32.661987 46.232502 1.302068 0.674632
32.661987 46.232506 0.835114 0.662377
32.661987 46.232506 0.365648 0.614338
32.944439 46.898891 -0.000008 0.551961
33.916637 49.192612 -0.000010 0.546324
34.592327 50.786758 -0.000028 0.545956
35.090179 51.961349 -0.000021 0.482843
32.553947 46.232513 5.569248 0.613358
32.553947 46.232517 5.077539 0.650490
32.553947 46.232513 4.592736 0.654167
32.553947 46.232513 4.113674 0.643137
32.553947 46.232513 3.639243 0.613235
32.553944 46.232510 3.168371 0.649755
32.553944 46.232506 2.700020 0.635539
32.553944 46.232510 2.233174 0.646691
32.553947 46.232513 1.766827 0.646078
32.553947 46.232513 1.299980 0.661642
32.553947 46.232517 0.831629 0.664216
32.553947 46.232517 0.360758 0.621569
32.857880 46.935879 -0.000016 0.542525
33.846081 49.222782 -0.000014 0.524632
34.532887 50.812180 -0.000032 0.527574
35.038925 51.983269 -0.000026 0.526471
32.445251 46.232510 5.580135 0.624265
32.445251 46.232510 5.086928 0.675000
32.445251 46.232510 4.600646 0.634314
32.445251 46.232510 4.120122 0.644730
32.445251 46.232510 3.644243 0.649510
32.445248 46.232510 3.171935 0.635539
32.445244 46.232506 2.702155 0.630637
32.445251 46.232513 2.233884 0.630515
32.445251 46.232517 1.766115 0.660662
32.445251 46.232521 1.297845 0.610294
32.445255 46.232525 0.828066 0.655025
32.445255 46.232525 0.355758 0.603554
32.771599 46.973503 -0.000018 0.537868
33.775742 49.253452 -0.000016 0.540809
34.473618 50.838005 -0.000038 0.520588
34.987820 52.005527 -0.000033 0.481250
32.335880 46.232513 5.591265 0.602206
32.335876 46.232513 5.096524 0.667157
32.335880 46.232517 4.608729 0.643627
32.335876 46.232513 4.126712 0.624265
32.335876 46.232513 3.649354 0.620221
32.335876 46.232510 3.175578 0.630515
32.335876 46.232510 2.704339 0.654657
32.335880 46.232513 2.234612 0.641544
32.335884 46.232525 1.765388 0.623039
32.335888 46.232533 1.295663 0.651961
32.335888 46.232533 0.824423 0.640931
32.335888 46.232536 0.350649 0.594118
32.685577 47.011715 -0.000023 0.522304
33.705605 49.284588 -0.000025 0.535539
34.414539 50.864262 -0.000040 0.549387
34.936882 52.028160 -0.000037 0.548407
32.225822 46.232513 5.602640 0.650735
32.225826 46.232517 5.106332 0.662868
32.225826 46.232517 4.616992 0.644485
32.225826 46.232517 4.133449 0.672794
32.225822 46.232513 3.654579 0.667525
32.225822 46.232513 3.179301 0.635294
32.225819 46.232510 2.706569 0.642524
32.225826 46.232517 2.235355 0.636887
32.225830 46.232533 1.764646 0.652941
32.225834 46.232540 1.293432 0.635662
32.225838 46.232544 0.820701 0.686642
32.225838 46.232548 0.345425 0.626471
32.599819 47.050529 -0.000027 0.552083
33.635700 49.316238 -0.000027 0.512623
34.355633 50.890896 -0.000050 0.537377
34.886101 52.051155 -0.000038 0.536642
32.115067 46.232513 5.614264 0.651838
32.115067 46.232513 5.116354 0.664828
32.115063 46.232513 4.625436 0.655515
32.115063 46.232513 4.140332 0.653431
32.115063 46.232513 3.659917 0.655025
32.115063 46.232513 3.183106 0.641789
32.115063 46.232506 2.708849 0.635539
32.115055 46.232506 2.236114 0.631495
32.115051 46.232494 1.763885 0.642402
32.115044 46.232479 1.291149 0.653922
32.115051 46.232483 0.816890 0.670711
32.115051 46.232487 0.340079 0.639583
32.514339 47.089939 -0.000032 0.533088
33.565964 49.348259 -0.000053 0.532475
34.296925 50.917965 -0.000054 0.505515
34.835480 52.074497 -0.000042 0.526103
32.003582 46.232517 5.626141 0.617402
32.003582 46.232517 5.126595 0.661520
32.003582 46.232517 4.634064 0.640074
32.003582 46.232517 4.147366 0.615686
32.003582 46.232517 3.665371 0.648407
32.003582 46.232513 3.186994 0.612990
32.003574 46.232510 2.711178 0.622059
32.003574 46.232506 2.236890 0.616667
32.003574 46.232502 1.763110 0.631127
32.003571 46.232494 1.288821 0.632475
32.003571 46.232494 0.813004 0.641422
32.003571 46.232498 0.334626 0.628064
32.429199 47.130089 -0.000013 0.542034
33.496563 49.381012 -0.000030 0.557108
34.238457 50.945560 -0.000030 0.530637
34.785061 52.098270 -0.000023 0.520466
31.891356 46.232517 5.638272 0.640196
31.891356 46.232517 5.137057 0.644975
31.891356 46.232517 4.642877 0.647426
31.891356 46.232513 4.154551 0.619118
31.891356 46.232513 3.670944 0.660172
31.891356 46.232513 3.190965 0.604167
31.891352 46.232513 2.713557 0.635907
31.891352 46.232513 2.237683 0.619730
31.891350 46.232510 1.762317 0.679167
31.891350 46.232506 1.286442 0.630392
31.891352 46.232513 0.809034 0.632966
31.891352 46.232513 0.329056 0.636520
32.344273 47.170681 -0.000018 0.541912
33.427330 49.414104 -0.000036 0.523284
34.180141 50.973461 -0.000030 0.555270
34.734772 52.122322 -0.000026 0.549877
31.778374 46.232517 5.650665 0.656127
31.778374 46.232513 5.147742 0.643505
31.778374 46.232513 4.651879 0.650858
31.778374 46.232513 4.161890 0.615931
31.778374 46.232513 3.676636 0.702574
31.778370 46.232510 3.195023 0.614461
31.778370 46.232513 2.715988 0.624387
31.778370 46.232513 2.238492 0.674510
31.778374 46.232517 1.761508 0.678186
31.778376 46.232517 1.284012 0.658211
31.778376 46.232521 0.804978 0.623284
31.778379 46.232525 0.323366 0.619485
32.259640 47.211876 -0.000022 0.546936
33.358334 49.447693 -0.000039 0.547794
34.122013 51.001759 -0.000034 0.544363
34.684654 52.146717 -0.000030 0.528431
31.664610 46.232521 5.663323 0.685172
31.664610 46.232521 5.158654 0.629902
31.664610 46.232517 4.661074 0.625735
31.664608 46.232517 4.169385 0.640196
31.664608 46.232517 3.682449 0.687255
31.664608 46.232517 3.199166 0.619608
31.664608 46.232513 2.718471 0.641299
31.664610 46.232521 2.239319 0.672181
31.664616 46.232529 1.760681 0.669608
31.664619 46.232533 1.281530 0.651226
31.664619 46.232536 0.800836 0.619730
31.664619 46.232536 0.317554 0.610172
32.175232 47.253540 -0.000046 0.539461
33.289574 49.481766 -0.000041 0.536029
34.064075 51.030445 -0.000040 0.561887
34.634789 52.171635 0.000014 0.544608
31.550051 46.232517 5.676248 0.643750
31.550053 46.232517 5.169799 0.636520
31.550053 46.232517 4.670462 0.663480
31.550051 46.232517 4.177039 0.640074
31.550053 46.232517 3.688384 0.626716
31.550051 46.232513 3.203396 0.626471
31.550051 46.232513 2.721005 0.639461
31.550045 46.232502 2.240163 0.629289
31.550039 46.232491 1.759836 0.669118
31.550039 46.232491 1.278993 0.644608
31.550039 46.232491 0.796601 0.625368
31.550039 46.232491 0.311613 0.631373
32.091152 47.295868 -0.000058 0.539216
33.221024 49.516254 -0.000056 0.551838
34.006336 51.059521 -0.000051 0.537500
34.585011 52.196720 0.000007 0.516422
31.434681 46.232517 5.689444 0.678554
31.429464 46.222446 5.183627 0.728554
31.429464 46.222446 4.682112 0.733456
31.429464 46.222446 4.186536 0.721078
31.429464 46.222446 3.695750 0.746814
31.434679 46.232517 3.207716 0.674142
31.434675 46.232510 2.723594 0.630270
31.434673 46.232506 2.241026 0.650858
31.434673 46.232502 1.758974 0.627328
31.434673 46.232506 1.276406 0.659069
31.434673 46.232510 0.792283 0.622917
31.434675 46.232510 0.305554 0.641422
32.007481 47.338989 -0.000035 0.525858
33.152805 49.551395 -0.000036 0.551225
33.948860 51.089123 -0.000031 0.518995
34.535431 52.222191 0.000013 0.536397
31.318464 46.232513 5.702917 0.671078
31.284477 46.167965 5.208551 0.678431
31.284477 46.167965 4.703110 0.678431
31.284477 46.167965 4.203653 0.678431
31.284477 46.167965 3.709024 0.678431
31.318464 46.232521 3.212126 0.664583
31.318462 46.232513 2.726236 0.643382
31.318464 46.232517 2.241905 0.635049
31.318468 46.232517 1.758094 0.671324
31.318470 46.232521 1.273764 0.638480
31.318470 46.232521 0.787874 0.625858
31.318470 46.232525 0.299369 0.664706
31.924019 47.382519 -0.000041 0.536274
33.084774 49.586899 -0.000039 0.537010
33.891541 51.119019 -0.000038 0.556005
34.486015 52.247978 0.000010 0.552451
31.201395 46.232517 5.716670 0.623162
31.166826 46.167969 5.220469 0.678431
31.166826 46.167965 4.713149 0.678431
31.166826 46.167965 4.211838 0.678431
31.166826 46.167969 3.715373 0.678431
31.201395 46.232517 3.216629 0.636275
31.201395 46.232517 2.728933 0.636642
31.201395 46.232521 2.242804 0.594485
31.201406 46.232533 1.757196 0.640196
31.201406 46.232533 1.271067 0.626471
31.201406 46.232536 0.783373 0.620221
31.201408 46.232536 0.293054 0.663358
31.840937 47.426762 -0.000024 0.534314
33.017117 49.623108 0.000007 0.567034
33.834484 51.149422 -0.000018 0.560784
34.436787 52.274132 0.000012 0.553554
31.083448 46.232517 5.730709 0.633824
31.048302 46.167965 5.232633 0.678431
31.048296 46.167965 4.723397 0.678431
31.048300 46.167965 4.220193 0.678431
31.048296 46.167965 3.721852 0.678431
31.083448 46.232517 3.221224 0.626838
31.083447 46.232513 2.731687 0.668137
31.083441 46.232506 2.243721 0.636642
31.083441 46.232498 1.756278 0.634069
31.083441 46.232506 1.268313 0.648039
31.083443 46.232506 0.778775 0.623162
31.083447 46.232510 0.286602 0.625245
31.758099 47.471466 -0.000029 0.545833
32.949585 49.659546 0.000001 0.540564
33.777607 51.180149 -0.000015 0.523039
34.387733 52.300602 0.000009 0.547794
30.964600 46.232521 5.745037 0.636029
30.928862 46.167965 5.245048 0.678431
30.928862 46.167965 4.733856 0.678431
30.928862 46.167969 4.228719 0.678431
30.928862 46.167965 3.728465 0.678431
30.964600 46.232517 3.225914 0.661152
30.964598 46.232517 2.734497 0.647672
30.964598 46.232517 2.244657 0.633824
30.964600 46.232517 1.755343 0.669118
30.964600 46.232521 1.265503 0.663603
30.964603 46.232521 0.774086 0.613358
30.964603 46.232525 0.280024 0.654044
31.675573 47.516743 -0.000034 0.529289
32.882320 49.696472 0.000001 0.551225
33.720978 51.211338 0.000003 0.543260
34.338871 52.327427 0.000008 0.569118
30.844830 46.232517 5.759659 0.647672
30.808502 46.167969 5.257717 0.678431
30.808502 46.167969 4.744531 0.678431
30.808502 46.167969 4.237422 0.678431
30.808502 46.167969 3.735214 0.678431
30.844830 46.232513 3.230700 0.637990
30.844830 46.232513 2.737365 0.645343
30.844831 46.232525 2.245612 0.628064
30.844837 46.232533 1.754388 0.673284
30.844837 46.232536 1.262636 0.672181
30.844837 46.232536 0.769301 0.643627
30.844843 46.232544 0.273311 0.640441
31.593363 47.562592 -0.000039 0.530760
32.815296 49.733841 -0.000005 0.541544
33.664539 51.242863 0.000007 0.546201
34.290207 52.354614 0.000013 0.530760
30.724112 46.232513 5.774581 0.633946
30.687191 46.167969 5.270648 0.678431
30.687191 46.167969 4.755424 0.678431
30.687191 46.167969 4.246302 0.678431
30.687191 46.167969 3.742101 0.678431
30.724112 46.232513 3.235586 0.660662
30.724112 46.232513 2.740291 0.664828
30.724112 46.232517 2.246588 0.628922
30.724106 46.232513 1.753412 0.636152
30.724112 46.232513 1.259709 0.669853
30.724112 46.232513 0.764414 0.645711
30.724113 46.232517 0.266454 0.650858
31.511545 47.609135 -0.000022 0.530270
32.748596 49.771786 0.000010 0.578799
33.608292 51.274734 -0.000001 0.512868
34.241703 52.382080 0.000002 0.537623
30.602427 46.232517 5.789808 0.659559
30.564905 46.167969 5.283841 0.678431
30.564905 46.167969 4.766539 0.678431
30.564905 46.167969 4.255363 0.678431
30.564905 46.167969 3.749128 0.678431
30.602427 46.232517 3.240569 0.659559
30.602425 46.232513 2.743278 0.647304
30.602432 46.232521 2.247582 0.645343
30.602432 46.232525 1.752418 0.665196
30.602432 46.232525 1.256723 0.643750
30.602438 46.232533 0.759431 0.622059
30.602438 46.232533 0.259463 0.644118
31.430000 47.656151 -0.000024 0.501225
32.682098 49.810078 0.000001 0.554412
33.552303 51.307056 0.000006 0.490686
34.193428 52.409950 0.000008 0.565564
30.479753 46.232517 5.805344 0.638726
30.449390 46.181114 5.294006 0.788971
30.441626 46.167965 4.777880 0.678431
30.441628 46.167969 4.264609 0.678431
30.441628 46.167969 3.756299 0.678431
30.479753 46.232517 3.245655 0.643015
30.479755 46.232521 2.746324 0.670711
30.479748 46.232513 2.248597 0.653676
30.479748 46.232510 1.751403 0.638726
30.479753 46.232513 1.253675 0.646078
30.479753 46.232513 0.754344 0.633946
30.479753 46.232517 0.252326 0.668382
31.348782 47.703728 -0.000026 0.520833
32.615829 49.848770 -0.000021 0.518260
33.496540 51.339752 0.000009 0.560784
34.145332 52.438126 0.000007 0.546936
30.356060 46.232513 5.821195 0.621691
30.348675 46.220211 5.297878 0.746691
30.317322 46.167969 4.789451 0.678431
30.317322 46.167969 4.274042 0.678431
30.317322 46.167969 3.763615 0.678431
30.356056 46.232513 3.250844 0.654534
30.356062 46.232517 2.749433 0.658578
30.356062 46.232517 2.249633 0.662010
30.356064 46.232521 1.750368 0.641789
30.356068 46.232525 1.250567 0.642279
30.356068 46.232529 0.749157 0.631127
30.356068 46.232529 0.245048 0.674020
31.267883 47.751858 -0.000031 0.536887
32.549885 49.888012 -0.000024 0.537132
33.441002 51.372849 0.000016 0.551103
34.097446 52.466660 0.000011 0.570956
30.231327 46.232513 5.837366 0.645711
30.225189 46.222450 5.311269 0.730025
30.191975 46.167969 4.801255 0.678431
30.191977 46.167969 4.283666 0.678431
30.191975 46.167969 3.771078 0.678431
30.231327 46.232513 3.256138 0.690319
30.231329 46.232517 2.752604 0.634804
30.231327 46.232513 2.250689 0.678186
30.231327 46.232513 1.749311 0.657475
30.231327 46.232513 1.247395 0.660172
30.231327 46.232517 0.743863 0.631250
30.231333 46.232521 0.237620 0.661765
31.187380 47.800636 -0.000020 0.523407
32.484261 49.927788 -0.000012 0.518015
33.385670 51.406281 0.000008 0.539951
34.049732 52.495472 0.000000 0.550368
30.105530 46.232517 5.853863 0.644240
30.099293 46.222446 5.325505 0.744608
30.084133 46.197968 4.806879 0.827206
30.084133 46.197968 4.288249 0.824877
30.065550 46.167961 3.778693 0.678431
30.105530 46.232517 3.261538 0.675000
30.105530 46.232517 2.755840 0.650245
30.105530 46.232521 2.251767 0.637377
30.105536 46.232525 1.748233 0.650490
30.105536 46.232529 1.244160 0.668995
30.105536 46.232529 0.738463 0.630392
30.105537 46.232533 0.230044 0.650000
31.107176 47.849907 -0.000022 0.545956
32.418945 49.968060 0.000009 0.541176
33.330605 51.440151 0.000014 0.538480
34.002247 52.524673 0.000006 0.504044
29.978638 46.232517 5.870692 0.632966
29.972303 46.222446 5.340027 0.777206
29.938036 46.167965 4.825584 0.678431
29.938038 46.167969 4.303498 0.678431
29.938036 46.167965 3.786459 0.678431
29.978638 46.232513 3.267047 0.666789
29.978638 46.232517 2.759141 0.638603
29.978638 46.232513 2.252866 0.626961
29.978638 46.232517 1.747134 0.644118
29.978643 46.232521 1.240860 0.665564
29.978642 46.232521 0.732954 0.652451
29.978643 46.232525 0.222315 0.650123
31.027304 47.899712 -0.000027 0.536887
32.353836 50.008671 0.000006 0.513358
33.275749 51.474354 0.000008 0.519608
33.954960 52.554192 0.000006 0.576961
29.850630 46.232517 5.887859 0.659191
29.844194 46.222446 5.354841 0.776716
29.809395 46.167969 4.838116 0.678431
29.809395 46.167969 4.313715 0.678431
29.809393 46.167961 3.794383 0.678431
29.850628 46.232513 3.272666 0.657721
29.850630 46.232517 2.762508 0.633333
29.850632 46.232525 2.253988 0.680882
29.850636 46.232529 1.746012 0.646078
29.850637 46.232529 1.237493 0.628309
29.850637 46.232533 0.727335 0.662623
29.850637 46.232533 0.214431 0.675858
30.947798 47.950104 -0.000028 0.519730
32.289032 50.049767 0.000009 0.518137
33.221165 51.508991 0.000014 0.552206
33.907890 52.584042 0.000009 0.564828
29.721468 46.232513 5.905371 0.616054
29.714388 46.221596 5.370170 0.721569
29.714935 46.222443 4.839084 0.701961
29.714935 46.222443 4.314504 0.711397
29.714935 46.222443 3.794994 0.711642
29.721468 46.232513 3.278399 0.616299
29.721474 46.232517 2.765942 0.617034
29.721474 46.232521 2.255132 0.672426
29.721476 46.232529 1.744869 0.674632
29.721476 46.232525 1.234058 0.615441
29.721478 46.232525 0.721602 0.627206
29.721481 46.232529 0.206389 0.620343
30.868612 48.000996 -0.000038 0.550123
32.224487 50.091267 0.000001 0.507230
33.166782 51.543949 0.000005 0.554044
33.861019 52.614212 0.000008 0.539338
29.591139 46.232513 5.923233 0.654044
29.591139 46.232513 5.382759 0.609926
29.591139 46.232513 4.849874 0.663848
29.591137 46.232513 4.323301 0.677941
29.591137 46.232513 3.801817 0.674510
