# This PCD file was generated using the MATLABÂ® pcwrite function
# from Computer Vision ToolboxÂ®.
# .PCD v.7 - Point Cloud Data file format
VERSION .7
FIELDS x y z intensity
SIZE 4 4 4 4
TYPE F F F F
COUNT 1 1 1 1
WIDTH 1310
HEIGHT 1
VIEWPOINT 0 0 0 1 0 0 0
POINTS 1310
DATA ascii
21.988552 -34.129593 1.225340 0.783333
22.074881 -40.758347 0.000036 0.535539
22.287394 -57.075806 0.000022 0.550858
22.378632 -64.081512 0.000010 0.544363
22.429447 -67.983345 0.000002 0.539093
22.461889 -70.474403 0.000006 0.516912
22.484440 -72.205734 0.000001 0.563235
22.501053 -73.481400 0.000019 0.551225
22.318035 -33.961899 13.899147 0.160784
22.319050 -34.129601 12.223674 0.616422
22.317158 -33.816685 10.670078 0.678431
22.317158 -33.816689 9.068102 0.678431
22.317158 -33.816696 7.481607 0.678431
22.317158 -33.816696 5.907015 0.678431
22.317158 -33.816700 4.340857 0.678431
22.317158 -33.816700 2.779728 0.678431
22.319050 -34.129597 1.225391 0.576103
22.359081 -40.755657 0.000037 0.537500
22.457668 -57.074196 0.000023 0.541299
22.499998 -64.080360 0.000011 0.529902
22.523573 -67.982452 0.000002 0.538235
22.538624 -70.473671 0.000007 0.525613
22.549084 -72.205185 0.000015 0.547181
22.556791 -73.480835 0.000011 0.517524
22.649513 -34.129578 13.856933 0.689583
22.649513 -34.129589 12.223495 0.611397
22.649807 -33.816692 10.669924 0.678431
22.649807 -33.816692 9.067976 0.678431
22.649807 -33.816696 7.481511 0.678431
22.649809 -33.816700 5.906946 0.656740
22.649807 -33.816704 4.340815 0.678431
22.649809 -33.816700 2.779715 0.678431
22.649513 -34.129601 1.225405 0.627696
22.643288 -40.754955 0.000038 0.535049
22.627951 -57.073772 0.000024 0.527206
22.621367 -64.080063 0.000012 0.540196
22.617699 -67.982224 0.000004 0.519975
22.615358 -70.473488 0.000008 0.529779
22.613731 -72.205025 0.000016 0.501716
22.612532 -73.480698 0.000012 0.554902
22.979986 -34.129585 13.857301 0.777206
22.979988 -34.129597 12.223810 0.592770
22.982466 -33.816689 10.670192 0.678431
22.982466 -33.816708 9.068193 0.678431
22.982466 -33.816704 7.481677 0.678431
22.982466 -33.816704 5.907067 0.678431
22.982466 -33.816704 4.340888 0.678431
22.982466 -33.816700 2.779738 0.678431
22.979988 -34.129597 1.225382 0.693995
22.927496 -40.756233 0.000039 0.538235
22.798233 -57.074535 0.000025 0.534436
22.742737 -64.080605 0.000013 0.528922
22.711826 -67.982643 0.000004 0.539093
22.692093 -70.473824 0.000008 0.521814
22.678379 -72.205315 0.000016 0.536887
22.668274 -73.480949 0.000012 0.497181
23.310497 -34.129585 13.858244 0.571201
23.310495 -34.129589 12.224625 0.647426
23.315159 -33.816696 10.670882 0.678431
23.315159 -33.816692 9.068756 0.678431
23.315159 -33.816704 7.482114 0.678431
23.315159 -33.816704 5.907378 0.678431
23.315159 -33.816704 4.341075 0.678431
23.315159 -33.816700 2.779800 0.678431
23.310495 -34.129597 1.225320 0.781250
23.211687 -40.759476 0.000040 0.536274
22.968506 -57.076492 0.000026 0.536274
22.864098 -64.081993 0.000013 0.546569
22.805948 -67.983727 0.000005 0.518627
22.768826 -70.474709 0.000009 0.542647
22.743021 -72.206062 0.000018 0.544485
22.724010 -73.481590 0.000013 0.550245
23.644745 -33.961899 13.901781 0.191054
23.641075 -34.129597 12.225937 0.668873
23.647924 -33.816696 10.671995 0.678431
23.647924 -33.816696 9.069664 0.678431
23.647923 -33.816700 7.482819 0.678431
23.647924 -33.816696 5.907881 0.678431
23.647924 -33.816692 4.341376 0.678431
23.647924 -33.816696 2.779902 0.678431
23.641075 -34.129593 1.225220 0.769975
23.495852 -40.764713 0.000040 0.535417
23.138760 -57.079628 0.000026 0.533456
22.985449 -64.084229 0.000014 0.537255
22.900061 -67.985458 0.000006 0.547672
22.845547 -70.476128 0.000010 0.562623
22.807659 -72.207253 0.000018 0.538113
22.779743 -73.482620 0.000015 0.532843
23.979176 -33.872498 13.926292 0.678431
23.971752 -34.129593 12.227751 0.565564
23.980787 -33.816685 10.673534 0.678431
23.980787 -33.816696 9.070917 0.678431
23.980787 -33.816700 7.483791 0.678431
23.980787 -33.816696 5.908574 0.678431
23.980787 -33.816696 4.341790 0.678431
23.980787 -33.816696 2.780039 0.678431
23.971752 -34.129601 1.225083 0.590931
23.779966 -40.771957 0.000041 0.535662
23.308989 -57.083958 0.000027 0.540931
23.106779 -64.087326 0.000015 0.517034
22.994158 -67.987854 0.000007 0.515196
22.922255 -70.478157 0.000026 0.531373
22.872284 -72.208893 0.000019 0.540441
22.835466 -73.484032 0.000015 0.546569
24.311785 -33.872498 13.928988 0.678431
24.302565 -34.129589 12.230062 0.593015
24.313786 -33.816696 10.675492 0.678431
24.313786 -33.816700 9.072515 0.678431
24.313787 -33.816689 7.485031 0.678431
24.313786 -33.816696 5.909457 0.678431
24.313786 -33.816700 4.342320 0.678431
24.313786 -33.816696 2.780217 0.678431
24.302567 -34.129597 1.224908 0.540564
24.064028 -40.781174 0.000042 0.536642
23.479181 -57.089481 0.000028 0.537500
23.228086 -64.091255 0.000016 0.536887
23.088238 -67.990906 0.000008 0.544240
22.998951 -70.480637 0.000026 0.544976
22.936897 -72.210983 0.000020 0.536642
22.891178 -73.485840 0.000016 0.526716
24.644560 -33.872501 13.932266 0.666667
24.633541 -34.129585 12.232874 0.604167
24.646952 -33.816700 10.677876 0.749510
24.646952 -33.816696 9.074459 0.670588
24.646952 -33.816696 7.486538 0.635294
24.646952 -33.816696 5.910532 0.709804
24.646952 -33.816700 4.342963 0.678431
24.646952 -33.816692 2.780429 0.678431
24.633543 -34.129593 1.224695 0.594853
24.348024 -40.792175 0.000033 0.538480
23.649338 -57.096066 0.000020 0.537132
23.349365 -64.095955 0.000007 0.547059
23.182295 -67.994545 -0.000000 0.534804
23.075626 -70.483665 0.000027 0.532843
23.001493 -72.213531 0.000020 0.570956
22.946877 -73.488037 0.000017 0.498897
24.964716 -34.129597 13.871649 0.608456
24.964716 -34.129593 12.236185 0.589706
24.982042 -33.782040 10.686999 0.329412
24.980314 -33.816689 9.076751 0.678431
24.980314 -33.816689 7.488313 0.678431
24.980314 -33.816696 5.911798 0.678431
24.980314 -33.816692 4.343720 0.678431
24.980314 -33.816696 2.780683 0.678431
24.964716 -34.129601 1.224444 0.656495
24.631927 -40.805351 0.000034 0.535294
23.819439 -57.103973 0.000021 0.531373
23.470604 -64.101585 0.000008 0.537745
23.276321 -67.998917 0.000000 0.534191
23.152279 -70.487221 0.000028 0.533824
23.066071 -72.216530 0.000021 0.528186
23.002558 -73.490616 0.000017 0.514706
25.296120 -34.129593 13.876071 0.539828
25.296120 -34.129593 12.239996 0.691422
25.314960 -33.798187 10.687293 0.306373
25.313910 -33.816696 9.079386 0.678431
25.313910 -33.816689 7.490358 0.678431
25.313910 -33.816689 5.913255 0.678431
25.313910 -33.816696 4.344594 0.678431
25.313910 -33.816692 2.780973 0.678431
25.296120 -34.129597 1.224155 0.689828
24.915730 -40.820568 0.000038 0.537255
23.989475 -57.113083 0.000024 0.542647
23.591801 -64.108078 0.000012 0.536765
23.370308 -68.004059 0.000019 0.553064
23.228905 -70.491280 0.000023 0.530147
23.130629 -72.219948 0.000016 0.570833
23.058222 -73.493568 0.000012 0.561765
25.627792 -34.129593 13.881077 0.627819
25.627794 -34.129589 12.244313 0.635417
25.648449 -33.806114 10.689509 0.229779
25.647774 -33.816696 9.082370 0.678431
25.647774 -33.816696 7.492671 0.678431
25.647774 -33.816692 5.914904 0.678431
25.647774 -33.816692 4.345582 0.678431
25.647774 -33.816692 2.781303 0.678431
25.627790 -34.129601 1.223828 0.622181
25.199425 -40.837704 0.000039 0.533824
24.159451 -57.123352 0.000025 0.546078
23.712952 -64.115395 0.000012 0.540564
23.464264 -68.009735 0.000020 0.537745
23.305502 -70.495911 0.000023 0.546201
23.195158 -72.223846 0.000016 0.516544
23.113863 -73.496933 0.000013 0.528922
25.959757 -34.129597 13.886664 0.716789
25.959757 -34.129589 12.249133 0.427819
25.982040 -33.815166 10.691944 0.228799
25.981932 -33.816696 9.085701 0.678431
25.981932 -33.816696 7.495256 0.678431
25.981932 -33.816696 5.916745 0.678431
25.981932 -33.816704 4.346686 0.678431
25.981932 -33.816692 2.781669 0.678431
25.959757 -34.129585 1.223463 0.476961
25.482988 -40.856827 0.000040 0.535784
24.329348 -57.134800 0.000026 0.536397
23.834045 -64.123566 0.000014 0.520221
23.558178 -68.016068 0.000021 0.545466
23.382063 -70.501076 0.000024 0.540564
23.259659 -72.228195 0.000017 0.521691
23.169476 -73.500679 0.000014 0.583824
26.312078 -33.872498 13.957435 0.678431
26.292051 -34.129597 12.254456 0.450123
26.315748 -33.825363 10.694600 0.136642
26.316425 -33.816700 9.089380 0.678431
26.316425 -33.816696 7.498110 0.678431
26.316425 -33.816696 5.918779 0.678431
26.316425 -33.816704 4.347906 0.678431
26.316425 -33.816696 2.782077 0.678431
26.292051 -34.129597 1.223060 0.644363
25.766417 -40.877922 0.000040 0.533824
24.499161 -57.147442 0.000026 0.552941
23.955082 -64.132576 0.000014 0.539828
23.652046 -68.023056 0.000022 0.529657
23.458586 -70.506767 0.000024 0.533333
23.324129 -72.232994 0.000018 0.525858
23.225065 -73.504814 0.000015 0.521691
26.646536 -33.872505 13.964231 0.678431
26.624702 -34.129593 12.260285 0.453799
26.649574 -33.836712 10.697469 0.199265
26.651276 -33.816692 9.093410 0.678431
26.651276 -33.816689 7.501236 0.678431
26.651276 -33.816700 5.921007 0.678431
26.651276 -33.816696 4.349239 0.678431
26.651276 -33.816692 2.782520 0.678431
26.624702 -34.129589 1.222618 0.704534
26.049683 -40.901001 0.000041 0.533333
24.668880 -57.161266 0.000028 0.534559
24.076050 -64.142426 0.000015 0.549142
23.745861 -68.030701 0.000023 0.552941
23.535067 -70.512993 0.000026 0.540441
23.388561 -72.238251 0.000019 0.526471
23.280622 -73.509346 0.000015 0.528064
26.981400 -33.872494 13.971622 0.678431
26.957756 -34.129585 12.266623 0.756250
26.974197 -33.950790 10.681994 0.160784
26.974197 -33.950794 9.077814 0.160784
26.974197 -33.950790 7.489141 0.160784
26.974197 -33.950794 5.912386 0.160784
26.974197 -33.950794 4.344075 0.160784
26.974197 -33.950790 2.780801 0.160784
26.957756 -34.129597 1.222138 0.819608
26.332790 -40.926029 0.000042 0.537377
24.838501 -57.176285 0.000028 0.531250
24.196934 -64.153275 0.000033 0.537010
23.839624 -68.038994 0.000024 0.555392
23.611504 -70.519760 0.000027 0.531127
23.452957 -72.243935 0.000019 0.516054
23.336145 -73.514252 0.000016 0.549877
27.307835 -33.961891 13.957101 0.271691
27.291233 -34.129597 12.273466 0.769363
27.317635 -33.862904 10.703854 0.170221
27.322210 -33.816692 9.102523 0.678431
27.322210 -33.816689 7.508303 0.678431
27.322210 -33.816692 5.926044 0.678431
27.322210 -33.816692 4.352259 0.678431
27.322208 -33.816696 2.783526 0.678431
27.291231 -34.129601 1.221620 0.734926
26.615709 -40.953075 0.000043 0.534804
25.008013 -57.192482 0.000029 0.535784
24.317753 -64.164818 0.000034 0.541912
23.933323 -68.047943 0.000025 0.552819
23.687893 -70.527054 0.000027 0.531863
23.517311 -72.250092 0.000020 0.547794
23.391636 -73.519554 0.000017 0.550245
27.625174 -34.129589 13.923423 0.483456
27.625174 -34.129593 12.280825 0.556985
27.651880 -33.877777 10.707363 0.160784
27.658360 -33.816692 9.107611 0.678431
27.658360 -33.816689 7.512247 0.678431
27.658358 -33.816700 5.928855 0.678431
27.658360 -33.816689 4.353943 0.678431
27.658358 -33.816696 2.784087 0.678431
27.625174 -34.129593 1.221062 0.566667
26.898455 -40.981911 0.000035 0.537377
25.177420 -57.209743 0.000021 0.533701
24.438488 -64.177200 0.000035 0.541789
24.026960 -68.057549 0.000025 0.531495
23.764227 -70.534889 0.000027 0.563235
23.581621 -72.256683 0.000020 0.533211
23.447084 -73.525246 0.000017 0.531618
27.959606 -34.129585 13.932547 0.662623
27.959606 -34.129589 12.288694 0.545956
27.979832 -33.950790 10.700659 0.160784
27.979832 -33.950794 9.093033 0.160784
27.979830 -33.950802 7.500942 0.160784
27.979830 -33.950798 5.920796 0.160784
27.979832 -33.950794 4.349113 0.160784
27.979832 -33.950794 2.782479 0.160784
27.959604 -34.129601 1.220465 0.675735
27.180969 -41.012875 0.000035 0.534314
25.346685 -57.228298 0.000021 0.542279
24.559134 -64.190430 0.000036 0.535662
24.120525 -68.067810 0.000026 0.532966
23.840504 -70.543251 0.000028 0.532475
23.645884 -72.263733 0.000021 0.524020
23.502493 -73.531319 0.000018 0.551961
28.294571 -34.129597 13.942266 0.597917
28.294571 -34.129593 12.297074 0.444118
28.320833 -33.911102 10.715020 0.160784
28.332180 -33.816692 9.118845 0.678431
28.332180 -33.816700 7.520961 0.678431
28.332180 -33.816692 5.935065 0.678431
28.332180 -33.816700 4.357663 0.678431
28.332180 -33.816704 2.785326 0.678431
28.294571 -34.129601 1.219830 0.790686
27.463266 -41.045826 0.000036 0.536397
25.515781 -57.248390 0.000051 0.542525
24.679684 -64.204498 0.000036 0.542892
24.214020 -68.078712 0.000026 0.557476
23.916723 -70.552147 0.000029 0.538113
23.710096 -72.271225 0.000021 0.534069
23.557861 -73.537781 0.000019 0.546446
28.651440 -33.961903 13.994932 0.112010
28.630096 -34.129589 12.305974 0.755024
28.655550 -33.929615 10.719157 0.157230
28.669922 -33.816692 9.124997 0.678431
28.669922 -33.816692 7.525732 0.678431
28.669922 -33.816692 5.938467 0.678431
28.669924 -33.816689 4.359702 0.678431
28.669922 -33.816696 2.786006 0.678431
28.630096 -34.129601 1.219157 0.812010
27.745323 -41.080742 0.000037 0.534804
25.684771 -57.269325 0.000053 0.535294
24.800135 -64.219406 0.000037 0.542402
24.307432 -68.090286 0.000028 0.515196
23.992874 -70.561577 0.000031 0.533701
23.774254 -72.279167 0.000023 0.534314
23.613180 -73.544632 0.000020 0.558578
29.000771 -33.872494 14.028490 0.678431
28.966219 -34.129597 12.315391 0.833824
28.990444 -33.949329 10.723505 0.148529
29.008270 -33.816692 9.131509 0.678431
29.008270 -33.816700 7.530780 0.678431
29.008270 -33.816696 5.942065 0.678431
29.008270 -33.816696 4.361858 0.678431
29.008270 -33.816696 2.786724 0.678431
28.966219 -34.129601 1.218443 0.799877
28.027130 -41.117641 0.000039 0.532966
25.853630 -57.291298 0.000043 0.549020
24.920486 -64.235085 0.000028 0.535907
24.400772 -68.102432 0.000019 0.537132
24.068970 -70.571487 0.000021 0.525368
23.838360 -72.287506 0.000014 0.570221
23.668455 -73.551819 0.000010 0.514706
29.339354 -33.872490 14.040077 0.678431
29.302975 -34.129589 12.325331 0.508578
29.325514 -33.970310 10.728054 0.160784
29.347248 -33.816692 9.138380 0.678431
29.347248 -33.816696 7.536112 0.678431
29.347252 -33.816689 5.945865 0.678431
29.347248 -33.816696 4.364134 0.678431
29.347248 -33.816692 2.787482 0.678431
29.302973 -34.129601 1.217690 0.550368
28.308668 -41.156513 0.000040 0.535784
26.022310 -57.314587 0.000045 0.541544
25.040718 -64.251678 0.000029 0.537500
24.494017 -68.115303 0.000020 0.543750
24.144983 -70.581978 0.000022 0.490809
23.902399 -72.296364 0.000016 0.539338
23.723673 -73.559448 0.000012 0.537623
29.678606 -33.872486 14.052279 0.673529
29.640392 -34.129593 12.335790 0.569118
29.660763 -33.992538 10.732809 0.147426
29.686897 -33.816700 9.145612 0.678431
29.686899 -33.816692 7.541720 0.678431
29.686897 -33.816700 5.949862 0.678431
29.686897 -33.816696 4.366528 0.678431
29.686897 -33.816700 2.788279 0.678431
29.640392 -34.129604 1.216898 0.641299
28.589844 -41.197914 0.000070 0.534436
26.190826 -57.339043 0.000046 0.525245
25.160828 -64.269104 0.000031 0.534804
24.587166 -68.128830 0.000022 0.534926
24.220922 -70.592995 0.000024 0.515441
23.966375 -72.305649 0.000018 0.526226
23.778837 -73.567459 0.000013 0.530025
29.978516 -34.129585 13.999916 0.601103
29.978514 -34.129589 12.346778 0.599020
30.004356 -33.963696 10.747406 0.211029
30.027254 -33.816696 9.153209 0.678431
30.027254 -33.816696 7.547611 0.678431
30.027254 -33.816692 5.954061 0.678431
30.027254 -33.816692 4.369044 0.678431
30.027254 -33.816689 2.789117 0.678431
29.978514 -34.129593 1.216064 0.787132
28.870819 -41.240662 0.000069 0.534926
26.359169 -57.364666 0.000046 0.537010
25.280811 -64.287392 0.000033 0.537377
24.680222 -68.142990 0.000021 0.557966
24.296783 -70.604546 0.000024 0.529534
24.030287 -72.315376 0.000018 0.551103
23.833942 -73.575844 0.000014 0.534681
30.317371 -34.129593 14.013271 0.553922
30.317371 -34.129593 12.358294 0.639093
30.344398 -33.963692 10.757141 0.198039
30.346500 -33.950806 9.141016 0.160784
30.346500 -33.950806 7.538154 0.160784
30.346500 -33.950798 5.947322 0.172549
30.346502 -33.950794 4.365005 0.160784
30.346500 -33.950794 2.787771 0.160784
30.317371 -34.129593 1.215192 0.844608
29.151476 -41.285419 0.000071 0.534804
26.527325 -57.391499 0.000049 0.532475
25.400667 -64.306496 0.000034 0.539828
24.773174 -68.157814 0.000023 0.545588
24.372562 -70.616623 0.000025 0.522549
24.094128 -72.325554 0.000019 0.562623
23.888988 -73.584618 0.000015 0.533701
30.656998 -34.129589 14.027246 0.611642
30.656998 -34.129597 12.370342 0.485662
30.685219 -33.963692 10.767327 0.257108
30.710228 -33.816681 9.169502 0.678431
30.710224 -33.816696 7.560246 0.678431
30.710226 -33.816692 5.963068 0.678431
30.710224 -33.816700 4.374439 0.678431
30.710226 -33.816692 2.790915 0.678431
30.657000 -34.129585 1.214279 0.819853
29.431824 -41.332088 0.000071 0.537132
26.695293 -57.419468 0.000049 0.537745
25.520388 -64.326431 0.000034 0.532843
24.866024 -68.173271 0.000023 0.546078
24.448257 -70.629227 0.000025 0.547426
24.157898 -72.336166 0.000019 0.520833
23.943974 -73.593773 0.000015 0.560172
30.997429 -34.129593 14.041838 0.476716
30.997429 -34.129593 12.382927 0.680392
31.026844 -33.963699 10.777966 0.240564
31.029133 -33.950787 9.157999 0.160784
31.029133 -33.950783 7.551327 0.160784
31.029133 -33.950787 5.956709 0.160784
31.029131 -33.950787 4.370630 0.160784
31.029131 -33.950790 2.789645 0.160784
30.997431 -34.129585 1.213326 0.547917
29.711823 -41.380775 0.000073 0.535049
26.863056 -57.448627 0.000050 0.531985
25.639961 -64.347221 0.000036 0.539828
24.958757 -68.189400 0.000024 0.548162
24.523857 -70.642365 0.000027 0.497059
24.221590 -72.347244 0.000021 0.529657
23.998892 -73.603317 0.000016 0.514951
31.386150 -33.872490 14.122543 0.678431
31.338713 -34.129597 12.396049 0.602206
31.369320 -33.963699 10.789058 0.249755
31.396446 -33.816689 9.187271 0.678431
31.396446 -33.816689 7.574028 0.678431
31.396446 -33.816692 5.972889 0.678431
31.396442 -33.816700 4.380326 0.678431
31.396444 -33.816692 2.792875 0.678431
31.338713 -34.129597 1.212331 0.570833
29.991493 -41.431358 0.000072 0.541912
27.030619 -57.478935 0.000050 0.535417
25.759394 -64.368820 0.000036 0.529167
25.051384 -68.206146 0.000024 0.540564
24.599365 -70.656029 0.000027 0.533578
24.285204 -72.358742 0.000020 0.525000
24.053743 -73.613243 0.000016 0.511642
31.730171 -33.872490 14.138475 0.678431
31.680876 -34.129589 12.409712 0.636520
31.712681 -33.963696 10.800609 0.271569
31.740870 -33.816685 9.196717 0.678431
31.740870 -33.816681 7.581355 0.678431
31.740868 -33.816689 5.978111 0.678431
31.740868 -33.816689 4.383453 0.678431
31.740868 -33.816692 2.793918 0.678431
31.680876 -34.129593 1.211296 0.787500
30.270794 -41.483929 0.000074 0.536520
27.197962 -57.510433 0.000051 0.549877
25.878666 -64.391281 0.000037 0.542525
25.143887 -68.223557 0.000026 0.531373
24.674776 -70.670219 0.000028 0.578309
24.348736 -72.370705 0.000022 0.549632
24.108522 -73.623550 0.000018 0.525735
32.075108 -33.872490 14.155043 0.678431
32.023949 -34.129593 12.423919 0.749020
32.023949 -34.129593 10.781841 0.540931
32.086208 -33.816700 9.206537 0.678431
32.086208 -33.816700 7.588970 0.678431
32.086212 -33.816692 5.983541 0.678431
32.086208 -33.816696 4.386707 0.678431
32.086208 -33.816700 2.795000 0.678431
32.023949 -34.129593 1.210220 0.850000
30.549725 -41.538406 0.000073 0.534559
27.365086 -57.543072 0.000051 0.534926
25.997784 -64.414536 0.000037 0.541422
25.236267 -68.241608 0.000025 0.525490
24.750092 -70.684929 0.000026 0.541544
24.412184 -72.383095 0.000021 0.498774
24.163229 -73.634239 0.000017 0.550245
32.367985 -34.129574 14.106495 0.603922
32.367981 -34.129593 12.438674 0.679534
32.367981 -34.129589 10.794271 0.677819
32.432514 -33.816700 9.216738 0.678431
32.432518 -33.816689 7.596881 0.678431
32.432518 -33.816689 5.989179 0.678431
32.432518 -33.816692 4.390084 0.678431
32.432518 -33.816696 2.796125 0.678431
32.367981 -34.129593 1.209102 0.824142
30.828266 -41.594879 0.000075 0.533701
27.531971 -57.576897 0.000052 0.540809
26.116734 -64.438652 0.000038 0.548284
25.328518 -68.260300 0.000027 0.531127
24.825296 -70.700180 0.000028 0.544976
24.475544 -72.395943 0.000023 0.525000
24.217859 -73.645309 0.000018 0.559559
32.713013 -34.129578 14.124246 0.542157
32.713009 -34.129597 12.453982 0.567279
32.713009 -34.129597 10.807169 0.818260
32.779827 -33.816685 9.227323 0.678431
32.779827 -33.816685 7.605090 0.524632
32.779823 -33.816689 5.995028 0.591422
32.779827 -33.816685 4.393589 0.546078
32.779827 -33.816689 2.797293 0.586275
32.713009 -34.129597 1.207943 0.539951
31.106415 -41.653252 0.000075 0.535539
27.698624 -57.611881 0.000052 0.540196
26.235518 -64.463585 0.000038 0.527696
25.420641 -68.279633 0.000026 0.545466
24.900394 -70.715935 0.000028 0.522304
24.538811 -72.409225 0.000025 0.510539
24.272421 -73.656731 0.000009 0.499632
33.059059 -34.129581 14.142643 0.509804
33.059059 -34.129589 12.469845 0.638726
33.059059 -34.129593 10.820532 0.784681
33.128162 -33.816692 9.238289 0.678431
33.128162 -33.816700 7.613595 0.678431
33.128162 -33.816700 6.001091 0.678431
33.128162 -33.816689 4.397222 0.678431
33.128162 -33.816696 2.798504 0.678431
33.059059 -34.129589 1.206740 0.574755
31.384171 -41.713425 0.000067 0.533088
27.865042 -57.647926 0.000045 0.532353
26.354134 -64.489281 0.000030 0.529289
25.512630 -68.299568 0.000019 0.541176
24.975388 -70.732185 0.000021 0.503799
24.601990 -72.422913 0.000017 0.531985
24.326897 -73.668526 0.000002 0.539583
33.406189 -34.129585 14.161693 0.606373
33.406189 -34.129597 12.486266 0.694240
33.406185 -34.129604 10.834368 0.578554
33.477589 -33.816689 9.249643 0.678431
33.477589 -33.816689 7.622402 0.678431
33.477585 -33.816696 6.007367 0.678431
33.477585 -33.816696 4.400982 0.678431
33.477589 -33.816689 2.799756 0.678431
33.406189 -34.129589 1.205496 0.793137
31.661472 -41.775711 0.000069 0.537623
28.031185 -57.685257 0.000046 0.539216
26.472551 -64.515877 0.000032 0.532353
25.604469 -68.320206 0.000022 0.525613
25.050259 -70.749001 0.000023 0.545833
24.665066 -72.437088 0.000019 0.521446
24.381285 -73.680748 0.000004 0.528186
33.814976 -33.872494 14.247555 0.678431
33.754421 -34.129585 12.503257 0.700123
33.754417 -34.129593 10.848681 0.523775
33.828121 -33.816685 9.261390 0.678431
33.828117 -33.816692 7.631508 0.678431
33.828121 -33.816689 6.013859 0.678431
33.828121 -33.816692 4.404872 0.678431
33.828121 -33.816692 2.801050 0.678431
33.754417 -34.129593 1.204209 0.846691
31.938326 -41.839943 0.000070 0.532966
28.197062 -57.723732 0.000048 0.541544
26.590782 -64.543297 0.000033 0.525980
25.696163 -68.341476 0.000023 0.546201
25.125010 -70.766342 0.000024 0.517157
24.728043 -72.451698 0.000020 0.546324
24.435585 -73.693344 0.000005 0.542034
34.166248 -33.872490 14.268027 0.678431
34.103794 -34.129589 12.520811 0.530882
34.103790 -34.129601 10.863470 0.565564
34.179802 -33.816689 9.273526 0.678431
34.179802 -33.816689 7.640924 0.678431
34.179802 -33.816692 6.020568 0.678431
34.179802 -33.816689 4.408892 0.678431
34.179802 -33.816692 2.802391 0.678431
34.103794 -34.129585 1.202878 0.825980
32.214722 -41.906094 0.000072 0.534681
28.362667 -57.763359 0.000049 0.535907
26.708817 -64.571556 0.000034 0.528922
25.787701 -68.363388 0.000025 0.543137
25.199636 -70.784203 0.000026 0.540931
24.790913 -72.466743 0.000022 0.547181
24.489796 -73.706314 0.000007 0.523775
34.518719 -33.872486 14.289166 0.678431
34.454361 -34.129589 12.538942 0.564338
34.454361 -34.129589 10.878747 0.477696
34.499115 -33.950798 9.265551 0.160784
34.499115 -33.950794 7.634738 0.160784
34.499115 -33.950794 6.016162 0.160784
34.499115 -33.950794 4.406252 0.160784
34.499115 -33.950798 2.801510 0.160784
34.454357 -34.129593 1.201505 0.526471
32.490650 -41.974178 0.000074 0.534314
28.527988 -57.804161 0.000051 0.537377
26.826649 -64.600632 0.000037 0.534191
25.879087 -68.385941 0.000027 0.531985
25.274137 -70.802589 0.000027 0.566544
24.853678 -72.482231 0.000024 0.549632
24.543913 -73.719673 0.000008 0.526226
34.849380 -33.961887 14.287855 0.291912
34.806156 -34.129589 12.557652 0.726838
34.806152 -34.129593 10.894506 0.798284
34.886810 -33.816685 9.298993 0.678431
34.886806 -33.816689 7.660673 0.678431
34.886806 -33.816685 6.034647 0.678431
34.886806 -33.816696 4.417326 0.678431
34.886806 -33.816689 2.805200 0.678431
34.806156 -34.129589 1.200088 0.598897
32.766109 -42.044155 0.000073 0.535539
28.693031 -57.846073 0.000050 0.538725
26.944286 -64.630508 0.000036 0.534069
25.970318 -68.409111 0.000027 0.547426
25.348507 -70.821487 0.000029 0.528064
24.916336 -72.498146 0.000024 0.536642
24.597939 -73.733398 0.000010 0.535539
35.159210 -34.129585 14.266850 0.652328
35.159210 -34.129597 12.576941 0.593750
35.159210 -34.129589 10.910758 0.689706
35.242195 -33.816692 9.312330 0.678431
35.242195 -33.816692 7.671015 0.678431
35.242195 -33.816692 6.042019 0.678431
35.242195 -33.816689 4.421743 0.678431
35.242199 -33.816685 2.806671 0.678431
35.159210 -34.129593 1.198626 0.799142
33.041061 -42.116058 0.000074 0.536642
28.857765 -57.889168 0.000051 0.530270
27.061701 -64.661224 0.000037 0.544608
26.061378 -68.432930 0.000028 0.541912
25.422745 -70.840904 0.000029 0.531740
24.978891 -72.514458 0.000012 0.572426
24.651865 -73.747505 0.000011 0.548284
35.513588 -34.129585 14.289907 0.589583
35.513584 -34.129593 12.596819 0.622794
35.513580 -34.129593 10.927506 0.536029
35.598911 -33.816692 9.326072 0.678431
35.598915 -33.816685 7.681676 0.678431
35.598911 -33.816696 6.049614 0.678431
35.598911 -33.816700 4.426293 0.678431
35.598911 -33.816696 2.808187 0.678431
35.513580 -34.129601 1.197120 0.835417
33.315517 -42.189865 0.000074 0.534559
29.022203 -57.933392 0.000051 0.529412
27.178907 -64.692741 0.000036 0.534804
26.152279 -68.457375 0.000027 0.527819
25.496847 -70.860832 0.000030 0.526226
25.041323 -72.531235 0.000012 0.505760
24.705692 -73.761986 0.000011 0.534314
35.869312 -34.129585 14.313645 0.589706
35.869308 -34.129589 12.617290 0.623407
35.869308 -34.129601 10.944750 0.683824
35.956993 -33.816689 9.340227 0.678431
35.956993 -33.816689 7.692652 0.678431
35.956993 -33.816689 6.057438 0.678431
35.956989 -33.816696 4.430983 0.678431
35.956993 -33.816685 2.809748 0.678431
35.869308 -34.129593 1.195569 0.810539
33.589443 -42.265633 0.000075 0.533088
29.186327 -57.978783 0.000052 0.529167
27.295885 -64.725098 0.000039 0.535049
26.242998 -68.482468 0.000030 0.532721
25.570807 -70.881287 0.000031 0.524142
25.103630 -72.548470 0.000014 0.542892
24.759418 -73.776840 0.000013 0.499755
36.300415 -33.872478 14.405099 0.678431
36.226429 -34.129585 12.638363 0.667647
36.226425 -34.129597 10.962502 0.650245
36.316467 -33.816692 9.354792 0.678431
36.316467 -33.816685 7.703949 0.678431
36.316467 -33.816692 6.065491 0.678431
36.316467 -33.816692 4.435807 0.678431
36.316467 -33.816692 2.811356 0.678431
36.226425 -34.129597 1.193972 0.560172
33.862865 -42.343170 0.000070 0.538113
29.350147 -58.025238 0.000047 0.538848
27.412651 -64.758202 0.000033 0.527328
26.333555 -68.508148 0.000024 0.548897
25.644629 -70.902229 0.000026 0.534559
25.165825 -72.566116 0.000009 0.556373
24.813046 -73.792046 0.000007 0.526838
36.660912 -33.872486 14.430374 0.678431
36.584984 -34.129585 12.660039 0.687868
36.584984 -34.129589 10.980766 0.691789
36.677395 -33.816689 9.369779 0.678431
36.677391 -33.816692 7.715569 0.678431
36.677395 -33.816685 6.073774 0.678431
36.677395 -33.816681 4.440771 0.678431
36.677395 -33.816692 2.813009 0.678431
36.584980 -34.129601 1.192330 0.669485
34.135715 -42.422699 0.000069 0.534926
29.513647 -58.072823 0.000040 0.531985
27.529169 -64.792168 0.000032 0.528186
26.423918 -68.534508 0.000026 0.548407
25.718298 -70.923698 0.000025 0.538725
25.227888 -72.584206 0.000008 0.542525
24.866558 -73.807648 0.000007 0.568750
37.022903 -33.872486 14.456359 0.678431
36.945015 -34.129581 12.682326 0.660907
36.945011 -34.129593 10.999538 0.473407
37.039803 -33.816696 9.385185 0.678431
37.039803 -33.816692 7.727519 0.678431
37.039803 -33.816696 6.082291 0.678431
37.039806 -33.816685 4.445872 0.678431
37.039806 -33.816689 2.814708 0.678431
36.945015 -34.129589 1.190641 0.722672
34.407990 -42.504181 0.000071 0.538971
29.676781 -58.121635 0.000041 0.530270
27.645441 -64.826965 0.000034 0.530025
26.514091 -68.561493 0.000027 0.543260
25.791840 -70.945602 0.000008 0.542525
25.289820 -72.602745 0.000012 0.502941
24.919960 -73.823631 0.000008 0.539093
37.345444 -34.004478 14.448445 0.554902
37.306583 -34.129589 12.705224 0.445956
37.306583 -34.129589 11.018835 0.757721
37.403767 -33.816689 9.401019 0.678431
37.403763 -33.816696 7.739799 0.678431
37.403767 -33.816685 6.091043 0.678431
37.403767 -33.816689 4.451115 0.678431
37.403763 -33.816696 2.816455 0.678431
37.306583 -34.129597 1.188906 0.796446
34.679707 -42.587513 0.000070 0.537255
29.839579 -58.171566 0.000041 0.536642
27.761478 -64.862556 0.000033 0.529412
26.604084 -68.589088 0.000026 0.534559
25.865206 -70.968102 0.000008 0.507230
25.351625 -72.621704 0.000011 0.518137
24.973253 -73.839973 0.000007 0.560539
37.669712 -34.129601 14.442910 0.471078
37.669716 -34.129585 12.728750 0.571691
37.669716 -34.129585 11.038652 0.717402
37.726616 -33.950790 9.396407 0.160784
37.726616 -33.950794 7.736221 0.160784
37.726620 -33.950787 6.088494 0.160784
37.726620 -33.950783 4.449588 0.160784
37.726616 -33.950794 2.815946 0.160784
37.669716 -34.129585 1.187124 0.590074
34.950798 -42.672840 0.000074 0.537500
30.002007 -58.222675 0.000044 0.532353
27.877251 -64.898987 0.000036 0.541054
26.693869 -68.617348 0.000030 0.545098
25.938400 -70.991135 0.000011 0.540441
25.413290 -72.641113 0.000015 0.528309
25.026421 -73.856712 0.000013 0.542525
38.034466 -34.129597 14.470922 0.629902
38.034470 -34.129589 12.752903 0.493015
38.034466 -34.129601 11.058999 0.611152
38.136463 -33.816685 9.433982 0.678431
38.136459 -33.816689 7.765361 0.678431
38.136459 -33.816692 6.109263 0.678431
38.136459 -33.816692 4.462032 0.678431
38.136459 -33.816696 2.820091 0.678431
38.034470 -34.129589 1.185294 0.506985
35.221367 -42.759827 0.000067 0.531495
30.164114 -58.274811 0.000038 0.536765
27.992792 -64.936150 0.000030 0.527206
26.783478 -68.646164 0.000023 0.525245
26.011452 -71.014633 0.000005 0.564093
25.474834 -72.660904 0.000008 0.549265
25.079485 -73.873787 0.000007 0.531618
38.400879 -34.129597 14.499672 0.645833
38.400879 -34.129593 12.777689 0.420221
38.400879 -34.129597 11.079885 0.603431
38.505295 -33.816689 9.451118 0.678431
38.505295 -33.816689 7.778652 0.678431
38.505295 -33.816692 6.118736 0.678431
38.505299 -33.816689 4.467708 0.678431
38.505295 -33.816689 2.821981 0.678431
38.400887 -34.129589 1.183416 0.683088
35.491276 -42.848816 0.000066 0.535417
30.325830 -58.328133 0.000037 0.528799
28.108049 -64.974167 0.000031 0.541299
26.872869 -68.675629 0.000022 0.522059
26.084330 -71.038658 0.000004 0.521691
25.536226 -72.681160 0.000009 0.533211
25.132423 -73.891235 0.000005 0.564583
38.856800 -33.872490 14.597218 0.678431
38.769005 -34.129597 12.803122 0.471201
38.769009 -34.129585 11.101309 0.538235
38.875854 -33.816689 9.468699 0.678431
38.875854 -33.816689 7.792288 0.678431
38.875858 -33.816685 6.128454 0.678431
38.875854 -33.816696 4.473530 0.678431
38.875854 -33.816696 2.823921 0.678431
38.769009 -34.129593 1.181489 0.808088
35.760536 -42.939774 0.000068 0.533824
30.487162 -58.382618 0.000038 0.538603
28.223038 -65.013000 0.000033 0.555147
26.962076 -68.705673 0.000010 0.553554
26.157032 -71.063210 0.000005 0.528676
25.597477 -72.701843 0.000011 0.510417
25.185234 -73.909073 0.000007 0.509436
39.228699 -33.872482 14.627630 0.678431
39.138893 -34.129585 12.829204 0.612623
39.138889 -34.129601 11.123280 0.455392
39.248188 -33.816681 9.486729 0.678431
39.248184 -33.816689 7.806270 0.678431
39.248184 -33.816689 6.138421 0.678431
39.248188 -33.816681 4.479502 0.678431
39.248188 -33.816689 2.825911 0.678431
39.138893 -34.129585 1.179513 0.583211
36.029156 -43.032589 0.000070 0.539093
30.648098 -58.438251 0.000042 0.537010
28.337748 -65.052650 0.000036 0.529044
27.051039 -68.736420 0.000014 0.575490
26.229557 -71.088280 0.000009 0.563603
25.658575 -72.722961 0.000015 0.540441
25.237915 -73.927292 0.000013 0.556373
39.602409 -33.872490 14.658807 0.667770
39.510590 -34.129593 12.855938 0.665686
39.510586 -34.129601 11.145804 0.685172
39.622337 -33.816689 9.505212 0.678431
39.622337 -33.816689 7.820605 0.678431
39.622337 -33.816689 6.148638 0.678431
39.622337 -33.816692 4.485623 0.678431
39.622337 -33.816692 2.827950 0.678431
39.510586 -34.129601 1.177487 0.525490
36.297134 -43.127239 0.000069 0.534069
30.808664 -58.494946 0.000041 0.540809
28.452194 -65.093056 0.000034 0.542525
27.139797 -68.767761 0.000013 0.533088
26.301914 -71.113831 0.000007 0.541544
25.719534 -72.744492 0.000014 0.549142
25.290474 -73.945854 0.000012 0.530147
39.884140 -34.129593 14.622201 0.707843
39.884132 -34.129604 12.883335 0.608211
39.884140 -34.129593 11.168890 0.543873
39.998356 -33.816696 9.524157 0.678431
39.998356 -33.816692 7.835297 0.678431
39.998360 -33.816689 6.159109 0.678431
39.998356 -33.816689 4.491898 0.678431
39.998356 -33.816692 2.830040 0.678431
39.884136 -34.129593 1.175412 0.620466
36.564438 -43.223785 0.000071 0.537255
30.968815 -58.552803 0.000043 0.538358
28.566341 -65.134293 0.000036 0.546936
27.228323 -68.799744 0.000015 0.523162
26.374084 -71.139900 0.000010 0.547917
25.780338 -72.766449 0.000015 0.568015
25.342899 -73.964790 0.000014 0.516422
40.259605 -34.129585 14.654760 0.622304
40.259605 -34.129585 12.911411 0.573652
40.259605 -34.129593 11.192540 0.666054
40.376312 -33.816681 9.543567 0.678431
40.376305 -33.816689 7.850349 0.678431
40.376312 -33.816685 6.169837 0.678431
40.376305 -33.816696 4.498324 0.678431
40.376305 -33.816692 2.832180 0.678431
40.259605 -34.129593 1.173285 0.645466
36.831108 -43.322083 0.000066 0.535907
31.128592 -58.611691 0.000037 0.536520
28.680222 -65.176270 0.000031 0.530760
27.316645 -68.832298 0.000010 0.541422
26.446085 -71.166443 0.000005 0.537010
25.840998 -72.788811 0.000010 0.537745
25.395205 -73.984062 0.000008 0.498162
40.637020 -34.129589 14.688104 0.498897
40.637028 -34.129578 12.940166 0.572672
40.637020 -34.129593 11.216763 0.790564
40.756218 -33.816689 9.563444 0.678431
40.756218 -33.816685 7.865765 0.678431
40.756218 -33.816689 6.180825 0.678431
40.756218 -33.816685 4.504910 0.678431
40.756218 -33.816685 2.834374 0.678431
40.637020 -34.129593 1.171106 0.674020
37.097057 -43.422295 0.000064 0.534804
31.287937 -58.671730 0.000036 0.526103
28.793793 -65.219070 0.000030 0.550000
27.404724 -68.865494 0.000009 0.533088
26.517887 -71.193512 0.000005 0.554044
25.901489 -72.811607 0.000009 0.570466
25.447365 -74.003723 0.000007 0.527328
41.016460 -34.129585 14.722252 0.605515
41.016460 -34.129585 12.969605 0.613113
41.016457 -34.129593 11.241567 0.731373
41.138165 -33.816685 9.583796 0.678431
41.138161 -33.816689 7.881549 0.678431
41.138165 -33.816685 6.192076 0.678431
41.138161 -33.816689 4.511649 0.678431
41.138165 -33.816685 2.836618 0.678431
41.016464 -34.129585 1.168875 0.593015
37.362267 -43.524452 0.000068 0.539828
31.446838 -58.732937 0.000038 0.529779
28.907085 -65.262596 0.000022 0.538235
27.492552 -68.899345 0.000015 0.541667
26.589491 -71.221092 0.000009 0.557476
25.961815 -72.834846 0.000013 0.560784
25.499382 -74.023758 0.000010 0.583946
41.397968 -34.129589 14.757203 0.456127
41.397968 -34.129585 12.999743 0.737868
41.397968 -34.129585 11.266954 0.385049
41.522194 -33.816692 9.604631 0.678431
41.522194 -33.816692 7.897708 0.678431
41.522194 -33.816692 6.203592 0.678431
41.522194 -33.816685 4.518551 0.678431
41.522194 -33.816692 2.838917 0.678431
41.397968 -34.129585 1.166593 0.363848
37.626770 -43.628448 0.000069 0.536274
31.605316 -58.795238 0.000041 0.535172
29.020039 -65.307014 0.000024 0.533211
27.580156 -68.933784 0.000016 0.531005
26.660910 -71.249176 0.000010 0.538235
26.021980 -72.858505 0.000016 0.540441
25.551254 -74.044167 0.000015 0.541667
41.781586 -34.129585 14.792973 0.422181
41.781590 -34.129581 13.030584 0.567279
41.781586 -34.129589 11.292939 0.530392
41.908348 -33.816689 9.625954 0.678431
41.908348 -33.816696 7.914245 0.678431
41.908348 -33.816692 6.215380 0.678431
41.908348 -33.816692 4.525610 0.678431
41.908348 -33.816689 2.841270 0.678431
41.781590 -34.129585 1.164256 0.599142
37.890533 -43.734283 0.000072 0.536029
31.763346 -58.858662 0.000044 0.528922
29.132675 -65.352219 0.000027 0.517770
27.667511 -68.968834 0.000020 0.557966
26.732122 -71.277756 0.000014 0.554044
26.081974 -72.882584 0.000020 0.535907
25.602985 -74.064926 0.000018 0.562868
42.167389 -34.129585 14.829567 0.472426
42.167393 -34.129578 13.062140 0.540564
42.167385 -34.129593 11.319522 0.555515
42.296700 -33.816692 9.647770 0.678431
42.296700 -33.816692 7.931165 0.678431
42.296700 -33.816692 6.227440 0.678431
42.296700 -33.816704 4.532835 0.678431
42.296700 -33.816692 2.843677 0.678431
42.167389 -34.129585 1.161865 0.597917
38.153645 -43.841736 0.000062 0.532966
31.920994 -58.923031 0.000034 0.524020
29.245041 -65.398102 0.000017 0.534191
27.754654 -69.004425 0.000010 0.532108
26.803160 -71.306778 0.000007 0.565809
26.141823 -72.907028 0.000010 0.551225
25.654591 -74.085999 0.000008 0.530637
42.555420 -34.129581 14.867005 0.458701
42.555420 -34.129574 13.094422 0.614338
42.555416 -34.129593 11.346718 0.431373
nan nan nan 0.000000
nan nan nan 0.000000
nan nan nan 0.000000
nan nan nan 0.000000
nan nan nan 0.000000
42.555416 -34.129593 1.159419 0.565686
38.415901 -43.951248 0.000065 0.539706
32.078117 -58.988663 0.000037 0.533946
29.357033 -65.444870 0.000021 0.536887
27.841503 -69.040718 0.000016 0.526838
26.873968 -71.336349 0.000010 0.542402
26.201488 -72.931915 0.000007 0.505760
25.706026 -74.107475 0.000010 0.529657
nan nan nan 0.000000
nan nan nan 0.000000
nan nan nan 0.000000
nan nan nan 0.000000
nan nan nan 0.000000
nan nan nan 0.000000
nan nan nan 0.000000
61.653656 9.406195 3.618490 0.302574
61.742676 9.613358 0.377822 0.286520
38.677391 -44.062592 0.000067 0.532230
32.234795 -59.055370 0.000039 0.542892
29.468700 -65.492424 0.000023 0.538235
27.928108 -69.077583 0.000018 0.532721
26.944569 -71.366409 0.000013 0.515441
26.260969 -72.957237 0.000010 0.540931
25.757315 -74.129311 0.000012 0.562745
nan nan nan 0.000000
nan nan nan 0.000000
nan nan nan 0.000000
nan nan nan 0.000000
nan nan nan 0.000000
nan nan nan 0.000000
nan nan nan 0.000000
nan nan nan 0.000000
62.483177 9.579050 0.373514 0.387868
38.938087 -44.175770 0.000070 0.537132
32.390991 -59.123177 0.000042 0.537868
29.580036 -65.540741 0.000025 0.540196
28.014448 -69.115074 0.000021 0.533701
27.014961 -71.396965 0.000014 0.526961
26.320269 -72.982986 0.000013 0.512010
25.808445 -74.151505 0.000015 0.513235
nan nan nan 0.000000
nan nan nan 0.000000
nan nan nan 0.000000
nan nan nan 0.000000
nan nan nan 0.000000
nan nan nan 0.000000
nan nan nan 0.000000
nan nan nan 0.000000
nan nan nan 0.000000
39.198032 -44.290665 0.000069 0.534681
32.546806 -59.191860 0.000026 0.543627
29.691046 -65.589813 0.000024 0.532353
28.100540 -69.153137 0.000020 0.557353
27.085144 -71.427986 0.000013 0.495098
26.379398 -73.009117 0.000010 0.507843
25.859425 -74.174057 0.000016 0.523897
nan nan nan 0.000000
nan nan nan 0.000000
nan nan nan 0.000000
nan nan nan 0.000000
nan nan nan 0.000000
nan nan nan 0.000000
nan nan nan 0.000000
nan nan nan 0.000000
63.924103 9.395210 0.366650 0.897426
39.457191 -44.407330 0.000064 0.540441
32.702080 -59.261761 0.000022 0.537132
29.801718 -65.639633 0.000019 0.539583
28.186371 -69.191765 0.000016 0.543137
27.155117 -71.459480 0.000008 0.539216
26.438349 -73.035652 0.000006 0.545588
25.910254 -74.196938 0.000011 0.493015
nan nan nan 0.000000
nan nan nan 0.000000
nan nan nan 0.000000
nan nan nan 0.000000
nan nan nan 0.000000
nan nan nan 0.000000
nan nan nan 0.000000
nan nan nan 0.000000
nan nan nan 0.000000
39.715446 -44.525974 0.000069 0.533701
32.856831 -59.332813 0.000024 0.537868
29.912018 -65.690277 0.000021 0.525613
28.271917 -69.231033 0.000016 0.553309
27.224855 -71.491501 0.000010 0.488971
26.497101 -73.062630 0.000008 0.541422
25.960918 -74.220177 0.000008 0.514461
nan nan nan 0.000000
nan nan nan 0.000000
nan nan nan 0.000000
nan nan nan 0.000000
nan nan nan 0.000000
nan nan nan 0.000000
nan nan nan 0.000000
nan nan nan 0.000000
nan nan nan 0.000000
39.972897 -44.646351 0.000072 0.534926
33.011074 -59.404964 0.000027 0.533701
30.021957 -65.741699 0.000024 0.542034
28.357178 -69.270920 0.000019 0.539951
27.294357 -71.524025 0.000015 0.567402
26.555656 -73.090019 0.000012 0.511520
26.011410 -74.243790 0.000011 0.548774
nan nan nan 0.000000
nan nan nan 0.000000
nan nan nan 0.000000
nan nan nan 0.000000
nan nan nan 0.000000
nan nan nan 0.000000
nan nan nan 0.000000
nan nan nan 0.000000
63.560211 3.809197 0.451985 0.934926
40.230061 -44.767376 0.000009 0.541299
33.164856 -59.478088 0.000022 0.531863
30.131554 -65.793846 0.000022 0.538480
28.442184 -69.311340 0.000015 0.530025
27.363655 -71.556984 0.000011 0.536274
26.614037 -73.117790 0.000008 0.535539
26.061752 -74.267723 0.000005 0.565931
nan nan nan 0.000000
nan nan nan 0.000000
nan nan nan 0.000000
nan nan nan 0.000000
nan nan nan 0.000000
nan nan nan 0.000000
nan nan nan 0.000000
nan nan nan 0.000000
64.182083 3.577570 0.450957 0.717034
40.485817 -44.891319 0.000010 0.533456
33.318104 -59.552322 0.000020 0.536274
30.240778 -65.846756 0.000020 0.533456
28.526886 -69.352394 0.000015 0.542770
27.432713 -71.590431 0.000009 0.521324
26.672211 -73.145988 0.000009 0.523529
26.111917 -74.292023 0.000003 0.533578
nan nan nan 0.000000
nan nan nan 0.000000
nan nan nan 0.000000
nan nan nan 0.000000
nan nan nan 0.000000
nan nan nan 0.000000
nan nan nan 0.000000
nan nan nan 0.000000
64.909126 3.555211 0.446024 0.919363
40.740688 -45.017101 0.000014 0.534681
33.470806 -59.627686 0.000024 0.541667
30.349619 -65.900467 0.000023 0.504167
28.611298 -69.394043 0.000018 0.522304
27.501522 -71.624405 0.000014 0.556373
26.730186 -73.174591 0.000012 0.562623
26.161905 -74.316696 0.000006 0.512745
nan nan nan 0.000000
nan nan nan 0.000000
nan nan nan 0.000000
nan nan nan 0.000000
nan nan nan 0.000000
nan nan nan 0.000000
nan nan nan 0.000000
nan nan nan 0.000000
65.652237 3.555222 0.440569 0.967157
40.994751 -45.144501 0.000007 0.537990
33.622963 -59.704140 0.000029 0.539951
30.458080 -65.954933 0.000026 0.542402
28.695412 -69.436295 0.000021 0.521936
27.570095 -71.658852 0.000018 0.559559
26.787956 -73.203613 0.000015 0.571078
26.211712 -74.341721 0.000012 0.554167
nan nan nan 0.000000
nan nan nan 0.000000
nan nan nan 0.000000
nan nan nan 0.000000
nan nan nan 0.000000
nan nan nan 0.000000
nan nan nan 0.000000
nan nan nan 0.000000
nan nan nan 0.000000
41.247845 -45.273804 0.000010 0.535539
33.774639 -59.781540 0.000025 0.538725
30.566187 -66.010101 0.000021 0.525000
28.779251 -69.479073 0.000017 0.520343
27.638445 -71.693726 0.000013 0.513726
26.845543 -73.232986 0.000009 0.528676
26.261362 -74.367058 0.000007 0.557843
nan nan nan 0.000000
nan nan nan 0.000000
nan nan nan 0.000000
nan nan nan 0.000000
nan nan nan 0.000000
nan nan nan 0.000000
nan nan nan 0.000000
nan nan nan 0.000000
nan nan nan 0.000000
41.500046 -45.404861 0.000011 0.535049
33.925735 -59.860069 0.000027 0.546569
30.673901 -66.066040 0.000019 0.544118
28.862780 -69.522469 0.000017 0.531985
27.706539 -71.729103 0.000014 0.531985
26.902906 -73.262794 0.000011 0.499877
26.310820 -74.392769 0.000011 0.558456
nan nan nan 0.000000
nan nan nan 0.000000
nan nan nan 0.000000
nan nan nan 0.000000
nan nan nan 0.000000
nan nan nan 0.000000
nan nan nan 0.000000
nan nan nan 0.000000
nan nan nan 0.000000
41.751396 -45.537521 0.000004 0.537132
34.076271 -59.939659 0.000030 0.546324
30.781197 -66.122772 0.000022 0.569853
28.945993 -69.566467 0.000020 0.523162
27.774376 -71.764977 0.000017 0.540319
26.960051 -73.293030 0.000016 0.548897
26.360096 -74.418823 0.000014 0.515441
nan nan nan 0.000000
nan nan nan 0.000000
nan nan nan 0.000000
nan nan nan 0.000000
nan nan nan 0.000000
nan nan nan 0.000000
nan nan nan 0.000000
nan nan nan 0.000000
68.794830 3.769596 0.413590 0.358456
42.001709 -45.672131 0.000007 0.538113
34.226288 -60.020222 0.000025 0.538725
30.888119 -66.180183 0.000018 0.530515
29.028921 -69.611000 0.000015 0.624020
27.841974 -71.801285 0.000014 0.533333
27.017006 -73.323616 0.000012 0.564461
26.409208 -74.445190 0.000009 0.544240
nan nan nan 0.000000
nan nan nan 0.000000
nan nan nan 0.000000
nan nan nan 0.000000
nan nan nan 0.000000
nan nan nan 0.000000
nan nan nan 0.000000
nan nan nan 0.000000
69.672363 3.959800 0.403972 0.924142
42.251087 -45.808468 0.000011 0.537377
34.375725 -60.101856 0.000024 0.537132
30.994631 -66.238380 0.000016 0.534314
29.111517 -69.656136 0.000016 0.532108
27.909315 -71.838074 0.000013 0.585907
27.073734 -73.354614 0.000013 0.561887
26.458124 -74.471909 0.000007 0.506618
nan nan nan 0.000000
nan nan nan 0.000000
nan nan nan 0.000000
nan nan nan 0.000000
nan nan nan 0.000000
nan nan nan 0.000000
nan nan nan 0.000000
nan nan nan 0.000000
70.238708 3.577537 0.404940 0.814216
42.499584 -45.946419 0.000006 0.534681
34.524574 -60.184570 0.000026 0.555147
31.100723 -66.297333 0.000018 0.545098
29.193787 -69.701874 0.000020 0.550490
27.976387 -71.875359 0.000017 0.504902
27.130239 -73.386024 0.000016 0.548162
26.506844 -74.499008 0.000013 0.528064
nan nan nan 0.000000
nan nan nan 0.000000
nan nan nan 0.000000
nan nan nan 0.000000
nan nan nan 0.000000
nan nan nan 0.000000
nan nan nan 0.000000
nan nan nan 0.000000
71.009033 3.555212 0.399061 0.889706
42.747009 -46.086254 0.000012 0.536274
34.672874 -60.268253 0.000021 0.544608
31.206430 -66.356972 0.000013 0.542402
29.275764 -69.748131 0.000015 0.543137
28.043211 -71.913078 0.000014 0.551593
27.186541 -73.417801 0.000012 0.473652
26.555386 -74.526405 0.000010 0.570711
nan nan nan 0.000000
nan nan nan 0.000000
nan nan nan 0.000000
nan nan nan 0.000000
nan nan nan 0.000000
nan nan nan 0.000000
nan nan nan 0.000000
nan nan nan 0.000000
nan nan nan 0.000000
42.993469 -46.227814 0.000015 0.537377
34.820545 -60.353054 0.000024 0.536152
31.311684 -66.417412 0.000015 0.523529
29.357409 -69.794975 0.000013 0.537745
28.109753 -71.951294 0.000018 0.526716
27.242607 -73.449982 0.000013 0.528309
26.603725 -74.554161 0.000013 0.541912
nan nan nan 0.000000
nan nan nan 0.000000
nan nan nan 0.000000
nan nan nan 0.000000
nan nan nan 0.000000
nan nan nan 0.000000
nan nan nan 0.000000
nan nan nan 0.000000
nan nan nan 0.000000
43.239052 -46.370869 0.000008 0.535662
34.967621 -60.438866 0.000026 0.545098
31.416508 -66.478577 0.000018 0.542770
29.438705 -69.842415 0.000016 0.508578
28.176037 -71.989952 0.000017 0.527696
27.298445 -73.482559 0.000015 0.493382
26.651871 -74.582253 0.000014 0.537255
nan nan nan 0.000000
nan nan nan 0.000000
nan nan nan 0.000000
nan nan nan 0.000000
nan nan nan 0.000000
nan nan nan 0.000000
nan nan nan 0.000000
nan nan nan 0.000000
nan nan nan 0.000000
43.483513 -46.515846 0.000012 0.532108
35.114140 -60.525642 0.000022 0.547426
31.520927 -66.540451 0.000017 0.543260
29.519695 -69.890381 0.000012 0.521446
28.242064 -72.029053 0.000013 0.539706
27.354065 -73.515511 0.000013 0.556985
26.699833 -74.610649 0.000009 0.560294
nan nan nan 0.000000
nan nan nan 0.000000
nan nan nan 0.000000
nan nan nan 0.000000
nan nan nan 0.000000
nan nan nan 0.000000
nan nan nan 0.000000
nan nan nan 0.000000
nan nan nan 0.000000
43.727074 -46.662315 0.000003 0.538235
35.259995 -60.613514 0.000025 0.529412
31.624886 -66.603081 0.000020 0.522672
29.600330 -69.938934 0.000012 0.550613
28.307791 -72.068649 0.000016 0.548162
27.409437 -73.548874 0.000016 0.529534
26.747574 -74.639420 0.000014 0.516912
nan nan nan 0.000000
nan nan nan 0.000000
nan nan nan 0.000000
nan nan nan 0.000000
nan nan nan 0.000000
nan nan nan 0.000000
nan nan nan 0.000000
nan nan nan 0.000000
nan nan nan 0.000000
43.969486 -46.810684 0.000007 0.531618
35.405220 -60.702427 0.000031 0.539093
31.728409 -66.666435 0.000022 0.543627
29.680616 -69.988068 0.000015 0.563235
28.373238 -72.108719 0.000021 0.516176
27.464573 -73.582626 0.000021 0.482230
26.795116 -74.668526 0.000019 0.513603
nan nan nan 0.000000
nan nan nan 0.000000
nan nan nan 0.000000
nan nan nan 0.000000
nan nan nan 0.000000
nan nan nan 0.000000
