# This PCD file was generated using the MATLABÂ® pcwrite function
# from Computer Vision ToolboxÂ®.
# .PCD v.7 - Point Cloud Data file format
VERSION .7
FIELDS x y z intensity
SIZE 4 4 4 4
TYPE F F F F
COUNT 1 1 1 1
WIDTH 1333
HEIGHT 1
VIEWPOINT 0 0 0 1 0 0 0
POINTS 1333
DATA ascii
nan nan nan 0.000000
nan nan nan 0.000000
nan nan nan 0.000000
nan nan nan 0.000000
nan nan nan 0.000000
nan nan nan 0.000000
nan nan nan 0.000000
nan nan nan 0.000000
49.358669 -39.144745 -0.000007 0.332108
48.903008 -22.831814 -0.000013 0.333333
48.707371 -15.827923 -0.000003 0.332108
48.598415 -11.927197 -0.000002 0.335172
48.528854 -9.436923 -0.000003 0.329657
48.480507 -7.706030 0.000008 0.334804
48.444889 -6.430832 0.000009 0.326348
nan nan nan 0.000000
nan nan nan 0.000000
nan nan nan 0.000000
nan nan nan 0.000000
nan nan nan 0.000000
nan nan nan 0.000000
nan nan nan 0.000000
nan nan nan 0.000000
nan nan nan 0.000000
49.074535 -39.151691 -0.000008 0.331863
48.732773 -22.836008 -0.000016 0.332108
48.586037 -15.830893 -0.000003 0.332598
48.504314 -11.929499 -0.000003 0.328554
48.452141 -9.438797 -0.000003 0.334681
48.415878 -7.707608 0.000009 0.336152
48.389164 -6.432191 0.000010 0.342524
nan nan nan 0.000000
nan nan nan 0.000000
nan nan nan 0.000000
nan nan nan 0.000000
nan nan nan 0.000000
nan nan nan 0.000000
nan nan nan 0.000000
nan nan nan 0.000000
nan nan nan 0.000000
48.790363 -39.156658 -0.000008 0.332108
48.562511 -22.838991 -0.000016 0.332843
48.464684 -15.833002 -0.000002 0.334436
48.410202 -11.931141 -0.000002 0.333701
48.375416 -9.440132 -0.000002 0.334804
48.351242 -7.708748 0.000006 0.329902
48.333431 -6.433174 0.000007 0.337010
nan nan nan 0.000000
nan nan nan 0.000000
nan nan nan 0.000000
nan nan nan 0.000000
nan nan nan 0.000000
nan nan nan 0.000000
nan nan nan 0.000000
nan nan nan 0.000000
nan nan nan 0.000000
48.506165 -39.159634 -0.000008 0.332475
48.392235 -22.840742 -0.000014 0.333088
48.343319 -15.834280 -0.000003 0.334559
48.316078 -11.932128 -0.000003 0.335294
48.298687 -9.440938 -0.000003 0.334314
48.286598 -7.709466 -0.000003 0.332843
48.277691 -6.433757 0.000007 0.329657
nan nan nan 0.000000
nan nan nan 0.000000
nan nan nan 0.000000
nan nan nan 0.000000
nan nan nan 0.000000
nan nan nan 0.000000
nan nan nan 0.000000
nan nan nan 0.000000
nan nan nan 0.000000
48.221951 -39.160633 -0.000009 0.332230
48.221951 -22.841311 -0.000012 0.333578
48.221951 -15.834734 -0.000006 0.333578
48.221951 -11.932450 -0.000002 0.333946
48.221951 -9.441202 -0.000002 0.338848
48.221951 -7.709688 -0.000002 0.335907
48.221951 -6.433947 0.000009 0.337623
nan nan nan 0.000000
nan nan nan 0.000000
nan nan nan 0.000000
nan nan nan 0.000000
nan nan nan 0.000000
nan nan nan 0.000000
nan nan nan 0.000000
nan nan nan 0.000000
nan nan nan 0.000000
47.937733 -39.159645 -0.000009 0.331985
48.051662 -22.840693 -0.000010 0.332721
48.100578 -15.834312 -0.000006 0.336397
48.127823 -11.932121 -0.000002 0.332843
48.145214 -9.440934 -0.000002 0.335417
48.157303 -7.709463 -0.000002 0.334926
48.166210 -6.433750 0.000009 0.333701
nan nan nan 0.000000
nan nan nan 0.000000
nan nan nan 0.000000
nan nan nan 0.000000
nan nan nan 0.000000
nan nan nan 0.000000
nan nan nan 0.000000
nan nan nan 0.000000
nan nan nan 0.000000
47.653534 -39.156677 -0.000009 0.331250
47.881386 -22.838928 -0.000011 0.332966
47.979214 -15.833038 -0.000006 0.334069
48.033699 -11.931139 -0.000002 0.334926
48.068481 -9.440130 -0.000002 0.334804
48.092659 -7.708788 -0.000003 0.335539
48.110470 -6.433175 0.000007 0.341299
nan nan nan 0.000000
nan nan nan 0.000000
nan nan nan 0.000000
nan nan nan 0.000000
nan nan nan 0.000000
nan nan nan 0.000000
nan nan nan 0.000000
nan nan nan 0.000000
nan nan nan 0.000000
47.373619 -38.948353 0.009984 1.000000
47.711124 -22.835960 -0.000012 0.332108
47.857861 -15.830925 -0.000007 0.334926
47.939583 -11.929492 -0.000002 0.332230
47.991756 -9.438790 -0.000002 0.335539
48.028019 -7.707657 -0.000002 0.333946
48.054737 -6.432202 0.000007 0.333701
nan nan nan 0.000000
nan nan nan 0.000000
nan nan nan 0.000000
nan nan nan 0.000000
nan nan nan 0.000000
nan nan nan 0.000000
nan nan nan 0.000000
nan nan nan 0.000000
nan nan nan 0.000000
47.085228 -39.144783 -0.000009 0.331985
47.540894 -22.831823 -0.000013 0.332108
47.736526 -15.827957 -0.000007 0.334804
47.845486 -11.927195 -0.000002 0.333088
47.915047 -9.436920 -0.000002 0.332475
47.963390 -7.706079 -0.000002 0.328431
47.999012 -6.430838 0.000008 0.330760
nan nan nan 0.000000
nan nan nan 0.000000
nan nan nan 0.000000
nan nan nan 0.000000
nan nan nan 0.000000
nan nan nan 0.000000
nan nan nan 0.000000
nan nan nan 0.000000
nan nan nan 0.000000
46.801205 -39.134335 0.000066 0.536397
47.370689 -22.826481 -0.000015 0.334191
47.615215 -15.824148 -0.000007 0.334681
47.751404 -11.924236 -0.000001 0.334191
47.838348 -9.434504 -0.000001 0.333824
47.898777 -7.704049 -0.000002 0.342524
47.943298 -6.429074 0.000011 0.332475
nan nan nan 0.000000
nan nan nan 0.000000
nan nan nan 0.000000
nan nan nan 0.000000
nan nan nan 0.000000
nan nan nan 0.000000
nan nan nan 0.000000
nan nan nan 0.000000
nan nan nan 0.000000
46.517208 -39.123417 0.000066 0.536520
47.200527 -22.819960 -0.000016 0.333088
47.493935 -15.819492 -0.000007 0.334559
47.657345 -11.920621 -0.000001 0.331618
47.761665 -9.431561 -0.000002 0.334559
47.834175 -7.701561 -0.000001 0.332353
47.887596 -6.426985 -0.000002 0.333701
nan nan nan 0.000000
nan nan nan 0.000000
nan nan nan 0.000000
nan nan nan 0.000000
nan nan nan 0.000000
nan nan nan 0.000000
nan nan nan 0.000000
nan nan nan 0.000000
nan nan nan 0.000000
46.233295 -39.110512 0.000066 0.534559
47.030415 -22.812244 -0.000017 0.332230
47.372684 -15.813984 -0.000007 0.335294
47.563313 -11.916350 -0.000001 0.332353
47.685009 -9.428080 -0.000002 0.334314
47.769592 -7.698633 -0.000002 0.321078
47.831913 -6.424456 -0.000002 0.332108
nan nan nan 0.000000
nan nan nan 0.000000
nan nan nan 0.000000
nan nan nan 0.000000
nan nan nan 0.000000
nan nan nan 0.000000
nan nan nan 0.000000
nan nan nan 0.000000
nan nan nan 0.000000
45.949497 -39.095329 0.000081 0.538725
46.860363 -22.803335 -0.000017 0.333578
47.251480 -15.807634 -0.000007 0.332966
47.469315 -11.911424 -0.000001 0.333456
47.608379 -9.424061 -0.000002 0.328922
47.705036 -7.695249 -0.000002 0.336397
47.776245 -6.421540 -0.000002 0.334191
nan nan nan 0.000000
nan nan nan 0.000000
nan nan nan 0.000000
nan nan nan 0.000000
nan nan nan 0.000000
nan nan nan 0.000000
nan nan nan 0.000000
nan nan nan 0.000000
nan nan nan 0.000000
45.665791 -39.078487 0.000081 0.538113
46.690372 -22.793249 -0.000018 0.331863
47.130322 -15.800438 -0.000007 0.337377
47.375351 -11.905836 -0.000000 0.330515
47.531776 -9.419509 -0.000001 0.330760
47.640499 -7.691411 -0.000001 0.330637
47.720604 -6.418230 -0.000001 0.337377
nan nan nan 0.000000
nan nan nan 0.000000
nan nan nan 0.000000
nan nan nan 0.000000
nan nan nan 0.000000
nan nan nan 0.000000
nan nan nan 0.000000
nan nan nan 0.000000
nan nan nan 0.000000
45.382214 -39.059647 0.000081 0.536152
46.528976 -22.660149 0.009995 1.000000
47.009220 -15.792398 -0.000008 0.331740
47.281429 -11.899598 -0.000000 0.334804
47.455212 -9.414421 -0.000001 0.329779
47.575996 -7.687128 -0.000001 0.338113
47.664982 -6.414537 -0.000002 0.319240
nan nan nan 0.000000
nan nan nan 0.000000
nan nan nan 0.000000
nan nan nan 0.000000
nan nan nan 0.000000
nan nan nan 0.000000
nan nan nan 0.000000
nan nan nan 0.000000
nan nan nan 0.000000
45.098770 -39.038837 0.000081 0.538480
46.350628 -22.769501 -0.000019 0.332108
46.888172 -15.783508 -0.000008 0.334681
47.187553 -11.892704 -0.000001 0.335049
47.378681 -9.408800 -0.000001 0.333578
47.511520 -7.682393 -0.000001 0.338725
47.609390 -6.410456 -0.000002 0.324755
nan nan nan 0.000000
nan nan nan 0.000000
nan nan nan 0.000000
nan nan nan 0.000000
nan nan nan 0.000000
nan nan nan 0.000000
nan nan nan 0.000000
nan nan nan 0.000000
nan nan nan 0.000000
44.815517 -39.015621 0.000102 0.538725
46.180954 -22.755083 0.000044 0.537377
46.767193 -15.773779 -0.000008 0.332843
47.093727 -11.885154 -0.000000 0.338480
47.302193 -9.402646 -0.000001 0.334191
47.447079 -7.677207 -0.000001 0.337010
47.553829 -6.405984 -0.000001 0.342647
nan nan nan 0.000000
nan nan nan 0.000000
nan nan nan 0.000000
nan nan nan 0.000000
nan nan nan 0.000000
nan nan nan 0.000000
nan nan nan 0.000000
nan nan nan 0.000000
nan nan nan 0.000000
44.532398 -38.990841 0.000102 0.529657
46.011318 -22.740250 0.000043 0.531373
46.646282 -15.763199 -0.000008 0.334191
46.999958 -11.876952 -0.000000 0.334069
47.225746 -9.395959 -0.000001 0.340319
47.382679 -7.671573 -0.000001 0.337868
47.498299 -6.401126 -0.000002 0.343260
nan nan nan 0.000000
nan nan nan 0.000000
nan nan nan 0.000000
nan nan nan 0.000000
nan nan nan 0.000000
nan nan nan 0.000000
nan nan nan 0.000000
nan nan nan 0.000000
nan nan nan 0.000000
44.249458 -38.964111 0.000102 0.545956
45.841793 -22.724220 0.000044 0.541912
46.533936 -15.665239 0.009995 1.000000
46.906250 -11.868090 0.000000 0.337132
47.149353 -9.388736 -0.000000 0.331495
47.318317 -7.665489 -0.000001 0.337623
47.442802 -6.395878 -0.000001 0.314461
nan nan nan 0.000000
nan nan nan 0.000000
nan nan nan 0.000000
nan nan nan 0.000000
nan nan nan 0.000000
nan nan nan 0.000000
nan nan nan 0.000000
nan nan nan 0.000000
nan nan nan 0.000000
43.966713 -38.935387 0.000101 0.534681
45.672409 -22.706762 0.000064 0.531863
46.413792 -15.653015 0.009998 1.000000
46.812603 -11.858577 0.000000 0.333333
47.073009 -9.380980 -0.000000 0.336765
47.254002 -7.658955 -0.000001 0.335172
47.387348 -6.390244 -0.000001 0.331495
nan nan nan 0.000000
nan nan nan 0.000000
nan nan nan 0.000000
nan nan nan 0.000000
nan nan nan 0.000000
nan nan nan 0.000000
nan nan nan 0.000000
nan nan nan 0.000000
nan nan nan 0.000000
43.684174 -38.904705 0.000101 0.535417
45.503128 -22.688375 0.000064 0.545098
46.284039 -15.726402 -0.000008 0.335662
46.719025 -11.848413 0.000000 0.335784
46.996719 -9.372695 -0.000001 0.330760
47.189732 -7.651972 -0.000000 0.336152
47.331932 -6.384226 -0.000001 0.334804
nan nan nan 0.000000
nan nan nan 0.000000
nan nan nan 0.000000
nan nan nan 0.000000
nan nan nan 0.000000
nan nan nan 0.000000
nan nan nan 0.000000
nan nan nan 0.000000
nan nan nan 0.000000
43.401859 -38.872021 0.000102 0.530025
45.333977 -22.668797 0.000065 0.531863
46.163528 -15.711975 0.000047 0.547304
46.625523 -11.837592 0.000000 0.335662
46.920494 -9.363873 -0.000000 0.330882
47.125511 -7.644542 -0.000001 0.339583
47.276558 -6.377818 -0.000001 0.342157
nan nan nan 0.000000
nan nan nan 0.000000
nan nan nan 0.000000
nan nan nan 0.000000
nan nan nan 0.000000
nan nan nan 0.000000
nan nan nan 0.000000
nan nan nan 0.000000
nan nan nan 0.000000
43.119774 -38.837402 0.000101 0.537132
45.164967 -22.648052 0.000064 0.540074
46.043064 -15.697191 0.000047 0.544363
46.532093 -11.826123 0.000000 0.331740
46.844330 -9.354523 -0.000000 0.331127
47.061344 -7.636665 -0.000001 0.322794
47.221233 -6.371027 -0.000001 0.341054
nan nan nan 0.000000
nan nan nan 0.000000
nan nan nan 0.000000
nan nan nan 0.000000
nan nan nan 0.000000
nan nan nan 0.000000
nan nan nan 0.000000
nan nan nan 0.000000
nan nan nan 0.000000
42.837940 -38.800781 0.000102 0.535662
44.996105 -22.626112 0.000064 0.536029
45.922707 -15.681551 0.000048 0.550858
46.447662 -11.747211 0.009995 1.000000
46.768234 -9.344632 0.000000 0.339216
46.997234 -7.628335 0.000000 0.337255
47.165955 -6.363844 -0.000000 0.337132
nan nan nan 0.000000
nan nan nan 0.000000
nan nan nan 0.000000
nan nan nan 0.000000
nan nan nan 0.000000
nan nan nan 0.000000
nan nan nan 0.000000
nan nan nan 0.000000
nan nan nan 0.000000
42.556370 -38.762226 0.000101 0.530025
44.827400 -22.603010 0.000064 0.534069
45.802464 -15.665083 0.000047 0.535662
46.354870 -11.734490 0.009996 1.000000
46.692207 -9.334220 0.000000 0.329289
46.933186 -7.619562 -0.000000 0.339583
47.110729 -6.356280 -0.000000 0.339216
nan nan nan 0.000000
nan nan nan 0.000000
nan nan nan 0.000000
nan nan nan 0.000000
nan nan nan 0.000000
nan nan nan 0.000000
nan nan nan 0.000000
nan nan nan 0.000000
nan nan nan 0.000000
42.275074 -38.721699 0.000101 0.546446
44.658859 -22.578732 0.000064 0.536642
45.682335 -15.647776 0.000047 0.534314
46.252327 -11.787792 0.000001 0.333701
46.616257 -9.323276 0.000000 0.335172
46.869202 -7.610343 -0.000000 0.332721
47.055557 -6.348330 -0.000001 0.341299
42.802277 -33.458481 10.873741 0.559314
nan nan nan 0.000000
nan nan nan 0.000000
nan nan nan 0.000000
nan nan nan 0.000000
nan nan nan 0.000000
nan nan nan 0.000000
nan nan nan 0.000000
42.802277 -33.458466 1.420293 0.445466
42.802277 -33.458462 0.259634 0.583946
44.490494 -22.553263 0.000064 0.527206
45.562332 -15.629622 0.000047 0.548774
46.159256 -11.773732 -0.000001 0.333456
46.540382 -9.311798 0.000001 0.331740
46.805279 -7.600671 0.000000 0.334559
47.000443 -6.339992 0.000000 0.333946
42.648590 -32.860500 10.731822 0.165441
42.522266 -33.640457 9.699556 0.678431
42.522263 -33.640457 8.486648 0.678431
42.522263 -33.640461 7.288105 0.678431
42.522266 -33.640450 6.101145 0.678431
42.522266 -33.640450 4.923093 0.678431
42.522266 -33.640453 3.751348 0.678431
42.522266 -33.640450 2.583366 0.678431
42.802277 -31.911604 1.445293 0.590196
42.802277 -31.911608 0.334691 0.714338
44.322311 -22.526632 0.000064 0.540809
45.442455 -15.610649 0.000046 0.533578
46.066296 -11.758946 0.000008 0.335172
46.464592 -9.299789 0.000001 0.343137
46.741428 -7.590557 0.000000 0.331985
46.945389 -6.331271 0.000000 0.335417
42.522270 -32.148029 10.560922 0.678431
42.522274 -32.148022 9.381547 0.678431
42.522270 -32.148029 8.218737 0.678431
42.522270 -32.148029 7.069695 0.678431
42.522274 -32.148026 5.931760 0.678431
42.522270 -32.148026 4.802362 0.678431
42.522270 -32.148029 3.679013 0.678431
42.514313 -32.195087 2.560052 0.211765
42.802277 -30.492537 1.468204 0.574387
42.802277 -30.492540 0.403470 0.561642
44.154316 -22.498817 0.000064 0.526961
45.322716 -15.590830 0.000045 0.534191
45.973442 -11.743500 0.000019 0.552941
46.388885 -9.287260 0.000001 0.332721
46.677647 -7.579998 0.000001 0.335662
46.890392 -6.322166 0.000000 0.328064
42.522266 -30.774019 10.221770 0.678431
42.522270 -30.774012 9.089118 0.678431
42.522266 -30.774019 7.972373 0.678431
42.522270 -30.774008 6.868852 0.678431
42.522270 -30.774012 5.775997 0.678431
42.522270 -30.774012 4.691343 0.678431
42.522270 -30.774008 3.612497 0.678431
42.662430 -29.979118 2.523906 0.213725
42.802277 -29.185997 1.489272 0.509191
42.802277 -29.185995 0.466720 0.656863
43.986519 -22.469833 0.000064 0.540319
45.203117 -15.570175 0.000045 0.548774
45.880688 -11.727476 0.000019 0.516544
46.313267 -9.274199 0.000001 0.328309
46.613941 -7.568995 0.000000 0.338358
46.835464 -6.312679 -0.000000 0.338848
42.522270 -29.504639 9.908830 0.678431
42.522270 -29.504635 8.819290 0.678431
42.522270 -29.504635 7.745050 0.678431
42.522270 -29.504637 6.683533 0.678431
42.522270 -29.504637 5.632276 0.678431
42.522270 -29.504635 4.588904 0.678431
42.522270 -29.504637 3.551122 0.678431
42.653881 -28.787560 2.504741 0.192157
42.802277 -27.979015 1.508711 0.538725
42.802277 -27.979017 0.525079 0.554902
43.818932 -22.439690 0.000063 0.539461
45.083672 -15.548677 0.000045 0.536520
45.788052 -11.710804 0.000020 0.541176
46.237747 -9.260612 0.000001 0.325245
46.550316 -7.557550 -0.000000 0.331985
46.780605 -6.302811 -0.000001 0.328431
42.522282 -28.328241 9.619183 0.678431
42.522282 -28.328243 8.569548 0.678431
42.522282 -28.328239 7.534649 0.678431
42.522282 -28.328239 6.512006 0.678431
42.522282 -28.328239 5.499249 0.678431
42.522282 -28.328238 4.494091 0.678431
42.522282 -28.328238 3.494315 0.678431
42.653877 -27.638380 2.486256 0.352206
42.802277 -26.860458 1.526702 0.577819
42.802277 -26.860456 0.579093 0.719608
43.651558 -22.408365 0.000063 0.538358
44.964371 -15.526356 0.000045 0.530147
45.695530 -11.693490 0.000020 0.528309
46.162319 -9.246494 0.000001 0.327206
46.486771 -7.545656 0.000000 0.325613
46.725815 -6.292555 0.000000 0.333211
42.522266 -27.235035 9.350378 0.678431
42.522266 -27.235031 8.337774 0.676716
42.522266 -27.235035 7.339387 0.678431
42.522266 -27.235033 6.352824 0.678431
42.522266 -27.235031 5.375796 0.678431
42.522266 -27.235031 4.406099 0.678431
42.522266 -27.235029 3.441596 0.678431
42.802277 -25.820873 2.456598 0.778676
42.802277 -25.820873 1.543402 0.462132
42.802277 -25.820873 0.629226 0.696324
43.484406 -22.375874 0.000063 0.540319
44.845234 -15.503195 0.000046 0.522059
45.603130 -11.675529 0.000020 0.542034
46.086987 -9.231891 -0.000006 0.333946
46.423313 -7.533319 0.000000 0.331863
46.671097 -6.281919 -0.000000 0.333824
42.522274 -26.216192 9.100206 0.678431
42.522274 -26.216192 8.122066 0.678431
42.522274 -26.216192 7.157659 0.678431
42.522274 -26.216190 6.204674 0.678431
42.522274 -26.216192 5.260900 0.678431
42.522274 -26.216190 4.324208 0.678431
42.522274 -26.216190 3.392530 0.678431
42.802277 -24.852127 2.441058 0.589461
42.802277 -24.852127 1.558941 0.418995
42.802277 -24.852125 0.675879 0.678431
43.317486 -22.342220 0.000063 0.529657
44.726234 -15.479343 0.000029 0.536152
45.510860 -11.656926 0.000019 0.546201
46.011784 -9.216619 0.000013 0.336887
46.359940 -7.520541 0.000001 0.338235
46.616455 -6.270901 -0.000000 0.335539
42.585426 -24.967289 8.790747 0.160784
42.585426 -24.967291 7.855238 0.175613
42.585426 -24.967283 6.932863 0.174510
42.585426 -24.967285 6.021414 0.164461
42.585426 -24.967283 5.118774 0.160784
42.585426 -24.967285 4.222907 0.160784
42.585426 -24.967283 3.331837 0.160784
42.802277 -23.947090 2.426561 0.356495
42.802277 -23.947090 1.573439 0.687010
42.802277 -23.947092 0.719401 0.561397
43.150803 -22.307398 0.000063 0.535417
44.607426 -15.454525 0.000029 0.538235
45.418724 -11.637682 0.000019 0.533088
45.936668 -9.200943 0.000010 0.332475
46.296658 -7.507320 0.000001 0.335294
46.561890 -6.259500 0.000000 0.333333
42.522274 -24.373129 8.648619 0.678431
42.522274 -24.373133 7.732691 0.678431
42.522274 -24.373131 6.829622 0.678431
42.522274 -24.373133 5.937250 0.678431
42.522278 -24.373127 5.053501 0.678431
42.522274 -24.373131 4.176383 0.678431
42.522274 -24.373129 3.303963 0.678431
42.802273 -23.099623 2.413006 0.543260
42.802277 -23.099621 1.586993 0.735662
42.802273 -23.099625 0.760094 0.600735
42.984367 -22.271408 0.000063 0.547794
44.488800 -15.428871 0.000030 0.536642
45.326721 -11.617786 0.000019 0.540931
45.861652 -9.184777 0.000001 0.332598
46.233471 -7.493659 0.000001 0.324877
46.507408 -6.247720 0.000000 0.338113
42.587364 -23.250250 8.370568 0.168382
42.587364 -23.250252 7.492945 0.160784
42.587364 -23.250250 6.627643 0.160784
42.587364 -23.250250 5.772590 0.121936
42.587364 -23.250246 4.925800 0.119485
42.587364 -23.250248 4.085365 0.111397
42.587364 -23.250248 3.249430 0.160784
42.802277 -22.304312 2.400306 0.581618
42.802277 -22.304312 1.599694 0.384191
42.802277 -22.304312 0.798225 0.571078
42.802273 -22.304314 -0.005827 0.426348
44.370354 -15.402395 0.000030 0.543873
45.234859 -11.597255 0.000019 0.555025
45.786762 -9.168053 -0.000002 0.335049
46.170376 -7.479561 -0.000000 0.335294
46.453007 -6.235561 0.000000 0.339216
42.522263 -22.750267 8.252207 0.678431
42.522263 -22.750263 7.390888 0.678431
42.522263 -22.750263 6.541663 0.678431
42.522263 -22.750259 5.702496 0.678431
42.522263 -22.750261 4.871439 0.678431
42.522263 -22.750261 4.046619 0.678431
42.522263 -22.750263 3.226216 0.678431
42.802273 -21.556431 2.388381 0.441054
42.802273 -21.556431 1.611619 0.626838
42.802273 -21.556435 0.834024 0.646201
42.802277 -21.556431 0.053925 0.433824
44.252094 -15.375099 0.000029 0.526838
45.143131 -11.576144 0.000010 0.537132
45.711987 -9.150819 -0.000008 0.336887
46.107380 -7.465041 -0.000005 0.328309
46.398693 -6.223021 0.000001 0.333824
42.522263 -22.009212 8.071634 0.678431
42.522263 -22.009212 7.235194 0.678431
42.522266 -22.009209 6.410494 0.678431
42.522263 -22.009211 5.595564 0.678431
42.522266 -22.009209 4.788509 0.678431
42.522266 -22.009209 3.987511 0.678431
42.522263 -22.009211 3.190801 0.678431
42.802273 -20.851789 2.377164 0.447059
42.802273 -20.851789 1.622836 0.421569
42.802277 -20.851786 0.867699 0.527206
42.802277 -20.851788 0.110129 0.442034
44.134033 -15.346954 0.000031 0.532475
45.051567 -11.554323 0.000010 0.540196
45.637337 -9.133047 -0.000010 0.331863
46.044495 -7.450048 -0.000003 0.339093
46.344471 -6.210104 0.000000 0.337623
42.522263 -21.309713 7.901475 0.678431
42.522263 -21.309713 7.088475 0.678431
42.522263 -21.309711 6.286890 0.678431
42.522266 -21.309710 5.494797 0.678431
42.522266 -21.309711 4.710361 0.678431
42.522263 -21.309713 3.931811 0.678431
42.522266 -21.309708 3.157428 0.678431
42.802273 -20.186655 2.366594 0.707721
42.802273 -20.186655 1.633406 0.562868
42.802277 -20.186651 0.899432 0.739216
42.802277 -20.186651 0.163094 0.714093
44.016167 -15.318008 0.000031 0.537132
44.960155 -11.531873 0.000010 0.533211
45.562820 -9.114723 -0.000006 0.329534
45.981728 -7.434577 0.000008 0.343750
46.290337 -6.196807 0.000000 0.336642
42.522270 -20.648315 7.740865 0.662623
42.522270 -20.648317 6.949991 0.622426
42.522270 -20.648317 6.170220 0.663235
42.522270 -20.648314 5.399685 0.657721
42.522270 -20.648315 4.636598 0.678431
42.522270 -20.648315 3.879236 0.678431
42.522270 -20.648317 3.125929 0.678431
42.802277 -19.557772 2.356617 0.571936
42.802277 -19.557772 1.643383 0.550490
42.802273 -19.557774 0.929383 0.496446
42.802277 -19.557770 0.213084 0.527574
43.898506 -15.288237 0.000031 0.538235
44.868904 -11.508790 0.000009 0.541789
45.488430 -9.095891 -0.000005 0.330882
45.919048 -7.418739 0.000003 0.337132
46.236298 -6.183132 0.000001 0.337745
42.624386 -19.635452 7.488900 0.160784
42.624386 -19.635454 6.732738 0.160784
42.624386 -19.635448 5.987190 0.160784
42.624386 -19.635450 5.250474 0.160784
42.624386 -19.635452 4.520878 0.160784
42.624386 -19.635452 3.796757 0.160784
42.624386 -19.635456 3.076513 0.160784
42.802273 -18.962177 2.347186 0.583946
42.802273 -18.962177 1.652814 0.571078
42.802273 -18.962179 0.957698 0.623897
42.802273 -18.962179 0.260342 0.577451
43.781052 -15.257647 0.000030 0.539828
44.777813 -11.485065 0.000009 0.532108
45.414169 -9.076550 -0.000005 0.334926
45.856483 -7.402456 0.000001 0.335049
46.182320 -6.169220 -0.000036 0.340319
42.522263 -19.427862 7.445293 0.678431
42.522263 -19.427864 6.695138 0.678431
42.522263 -19.427868 5.955515 0.678431
42.522263 -19.427868 5.224651 0.678431
42.522263 -19.427862 4.500851 0.678431
42.522263 -19.427862 3.782482 0.678431
42.522263 -19.427866 3.067960 0.678431
42.802273 -18.397253 2.338256 0.614706
42.802273 -18.397253 1.661744 0.568750
42.802273 -18.397253 0.984506 0.539338
42.802273 -18.397251 0.305086 0.577451
43.663795 -15.226332 0.000018 0.533456
44.686893 -11.460699 0.000009 0.518627
45.340046 -9.056695 -0.000006 0.333701
45.794041 -7.385724 0.000001 0.335049
46.128510 -6.154671 -0.000004 0.333946
42.522266 -18.863508 7.309005 0.678431
42.522263 -18.863514 6.577626 0.678431
42.522263 -18.863512 5.856513 0.678431
42.522266 -18.863508 5.143942 0.678431
42.522263 -18.863510 4.438258 0.678431
42.522266 -18.863506 3.737868 0.678431
42.522263 -18.863510 3.041230 0.678431
42.802273 -17.860632 2.329790 0.515809
42.802273 -17.860632 1.670210 0.587990
42.802273 -17.860630 1.009922 0.474877
42.802273 -17.860628 0.347507 0.320466
43.546780 -15.194107 0.000018 0.540441
44.596115 -11.435808 -0.000007 0.519608
45.266071 -9.036303 -0.000003 0.331373
45.731709 -7.368573 -0.000003 0.335172
46.074772 -6.139863 -0.000003 0.341054
42.522266 -18.326694 7.179619 0.678431
42.522266 -18.326696 6.466064 0.678431
42.522266 -18.326691 5.762526 0.678431
42.522266 -18.326689 5.067320 0.678431
42.522266 -18.326691 4.378835 0.678431
42.522266 -18.326693 3.695515 0.678431
42.522266 -18.326694 3.015855 0.678431
42.802277 -17.350187 2.321753 0.453309
42.802277 -17.350187 1.678247 0.474020
42.802273 -17.350193 1.034051 0.535907
42.802273 -17.350193 0.387779 0.369730
43.429996 -15.161058 0.000018 0.539828
44.505547 -11.410179 -0.000007 0.541667
45.192238 -9.015402 -0.000002 0.331127
45.669502 -7.350983 -0.000006 0.339093
46.021133 -6.124688 -0.000003 0.339338
42.522270 -17.815390 7.056629 0.678431
42.522266 -17.815392 6.360016 0.678431
42.522266 -17.815392 5.673184 0.678431
42.522270 -17.815390 4.994487 0.678431
42.522266 -17.815392 4.322350 0.678431
42.522266 -17.815390 3.655255 0.678431
42.522266 -17.815392 2.991733 0.678431
42.802273 -16.864012 2.314113 0.479779
42.802273 -16.864012 1.685887 0.521078
42.802273 -16.864014 1.056987 0.509436
42.802273 -16.864012 0.426061 0.516789
43.313442 -15.127207 0.000017 0.532843
44.415154 -11.383923 -0.000007 0.539828
45.118542 -8.994015 -0.000006 0.337132
45.607418 -7.332945 -0.000006 0.336520
45.967606 -6.109138 -0.000004 0.329902
42.612713 -17.028225 6.861198 0.160784
42.612713 -17.028225 6.191509 0.160784
42.612713 -17.028221 5.531221 0.160784
42.612713 -17.028223 4.878755 0.160784
42.612713 -17.028225 4.232594 0.160784
42.612713 -17.028223 3.591282 0.160784
42.612713 -17.028225 2.953404 0.160784
42.802273 -16.400372 2.306843 0.386152
42.802273 -16.400372 1.693158 0.668260
42.802273 -16.400373 1.078815 0.430515
42.802273 -16.400370 0.462494 0.477696
43.197136 -15.092527 0.000018 0.540809
44.324951 -11.357020 -0.000006 0.532475
45.045006 -8.972079 -0.000003 0.335294
45.545467 -7.314477 -0.000006 0.332475
45.914196 -6.093182 0.000005 0.335907
42.522278 -16.862194 6.828050 0.678431
42.522278 -16.862192 6.162926 0.678431
42.522278 -16.862196 5.507143 0.678431
42.522278 -16.862196 4.859125 0.678431
42.522278 -16.862194 4.217371 0.678431
42.522278 -16.862196 3.580431 0.678431
42.522278 -16.862198 2.946903 0.678431
42.802273 -15.957672 2.299914 0.668137
42.802273 -15.957672 1.700086 0.516667
42.802273 -15.957674 1.099613 0.672426
42.802273 -15.957672 0.497207 0.793873
43.081066 -15.057039 0.000018 0.523162
44.234932 -11.329498 -0.000006 0.542525
44.971622 -8.949642 -0.000003 0.332108
45.483643 -7.295571 -0.000005 0.337010
45.860886 -6.076901 0.000000 0.330882
42.522274 -16.417192 6.721682 0.678431
42.522274 -16.417191 6.071213 0.678431
42.522274 -16.417194 5.429877 0.678431
42.522274 -16.417191 4.796136 0.678431
42.522274 -16.417192 4.168520 0.678431
42.522274 -16.417194 3.545613 0.678431
42.522274 -16.417192 2.926042 0.678431
42.802273 -15.534525 2.293307 0.863480
42.802273 -15.534525 1.706693 0.581618
42.802273 -15.534525 1.119450 0.782721
42.802273 -15.534525 0.530315 0.597794
42.965252 -15.020750 0.000017 0.542892
44.145115 -11.301352 -0.000006 0.530637
44.898403 -8.926681 -0.000000 0.335907
45.421955 -7.276239 -0.000005 0.332966
45.807693 -6.060234 0.000000 0.328431
42.522270 -15.991341 6.620119 0.678431
42.522270 -15.991341 5.983641 0.678431
42.522274 -15.991339 5.356099 0.678431
42.522270 -15.991339 4.735990 0.678431
42.522274 -15.991339 4.121874 0.678431
42.522270 -15.991341 3.512366 0.678431
42.522274 -15.991339 2.906122 0.678431
42.802273 -15.129587 2.286997 0.809804
42.802273 -15.129587 1.713002 0.499265
42.802273 -15.129587 1.138391 0.435172
42.802273 -15.129587 0.561929 0.497059
42.849655 -14.983763 0.000003 0.529044
44.055531 -11.272454 0.000013 0.533946
44.825348 -8.903206 0.000003 0.339093
45.360405 -7.256470 -0.000004 0.339338
45.754620 -6.043194 0.000000 0.336765
42.522270 -15.583395 6.523045 0.678431
42.522270 -15.583393 5.899940 0.678431
42.522270 -15.583395 5.285583 0.678431
42.522270 -15.583391 4.678504 0.678431
42.522270 -15.583393 4.077291 0.678431
42.522270 -15.583395 3.480590 0.678431
42.522270 -15.583393 2.887084 0.678431
42.802273 -14.741678 2.280968 0.631250
42.802273 -14.741676 1.719033 0.630637
42.802273 -14.741678 1.156495 0.244240
42.802273 -14.741678 0.592145 0.425858
42.802273 -14.741678 0.024757 0.392892
43.966114 -11.243046 0.000014 0.545588
44.752445 -8.879250 0.000000 0.328186
45.298985 -7.236284 -0.000005 0.336029
45.701660 -6.025796 -0.000003 0.333946
42.522270 -15.192232 6.430182 0.678431
42.522270 -15.192234 5.819870 0.678431
42.522270 -15.192234 5.218127 0.678431
42.522270 -15.192232 4.623511 0.678431
42.522270 -15.192232 4.034642 0.678431
42.522270 -15.192232 3.450192 0.678431
42.522270 -15.192232 2.868870 0.678431
42.802273 -14.369730 2.275199 0.661029
42.802273 -14.369730 1.724801 0.743260
42.802273 -14.369728 1.173813 0.589093
42.802273 -14.369727 0.621050 0.704534
42.802273 -14.369728 0.065312 0.470098
43.876900 -11.213027 0.000014 0.562745
44.679710 -8.854795 -0.000003 0.335539
45.237717 -7.215660 -0.000004 0.339093
45.648830 -6.008026 -0.000006 0.339216
42.522270 -14.816782 6.341258 0.678431
42.522270 -14.816782 5.743197 0.678431
42.522266 -14.816784 5.153533 0.678431
42.522270 -14.816782 4.570852 0.678431
42.522270 -14.816782 3.993803 0.678431
42.522270 -14.816780 3.421084 0.678431
42.522270 -14.816778 2.851430 0.678431
42.724182 -14.236963 2.273561 0.598407
42.724182 -14.236963 1.726439 0.737377
42.724182 -14.236962 1.178731 0.649510
42.724182 -14.236963 0.629259 0.669363
42.724182 -14.236961 0.076829 0.550613
43.787899 -11.182386 0.000013 0.547426
44.607147 -8.829826 -0.000006 0.330025
45.176590 -7.194611 -0.000003 0.345466
45.596123 -5.989875 -0.000005 0.339461
42.488873 -14.549885 6.280978 0.678431
42.488873 -14.549885 5.691222 0.678431
42.488869 -14.549887 5.109745 0.678431
42.488873 -14.549883 4.535155 0.678431
42.488873 -14.549881 3.966118 0.678431
42.488873 -14.549885 3.401351 0.678431
42.488873 -14.549883 2.839608 0.678431
42.600296 -14.236964 2.274234 0.868260
42.600296 -14.236964 1.725766 0.673652
42.600300 -14.236962 1.176710 0.839583
42.600300 -14.236961 0.625885 0.464461
42.600300 -14.236962 0.072095 0.589338
43.699081 -11.151219 -0.000002 0.537132
44.534763 -8.804353 -0.000009 0.339828
45.115612 -7.173138 -0.000004 0.333456
45.543549 -5.971359 -0.000005 0.329657
42.361900 -14.549885 6.291753 0.678431
42.361900 -14.549883 5.700511 0.678431
42.361900 -14.549883 5.117570 0.678431
42.361900 -14.549883 4.541534 0.678431
42.361900 -14.549881 3.971066 0.678431
42.361900 -14.549885 3.404878 0.678431
42.361900 -14.549885 2.841721 0.678431
42.475792 -14.236965 2.274925 0.514706
42.475792 -14.236963 1.725076 0.687623
42.475796 -14.236962 1.174638 0.744976
42.475792 -14.236962 0.622426 0.633946
42.475792 -14.236963 0.067243 0.492157
43.610519 -11.119335 -0.000002 0.540564
44.462566 -8.778352 -0.000008 0.335907
45.054787 -7.151242 -0.000004 0.334436
45.491100 -5.952476 -0.000004 0.337255
42.234283 -14.549885 6.302790 0.678431
42.234283 -14.549883 5.710028 0.678431
42.234283 -14.549883 5.125588 0.678431
42.234283 -14.549883 4.548071 0.678431
42.234283 -14.549885 3.976136 0.678431
42.234283 -14.549881 3.408491 0.678431
42.234283 -14.549885 2.843886 0.678431
42.350658 -14.236961 2.275631 0.443260
42.350658 -14.236961 1.724369 0.900368
42.350658 -14.236961 1.172515 0.744730
42.350658 -14.236963 0.618883 0.701348
42.350658 -14.236963 0.062272 0.635417
43.522179 -11.086833 -0.000002 0.554167
44.390553 -8.751848 -0.000006 0.330147
44.994118 -7.128914 -0.000003 0.337132
45.438786 -5.933234 -0.000006 0.334436
42.105999 -14.549885 6.314097 0.678431
42.105999 -14.549885 5.719777 0.678431
42.105999 -14.549885 5.133801 0.678431
42.105999 -14.549883 4.554767 0.678431
42.105999 -14.549885 3.981328 0.678431
42.105999 -14.549885 3.412192 0.678431
42.105999 -14.549885 2.846104 0.678431
42.224869 -14.236963 2.276356 0.412990
42.224869 -14.236963 1.723645 0.552206
42.224869 -14.236962 1.170341 0.900490
42.224869 -14.236961 0.615255 0.483333
42.224869 -14.236963 0.057181 0.608456
43.434074 -11.053703 -0.000001 0.550368
44.338242 -8.673464 0.009995 1.000000
44.933601 -7.106169 -0.000003 0.331127
45.386616 -5.913607 -0.000002 0.334436
41.977036 -14.549885 6.325672 0.678431
41.977036 -14.549883 5.729758 0.678431
41.977036 -14.549885 5.142211 0.678431
41.977036 -14.549883 4.561622 0.678431
41.977036 -14.549885 3.986644 0.678431
41.977036 -14.549885 3.415982 0.678431
41.977036 -14.549885 2.848374 0.678431
42.098412 -14.236960 2.277097 0.814828
42.098412 -14.236960 1.722903 0.526103
42.098408 -14.236963 1.168114 0.859804
42.098408 -14.236964 0.611539 0.621324
42.098408 -14.236963 0.051967 0.485417
43.346199 -11.019971 -0.000000 0.537990
44.266960 -8.646104 0.009995 1.000000
44.873253 -7.082986 0.000000 0.331863
45.334572 -5.893640 -0.000004 0.338603
41.847366 -14.549887 6.337525 0.678431
41.847366 -14.549885 5.739977 0.678431
41.847370 -14.549885 5.150820 0.678431
41.847370 -14.549885 4.568641 0.678431
41.847366 -14.549887 3.992088 0.678431
41.847366 -14.549887 3.419861 0.678431
41.847370 -14.549883 2.850698 0.678431
41.971264 -14.236962 2.277856 0.728676
41.971264 -14.236962 1.722144 0.930637
41.971264 -14.236963 1.165835 0.452206
41.971264 -14.236963 0.607735 0.481373
41.971264 -14.236963 0.046630 0.580515
43.258602 -10.985518 0.000017 0.536520
44.195873 -8.618244 0.009995 1.000000
44.813057 -7.059410 -0.000002 0.325368
45.282673 -5.873297 -0.000004 0.340931
41.716984 -14.549887 6.349653 0.678431
41.716988 -14.549885 5.750435 0.678431
41.716984 -14.549887 5.159631 0.678431
41.716988 -14.549883 4.575823 0.678431
41.716984 -14.549885 3.997658 0.678431
41.716984 -14.549887 3.423831 0.678431
41.716988 -14.549883 2.853077 0.678431
41.843414 -14.236964 2.278633 0.528676
41.843414 -14.236964 1.721367 0.870466
41.843414 -14.236963 1.163503 0.403431
41.843414 -14.236963 0.603841 0.497549
41.843414 -14.236962 0.041168 0.644608
43.171207 -10.950562 0.000017 0.539583
44.124981 -8.589890 0.009995 1.000000
44.753033 -7.035402 -0.000002 0.336887
45.230923 -5.852588 -0.000001 0.316054
41.585861 -14.549885 6.362063 0.678431
41.585861 -14.549887 5.761136 0.678431
41.585861 -14.549887 5.168645 0.678431
41.585861 -14.549885 4.583172 0.678431
41.585861 -14.549883 4.003357 0.678431
41.585861 -14.549885 3.427893 0.678431
41.585861 -14.549883 2.855511 0.678431
41.714840 -14.236965 2.279428 0.902574
41.714840 -14.236963 1.720572 0.666912
41.714840 -14.236962 1.161116 0.482108
41.714840 -14.236964 0.599858 0.579044
41.714840 -14.236961 0.035579 0.807721
43.084057 -10.914994 0.000017 0.509069
44.033356 -8.611828 0.000000 0.329289
44.693176 -7.010977 -0.000003 0.335049
45.179310 -5.831530 -0.000002 0.336029
41.453987 -14.549885 6.374758 0.678431
41.453987 -14.549883 5.772081 0.678431
41.453987 -14.549887 5.177867 0.678431
41.453987 -14.549883 4.590689 0.678431
41.453987 -14.549883 4.009188 0.678431
41.453987 -14.549885 3.432049 0.678431
41.453987 -14.549885 2.858001 0.678431
41.585526 -14.236964 2.280241 0.903186
41.585526 -14.236964 1.719759 0.733333
41.585526 -14.236963 1.158675 0.329044
41.585526 -14.236963 0.595783 0.540564
41.585526 -14.236961 0.029862 0.758456
42.997124 -10.878910 0.000003 0.554779
43.962513 -8.582339 -0.000000 0.335417
44.633495 -6.986132 -0.000003 0.326838
45.127850 -5.810112 -0.000003 0.338971
41.321327 -14.549887 6.387742 0.678431
41.321327 -14.549887 5.783277 0.678431
41.321327 -14.549887 5.187299 0.678431
41.321327 -14.549883 4.598378 0.678431
41.321331 -14.549885 4.015151 0.678431
41.321327 -14.549887 3.436299 0.678431
41.321331 -14.549883 2.860547 0.678431
41.455448 -14.236963 2.281073 0.710539
41.455448 -14.236963 1.718927 0.777328
41.455448 -14.236962 1.156178 0.395588
41.455448 -14.236964 0.591616 0.599510
41.455448 -14.236962 0.024015 0.683701
42.910477 -10.842129 0.000003 0.531495
43.891872 -8.552356 -0.000000 0.335049
44.573978 -6.960884 -0.000005 0.335907
45.076534 -5.788333 -0.000003 0.333824
41.187878 -14.549885 6.401018 0.678431
41.187878 -14.549887 5.794724 0.678431
41.187878 -14.549887 5.196942 0.678431
41.187878 -14.549887 4.606241 0.678431
41.187874 -14.549889 4.021248 0.678431
41.187878 -14.549885 3.440645 0.678431
41.187878 -14.549885 2.863151 0.678431
41.324589 -14.236964 2.281923 0.487010
41.324589 -14.236962 1.718077 0.790564
41.324589 -14.236963 1.153625 0.267402
41.324589 -14.236963 0.587354 0.493382
41.324589 -14.236963 0.018037 0.418260
42.824089 -10.804748 0.000003 0.543382
43.821449 -8.521879 0.000000 0.334559
44.514645 -6.935215 -0.000007 0.333456
45.025375 -5.766201 -0.000005 0.337623
41.053608 -14.549887 6.414589 0.678431
41.053608 -14.549887 5.806427 0.678431
41.053612 -14.549887 5.206800 0.678431
41.053612 -14.549885 4.614278 0.678431
41.053608 -14.549887 4.027482 0.678431
41.053608 -14.549885 3.445088 0.678431
41.053612 -14.549885 2.865813 0.678431
41.192932 -14.236966 2.282793 0.619485
41.192932 -14.236966 1.717207 0.378799
41.192932 -14.236965 1.151015 0.679779
41.192932 -14.236965 0.582998 0.860662
41.192932 -14.236965 0.011924 0.870221
42.737965 -10.766761 0.000003 0.530882
43.751240 -8.490912 0.000000 0.320833
44.455494 -6.909131 -0.000008 0.330760
44.974377 -5.743700 -0.000003 0.329044
40.918503 -14.549887 6.428463 0.678431
40.918503 -14.549885 5.818387 0.678431
40.918503 -14.549885 5.216877 0.678431
40.918503 -14.549885 4.622493 0.678431
40.918503 -14.549885 4.033853 0.678431
40.918503 -14.549887 3.449629 0.678431
40.918503 -14.549887 2.868534 0.678431
41.060452 -14.236962 2.283681 0.577083
41.060452 -14.236962 1.716318 0.445833
41.060452 -14.236965 1.148347 0.512010
41.060452 -14.236964 0.578545 0.485049
41.060452 -14.236963 0.005677 0.578554
42.652161 -10.728064 0.000022 0.530760
43.681244 -8.459457 -0.000000 0.337132
44.396530 -6.882621 -0.000006 0.333578
44.923534 -5.720850 -0.000003 0.341054
40.782539 -14.549887 6.442640 0.678431
40.782539 -14.549887 5.830612 0.678431
40.782539 -14.549887 5.227177 0.678431
40.782543 -14.549885 4.630888 0.678431
40.782543 -14.549885 4.040364 0.678431
40.782543 -14.549885 3.454270 0.678431
40.782539 -14.549887 2.871314 0.678431
40.927132 -14.236965 2.284590 0.484559
40.927132 -14.236965 1.715410 0.384681
40.927132 -14.236965 1.145620 0.654044
40.927132 -14.236964 0.573994 0.839706
40.927132 -14.236963 -0.000708 0.668505
42.566578 -10.688879 0.000022 0.510539
43.611473 -8.427515 -0.000000 0.336887
44.337749 -6.855709 -0.000006 0.325613
44.872856 -5.697637 -0.000000 0.342279
40.645699 -14.549885 6.457126 0.678431
40.645699 -14.549887 5.843103 0.678431
40.645699 -14.549889 5.237701 0.678431
40.645699 -14.549887 4.639468 0.678431
40.645699 -14.549887 4.047018 0.678431
40.645699 -14.549885 3.459012 0.678431
40.645699 -14.549887 2.874155 0.678431
40.792950 -14.236965 2.285518 0.623652
40.792950 -14.236965 1.714482 0.506127
40.792946 -14.236964 1.142834 0.667279
40.792950 -14.236963 0.569344 0.838971
40.819813 -14.179873 0.000027 0.540686
42.481270 -10.649100 0.000021 0.502206
43.541927 -8.395085 -0.000000 0.338113
44.279160 -6.828391 -0.000006 0.337010
44.822334 -5.674086 -0.000003 0.338235
40.507950 -14.549889 6.471927 0.678431
40.507954 -14.549885 5.855864 0.678431
40.507950 -14.549889 5.248451 0.678431
40.507954 -14.549889 4.648232 0.678431
40.507954 -14.549887 4.053815 0.678431
40.507954 -14.549887 3.463857 0.678431
40.507954 -14.549885 2.877058 0.678431
40.657879 -14.236965 2.286466 0.411765
40.657879 -14.236965 1.713534 0.464093
40.657879 -14.236963 1.139988 0.598774
40.657879 -14.236964 0.564594 0.857108
40.710175 -14.127814 0.000026 0.554534
42.396202 -10.608805 0.000008 0.558456
43.472610 -8.362169 -0.000000 0.333701
44.220764 -6.800650 -0.000004 0.330270
44.771980 -5.650176 -0.000002 0.326348
40.369282 -14.549885 6.487043 0.678431
40.369282 -14.549887 5.868899 0.678431
40.369282 -14.549885 5.259432 0.678431
40.369278 -14.549887 4.657185 0.678431
40.369282 -14.549887 4.060758 0.678431
40.369282 -14.549887 3.468806 0.678431
40.369282 -14.549887 2.880023 0.678431
40.521904 -14.236963 2.287434 0.418627
40.521904 -14.236963 1.712566 0.404167
40.521904 -14.236963 1.137081 0.719118
40.521904 -14.236965 0.559741 0.465196
40.600853 -14.075094 0.000013 0.536397
42.311459 -10.567835 0.000009 0.546691
43.403522 -8.328771 -0.000000 0.332843
44.162567 -6.772501 -0.000001 0.338480
44.721794 -5.625915 -0.000002 0.324387
40.281670 -14.445120 6.473187 0.160784
40.281670 -14.445118 5.856950 0.160784
40.281673 -14.445118 5.249366 0.160784
40.281670 -14.445118 4.648978 0.160784
40.281670 -14.445120 4.054393 0.160784
40.281670 -14.445120 3.464269 0.160784
40.281670 -14.445119 2.877305 0.160784
40.385002 -14.236963 2.288423 0.849142
40.385002 -14.236963 1.711577 0.423775
40.384998 -14.236965 1.134111 0.590196
40.385002 -14.236964 0.554785 0.547304
40.491951 -14.021511 0.000013 0.525858
42.226978 -10.526326 0.000001 0.334314
43.334671 -8.294892 -0.000000 0.329657
44.104561 -6.743960 -0.000001 0.336397
44.671780 -5.601304 -0.000002 0.333456
40.156818 -14.415776 6.480618 0.160784
40.156818 -14.415774 5.863358 0.160784
40.156818 -14.415774 5.254765 0.160784
40.156818 -14.415775 4.653379 0.160784
40.156818 -14.415776 4.057806 0.172549
40.156818 -14.415773 3.466701 0.172549
40.156818 -14.415774 2.878762 0.172549
40.247143 -14.236964 2.289434 0.823529
40.247143 -14.236964 1.710567 0.498284
40.247143 -14.236963 1.131079 0.335662
40.247143 -14.236962 0.549724 0.474877
40.383423 -13.967172 0.000012 0.533578
42.173191 -10.424038 0.009995 1.000000
43.266056 -8.260530 0.000000 0.338725
44.046757 -6.715012 -0.000001 0.335539
44.621937 -5.576349 -0.000003 0.330392
39.947491 -14.549887 6.534353 0.678431
39.947491 -14.549885 5.909691 0.678431
39.947491 -14.549889 5.293799 0.678431
39.947491 -14.549887 4.685201 0.678431
39.947491 -14.549887 4.082485 0.678431
39.947491 -14.549885 3.484292 0.678431
39.947491 -14.549887 2.889302 0.678431
40.108311 -14.236963 2.290465 0.651471
40.108311 -14.236963 1.709535 0.571691
40.108311 -14.236965 1.127982 0.545833
40.108311 -14.236963 0.544556 0.333333
40.275284 -13.912071 0.000013 0.537623
42.089741 -10.381520 0.009995 1.000000
43.197685 -8.225697 -0.000001 0.333701
43.989151 -6.685665 -0.000001 0.333946
44.572266 -5.551046 -0.000004 0.327451
39.804886 -14.549887 6.550792 0.678431
39.804886 -14.549887 5.923865 0.678431
39.804886 -14.549887 5.305739 0.678431
39.804886 -14.549885 4.694936 0.678431
39.804886 -14.549883 4.090034 0.678431
39.804886 -14.549887 3.489673 0.678431
39.804886 -14.549885 2.892526 0.678431
39.968479 -14.236964 2.291518 0.882598
39.968479 -14.236964 1.708482 0.444485
39.968479 -14.236964 1.124821 0.657353
39.968479 -14.236964 0.539279 0.453554
40.167599 -13.856082 0.000030 0.540931
42.006588 -10.338422 0.009994 1.000000
43.129555 -8.190384 -0.000001 0.336275
43.931759 -6.655911 -0.000001 0.327328
44.522778 -5.525394 -0.000005 0.320833
39.661240 -14.549887 6.567574 0.678431
39.661240 -14.549887 5.938335 0.678431
39.661240 -14.549889 5.317931 0.678431
39.661243 -14.549885 4.704874 0.678431
39.661240 -14.549885 4.097742 0.678431
39.661243 -14.549883 3.495166 0.678431
39.661240 -14.549887 2.895817 0.678431
39.827625 -14.236963 2.292593 0.880760
39.827625 -14.236963 1.707407 0.343750
39.827625 -14.236965 1.121593 0.705760
39.827625 -14.236963 0.533893 0.405147
40.060242 -13.799479 0.000030 0.539951
41.923737 -10.294754 0.009993 1.000000
43.061676 -8.154595 -0.000001 0.330882
43.874573 -6.625761 -0.000001 0.336887
44.473469 -5.499405 -0.000007 0.332230
39.516521 -14.549889 6.584705 0.678431
39.516521 -14.549887 5.953105 0.678431
39.516521 -14.549887 5.330375 0.678431
39.516521 -14.549887 4.715018 0.678431
39.516521 -14.549885 4.105609 0.678431
39.516521 -14.549885 3.500774 0.678431
39.516521 -14.549883 2.899177 0.678431
39.685719 -14.236963 2.293691 0.760172
39.685719 -14.236963 1.706310 0.404902
39.685719 -14.236962 1.118299 0.425245
39.685715 -14.236964 0.528394 0.378186
39.953022 -13.742595 -0.000032 0.539093
41.841194 -10.250493 0.009993 1.000000
42.994053 -8.118329 -0.000000 0.337377
43.817596 -6.595212 -0.000001 0.339461
44.424343 -5.473062 -0.000006 0.330147
39.370708 -14.549887 6.602189 0.678431
39.370705 -14.549889 5.968181 0.678431
39.370708 -14.549887 5.343075 0.678431
39.370708 -14.549885 4.725372 0.678431
39.370708 -14.549885 4.113640 0.678431
39.370708 -14.549885 3.506497 0.678431
39.370708 -14.549885 2.902606 0.678431
39.542740 -14.236963 2.294810 0.617034
39.542740 -14.236963 1.705190 0.553431
39.542740 -14.236964 1.114937 0.499877
39.542736 -14.236966 0.522782 0.495956
39.846554 -13.684325 -0.000010 0.533088
41.726509 -10.264694 -0.000000 0.336275
42.926678 -8.081598 -0.000000 0.336887
43.760838 -6.564266 -0.000001 0.321201
44.375404 -5.446373 -0.000005 0.333824
39.223766 -14.549885 6.620032 0.678431
39.223766 -14.549885 5.983566 0.678431
39.223763 -14.549887 5.356036 0.678431
39.223766 -14.549885 4.735939 0.678431
39.223766 -14.549885 4.121835 0.678431
39.223766 -14.549885 3.512338 0.678431
39.223763 -14.549887 2.906105 0.678431
39.398651 -14.236963 2.295954 0.476225
39.398651 -14.236963 1.704046 0.383701
39.398651 -14.236964 1.111505 0.775123
39.398651 -14.236963 0.517055 0.753676
39.740395 -13.625484 -0.000010 0.527328
41.644180 -10.219061 -0.000000 0.332843
42.859562 -8.044396 -0.000000 0.330515
43.704292 -6.532925 -0.000001 0.328186
44.326653 -5.419349 -0.000004 0.335784
39.075676 -14.549887 6.638243 0.678431
39.075676 -14.549889 5.999269 0.678431
39.075676 -14.549887 5.369265 0.678431
39.075676 -14.549885 4.746723 0.678431
39.075676 -14.549885 4.130198 0.678431
39.075676 -14.549887 3.518299 0.678431
39.075676 -14.549887 2.909677 0.678431
39.253441 -14.236964 2.297120 0.419240
39.253441 -14.236964 1.702880 0.293015
39.253441 -14.236965 1.108003 0.656740
39.253441 -14.236964 0.511210 0.803064
39.634644 -13.565925 -0.000013 0.519240
41.562180 -10.172851 0.000000 0.335907
42.792709 -8.006726 -0.000000 0.334314
43.647972 -6.501189 -0.000001 0.340809
44.278084 -5.391990 -0.000006 0.333824
38.926407 -14.549889 6.656825 0.678431
38.926407 -14.549887 6.015290 0.678431
38.926407 -14.549885 5.382763 0.678431
38.926407 -14.549887 4.757727 0.678431
38.926407 -14.549887 4.138732 0.678431
38.926407 -14.549885 3.524382 0.678431
38.926407 -14.549885 2.913321 0.678431
39.107071 -14.236966 2.298311 0.869608
39.107071 -14.236964 1.701690 0.569118
39.107071 -14.236963 1.104429 0.837623
39.107071 -14.236964 0.505245 0.766299
39.529320 -13.505606 -0.000012 0.527941
41.480495 -10.126074 -0.000000 0.333211
42.726120 -7.968590 -0.000001 0.329902
43.591873 -6.469059 -0.000001 0.329902
44.229717 -5.364284 -0.000005 0.334804
38.775928 -14.549887 6.675786 0.678431
38.775928 -14.549885 6.031639 0.678431
38.775928 -14.549887 5.396535 0.678431
38.775928 -14.549889 4.768956 0.678431
38.775928 -14.549887 4.147440 0.678431
38.775925 -14.549889 3.530589 0.678431
38.775928 -14.549887 2.917040 0.678431
38.959518 -14.236965 2.299525 0.461029
38.959518 -14.236965 1.700475 0.662500
38.959518 -14.236964 1.100783 0.506863
38.959518 -14.236965 0.499159 0.909681
39.424389 -13.444612 -0.000020 0.537745
41.399147 -10.078722 -0.000000 0.332475
42.659798 -7.929988 -0.000000 0.325000
43.535999 -6.436540 -0.000001 0.327819
44.181545 -5.336233 -0.000002 0.341544
38.624214 -14.549887 6.695131 0.678431
38.624214 -14.549889 6.048319 0.678431
38.624214 -14.549885 5.410588 0.678431
38.624214 -14.549885 4.780411 0.678431
38.624214 -14.549885 4.156324 0.678431
38.624214 -14.549885 3.536921 0.678431
38.624214 -14.549887 2.920834 0.678431
38.810753 -14.236964 2.300764 0.417892
38.810753 -14.236962 1.699236 0.628676
38.810753 -14.236964 1.097063 0.670833
38.810753 -14.236966 0.492950 0.642892
39.319916 -13.382834 -0.000021 0.537500
41.318127 -10.030807 0.000000 0.330025
42.593750 -7.890930 -0.000001 0.336397
43.480354 -6.403634 -0.000001 0.336029
44.133568 -5.307860 -0.000002 0.341176
38.471230 -14.549885 6.714866 0.678431
38.471230 -14.549885 6.065336 0.678431
38.471230 -14.549885 5.424925 0.678431
38.471230 -14.549885 4.792099 0.678431
38.471230 -14.549885 4.165389 0.678431
38.471230 -14.549885 3.543382 0.678431
38.471230 -14.549885 2.924705 0.678431
38.660736 -14.236966 2.302028 0.764706
38.660736 -14.236966 1.697972 0.502574
38.660740 -14.236965 1.093267 0.301716
38.660740 -14.236964 0.486615 0.462010
39.215881 -13.320317 -0.000021 0.541544
41.237438 -9.982328 0.000000 0.333211
42.527969 -7.851408 -0.000001 0.334069
43.424942 -6.370336 -0.000001 0.330025
44.085785 -5.279150 -0.000002 0.332843
38.316944 -14.549887 6.735003 0.678431
38.316948 -14.549887 6.082697 0.678431
38.316944 -14.549889 5.439552 0.678431
38.316948 -14.549883 4.804023 0.678431
38.316944 -14.549887 4.174637 0.678431
38.316948 -14.549885 3.549973 0.678431
