# This PCD file was generated using the MATLAB® pcwrite function
# from Computer Vision Toolbox®.
# .PCD v.7 - Point Cloud Data file format
VERSION .7
FIELDS x y z intensity
SIZE 4 4 4 4
TYPE F F F F
COUNT 1 1 1 1
WIDTH 1231
HEIGHT 1
VIEWPOINT 0 0 0 1 0 0 0
POINTS 1231
DATA ascii
30.067295 -10.782314 0.000008 0.530270
26.382175 -9.499020 0.000000 0.333701
24.029499 -8.679730 0.000000 0.334804
22.394304 -8.110294 -0.000000 0.339461
21.189568 -7.690761 -0.000000 0.325490
40.131672 -14.494911 9.041506 0.160784
40.131672 -14.494913 8.071453 0.205270
40.131672 -14.494913 7.115019 0.218995
40.131672 -14.494911 6.169913 0.177941
40.131668 -14.494911 5.233941 0.181250
40.131668 -14.494911 4.304993 0.178554
40.131668 -14.494911 3.381018 0.179289
39.407143 -14.236919 2.447425 0.571446
39.407166 -14.236927 1.552574 0.579289
39.407154 -14.236923 0.656764 0.809191
36.627617 -13.247173 -0.000005 0.545343
30.026714 -10.896697 0.000041 0.542770
26.350910 -9.587802 0.000000 0.329534
24.004013 -8.752110 0.000000 0.326103
22.372833 -8.171272 -0.000001 0.325123
21.171051 -7.743337 -0.000001 0.344485
39.708839 -14.549862 8.946518 0.678431
39.708839 -14.549862 7.989548 0.678431
39.708839 -14.549862 7.046017 0.678431
39.708836 -14.549860 6.113660 0.678431
39.708839 -14.549862 5.190315 0.678431
39.708839 -14.549862 4.273898 0.678431
39.708843 -14.549862 3.362388 0.678431
38.849045 -14.236921 2.438833 0.888235
38.849068 -14.236929 1.561167 0.497917
38.849060 -14.236927 0.682561 0.557230
36.569942 -13.407396 -0.000006 0.529289
29.985764 -11.010950 0.000021 0.546078
26.319023 -9.676365 0.000000 0.338113
23.978016 -8.824308 0.000000 0.329779
22.350933 -8.232099 -0.000001 0.337255
21.152168 -7.795783 -0.000000 0.327451
39.153435 -14.549868 8.815950 0.678431
39.153431 -14.549866 7.876969 0.678431
39.153431 -14.549864 6.951172 0.678431
39.153431 -14.549864 6.036340 0.678431
39.153431 -14.549864 5.130351 0.678431
39.153431 -14.549864 4.231158 0.678431
39.153427 -14.549864 3.336781 0.678431
38.311985 -14.236933 2.430584 0.738725
38.311954 -14.236923 1.569416 0.558456
38.311947 -14.236919 0.707325 0.415196
36.511143 -13.567207 -0.000006 0.546446
29.943645 -11.124776 0.000046 0.550368
26.286522 -9.764704 0.000000 0.325123
23.951521 -8.896324 0.000000 0.333824
22.328609 -8.292769 -0.000000 0.335539
21.132921 -7.848096 -0.000000 0.338603
38.618488 -14.549870 8.690521 0.678431
38.618488 -14.549868 7.768820 0.678431
38.618488 -14.549870 6.860059 0.678431
38.618481 -14.549868 5.962062 0.678431
38.618488 -14.549870 5.072744 0.678431
38.618488 -14.549870 4.190099 0.678431
38.618488 -14.549870 3.312181 0.678431
37.794693 -14.236938 2.422661 0.437255
37.794666 -14.236929 1.577340 0.712010
37.794659 -14.236925 0.731113 0.618627
36.451244 -13.726611 -0.000007 0.529902
29.901226 -11.238491 0.000012 0.543505
26.253401 -9.852812 0.000001 0.334191
23.924522 -8.968154 0.000000 0.338725
22.305864 -8.353283 -0.000000 0.341054
21.113306 -7.900273 -0.000000 0.330637
37.757092 -14.415760 8.477042 0.160784
37.757092 -14.415758 7.584751 0.168137
37.757088 -14.415760 6.704987 0.165196
37.757088 -14.415760 5.835643 0.160784
37.757095 -14.415760 4.974701 0.160784
37.757088 -14.415758 4.120219 0.160784
37.757088 -14.415758 3.270312 0.160784
37.296032 -14.236927 2.415042 0.589461
37.296047 -14.236933 1.584957 0.645098
37.296036 -14.236929 0.753981 0.466912
36.390224 -13.885588 -0.000008 0.527696
29.857811 -11.351830 0.000002 0.530882
26.219669 -9.940689 0.000001 0.332353
23.897024 -9.039794 0.000000 0.330760
22.282696 -8.413637 -0.000000 0.333578
21.093332 -7.952313 -0.000000 0.336029
37.605438 -14.549871 8.453934 0.678431
37.605434 -14.549871 7.564825 0.678431
37.605434 -14.549871 6.688200 0.678431
37.605438 -14.549871 5.821958 0.678431
37.605434 -14.549871 4.964087 0.678431
37.605438 -14.549871 4.112655 0.678431
37.605434 -14.549870 3.265779 0.678431
36.815029 -14.236927 2.407714 0.501593
36.815041 -14.236933 1.592286 0.816422
36.815044 -14.236933 0.775982 0.565686
36.328098 -14.044138 -0.000009 0.539828
29.813335 -11.464760 0.000025 0.524510
26.185326 -10.028328 0.000000 0.332353
23.869022 -9.111239 0.000000 0.338358
22.259109 -8.473829 -0.000001 0.335784
21.072990 -8.004211 -0.000000 0.336397
36.793327 -14.415758 8.252581 0.160784
36.793327 -14.415758 7.391212 0.160784
36.793327 -14.415758 6.541936 0.160784
36.793327 -14.415758 5.702719 0.160784
36.793324 -14.415758 4.871612 0.160784
36.793324 -14.415758 4.046742 0.160784
36.793327 -14.415758 3.226290 0.160784
36.350727 -14.236937 2.400659 0.671569
36.350704 -14.236928 1.599341 0.722672
36.350708 -14.236929 0.797163 0.832108
36.350681 -14.236919 -0.007598 0.491176
29.768349 -11.577484 0.000015 0.524265
26.150368 -10.115725 0.000000 0.330147
23.840527 -9.182487 0.000000 0.331618
22.235100 -8.533854 -0.000001 0.327206
21.052292 -8.055967 -0.000000 0.316422
36.661407 -14.549873 8.234680 0.678431
36.661407 -14.549873 7.375776 0.678431
36.661407 -14.549873 6.528931 0.678431
36.661407 -14.549873 5.692118 0.678431
36.661404 -14.549873 4.863391 0.678431
36.661407 -14.549873 4.040882 0.678431
36.661404 -14.549871 3.222779 0.678431
35.902180 -14.236942 2.393864 0.681127
35.902161 -14.236934 1.606137 0.461765
35.902153 -14.236932 0.817565 0.631740
35.902134 -14.236923 0.026454 0.495098
29.722950 -11.690047 -0.000043 0.531985
26.114803 -10.202877 0.000000 0.335662
23.811531 -9.253536 0.000000 0.333701
22.210674 -8.593710 -0.000001 0.337990
21.031231 -8.107578 -0.000001 0.337868
36.213013 -14.549874 8.130986 0.678431
36.213005 -14.549873 7.286367 0.678431
36.213009 -14.549873 6.453608 0.678431
36.213005 -14.549872 5.630710 0.678431
36.213009 -14.549873 4.815767 0.678431
36.213005 -14.549872 4.006939 0.678431
36.213005 -14.549873 3.202442 0.678431
35.468571 -14.236942 2.387313 0.635049
35.468552 -14.236934 1.612687 0.402696
35.468552 -14.236934 0.837231 0.570588
35.468533 -14.236925 0.059278 0.649510
29.676270 -11.802082 -0.000038 0.546691
26.016808 -10.263786 0.009948 1.000000
23.782043 -9.324378 0.000000 0.323162
22.185829 -8.653391 -0.000000 0.335049
21.009811 -8.159039 -0.000001 0.341422
35.779243 -14.549874 8.030970 0.678431
35.779243 -14.549874 7.200130 0.678431
35.779243 -14.549875 6.380956 0.678431
35.779243 -14.549873 5.571482 0.678431
35.779243 -14.549873 4.769834 0.678431
35.779243 -14.549874 3.974199 0.678431
35.779240 -14.549873 3.182826 0.678431
35.049107 -14.236938 2.380995 0.469485
35.049088 -14.236929 1.619006 0.423775
35.049088 -14.236929 0.856200 0.475000
35.049065 -14.236919 0.090938 0.425245
29.628910 -11.913837 -0.000046 0.533088
25.980824 -10.350266 0.009849 1.000000
23.752060 -9.395016 -0.000000 0.333088
22.160568 -8.712901 -0.000000 0.337745
20.988029 -8.210350 -0.000001 0.328922
35.359386 -14.549873 7.934451 0.678431
35.359390 -14.549874 7.116908 0.678431
35.359386 -14.549873 6.310842 0.678431
35.359386 -14.549872 5.514325 0.678431
35.359386 -14.549873 4.725505 0.678431
35.359383 -14.549872 3.942605 0.678431
35.359386 -14.549872 3.163896 0.678431
34.643112 -14.236941 2.374897 0.699265
34.643089 -14.236931 1.625103 0.516544
34.643093 -14.236931 0.874505 0.355882
34.643074 -14.236924 0.121490 0.534804
29.580486 -12.025133 -0.000018 0.546569
26.004471 -10.462809 0.000000 0.335172
23.721584 -9.465441 0.000000 0.338603
22.134895 -8.772232 -0.000000 0.338480
20.965891 -8.261507 -0.000000 0.327696
34.952744 -14.549873 7.841252 0.678431
34.952744 -14.549873 7.036549 0.678431
34.952744 -14.549873 6.243143 0.678431
34.952744 -14.549874 5.459135 0.678431
34.952744 -14.549873 4.682703 0.678431
34.952744 -14.549873 3.912097 0.678431
34.952747 -14.549873 3.145618 0.678431
34.249874 -14.236935 2.369009 0.776471
34.249878 -14.236938 1.630991 0.592402
34.249889 -14.236942 0.892179 0.900980
34.249851 -14.236926 0.150990 0.587132
29.531567 -12.136209 -0.000026 0.532353
25.966484 -10.548932 0.000000 0.339093
23.690619 -9.535650 0.000000 0.331127
22.108807 -8.831382 -0.000000 0.335172
20.943398 -8.312509 -0.000000 0.336520
34.409370 -14.482157 7.710152 0.124510
34.409367 -14.482155 6.923507 0.130392
34.409367 -14.482155 6.147909 0.124632
34.409367 -14.482156 5.381496 0.099510
34.409367 -14.482156 4.622492 0.113725
34.409367 -14.482155 3.869181 0.160784
34.409367 -14.482156 3.119905 0.160784
33.868771 -14.236930 2.363321 0.763358
33.868793 -14.236940 1.636678 0.584681
33.868801 -14.236943 0.909256 0.682476
33.868767 -14.236928 0.179492 0.596814
29.481682 -12.246857 -0.000009 0.540564
25.928089 -10.634875 -0.000031 0.549265
23.659161 -9.605643 0.000000 0.333456
22.082306 -8.890350 -0.000000 0.338603
20.920547 -8.363352 -0.000000 0.334559
34.176510 -14.549872 7.664178 0.678431
34.176510 -14.549872 6.883869 0.678431
34.176510 -14.549872 6.114513 0.678431
34.176506 -14.549871 5.354272 0.678431
34.176506 -14.549870 4.601377 0.678431
34.176506 -14.549870 3.854132 0.678431
34.176514 -14.549873 3.110889 0.678431
33.499256 -14.236938 2.357824 0.462500
33.499237 -14.236929 1.642177 0.402941
33.499245 -14.236932 0.925763 0.451471
33.499226 -14.236923 0.207043 0.552941
29.430950 -12.357116 0.000017 0.520343
25.888744 -10.720387 -0.000004 0.547794
23.627220 -9.675415 0.000000 0.328186
22.055393 -8.949129 -0.000000 0.330515
20.897343 -8.414034 -0.000000 0.327574
33.805748 -14.549874 7.580008 0.678431
33.805752 -14.549875 6.811295 0.678431
33.805744 -14.549872 6.053372 0.678431
33.805748 -14.549873 5.304428 0.678431
33.805748 -14.549873 4.562722 0.678431
33.805748 -14.549874 3.826580 0.678431
33.805748 -14.549875 3.094381 0.678431
33.140736 -14.236943 2.352506 0.568382
33.140717 -14.236933 1.647494 0.536397
33.140720 -14.236937 0.941726 0.597672
33.140701 -14.236926 0.233685 0.621936
29.379719 -12.467142 0.000009 0.543750
25.849010 -10.805717 -0.000012 0.534191
23.594788 -9.744961 0.000000 0.331373
22.028072 -9.007720 -0.000000 0.338971
20.873783 -8.464552 0.000000 0.333211
33.445820 -14.549874 7.498566 0.678431
33.445824 -14.549874 6.741072 0.678431
33.445827 -14.549876 5.994213 0.678431
33.445824 -14.549875 5.256198 0.678431
33.445827 -14.549876 4.525318 0.678431
33.445824 -14.549875 3.799921 0.678431
33.445827 -14.549876 3.078408 0.678431
32.792667 -14.236936 2.347361 0.407353
32.792648 -14.236925 1.652639 0.731495
32.792660 -14.236932 0.957172 0.687255
32.792637 -14.236919 0.259467 0.488480
29.327724 -12.576812 0.000001 0.514828
25.808514 -10.890688 0.000008 0.531863
23.561874 -9.814279 0.000000 0.335294
22.000343 -9.066118 -0.000001 0.339951
20.849874 -8.514906 0.000000 0.337132
32.821270 -14.415767 7.343097 0.160784
32.821266 -14.415766 6.607019 0.160784
32.821270 -14.415767 5.881278 0.160784
32.821270 -14.415768 5.164131 0.160784
32.821266 -14.415766 4.453916 0.172549
32.821266 -14.415766 3.749029 0.172549
32.821270 -14.415767 3.047916 0.172549
32.454620 -14.236940 2.342381 0.578799
32.454601 -14.236930 1.657619 0.594363
32.454609 -14.236934 0.972124 0.615441
32.454590 -14.236924 0.284422 0.565441
29.274975 -12.686123 -0.000009 0.528186
25.767588 -10.975454 0.000001 0.529902
23.528473 -9.883366 0.000000 0.336397
21.972204 -9.124323 -0.000000 0.336887
20.825615 -8.565093 -0.000000 0.345956
32.756512 -14.549874 7.343374 0.623284
32.756512 -14.549873 6.607258 0.616667
32.756512 -14.549873 5.881478 0.613603
32.756512 -14.549873 5.164295 0.603554
32.756512 -14.549874 4.454042 0.598284
32.756512 -14.549873 3.749119 0.591667
32.756512 -14.549872 3.047971 0.628676
32.126102 -14.236936 2.337557 0.528922
32.126114 -14.236942 1.662443 0.771936
32.126114 -14.236942 0.986604 0.578799
32.126095 -14.236933 0.308590 0.424265
29.221218 -12.794939 0.000013 0.545221
25.725887 -11.059841 0.000025 0.522059
23.494596 -9.952218 0.000000 0.334191
21.943665 -9.182328 -0.000000 0.334559
20.801004 -8.615107 -0.000000 0.334069
32.426208 -14.549872 7.269394 0.678431
32.426208 -14.549871 6.543470 0.678431
32.426208 -14.549872 5.827740 0.678431
32.426208 -14.549872 5.120484 0.678431
32.426208 -14.549871 4.420065 0.678431
32.426208 -14.549872 3.724902 0.678431
32.426212 -14.549873 3.033462 0.678431
31.806709 -14.236940 2.332884 0.647549
31.806690 -14.236931 1.667117 0.603186
31.806698 -14.236934 1.000635 0.526593
31.806686 -14.236928 0.332008 0.834681
29.166927 -12.903491 0.000006 0.537745
25.683903 -11.144087 -0.000002 0.519485
23.460236 -10.020832 0.000000 0.332475
21.914715 -9.240133 0.000000 0.331373
20.776047 -8.664949 -0.000000 0.325000
31.843971 -14.415763 7.124195 0.160784
31.843971 -14.415763 6.418275 0.160784
31.843971 -14.415764 5.722265 0.160784
31.843971 -14.415763 5.034499 0.160784
31.843971 -14.415763 4.353380 0.160784
31.843967 -14.415762 3.677372 0.160784
31.843971 -14.415764 3.004985 0.160784
31.496033 -14.236948 2.328354 0.480392
31.496017 -14.236939 1.671646 0.506985
31.496014 -14.236938 1.014235 0.461765
31.495998 -14.236931 0.354706 0.649632
29.111889 -13.011664 -0.000002 0.533088
25.641212 -11.227978 -0.000009 0.560539
23.425400 -10.089205 -0.000000 0.334191
21.885368 -9.297735 -0.000000 0.328431
20.750742 -8.714617 -0.000001 0.337868
31.792240 -14.549873 7.128150 0.597672
31.792236 -14.549873 6.421684 0.586029
31.792240 -14.549874 5.725137 0.603186
31.792236 -14.549872 5.036841 0.587255
31.792236 -14.549873 4.355197 0.649510
31.792236 -14.549873 3.678667 0.622917
31.792236 -14.549872 3.005760 0.588603
31.193649 -14.236938 2.323961 0.635784
31.193653 -14.236941 1.676039 0.524142
31.193657 -14.236942 1.027422 0.471324
31.193645 -14.236937 0.376717 0.482475
29.056099 -13.119454 -0.000011 0.547794
25.597925 -11.311563 -0.000015 0.543505
23.390087 -10.157333 -0.000000 0.340564
21.855614 -9.355131 -0.000000 0.331618
20.725088 -8.764106 -0.000001 0.335539
31.487801 -14.549871 7.060693 0.678431
31.487801 -14.549871 6.363522 0.678431
31.487804 -14.549871 5.676137 0.678431
31.487804 -14.549872 4.996895 0.678431
31.487801 -14.549871 4.324217 0.678431
31.487801 -14.549870 3.656586 0.678431
31.487801 -14.549871 2.992530 0.678431
30.899273 -14.236944 2.319700 0.649265
30.899254 -14.236936 1.680300 0.772794
30.899258 -14.236937 1.040216 0.594485
30.899242 -14.236930 0.398070 0.769608
28.999336 -13.226731 0.000010 0.517892
25.553917 -11.394769 0.000004 0.564951
23.354298 -10.225210 0.000000 0.335417
21.825464 -9.412315 -0.000000 0.335662
20.699091 -8.813412 -0.000000 0.340809
31.017567 -14.455961 6.945771 0.160784
31.017570 -14.455963 6.264431 0.160784
31.017570 -14.455961 5.592657 0.160784
31.017567 -14.455961 4.928838 0.160784
31.017570 -14.455962 4.271436 0.160784
31.017567 -14.455960 3.618967 0.160784
31.017567 -14.455960 2.969991 0.160784
30.612511 -14.236947 2.315565 0.555637
30.612495 -14.236938 1.684436 0.560907
30.612495 -14.236939 1.052631 0.569975
30.612484 -14.236933 0.418792 0.663113
28.942026 -13.333720 0.000004 0.530882
25.509474 -11.477745 -0.000003 0.535662
23.269627 -10.266665 0.010013 1.000000
21.794916 -9.469291 -0.000000 0.331618
20.672749 -8.862537 -0.000001 0.336765
30.902287 -14.549881 6.931679 0.678431
30.902283 -14.549879 6.252279 0.678431
30.902283 -14.549880 5.582419 0.678431
30.902283 -14.549879 4.920492 0.678431
30.902283 -14.549879 4.264964 0.678431
30.902287 -14.549881 3.614354 0.666667
30.902283 -14.549880 2.967227 0.668015
30.333057 -14.236946 2.311549 0.458333
30.333042 -14.236938 1.688451 0.703922
30.333046 -14.236938 1.064685 0.475735
30.333031 -14.236930 0.438910 0.703922
28.884071 -13.440358 -0.000015 0.529289
25.464436 -11.560398 -0.000006 0.539706
23.233921 -10.334162 0.009838 1.000000
21.763969 -9.526050 -0.000001 0.331740
20.646067 -8.911478 -0.000001 0.331863
30.380562 -14.415763 6.801091 0.160784
30.380566 -14.415763 6.139682 0.160784
30.380562 -14.415763 5.487559 0.160784
30.380562 -14.415762 4.843160 0.160784
30.380562 -14.415763 4.204989 0.160784
30.380562 -14.415763 3.571606 0.160784
30.380566 -14.415764 2.941616 0.160784
30.060612 -14.236948 2.307650 0.785049
30.060604 -14.236944 1.692350 0.513235
30.060608 -14.236945 1.076391 0.757966
30.060589 -14.236936 0.458449 0.472672
28.825281 -13.546545 -0.000022 0.541176
25.418850 -11.642755 -0.000015 0.543260
23.195328 -10.400070 0.010166 1.000000
21.732630 -9.582595 -0.000001 0.333946
20.619043 -8.960232 -0.000001 0.330882
30.307068 -14.527906 6.798842 0.303186
30.307072 -14.527907 6.137743 0.322304
30.307072 -14.527907 5.485926 0.341422
30.307068 -14.527906 4.841828 0.258824
30.307068 -14.527905 4.203957 0.272794
30.307068 -14.527905 3.570870 0.282721
30.307068 -14.527906 2.941175 0.291912
29.794876 -14.236940 2.303861 0.489461
29.794865 -14.236933 1.696139 0.486765
29.794865 -14.236935 1.087765 0.392279
29.794861 -14.236931 0.477432 0.874265
28.765743 -13.652311 -0.000028 0.554902
25.372667 -11.724775 -0.000019 0.546446
23.206432 -10.494182 -0.000000 0.341054
21.700891 -9.638916 -0.000001 0.343260
20.591679 -9.008795 -0.000001 0.339093
30.077629 -14.549876 6.751706 0.678431
30.077629 -14.549876 6.097099 0.678431
30.077625 -14.549874 5.451685 0.678431
30.077629 -14.549876 4.813914 0.678431
30.077629 -14.549877 4.182308 0.678431
30.077629 -14.549876 3.555441 0.678431
30.077625 -14.549874 2.931930 0.678431
29.535610 -14.236941 2.300180 0.808088
29.535606 -14.236938 1.699820 0.510172
29.535604 -14.236938 1.098817 0.619976
29.535595 -14.236933 0.495879 0.683578
28.705282 -13.757551 -0.000008 0.533824
25.325787 -11.806398 -0.000001 0.561642
23.168293 -10.560769 -0.000000 0.338725
21.668762 -9.695015 -0.000000 0.326103
20.563978 -9.057167 -0.000001 0.341667
29.815918 -14.549876 6.695048 0.678431
29.815918 -14.549876 6.048247 0.678431
29.815918 -14.549876 5.410528 0.678431
29.815918 -14.549875 4.780363 0.678431
29.815918 -14.549876 4.156286 0.678431
29.815918 -14.549876 3.536894 0.678431
29.815918 -14.549875 2.920818 0.678431
29.282532 -14.236939 2.296601 0.639461
29.282522 -14.236934 1.703400 0.535417
29.282522 -14.236934 1.109563 0.484559
29.282520 -14.236932 0.513814 0.754902
28.643990 -13.862309 0.000024 0.547304
25.278248 -11.887640 0.000031 0.561029
23.129576 -10.627021 0.000025 0.536029
21.636246 -9.750889 -0.000001 0.334804
20.535936 -9.105341 -0.000001 0.342402
29.560371 -14.549878 6.639950 0.678431
29.560369 -14.549877 6.000740 0.678431
29.560371 -14.549878 5.370505 0.678431
29.560368 -14.549876 4.747734 0.678431
29.560371 -14.549878 4.130982 0.678431
29.560368 -14.549876 3.518857 0.678431
29.560371 -14.549878 2.910012 0.678431
29.035423 -14.236945 2.293120 0.614583
29.035412 -14.236938 1.706880 0.481740
29.035412 -14.236939 1.120012 0.711765
29.035402 -14.236934 0.531254 0.356005
28.582237 -13.966794 0.000019 0.511397
25.230377 -11.968682 0.000024 0.515319
23.090553 -10.693092 0.000016 0.547549
21.603336 -9.806534 -0.000001 0.334926
20.507565 -9.153321 -0.000001 0.335417
29.310732 -14.549878 6.586349 0.678431
29.310730 -14.549879 5.954524 0.678431
29.310730 -14.549878 5.331569 0.678431
29.310730 -14.549877 4.715992 0.678431
29.310734 -14.549879 4.106365 0.678431
29.310730 -14.549877 3.501312 0.678431
29.310730 -14.549877 2.899499 0.678431
28.794014 -14.236944 2.289734 0.804167
28.794003 -14.236938 1.710267 0.548529
28.794003 -14.236937 1.130178 0.794118
28.793999 -14.236934 0.548221 0.743015
28.519760 -14.070849 0.000015 0.545343
25.181923 -12.049381 0.000019 0.553309
23.051044 -10.758877 0.000014 0.536887
21.570038 -9.861948 -0.000000 0.329044
20.478853 -9.201101 -0.000001 0.332108
29.066786 -14.549879 6.534194 0.678431
29.066788 -14.549880 5.909553 0.678431
29.066784 -14.549879 5.293682 0.678431
29.066786 -14.549879 4.685106 0.678431
29.066784 -14.549878 4.082411 0.678431
29.066784 -14.549879 3.484239 0.678431
29.066784 -14.549878 2.889270 0.678431
28.558119 -14.236945 2.286439 0.422549
28.558109 -14.236939 1.713562 0.595221
28.558104 -14.236936 1.140070 0.563480
28.558104 -14.236936 0.564731 0.743995
28.456581 -14.174479 0.000007 0.548529
25.132908 -12.129741 0.000014 0.530392
23.011099 -10.824396 0.000006 0.544485
21.536358 -9.917128 -0.000000 0.336887
20.449812 -9.248680 -0.000001 0.324020
28.828312 -14.549879 6.483425 0.678431
28.828310 -14.549879 5.865777 0.678431
28.828310 -14.549878 5.256803 0.678431
28.828312 -14.549880 4.655042 0.678431
28.828308 -14.549878 4.059094 0.678431
28.828312 -14.549879 3.467621 0.678431
28.828308 -14.549878 2.879313 0.678431
28.327507 -14.236943 2.283232 0.768015
28.327499 -14.236938 1.716769 0.567647
28.327499 -14.236938 1.149698 0.500613
28.327492 -14.236933 0.580802 0.617892
28.327494 -14.236935 0.008842 0.458946
25.083340 -12.209761 0.000009 0.518995
22.970676 -10.889622 0.000004 0.556127
21.502293 -9.972073 -0.000000 0.322549
20.420439 -9.296057 -0.000001 0.333456
28.595114 -14.549880 6.433995 0.678431
28.595110 -14.549878 5.823157 0.678431
28.595112 -14.549879 5.220897 0.678431
28.595112 -14.549880 4.625770 0.678431
28.595112 -14.549880 4.036394 0.678431
28.595112 -14.549879 3.451440 0.678431
28.595112 -14.549880 2.869619 0.678431
28.102013 -14.236949 2.280109 0.526961
28.102001 -14.236942 1.719891 0.823652
28.102005 -14.236944 1.159072 0.498284
28.101988 -14.236934 0.596448 0.581985
28.101994 -14.236938 0.030794 0.630024
25.033205 -12.289425 0.000005 0.562745
22.929813 -10.954573 -0.000002 0.555515
21.467844 -10.026777 -0.000001 0.340931
20.390736 -9.343223 -0.000001 0.334804
28.366985 -14.549881 6.385856 0.678431
28.366985 -14.549881 5.781650 0.678431
28.366985 -14.549880 5.185928 0.678431
28.366985 -14.549881 4.597261 0.678431
28.366982 -14.549879 4.014285 0.678431
28.366985 -14.549881 3.435681 0.678431
28.366982 -14.549879 2.860177 0.678431
27.881403 -14.236944 2.277068 0.862377
27.881393 -14.236938 1.722932 0.804534
27.881397 -14.236941 1.168202 0.437010
27.881382 -14.236931 0.611687 0.463113
27.881382 -14.236932 0.052175 0.749265
24.982433 -12.368685 0.000015 0.552083
22.888422 -11.019188 0.000008 0.549510
21.433010 -10.081238 -0.000000 0.339338
20.360703 -9.390182 -0.000001 0.340931
27.938797 -14.415765 6.277606 0.166054
27.938797 -14.415765 5.688313 0.166789
27.938795 -14.415764 5.107294 0.167525
27.938797 -14.415765 4.533157 0.165196
27.938797 -14.415765 3.964569 0.164461
27.938797 -14.415766 3.400247 0.160784
27.938795 -14.415764 2.838947 0.160784
27.665537 -14.236949 2.274105 0.541667
27.665525 -14.236941 1.725895 0.557598
27.665527 -14.236943 1.177097 0.475000
27.665516 -14.236936 0.626531 0.511887
27.665520 -14.236937 0.073002 0.294485
24.931274 -12.447697 -0.000004 0.514706
22.846649 -11.083557 0.000004 0.512500
21.397802 -10.135458 -0.000000 0.334314
20.330345 -9.436933 -0.000001 0.330637
27.876465 -14.517488 6.278597 0.205515
27.876467 -14.517489 5.689168 0.225858
27.876465 -14.517488 5.108014 0.249877
27.876465 -14.517488 4.533745 0.206985
27.876465 -14.517488 3.965024 0.214828
27.876465 -14.517487 3.400571 0.224877
27.876465 -14.517488 2.839141 0.234314
27.454214 -14.236945 2.271218 0.571936
27.454206 -14.236940 1.728782 0.719485
27.454206 -14.236940 1.185764 0.694975
27.454193 -14.236931 0.640998 0.873652
27.454197 -14.236934 0.093298 0.837745
24.879475 -12.526292 -0.000007 0.532108
22.804422 -11.147630 0.000000 0.547794
21.362213 -10.189428 -0.000001 0.335907
20.299658 -9.483468 -0.000001 0.336397
27.711239 -14.549878 6.248718 0.678431
27.711239 -14.549878 5.663404 0.678431
27.711239 -14.549878 5.086311 0.678431
27.711237 -14.549877 4.516050 0.678431
27.711237 -14.549877 3.951302 0.678431
27.711237 -14.549878 3.390790 0.678431
27.711235 -14.549877 2.833281 0.678431
27.247307 -14.236954 2.268405 0.550490
27.247299 -14.236948 1.731595 0.718750
27.247299 -14.236948 1.194210 0.709804
27.247288 -14.236940 0.655095 0.720466
27.247293 -14.236944 0.113077 0.821569
24.827059 -12.604475 0.000003 0.546569
22.761627 -11.211324 0.000024 0.526961
21.326252 -10.243151 -0.000001 0.337377
20.268648 -9.529787 -0.000000 0.335049
27.501637 -14.549875 6.205294 0.678431
27.501637 -14.549876 5.625963 0.678431
27.501637 -14.549875 5.054766 0.678431
27.501633 -14.549875 4.490335 0.678431
27.501637 -14.549876 3.931358 0.678431
27.501637 -14.549875 3.376576 0.678431
27.501635 -14.549874 2.824764 0.678431
27.044619 -14.236949 2.265661 0.579167
27.044611 -14.236944 1.734339 0.751471
27.044611 -14.236944 1.202446 0.839216
27.044601 -14.236938 0.668841 0.753309
27.044607 -14.236941 0.132362 0.635784
24.774166 -12.682337 0.000000 0.513848
22.718513 -11.274801 0.000020 0.531127
21.251652 -10.270422 0.010015 1.000000
20.237318 -9.575891 -0.000001 0.329289
27.296272 -14.549874 6.162951 0.678431
27.296270 -14.549874 5.589453 0.678431
27.296272 -14.549874 5.024008 0.678431
27.296272 -14.549875 4.465260 0.678431
27.296270 -14.549874 3.911911 0.678431
27.296270 -14.549874 3.362715 0.678431
27.296272 -14.549875 2.816460 0.678431
26.846024 -14.236944 2.262986 0.487500
26.846020 -14.236940 1.737014 0.905760
26.846020 -14.236941 1.210477 0.755392
26.846006 -14.236933 0.682245 0.395343
26.846006 -14.236933 0.151170 0.386397
24.720661 -12.759778 0.000010 0.561520
22.674950 -11.337973 0.000018 0.534681
21.215729 -10.323788 0.009856 1.000000
20.205666 -9.621775 -0.000001 0.336765
26.915268 -14.423095 6.066557 0.160784
26.915268 -14.423095 5.506340 0.160784
26.915268 -14.423094 4.953987 0.160784
26.915268 -14.423096 4.408177 0.160784
26.915268 -14.423095 3.867641 0.160784
26.915266 -14.423094 3.331162 0.160784
26.915266 -14.423094 2.797555 0.160784
26.651394 -14.236953 2.260377 0.654534
26.651386 -14.236946 1.739623 0.636887
26.651390 -14.236949 1.218309 0.837623
26.651382 -14.236943 0.695317 0.233946
26.651379 -14.236942 0.169510 0.825123
24.666618 -12.836848 0.000019 0.507966
22.630959 -11.400845 0.000013 0.544608
21.178032 -10.375919 0.010067 1.000000
20.173693 -9.667436 -0.000001 0.340564
26.897655 -14.549875 6.081358 0.583088
26.897654 -14.549875 5.519101 0.568873
26.897655 -14.549876 4.964739 0.588480
26.897655 -14.549875 4.416941 0.607966
26.897655 -14.549874 3.874439 0.627574
26.897655 -14.549875 3.336007 0.647059
26.897652 -14.549873 2.800458 0.563358
26.460566 -14.236951 2.257832 0.396446
26.460558 -14.236945 1.742168 0.734436
26.460560 -14.236946 1.225951 0.664706
26.460552 -14.236940 0.708071 0.561887
26.460550 -14.236939 0.187405 0.434191
24.612114 -12.913588 0.000016 0.540319
22.586630 -11.463484 -0.000015 0.532843
21.178677 -10.455488 -0.000001 0.338113
20.141403 -9.712873 -0.000001 0.329167
26.704132 -14.549876 6.042041 0.678431
26.704132 -14.549876 5.485201 0.678431
26.704130 -14.549875 4.936178 0.678431
26.704132 -14.549875 4.393659 0.678431
26.704132 -14.549876 3.856382 0.678431
26.704132 -14.549876 3.323137 0.678431
26.704134 -14.549877 2.792747 0.678431
26.273422 -14.236948 2.255348 0.362623
26.273428 -14.236952 1.744652 0.564338
26.273432 -14.236954 1.233407 0.714216
26.273420 -14.236945 0.720517 0.578676
26.273418 -14.236944 0.204865 0.431373
24.557007 -12.989898 0.000024 0.513848
22.541698 -11.525692 -0.000005 0.521446
21.140858 -10.507921 -0.000001 0.340319
20.108795 -9.758083 -0.000001 0.332475
26.514294 -14.549877 6.003669 0.678431
26.514292 -14.549876 5.452114 0.678431
26.514290 -14.549876 4.908303 0.678431
26.514290 -14.549875 4.370934 0.678431
26.514292 -14.549877 3.838758 0.678431
26.514292 -14.549876 3.310575 0.678431
26.514290 -14.549875 2.785221 0.678431
26.089851 -14.236953 2.252924 0.429044
26.089848 -14.236949 1.747076 0.775858
26.089848 -14.236949 1.240685 0.429412
26.089840 -14.236944 0.732663 0.650858
26.089840 -14.236943 0.221907 0.408578
24.501501 -13.065919 0.000008 0.555515
22.496395 -11.587626 -0.000009 0.534926
21.102676 -10.560088 -0.000000 0.319485
20.075874 -9.803064 -0.000001 0.341299
26.328014 -14.549876 5.966209 0.678431
26.328014 -14.549876 5.419815 0.678431
26.328014 -14.549876 4.881093 0.678431
26.328014 -14.549876 4.348751 0.678431
26.328014 -14.549876 3.821554 0.678431
26.328014 -14.549877 3.298313 0.678431
26.328014 -14.549876 2.777874 0.678431
25.909718 -14.236950 2.250557 0.488235
25.909710 -14.236946 1.749442 0.806740
25.909710 -14.236945 1.247790 0.354412
25.909706 -14.236942 0.744521 0.696691
25.909702 -14.236939 0.238544 0.619608
24.445396 -13.141499 0.000005 0.527941
22.450653 -11.649239 -0.000011 0.548407
21.064188 -10.612031 -0.000016 0.536887
20.042641 -9.847816 -0.000001 0.338971
26.145180 -14.549877 5.929633 0.678431
26.145180 -14.549876 5.388278 0.678431
26.145180 -14.549877 4.854524 0.678431
26.145180 -14.549877 4.327091 0.678431
26.145180 -14.549876 3.804756 0.678431
26.145180 -14.549876 3.286340 0.678431
26.145180 -14.549876 2.770700 0.678431
25.732914 -14.236951 2.248247 0.320833
25.732914 -14.236950 1.751753 0.777083
25.732918 -14.236953 1.254726 0.861642
25.732908 -14.236945 0.756099 0.585172
25.732904 -14.236944 0.254787 0.579534
24.388695 -13.216633 0.000015 0.522304
22.404434 -11.710495 -0.000002 0.556985
21.025204 -10.663602 0.000005 0.585049
20.009094 -9.892334 -0.000001 0.329902
25.965683 -14.549879 5.893915 0.678431
25.965683 -14.549878 5.357480 0.678431
25.965683 -14.549877 4.828578 0.678431
25.965683 -14.549877 4.305940 0.678431
25.965683 -14.549878 3.788352 0.678431
25.965685 -14.549879 3.274649 0.678431
25.965681 -14.549876 2.763695 0.678431
25.559338 -14.236951 2.245991 0.499755
25.559338 -14.236951 1.754009 0.762500
25.559340 -14.236952 1.261500 0.541054
25.559330 -14.236944 0.767405 0.518627
25.559332 -14.236945 0.270650 0.579779
24.331501 -13.291389 0.000019 0.530515
22.357796 -11.771432 0.000004 0.520956
20.985912 -10.714939 0.000012 0.509926
19.975237 -9.936613 -0.000001 0.323775
25.789406 -14.549878 5.859025 0.678431
25.789406 -14.549877 5.327397 0.678431
25.789406 -14.549878 4.803234 0.678431
25.789406 -14.549878 4.285277 0.678431
25.789406 -14.549879 3.772329 0.678431
25.789406 -14.549878 3.263227 0.678431
25.789406 -14.549878 2.756853 0.678431
25.388882 -14.236954 2.243787 0.514338
25.388872 -14.236947 1.756213 0.838848
25.388876 -14.236950 1.268117 0.452696
25.388866 -14.236942 0.778450 0.591544
25.388870 -14.236945 0.286145 0.479657
24.273825 -13.365777 0.000017 0.512132
22.310774 -11.832073 0.000002 0.518750
20.946304 -10.766031 0.000008 0.555392
19.941072 -9.980659 -0.000001 0.344485
25.616253 -14.549878 5.824940 0.678431
25.616253 -14.549879 5.298008 0.678431
25.616253 -14.549878 4.778474 0.678431
25.616251 -14.549878 4.265093 0.678431
25.616251 -14.549878 3.756674 0.678431
25.616251 -14.549877 3.252069 0.678431
25.616253 -14.549878 2.750167 0.678431
25.221437 -14.236952 2.241633 0.646078
25.221436 -14.236951 1.758367 0.902328
25.221437 -14.236952 1.274581 0.627574
25.221426 -14.236943 0.789239 0.564583
25.221428 -14.236945 0.301283 0.342157
24.215635 -13.439763 0.000013 0.516176
22.263332 -11.892387 -0.000000 0.530760
20.906336 -10.816843 0.000006 0.543995
19.906603 -10.024466 -0.000001 0.337255
25.446121 -14.549879 5.791635 0.678431
25.446121 -14.549879 5.269291 0.678431
25.446121 -14.549878 4.754281 0.678431
25.446121 -14.549879 4.245370 0.678431
25.446121 -14.549878 3.741378 0.678431
25.446121 -14.549878 3.241168 0.678431
25.446121 -14.549878 2.743636 0.678431
25.056915 -14.236948 2.239529 0.444118
25.056911 -14.236946 1.760471 0.672304
25.056913 -14.236948 1.280899 0.669363
25.056902 -14.236938 0.799782 0.515441
25.056902 -14.236938 0.316076 0.837377
24.156923 -13.513337 0.000010 0.534926
22.215471 -11.952370 -0.000004 0.563971
20.866009 -10.867373 0.000004 0.502941
19.871826 -10.068029 -0.000001 0.339951
25.278925 -14.549879 5.759088 0.678431
25.278923 -14.549879 5.241228 0.678431
25.278923 -14.549878 4.730638 0.678431
25.278927 -14.549880 4.226096 0.678431
25.278923 -14.549878 3.726430 0.678431
25.278923 -14.549879 3.230513 0.678431
25.278925 -14.549879 2.737252 0.678431
24.895239 -14.236953 2.237473 0.391176
24.895241 -14.236954 1.762527 0.734926
24.895241 -14.236956 1.287071 0.553554
24.895231 -14.236946 0.810084 0.522917
24.895231 -14.236946 0.330529 0.704167
24.097763 -13.586549 -0.000004 0.528186
22.167154 -12.011981 0.000002 0.560049
20.825340 -10.917624 -0.000000 0.489216
19.836746 -10.111347 -0.000001 0.317157
25.114557 -14.549878 5.727273 0.678431
25.114559 -14.549878 5.213795 0.678431
25.114559 -14.549878 4.707527 0.678431
25.114559 -14.549880 4.207255 0.678431
25.114559 -14.549879 3.711819 0.678431
25.114559 -14.549878 3.220099 0.678431
25.114559 -14.549879 2.731013 0.678431
24.736292 -14.236950 2.235464 0.639338
24.736298 -14.236954 1.764537 0.416299
24.736300 -14.236956 1.293104 0.613971
24.736288 -14.236946 0.820155 0.490931
24.736290 -14.236947 0.344659 0.381495
24.038023 -13.659290 -0.000005 0.559314
22.118456 -12.071286 0.000000 0.534436
20.784283 -10.967562 0.000006 0.553309
19.801365 -10.154423 -0.000001 0.338480
24.793123 -14.415769 5.643910 0.160784
24.793123 -14.415768 5.141917 0.160784
24.793121 -14.415769 4.646972 0.160784
24.793121 -14.415767 4.157888 0.160784
24.793121 -14.415768 3.673532 0.160784
24.793121 -14.415768 3.192811 0.160784
24.793121 -14.415768 2.714663 0.160784
24.580025 -14.236957 2.233499 0.738113
24.580017 -14.236951 1.766501 0.757353
24.580017 -14.236952 1.299003 0.465686
24.580011 -14.236946 0.830000 0.800368
24.580011 -14.236946 0.358471 0.547426
23.977781 -13.731615 -0.000007 0.535784
22.069351 -12.130253 -0.000003 0.537500
20.742910 -11.017237 0.000003 0.525000
19.765686 -10.197247 -0.000001 0.345711
24.684769 -14.456912 5.629832 0.166789
24.684767 -14.456911 5.129778 0.160784
24.684769 -14.456913 4.636745 0.160784
24.684769 -14.456912 4.149552 0.160784
24.684769 -14.456912 3.667067 0.160784
24.684769 -14.456911 3.188202 0.160784
24.684767 -14.456911 2.711902 0.160784
24.426319 -14.236955 2.231577 0.522181
24.426313 -14.236950 1.768422 0.707843
24.426311 -14.236950 1.304771 0.638971
24.426311 -14.236948 0.839625 0.501961
24.426308 -14.236946 0.371977 0.449632
23.916960 -13.803455 0.000005 0.567647
22.019787 -12.188835 0.000005 0.538480
20.701160 -11.066595 0.000010 0.522917
19.699064 -10.213745 0.010078 1.000000
24.637640 -14.549875 5.636023 0.678431
24.637642 -14.549876 5.135117 0.678431
24.637642 -14.549875 4.641242 0.678431
24.637640 -14.549875 4.153217 0.678431
24.637642 -14.549875 3.669910 0.678431
24.637640 -14.549875 3.190229 0.678431
24.637640 -14.549874 2.713116 0.678431
24.275116 -14.236953 2.229699 0.611765
24.275110 -14.236947 1.770301 0.758333
24.275110 -14.236948 1.310411 0.369975
24.275105 -14.236944 0.849039 0.313971
24.275108 -14.236945 0.385184 0.591054
23.855705 -13.874926 0.000006 0.556005
21.969849 -12.247099 0.000005 0.495466
20.659088 -11.115681 0.000010 0.542647
19.663177 -10.256034 0.010009 1.000000
24.483795 -14.549876 5.606940 0.678431
24.483793 -14.549875 5.110039 0.678431
24.483793 -14.549876 4.620116 0.678431
24.483795 -14.549876 4.135995 0.678431
24.483793 -14.549875 3.656553 0.678431
24.483793 -14.549876 3.180709 0.678431
24.483793 -14.549875 2.707412 0.678431
24.126347 -14.236955 2.227861 0.718015
24.126341 -14.236949 1.772138 0.714216
24.126339 -14.236947 1.315927 0.342524
24.126335 -14.236945 0.858245 0.457353
24.126335 -14.236945 0.398101 0.827574
23.793922 -13.945940 0.000010 0.523039
21.919460 -12.304972 0.000016 0.559559
20.616644 -11.164442 0.000019 0.539338
19.626999 -10.298073 0.009940 1.000000
24.332378 -14.549875 5.578489 0.678431
24.332378 -14.549876 5.085508 0.678431
24.332378 -14.549876 4.599449 0.678431
24.332378 -14.549876 4.119147 0.678431
24.332378 -14.549876 3.643487 0.678431
24.332378 -14.549876 3.171396 0.678431
24.332378 -14.549877 2.701832 0.678431
23.979927 -14.236955 2.226064 0.762868
23.979921 -14.236950 1.773936 0.585907
23.979918 -14.236948 1.321322 0.493750
23.979916 -14.236946 0.867251 0.810417
23.979916 -14.236946 0.410736 0.694118
23.731728 -14.016594 0.000000 0.527083
21.868759 -12.362572 0.000005 0.545466
20.573921 -11.212961 0.000010 0.524755
19.590528 -10.339864 0.009870 1.000000
24.183327 -14.549876 5.550656 0.678431
24.183329 -14.549877 5.061510 0.678431
24.183327 -14.549876 4.579231 0.678431
24.183329 -14.549878 4.102665 0.678431
24.183329 -14.549877 3.630704 0.678431
24.183327 -14.549876 3.162285 0.678431
24.183327 -14.549876 2.696373 0.678431
23.835787 -14.236950 2.224306 0.802574
23.835789 -14.236951 1.775694 0.529044
23.835785 -14.236949 1.326601 0.658211
23.835779 -14.236943 0.876062 0.911520
23.835781 -14.236945 0.423097 0.479902
23.669006 -14.086781 -0.000004 0.563848
21.817635 -12.419797 -0.000000 0.487500
20.530905 -11.261219 -0.000010 0.560417
19.552864 -10.380589 0.010104 1.000000
24.036568 -14.549877 5.523423 0.678431
24.036568 -14.549878 5.038029 0.678431
24.036568 -14.549877 4.559449 0.678431
24.036568 -14.549878 4.086538 0.678431
24.036570 -14.549878 3.618196 0.678431
24.036568 -14.549876 3.153370 0.678431
24.036568 -14.549876 2.691033 0.678431
23.693871 -14.236952 2.222586 0.472794
23.693871 -14.236952 1.777414 0.379534
23.693867 -14.236949 1.331766 0.818873
23.693863 -14.236944 0.884682 0.694975
23.693867 -14.236947 0.435191 0.623652
23.605801 -14.156533 -0.000008 0.526838
21.766092 -12.476646 -0.000001 0.542770
20.487484 -11.309116 -0.000012 0.580637
19.545401 -10.448875 -0.000001 0.335907
23.892036 -14.549876 5.496774 0.678431
23.892036 -14.549877 5.015050 0.678431
23.892036 -14.549876 4.540091 0.678431
23.892036 -14.549876 4.070756 0.678431
23.892036 -14.549876 3.605957 0.678431
23.892036 -14.549876 3.144647 0.678431
23.892036 -14.549876 2.685806 0.678431
23.554111 -14.236955 2.220902 0.667892
23.554108 -14.236951 1.779098 0.395956
23.554108 -14.236950 1.336820 0.736765
23.554104 -14.236945 0.893118 0.714216
23.554104 -14.236946 0.447027 0.667279
23.542053 -14.225789 -0.000001 0.536887
21.714138 -12.533119 0.000002 0.552206
20.443693 -11.356674 -0.000002 0.579412
19.507669 -10.489906 -0.000001 0.340074
23.749668 -14.549877 5.470693 0.678431
23.749668 -14.549878 4.992562 0.678431
23.749668 -14.549877 4.521145 0.678431
23.749668 -14.549876 4.055311 0.678431
23.749668 -14.549876 3.593979 0.678431
23.749668 -14.549877 3.136109 0.678431
23.749668 -14.549877 2.680691 0.678431
23.416443 -14.236957 2.219255 0.645956
23.416439 -14.236952 1.780746 0.691422
23.416439 -14.236954 1.341766 0.658211
23.416431 -14.236946 0.901374 0.557966
23.416431 -14.236945 0.458610 0.369608
23.416431 -14.236947 0.012499 0.576103
21.661789 -12.589228 0.000006 0.529044
20.399609 -11.403959 -0.000004 0.564461
19.469654 -10.530675 -0.000001 0.338971
23.609404 -14.549876 5.445165 0.678431
23.609406 -14.549878 4.970551 0.678431
23.609406 -14.549876 4.502602 0.678431
23.609404 -14.549876 4.040194 0.678431
23.609404 -14.549876 3.582255 0.678431
23.609406 -14.549877 3.127753 0.678431
23.609402 -14.549876 2.675684 0.678431
23.280804 -14.236955 2.217642 0.533824
23.280800 -14.236953 1.782358 0.435662
23.280800 -14.236953 1.346608 0.526226
23.280796 -14.236948 0.909454 0.480270
23.280796 -14.236948 0.469947 0.685172
23.280794 -14.236945 0.027117 0.701593
20.919704 -11.988510 0.173216 0.094118
20.355179 -11.450921 -0.000001 0.571078
19.431360 -10.571178 -0.000003 0.506250
23.471178 -14.549877 5.420175 0.678431
23.471178 -14.549877 4.949004 0.678431
23.471178 -14.549877 4.484448 0.678431
23.471180 -14.549877 4.025394 0.678431
23.471180 -14.549877 3.570778 0.678431
23.471178 -14.549877 3.119573 0.678431
23.471176 -14.549877 2.670783 0.678431
23.147141 -14.236958 2.216063 0.775368
23.147139 -14.236956 1.783937 0.335294
23.147139 -14.236956 1.351347 0.660907
23.147129 -14.236948 0.917364 0.373407
23.147133 -14.236949 0.481045 0.887745
23.147133 -14.236949 0.041427 0.581495
21.555944 -12.700357 0.000008 0.504779
20.310429 -11.497576 0.000001 0.539216
19.392769 -10.611403 0.000000 0.471078
23.334938 -14.549877 5.395709 0.678431
23.334938 -14.549878 4.927908 0.678431
23.334938 -14.549877 4.466676 0.678431
23.334938 -14.549876 4.010906 0.678431
23.334938 -14.549877 3.559542 0.678431
23.334938 -14.549877 3.111564 0.678431
23.334938 -14.549878 2.665985 0.678431
23.015396 -14.236958 2.214518 0.681373
23.015392 -14.236955 1.785482 0.295221
23.015392 -14.236954 1.355987 0.367034
23.015387 -14.236950 0.925109 0.437500
23.015385 -14.236948 0.491911 0.388603
23.015387 -14.236949 0.055438 0.569730
21.502445 -12.755368 0.000008 0.537010
20.265381 -11.543945 -0.000006 0.529902
19.353909 -10.651365 0.000000 0.566054
23.200624 -14.549876 5.371754 0.678431
23.200626 -14.549879 4.907254 0.678431
23.200626 -14.549878 4.449275 0.678431
23.200624 -14.549877 3.996720 0.678431
23.200626 -14.549877 3.548540 0.678431
23.200626 -14.549879 3.103722 0.678431
23.200626 -14.549877 2.661286 0.678431
22.885511 -14.236956 2.213004 0.737255
22.885511 -14.236956 1.786996 0.450980
22.885509 -14.236955 1.360530 0.670956
22.885509 -14.236953 0.932691 0.733824
22.885506 -14.236950 0.502550 0.899020
22.885506 -14.236952 0.069155 0.393137
20.633465 -12.000576 0.209026 0.094118
20.219954 -11.589943 0.000004 0.530637
19.314741 -10.691027 0.000010 0.537623
nan nan nan 0.000000
-27.691517 36.565445 14.671463 0.668260
-28.788395 37.669998 12.958576 0.647059
-26.826439 35.694298 10.520731 0.678431
-26.772346 35.639832 8.599351 0.762377
-26.772339 35.639824 6.703689 0.789338
-14.804988 23.588634 3.983818 0.469608
-13.816653 22.593372 2.637849 0.465319
-14.135638 22.914595 1.354744 0.492525
-15.037362 23.822636 -0.000020 0.540441
-3.537793 12.242500 0.000017 0.535417
1.399054 7.271069 -0.000003 0.550980
4.148739 4.502119 0.000003 0.541176
5.904179 2.734381 0.000010 0.505147
7.124140 1.505874 -0.000026 0.563603
8.023157 0.600559 0.000011 0.505270
nan nan nan 0.000000
-27.202469 36.651451 14.610527 0.666299
-28.199909 37.670006 12.883392 0.649020
-26.253170 35.682060 10.459732 0.728064
-26.253162 35.682053 8.560873 0.703554
-26.211803 35.639816 6.671416 0.784804
-26.253159 35.682045 4.801746 0.724020
-13.895801 23.063131 2.644231 0.466789
-13.961223 23.129938 1.354239 0.518137
-14.834991 24.022198 -0.000020 0.537745
-3.416522 12.362043 0.000019 0.526593
1.485481 7.356282 -0.000002 0.542770
4.215776 4.568196 0.000006 0.498039
8.768703 -0.081100 0.730756 0.518505
8.762035 -0.074291 0.491367 0.569363
8.062786 0.639759 -0.000010 0.542647
nan nan nan 0.000000
-26.986771 37.014885 14.634322 0.662255
-27.619408 37.669998 12.809752 0.617647
-25.711494 35.694290 10.405014 0.678431
-25.711494 35.694298 8.518439 0.678431
-25.658890 35.639816 6.639810 0.768627
-25.711483 35.694283 4.783625 0.678431
-25.658890 35.639816 2.925973 0.762255
-14.273992 23.850412 1.342218 0.531127
-14.565782 24.152573 0.004609 0.490319
-3.294427 12.480742 0.000022 0.543137
9.035362 -0.287129 1.235906 0.492892
4.283146 4.633934 -0.000017 0.530515
6.013896 2.841691 0.000027 0.537255
8.782451 -0.025232 0.486845 0.490441
8.102784 0.678583 0.000003 0.453554
nan nan nan 0.000000
-26.762173 37.371223 14.656295 0.656373
-27.046688 37.669991 12.737621 0.632966
-25.165253 35.694290 10.348930 0.678431
-25.165257 35.694290 8.474944 0.678431
-25.124779 35.651794 6.610205 0.776471
-25.165253 35.694290 4.765051 0.678431
-25.113377 35.639816 2.919794 0.769363
-14.178212 24.156763 1.339685 0.488235
-14.426112 24.417084 -0.000021 0.540564
-3.171744 12.598833 -0.000005 0.523039
9.149347 -0.339587 1.249338 0.477083
4.351085 4.699085 -0.000017 0.529657
6.069182 2.894904 0.000001 0.515196
8.802988 0.024125 0.482221 0.488358
8.143030 0.717150 0.000008 0.519363
nan nan nan 0.000000
-26.477127 37.665298 14.660143 0.640564
-26.481537 37.669998 12.666968 0.657843
-24.626228 35.694290 10.293992 0.678431
-24.626225 35.694290 8.432336 0.678431
-24.586319 35.651794 6.579870 0.762868
-24.626232 35.694298 4.746857 0.678431
-24.575077 35.639824 2.913743 0.764216
-14.369935 24.772451 1.330209 0.489461
-14.446385 24.853863 -0.016296 0.484926
9.281897 -0.414192 1.476878 0.379289
9.161312 -0.285783 1.245787 0.499632
9.386067 -0.525122 1.076204 0.471814
6.124938 2.947627 0.000002 0.545956
8.881817 0.011850 0.495845 0.526348
8.183453 0.755533 -0.000021 0.562868
nan nan nan 0.000000
-25.919102 37.664978 14.577896 0.647181
-23.967709 35.557663 12.073916 0.694975
-24.094234 35.694298 10.240175 0.678431
-24.094219 35.694290 8.390594 0.678431
-24.054867 35.651787 6.550150 0.762132
-24.094234 35.694298 4.729033 0.678431
-24.043781 35.639816 2.907813 0.658701
-25.923744 37.669991 1.046909 0.645588
-14.011737 24.806196 -0.000021 0.537132
9.299330 -0.367465 1.475051 0.511642
9.198849 -0.258954 1.246475 0.443627
9.433958 -0.512850 1.079717 0.425000
6.181110 2.999906 0.000015 0.556127
8.742433 0.233929 0.440235 0.491789
8.224260 0.793504 -0.000005 0.531005
nan nan nan 0.000000
-25.369053 37.665543 14.497575 0.678186
-23.431469 35.543617 12.005990 0.689828
-23.569054 35.694290 10.187443 0.678431
-23.569065 35.694305 8.349705 0.678431
-23.530247 35.651794 6.521032 0.750000
-23.569061 35.694298 4.711568 0.678431
-23.432537 35.544785 2.899897 0.685049
-25.373116 37.669991 1.053009 0.659926
-13.802520 24.998571 -0.000021 0.540196
9.282098 -0.282309 1.468955 0.482353
1.926476 7.773125 0.000014 0.550123
9.300307 -0.302251 1.043303 0.491422
6.237584 3.051859 0.000012 0.536274
8.769917 0.278600 0.437151 0.512132
8.265291 0.831236 -0.000006 0.551471
nan nan nan 0.000000
-24.826485 37.666679 14.419042 0.688235
-22.915276 35.544067 11.942959 0.711887
-23.001484 35.639816 10.124902 0.736642
-23.001495 35.639824 8.301203 0.766176
-23.001492 35.639824 6.491184 0.758824
-23.001492 35.639824 4.690856 0.753922
-22.915710 35.544548 2.894214 0.719485
-24.860569 37.704536 1.058224 0.148039
-13.591968 25.189487 -0.000020 0.535417
9.334606 -0.273055 1.471284 0.528186
2.016464 7.854567 0.000027 0.540196
9.301298 -0.236062 1.036128 0.573652
6.294448 3.103384 0.000017 0.514461
8.787979 0.334037 0.430902 0.476961
8.306650 0.868607 0.000018 0.544730
nan nan nan 0.000000
-24.290607 37.667740 14.342068 0.662500
-22.405231 35.544189 11.881118 0.711275
-22.490143 35.639824 10.074346 0.771078
-22.490135 35.639816 8.261992 0.753676
-22.490128 35.639816 6.463234 0.761029
-22.490124 35.639809 4.674112 0.781863
-22.405346 35.544319 2.888645 0.716299
-22.654388 35.824821 1.105218 0.641789
-13.380094 25.378933 -0.000020 0.332230
9.352455 -0.225355 1.469344 0.454044
2.106954 7.935451 0.000029 0.549265
9.418417 -0.299649 1.054740 0.492402
6.351535 3.154664 -0.000015 0.548529
8.991995 0.180642 0.484969 0.445956
8.348099 0.905878 -0.000021 0.585049
nan nan nan 0.000000
-23.151142 36.971802 14.066568 0.647672
-21.901138 35.543938 11.820425 0.702206
-22.032772 35.694298 10.035542 0.678431
-22.032772 35.694298 8.231897 0.678431
-21.995567 35.651794 6.437154 0.729167
-22.032764 35.694290 4.661260 0.678431
-21.901283 35.544098 2.883186 0.692157
-23.762363 37.669991 1.070578 0.641544
-13.166894 25.566885 -0.000020 0.332598
9.454767 -0.273631 1.477861 0.493015
2.197984 8.015726 0.000027 0.540196
9.630724 -0.474626 1.095036 0.558701
8.902916 0.356743 0.688877 0.515686
8.990274 0.256955 0.472360 0.487745
8.389937 0.942713 -0.000012 0.583211
nan nan nan 0.000000
-22.635330 36.971146 13.993373 0.659191
-21.404026 35.544662 11.761182 0.705147
-21.526291 35.686302 9.985357 0.117770
-21.526287 35.686302 8.192976 0.109314
-21.496494 35.651787 6.410307 0.771078
-21.526279 35.686295 4.644640 0.113971
-21.403347 35.543877 2.877838 0.708946
-23.238564 37.669991 1.076201 0.656863
-12.819415 25.599293 0.009977 1.000000
9.388592 -0.128932 1.465347 0.545221
2.289400 8.095563 -0.000005 0.542647
9.840796 -0.652816 1.135428 0.410784
6.467055 3.255702 -0.000002 0.546201
9.025034 0.292254 0.471532 0.481005
8.432016 0.979272 -0.000008 0.460049
nan nan nan 0.000000
-22.217190 37.077972 13.952122 0.657843
-20.989304 35.635216 11.724585 0.744853
-21.039581 35.694290 9.939270 0.678431
-21.039589 35.694298 8.157238 0.678431
-21.003414 35.651794 6.383996 0.746201
-21.039581 35.694290 4.629377 0.678431
8.843731 0.581515 2.121331 0.531740
-22.721039 37.669998 1.081712 0.648529
-12.604699 25.783337 0.009977 1.000000
9.287338 0.060278 1.448164 0.500735
2.381591 8.174505 0.000002 0.537623
9.674342 -0.394451 1.090261 0.419363
6.525356 3.305596 0.000008 0.546691
9.047091 0.342567 0.466381 0.488603
8.474382 1.015498 0.000008 0.534559
nan nan nan 0.000000
-21.981480 37.398102 13.972071 0.660539
-20.506107 35.639816 11.668475 0.771446
-20.551815 35.694290 9.892570 0.678431
-20.551823 35.694298 8.121018 0.678431
-20.516155 35.651794 6.358208 0.736274
-20.551819 35.694290 4.613912 0.678431
-20.426296 35.544708 2.867486 0.691299
-22.209629 37.669998 1.087115 0.648407
-12.388698 25.965868 0.009977 1.000000
