# This PCD file was generated using the MATLABÂ® pcwrite function
# from Computer Vision ToolboxÂ®.
# .PCD v.7 - Point Cloud Data file format
VERSION .7
FIELDS x y z intensity
SIZE 4 4 4 4
TYPE F F F F
COUNT 1 1 1 1
WIDTH 1297
HEIGHT 1
VIEWPOINT 0 0 0 1 0 0 0
POINTS 1297
DATA ascii
85.160133 -51.771667 -0.000011 0.540809
86.408272 -52.035633 -0.000001 0.561275
4.828790 -34.129639 24.920988 0.679902
4.828790 -34.129639 21.763340 0.711520
3.678709 -33.878014 18.864243 0.257353
4.828782 -34.129639 15.573590 0.544976
4.828782 -34.129635 12.526883 0.538603
3.595128 -33.859722 9.606588 0.214828
3.595135 -33.859722 6.557424 0.193137
3.595135 -33.859722 3.518057 0.175735
4.828814 -34.129646 0.502608 0.708088
54.449326 -44.986210 -0.000023 0.331863
70.391975 -48.474335 0.000001 0.528922
77.236427 -49.971848 -0.000014 0.531985
81.048454 -50.805885 -0.000023 0.517770
83.482094 -51.338348 -0.000035 0.552328
85.173668 -51.708454 -0.000024 0.521201
86.419937 -51.981125 -0.000016 0.532475
7.725319 -34.129650 24.212751 0.654044
7.725263 -34.129635 21.152687 0.586275
7.725328 -34.129654 18.135557 0.547794
7.725327 -34.129650 15.154181 0.573407
7.725278 -34.129639 12.201618 0.544118
6.341419 -33.816719 9.387543 0.678431
6.341403 -33.816715 6.426187 0.678431
6.341395 -33.816723 3.474340 0.678431
7.725246 -34.129631 0.548874 0.508701
54.511040 -44.708778 -0.000022 0.332108
70.429108 -48.308151 0.000013 0.531618
77.262878 -49.853394 -0.000001 0.540931
81.068977 -50.714024 -0.000010 0.527819
83.498940 -51.263485 -0.000001 0.516544
85.187737 -51.645351 -0.000019 0.527083
86.432083 -51.926723 -0.000005 0.534926
10.448334 -34.129646 23.547993 0.568505
10.448277 -34.129631 20.579506 0.602941
10.448366 -34.129650 17.652664 0.590809
10.448342 -34.129650 14.760514 0.568627
10.448269 -34.129631 11.896319 0.656250
9.108102 -33.816742 9.166445 0.678431
9.108126 -33.816750 6.293720 0.678431
9.108093 -33.816746 3.430217 0.678431
10.448254 -34.129635 0.592303 0.625980
54.574741 -44.431786 -0.000020 0.332598
70.467056 -48.142147 -0.000002 0.539338
77.289749 -49.735031 -0.000039 0.534069
81.089966 -50.622265 -0.000024 0.546324
83.516052 -51.188679 -0.000015 0.501838
85.202164 -51.582333 -0.000029 0.560784
86.444504 -51.872379 -0.000022 0.519975
13.013123 -34.129639 22.922882 0.693260
13.013138 -34.129639 20.040497 0.565686
13.013090 -34.129631 17.198593 0.571446
13.013130 -34.129639 14.390327 0.585539
13.013090 -34.129627 11.609221 0.551225
11.713930 -33.816738 8.958547 0.678431
11.713930 -33.816738 6.169158 0.678431
11.713940 -33.816742 3.388725 0.678431
13.013123 -34.129639 0.633141 0.656373
54.640347 -44.155251 -0.000019 0.331740
70.506516 -47.976501 0.000012 0.537990
77.317863 -49.616962 -0.000026 0.533088
81.111740 -50.530689 -0.000015 0.550980
83.533821 -51.114029 -0.000002 0.565686
85.217239 -51.519470 0.000005 0.536642
86.457420 -51.818153 -0.000008 0.538113
15.433436 -34.129612 22.333975 0.609559
15.433413 -34.129608 19.532726 0.583701
15.433510 -34.129635 16.770786 0.638848
15.433445 -34.129616 14.041584 0.497059
15.433527 -34.129635 11.338741 0.598039
14.172993 -33.816723 8.762683 0.678431
14.173016 -33.816719 6.051807 0.678431
14.173008 -33.816723 3.349639 0.678431
15.433517 -34.129639 0.671615 0.561397
54.707886 -43.879166 -0.000017 0.332598
70.546799 -47.811043 -0.000002 0.538725
77.346581 -49.499031 -0.000040 0.541667
81.134018 -50.439232 -0.000028 0.531373
83.551964 -51.039467 -0.000019 0.615931
85.232529 -51.456657 -0.000008 0.588235
86.470604 -51.763996 -0.000022 0.499020
17.721481 -34.129635 21.778217 0.579044
17.721384 -34.129616 19.053543 0.551593
17.721474 -34.129635 16.367086 0.725613
17.721392 -34.129616 13.712483 0.630147
17.721474 -34.129631 11.083508 0.619853
16.497538 -33.816719 8.577858 0.678431
16.497555 -33.816719 5.941070 0.678431
16.497578 -33.816727 3.312751 0.678431
17.721497 -34.129631 0.707921 0.602941
54.777370 -43.603569 -0.000016 0.332108
70.588501 -47.645943 0.000006 0.535539
77.376343 -49.381363 -0.000027 0.527819
81.157097 -50.347977 -0.000015 0.557843
83.570770 -50.965069 -0.000007 0.512010
85.248390 -51.393982 0.000004 0.487377
86.484344 -51.709972 0.000010 0.544485
19.887794 -34.129635 21.252956 0.771569
19.887714 -34.129616 18.600649 0.570221
19.887756 -34.129631 15.985542 0.515686
19.887737 -34.129616 13.401428 0.529289
19.887794 -34.129635 10.842276 0.534681
18.698524 -33.816719 8.403166 0.678431
18.698494 -33.816711 5.836409 0.678431
18.698517 -33.816723 3.277888 0.678431
19.887796 -34.129639 0.742235 0.448652
54.848770 -43.328476 -0.000013 0.332598
70.631096 -47.481071 -0.000007 0.529902
77.406708 -49.263851 -0.000040 0.543995
81.180649 -50.256840 -0.000028 0.534191
83.589973 -50.890778 -0.000019 0.554779
85.264542 -51.331383 -0.000013 0.551593
86.498291 -51.656006 -0.000004 0.496078
21.942110 -34.129627 20.755774 0.548407
21.176773 -33.922531 18.343176 0.160784
21.942110 -34.129627 15.624374 0.591176
21.176765 -33.922531 13.224600 0.160784
21.095436 -33.900520 10.714838 0.152451
20.772371 -33.813103 8.238945 0.338971
20.772354 -33.813095 5.738016 0.302574
20.772371 -33.813103 3.245114 0.221691
21.942142 -34.129639 0.774715 0.534681
54.922081 -43.053867 -0.000012 0.332230
70.675163 -47.316586 0.000007 0.541422
77.438278 -49.146656 -0.000006 0.535172
81.204979 -50.165913 -0.000019 0.525613
83.609810 -50.816647 -0.000011 0.521569
85.281258 -51.268936 -0.000001 0.532108
86.512703 -51.602154 0.000006 0.508946
23.893103 -34.129631 20.284487 0.587500
23.589151 -34.045105 17.833714 0.539338
23.589149 -34.045105 15.339433 0.522059
23.893095 -34.129631 12.827898 0.591422
22.833572 -33.834976 10.524003 0.296936
22.833565 -33.834969 8.075484 0.221691
22.833557 -33.834969 5.640079 0.222549
22.833565 -33.834969 3.212494 0.219240
23.893103 -34.129631 0.805503 0.623039
54.997314 -42.779793 -0.000010 0.332353
70.720055 -47.152328 -0.000007 0.556127
77.470284 -49.029579 -0.000019 0.542647
81.229797 -50.075111 -0.000031 0.553186
83.630051 -50.742630 -0.000023 0.568750
85.298286 -51.206570 -0.000019 0.523897
86.527405 -51.548389 -0.000006 0.524142
25.748577 -34.129646 19.837141 0.622794
25.748524 -34.129631 17.379871 0.618015
25.748562 -34.129639 14.957078 0.541299
25.748516 -34.129623 12.562997 0.576961
24.834764 -33.868626 10.301368 0.234681
24.834774 -33.868629 7.916800 0.175245
24.834757 -33.868622 5.545003 0.161397
24.834774 -33.868629 3.180824 0.159681
25.748516 -34.129631 0.834727 0.731740
55.074455 -42.506245 -0.000009 0.332230
70.766380 -46.988464 0.000004 0.534926
77.503311 -48.912788 -0.000007 0.542157
81.255402 -49.984531 -0.000022 0.520343
83.650894 -50.668777 -0.000017 0.541789
85.315887 -51.144363 -0.000005 0.543750
86.542549 -51.494743 0.000000 0.523652
27.515469 -34.129646 19.412006 0.544976
27.515411 -34.129627 17.013302 0.655637
27.515444 -34.129639 14.648254 0.496936
27.515408 -34.129623 12.311232 0.624755
26.905613 -33.950836 10.069895 0.162990
26.905613 -33.950836 7.751819 0.162623
26.905626 -33.950836 5.446155 0.160784
26.905622 -33.950836 3.147897 0.161765
27.515423 -34.129635 0.862500 0.559926
55.153492 -42.233238 -0.000007 0.332108
70.813843 -46.824928 0.000014 0.539461
77.537132 -48.796227 0.000003 0.527206
81.281769 -49.894173 0.000009 0.557966
83.672287 -50.595081 -0.000006 0.523407
85.333885 -51.082272 0.000001 0.534069
86.558075 -51.441208 0.000009 0.473775
28.591457 -33.946533 19.166695 0.586275
29.200146 -34.129627 16.664488 0.603676
28.591454 -33.946533 14.470054 0.544608
29.200134 -34.129623 12.071668 0.650490
28.159843 -33.816704 9.935971 0.607598
28.159838 -33.816704 7.656366 0.587500
28.159842 -33.816704 5.388966 0.623897
28.159855 -33.816704 3.128848 0.622549
29.200142 -34.129623 0.888928 0.452206
55.234852 -41.960915 0.000015 0.534559
70.861900 -46.661560 -0.000022 0.536152
77.571579 -48.679848 -0.000010 0.521936
81.308487 -49.803913 -0.000004 0.566789
83.694077 -50.521503 -0.000017 0.507475
85.352242 -51.020283 -0.000010 0.548652
86.573837 -51.387741 -0.000021 0.507353
30.808426 -34.129631 18.622105 0.613480
30.808409 -34.129627 16.332209 0.609436
30.808430 -34.129631 14.074456 0.593382
30.808397 -34.129623 11.843456 0.607230
29.793940 -33.816730 9.756140 0.678431
29.793922 -33.816727 7.528191 0.678431
29.793922 -33.816727 5.312172 0.678431
29.793947 -33.816734 3.103268 0.678431
30.808430 -34.129631 0.914105 0.512255
55.317841 -41.689095 0.000025 0.536642
70.911636 -46.498699 -0.000012 0.539338
77.607010 -48.563759 -0.000003 0.534069
81.335968 -49.713886 0.000005 0.544485
83.716576 -50.448139 0.000010 0.565319
85.371117 -50.958450 -0.000002 0.581618
86.590096 -51.334427 -0.000015 0.525735
31.532106 -33.872517 18.468267 0.678431
32.345505 -34.129623 16.015316 0.609804
31.532103 -33.872513 13.962712 0.678431
32.345501 -34.129623 11.625811 0.448529
31.355661 -33.816738 9.584642 0.674510
31.355661 -33.816742 7.405955 0.673529
31.355658 -33.816738 5.238935 0.670833
31.355661 -33.816742 3.078875 0.678431
32.345509 -34.129623 0.938114 0.575490
55.402321 -41.417725 0.000012 0.537377
70.962250 -46.336109 -0.000024 0.541299
77.643089 -48.447876 -0.000014 0.524510
81.363945 -49.624008 -0.000009 0.551348
83.739388 -50.374874 -0.000001 0.515441
85.390411 -50.896748 0.000003 0.546324
86.606667 -51.281200 -0.000028 0.541789
33.593754 -34.057610 17.962280 0.593015
33.816147 -34.129623 15.712793 0.478431
33.593765 -34.057613 13.595153 0.652696
33.816154 -34.129623 11.418033 0.596201
32.948753 -33.848770 9.408963 0.160784
32.948761 -33.848770 7.280741 0.189216
32.948753 -33.848770 5.163915 0.134069
32.948753 -33.848770 3.053885 0.094118
33.816174 -34.129627 0.961035 0.511029
55.489113 -41.147087 0.000022 0.538113
71.014252 -46.173954 -0.000015 0.527696
77.680161 -48.332306 -0.000005 0.547672
81.392670 -49.534378 -0.000000 0.518505
83.762810 -50.301800 0.000004 0.527206
85.410156 -50.835194 0.000014 0.501225
86.623772 -51.228146 0.000003 0.531985
35.224731 -34.129620 17.568428 0.576471
35.224743 -34.129620 15.423685 0.589583
35.224743 -34.129623 13.309054 0.505024
35.224739 -34.129620 11.219477 0.725735
34.559361 -33.909035 9.230729 0.160784
34.559357 -33.909035 7.153703 0.160784
34.559361 -33.909035 5.087801 0.160784
34.559364 -33.909035 3.028531 0.160784
35.224747 -34.129623 0.982939 0.592525
55.577377 -40.876923 0.000010 0.534559
71.067146 -46.012093 -0.000026 0.524142
77.717827 -48.216923 -0.000019 0.548039
81.421913 -49.444904 -0.000011 0.542157
83.786621 -50.228851 -0.000009 0.547794
85.430138 -50.773708 -0.000020 0.525490
86.641068 -51.175156 -0.000013 0.567157
36.575195 -34.129623 17.247713 0.682721
36.080917 -33.961922 15.259886 0.361642
36.080902 -33.961918 13.171063 0.327941
36.575180 -34.129616 11.029554 0.501471
35.652954 -33.816719 9.114828 0.678431
35.652962 -33.816727 7.071095 0.678431
35.652958 -33.816723 5.038306 0.678431
35.652966 -33.816719 3.012046 0.678431
36.575195 -34.129623 1.003890 0.502206
55.667934 -40.607533 0.000019 0.535539
71.121407 -45.850685 -0.000016 0.535539
77.756493 -48.101875 -0.000011 0.519608
81.451881 -49.355675 -0.000006 0.546569
83.811081 -50.156120 0.000000 0.503309
85.450752 -50.712437 -0.000006 0.477941
86.658829 -51.122322 -0.000004 0.536520
37.871223 -34.129623 16.940655 0.548407
37.871189 -34.129612 14.882402 0.537623
37.871220 -34.129623 12.853039 0.637745
37.871216 -34.129623 10.847713 0.704167
36.969715 -33.816719 8.971549 0.634559
36.969719 -33.816719 6.968974 0.652819
36.969715 -33.816719 4.977122 0.638603
36.969715 -33.816719 2.991666 0.652083
37.871223 -34.129623 1.023951 0.562745
55.759979 -40.338631 0.000008 0.535784
71.176537 -45.689564 -0.000029 0.528064
77.795807 -47.987049 -0.000021 0.535049
81.482368 -49.266617 -0.000017 0.532353
83.835922 -50.083511 -0.000013 0.536029
85.471672 -50.651264 -0.000023 0.544363
86.676857 -51.069576 -0.000019 0.561642
39.116104 -34.129620 16.646423 0.446691
38.673664 -33.972584 14.730099 0.164951
39.116104 -34.129620 12.639306 0.485784
38.648735 -33.963734 10.747037 0.160784
38.234535 -33.816723 8.834255 0.678431
38.234539 -33.816727 6.871116 0.678431
38.234547 -33.816727 4.918489 0.678431
38.234535 -33.816723 2.972135 0.678431
39.116112 -34.129623 1.043172 0.594730
55.854248 -40.070511 0.000016 0.537377
71.233025 -45.528923 -0.000021 0.539461
77.836044 -47.872543 -0.000015 0.526226
81.513596 -49.177822 -0.000008 0.527819
83.861374 -50.011124 -0.000004 0.541422
85.493111 -50.590275 -0.000016 0.550368
86.695358 -51.016991 -0.000010 0.552574
40.313011 -34.129620 16.364231 0.634314
40.312981 -34.129608 14.385389 0.630270
40.313011 -34.129616 12.434317 0.695711
39.450569 -33.816719 10.642451 0.678431
39.450562 -33.816711 8.702582 0.678431
39.450565 -33.816715 6.777266 0.678431
39.450569 -33.816715 4.862261 0.678431
39.450554 -33.816708 2.953406 0.678431
40.313015 -34.129623 1.061607 0.507230
55.949951 -39.802887 0.000000 0.533333
71.290634 -45.368671 -0.000014 0.537745
77.877106 -47.758327 -0.000007 0.542279
81.545433 -49.089237 -0.000002 0.562255
83.887321 -49.938908 0.000001 0.540686
85.514984 -50.529438 -0.000007 0.551225
86.714211 -50.964531 -0.000005 0.518627
41.464722 -34.129627 16.093384 0.576348
41.464699 -34.129616 14.151853 0.670711
41.464710 -34.129623 12.237573 0.630760
40.620739 -33.816734 10.479486 0.678431
40.620747 -33.816738 8.576195 0.678431
40.620743 -33.816738 6.687183 0.678431
40.620750 -33.816734 4.808290 0.678431
40.620754 -33.816738 2.935427 0.678431
41.464725 -34.129623 1.079302 0.600735
56.047600 -39.535973 -0.000011 0.536397
71.349152 -45.208759 -0.000023 0.537623
77.918800 -47.644341 -0.000020 0.538358
81.577774 -49.000835 -0.000013 0.531250
83.913696 -49.866840 -0.000010 0.570466
85.537178 -50.468719 -0.000022 0.526348
86.733353 -50.912182 -0.000016 0.539093
42.573814 -34.129620 15.833234 0.593015
42.573814 -34.129620 13.927536 0.442157
42.573826 -34.129623 12.048595 0.664583
41.747581 -33.816734 10.322962 0.678431
41.747581 -33.816734 8.454803 0.678431
41.747585 -33.816734 6.600663 0.678431
41.747589 -33.816734 4.756451 0.678431
41.747574 -33.816727 2.918162 0.678431
42.573814 -34.129620 1.096297 0.525000
56.147503 -39.269897 -0.000002 0.537255
71.409187 -45.049404 0.000001 0.540441
77.961464 -47.530716 -0.000010 0.548407
81.610847 -48.912712 -0.000006 0.527819
83.940575 -49.794968 -0.000018 0.541176
85.559898 -50.408195 -0.000014 0.534681
86.752998 -50.860016 0.000007 0.546691
42.802246 -33.804588 15.808895 0.567402
42.802250 -33.804588 13.906549 0.613358
42.802254 -33.804588 12.030911 0.555637
42.522255 -33.696320 10.222026 0.678431
42.522255 -33.696320 8.376522 0.678431
42.522255 -33.696320 6.544869 0.678431
42.522263 -33.696320 4.723022 0.678431
42.522255 -33.696320 2.907026 0.678431
42.802254 -33.804592 1.097887 0.496936
56.248863 -39.004372 -0.000014 0.536152
71.469910 -44.890316 -0.000010 0.530760
78.004898 -47.417377 -0.000004 0.544976
81.644516 -48.824814 -0.000001 0.532843
83.967949 -49.723278 -0.000029 0.543382
85.583031 -50.347824 -0.000008 0.537500
86.772888 -50.807938 -0.000005 0.543137
42.802246 -33.390831 15.846611 0.741789
42.802254 -33.390831 13.939069 0.457721
42.802258 -33.390831 12.058311 0.704412
42.522251 -33.280304 10.244483 0.678431
42.522255 -33.280304 8.393940 0.678431
42.522251 -33.280304 6.557281 0.678431
42.522251 -33.280300 4.730459 0.678431
42.522255 -33.280304 2.909503 0.678431
42.802261 -33.390835 1.095423 0.510539
56.352451 -38.739704 -0.000006 0.531618
71.531982 -44.731747 -0.000001 0.535784
78.049126 -47.304359 0.000004 0.520221
81.678818 -48.737160 0.000006 0.539338
83.995987 -49.651848 -0.000006 0.568505
85.606590 -50.287628 0.000000 0.508088
86.793190 -50.756035 0.000002 0.530270
42.802254 -32.974773 15.885210 0.721446
42.802250 -32.974770 13.972356 0.522059
42.802250 -32.974770 12.086355 0.729044
42.522255 -32.861977 10.267467 0.678431
42.522247 -32.861980 8.411766 0.678431
42.522251 -32.861977 6.569989 0.678431
42.522255 -32.861980 4.738070 0.678431
42.522263 -32.861980 2.912038 0.678431
42.802265 -32.974777 1.092901 0.616299
56.457851 -38.475750 0.000000 0.532353
71.595131 -44.573601 0.000005 0.538725
78.094131 -47.191639 0.000009 0.547549
81.713707 -48.649734 0.000010 0.518015
84.024452 -49.580585 0.000001 0.541422
85.630547 -50.227581 0.000003 0.558456
86.813850 -50.704254 0.000005 0.521201
42.802250 -32.556374 15.924715 0.495221
42.572243 -32.461849 14.060122 0.678431
42.802254 -32.556374 12.115047 0.486029
42.522259 -32.441307 10.290987 0.678431
42.522255 -32.441307 8.430006 0.678431
42.522251 -32.441303 6.582989 0.678431
42.522259 -32.441307 4.745860 0.678431
42.522255 -32.441307 2.914634 0.678431
42.802254 -32.556377 1.090321 0.544118
56.564777 -38.212418 -0.000009 0.542034
71.659195 -44.415825 -0.000005 0.543750
78.139771 -47.079170 -0.000004 0.533946
81.749123 -48.562523 -0.000000 0.551225
84.053307 -49.509483 -0.000012 0.467157
85.654861 -50.167679 -0.000010 0.499387
86.834816 -50.652607 -0.000007 0.553554
42.802250 -32.135567 15.965122 0.535417
42.572254 -32.039162 14.095116 0.678431
42.802258 -32.135567 12.144398 0.485784
42.522255 -32.018204 10.315047 0.678431
42.522270 -32.018204 8.448663 0.678431
42.522263 -32.018208 6.596287 0.678431
42.522255 -32.018204 4.753829 0.678431
42.522263 -32.018204 2.917288 0.678431
42.802261 -32.135571 1.087680 0.619240
56.673840 -37.949951 -0.000004 0.533824
71.724503 -44.258564 -0.000003 0.544118
78.186348 -46.967091 0.000002 0.551103
81.785141 -48.475559 -0.000010 0.522426
84.082756 -49.438618 -0.000006 0.569608
85.679672 -50.107979 -0.000004 0.539461
86.856155 -50.601112 -0.000015 0.533456
42.802261 -31.712301 16.006445 0.622059
42.572258 -31.613998 14.130906 0.678431
42.802254 -31.712297 12.174419 0.712132
42.522251 -31.592628 10.339653 0.678431
42.522263 -31.592634 8.467749 0.678431
42.522259 -31.592632 6.609888 0.678431
42.522266 -31.592632 4.761977 0.678431
42.522263 -31.592634 2.920002 0.678431
42.802265 -31.712301 1.084981 0.622304
56.784428 -37.688133 -0.000014 0.539216
71.790771 -44.101704 -0.000012 0.543627
78.233582 -46.855289 -0.000007 0.536520
81.821777 -48.388847 -0.000020 0.498284
84.112595 -49.367928 -0.000019 0.525613
85.704811 -50.048424 -0.000015 0.561397
86.877846 -50.549763 -0.000025 0.575123
42.802258 -31.286488 16.048708 0.712745
42.805199 -31.287771 14.112631 0.576103
42.802254 -31.286489 12.205119 0.473529
42.642254 -31.216778 10.345400 0.160784
42.642250 -31.216776 8.472206 0.160784
42.642262 -31.216780 6.613064 0.160784
42.642258 -31.216778 4.763882 0.160784
42.642258 -31.216780 2.920636 0.160784
42.802261 -31.286489 1.082221 0.552819
56.897160 -37.427235 -0.000008 0.535294
71.858322 -43.945389 -0.000005 0.543873
78.281708 -46.743866 -0.000003 0.543750
81.859116 -48.302444 -0.000013 0.542770
84.143051 -49.297485 -0.000010 0.566422
85.730522 -49.989105 0.000006 0.519485
86.900009 -50.498619 -0.000005 0.532843
42.802258 -30.858086 16.091911 0.631005
42.802269 -30.858089 14.150574 0.527941
42.802254 -30.858082 12.236502 0.533211
42.522259 -30.733763 10.390539 0.678431
42.522263 -30.733761 8.507213 0.678431
42.522259 -30.733763 6.638018 0.678431
42.522263 -30.733761 4.778831 0.678431
42.522259 -30.733763 2.925616 0.678431
42.802265 -30.858084 1.079398 0.667402
57.011707 -37.167122 -0.000001 0.531985
71.926949 -43.789543 0.000001 0.546814
78.330620 -46.632790 0.000003 0.547304
81.897034 -48.216293 -0.000009 0.521078
84.173958 -49.227253 -0.000006 0.552206
85.756569 -49.929939 0.000010 0.479167
86.922455 -50.447598 -0.000002 0.537010
42.802261 -30.427010 16.136070 0.670833
42.802250 -30.427004 14.188657 0.550613
42.802265 -30.427011 12.268579 0.606005
42.522255 -30.300333 10.416836 0.678431
42.522263 -30.300337 8.527605 0.678431
42.522266 -30.300341 6.652550 0.678431
42.522255 -30.300333 4.787540 0.678431
42.522263 -30.300337 2.928515 0.678431
42.802261 -30.427010 1.076513 0.720098
57.127758 -36.907677 -0.000011 0.536274
71.996468 -43.634087 -0.000010 0.527819
78.380173 -46.521996 -0.000007 0.535049
81.935478 -48.130367 -0.000019 0.523039
84.205284 -49.157204 -0.000017 0.557843
85.782959 -49.870922 -0.000001 0.562868
86.945221 -50.396713 -0.000011 0.546569
42.802269 -29.993212 16.181202 0.607966
42.802261 -29.993206 14.227568 0.709559
42.802261 -29.993208 12.301366 0.598774
42.522251 -29.864176 10.443707 0.678431
42.522263 -29.864178 8.548447 0.678431
42.522251 -29.864174 6.667407 0.678431
42.522251 -29.864174 4.796439 0.678431
42.522251 -29.864174 2.931481 0.678431
42.802250 -29.993204 1.073564 0.612868
57.245914 -36.649185 -0.000006 0.533946
72.067245 -43.479214 -0.000005 0.537868
78.430611 -46.411602 -0.000004 0.553554
81.974586 -48.044750 -0.000016 0.522794
84.237259 -49.087440 0.000001 0.562868
85.809784 -49.812099 -0.000009 0.552083
86.968376 -50.346012 -0.000009 0.570098
42.802254 -29.556597 16.227325 0.607598
42.572258 -29.448658 14.322208 0.678431
42.802258 -29.556601 12.334867 0.536765
42.522247 -29.425184 10.471169 0.678431
42.522259 -29.425192 8.569742 0.678431
42.522247 -29.425184 6.682586 0.678431
42.522266 -29.425196 4.805533 0.678431
42.522263 -29.425192 2.934510 0.678431
42.802258 -29.556597 1.070551 0.616912
57.365871 -36.391525 -0.000000 0.528554
72.139130 -43.324841 0.000001 0.529044
78.481842 -46.301571 0.000002 0.544976
82.014320 -47.959419 -0.000008 0.546814
84.269630 -49.017872 0.000006 0.559069
85.837059 -49.753490 -0.000005 0.569975
86.991905 -50.295475 -0.000003 0.465931
42.802250 -29.117126 16.274445 0.506740
42.572262 -29.007221 14.363017 0.678431
42.802258 -29.117130 12.369092 0.508456
42.522251 -28.983326 10.499222 0.678431
42.522255 -28.983326 8.591499 0.678431
42.522251 -28.983326 6.698092 0.678431
42.522247 -28.983326 4.814825 0.678431
42.522255 -28.983326 2.937604 0.678431
42.802261 -29.117134 1.067473 0.481618
57.487286 -36.134552 -0.000013 0.540931
72.211899 -43.170883 -0.000010 0.538480
78.533806 -46.191891 0.000005 0.536397
82.054619 -47.874352 -0.000007 0.549387
84.302429 -48.948494 -0.000005 0.579044
85.864685 -49.695038 -0.000017 0.512132
87.015770 -50.245098 -0.000004 0.585172
42.802258 -28.674713 16.322569 0.670343
42.572258 -28.562820 14.404703 0.499510
42.802254 -28.674709 12.404057 0.577206
42.642242 -28.596867 10.508085 0.160784
42.642235 -28.596867 8.598375 0.160784
42.642246 -28.596870 6.702994 0.160784
42.642246 -28.596870 4.817760 0.160784
42.642250 -28.596874 2.938582 0.160784
42.802261 -28.674709 1.064330 0.795098
57.610821 -35.878582 -0.000007 0.537377
72.285896 -43.017517 -0.000006 0.549387
78.586555 -46.082581 0.000009 0.538603
82.095535 -47.789581 -0.000002 0.542892
84.335762 -48.879379 -0.000003 0.538113
85.892776 -49.636818 -0.000012 0.544730
87.039986 -50.194893 0.000001 0.522549
42.802258 -28.229279 16.371731 0.773407
42.802258 -28.229279 14.391848 0.651226
42.802261 -28.229279 12.439765 0.634436
42.522251 -28.090633 10.557149 0.678431
42.522251 -28.090637 8.636425 0.678431
42.522251 -28.090641 6.730114 0.678431
42.522251 -28.090641 4.834010 0.678431
42.522251 -28.090637 2.943995 0.678431
42.802254 -28.229275 1.061118 0.544730
57.736141 -35.623489 -0.000001 0.538603
72.360977 -42.864677 -0.000001 0.533946
78.640060 -45.973644 0.000014 0.524387
82.137024 -47.705090 0.000002 0.520343
84.369583 -48.810497 0.000000 0.532843
85.921333 -49.578812 0.000005 0.537868
87.064552 -50.144859 0.000002 0.531495
42.802250 -27.780750 16.421932 0.402206
42.802261 -27.780758 14.435135 0.642770
42.802261 -27.780758 12.476232 0.718505
42.625828 -27.691856 10.569837 0.160784
42.625816 -27.691856 8.646265 0.160784
42.625809 -27.691853 6.737129 0.160784
42.625824 -27.691856 4.838212 0.160784
42.625813 -27.691853 2.945395 0.161642
42.802254 -27.780754 1.057838 0.706373
57.862972 -35.369141 -0.000011 0.539216
72.436966 -42.712288 -0.000010 0.550490
78.694122 -45.864975 -0.000009 0.545956
82.179039 -47.620861 -0.000006 0.538113
84.403831 -48.741829 -0.000009 0.560662
85.950172 -49.520958 -0.000005 0.516054
87.089424 -50.094971 -0.000009 0.521446
42.802258 -27.329067 16.473194 0.461152
42.802265 -27.329071 14.479334 0.657843
42.802254 -27.329063 12.513469 0.336397
42.522243 -27.185520 10.617564 0.678431
42.522240 -27.185520 8.683279 0.678431
42.522243 -27.185520 6.763509 0.678431
42.522247 -27.185524 4.854018 0.678431
42.522243 -27.185520 2.950660 0.678431
42.802254 -27.329063 1.054488 0.640074
57.991837 -35.115814 -0.000007 0.540196
72.514297 -42.560577 0.000006 0.534559
78.749146 -45.756790 -0.000005 0.542892
82.221703 -47.536953 -0.000004 0.533578
84.438683 -48.673458 0.000007 0.521691
85.979469 -49.463329 -0.000003 0.524510
87.114708 -50.045292 -0.000001 0.523284
42.802250 -26.874130 16.525536 0.563603
42.802265 -26.874138 14.524463 0.493382
42.802254 -26.874130 12.551490 0.571691
42.522251 -26.728115 10.648726 0.678431
42.522243 -26.728111 8.707447 0.678431
42.522251 -26.728115 6.780735 0.678431
42.522251 -26.728115 4.864339 0.678431
42.522255 -26.728115 2.954097 0.678431
42.802254 -26.874130 1.051069 0.469118
58.122459 -34.863392 -0.000002 0.531373
72.592567 -42.409340 0.000011 0.539828
78.804916 -45.648994 -0.000002 0.544608
82.264954 -47.453354 -0.000000 0.513848
84.473885 -48.605274 -0.000001 0.552328
86.009178 -49.405910 0.000000 0.534926
87.140312 -49.995777 -0.000001 0.547917
42.802246 -26.415871 16.578968 0.594485
42.802258 -26.415874 14.570536 0.627328
42.802250 -26.415874 12.590304 0.594730
42.499146 -26.255104 10.684421 0.321078
42.522247 -26.267357 8.732122 0.678431
42.522255 -26.267361 6.798321 0.678431
42.522255 -26.267361 4.874876 0.678431
42.522255 -26.267361 2.957608 0.678431
42.802254 -26.415871 1.047579 0.741299
58.254585 -34.611755 -0.000011 0.539706
72.671722 -42.258575 0.000002 0.540809
78.861336 -45.541534 -0.000011 0.527083
82.308708 -47.370010 -0.000010 0.532230
84.509567 -48.537338 -0.000009 0.550735
86.039230 -49.348671 -0.000010 0.542157
87.166229 -49.946430 -0.000010 0.518382
42.802254 -25.954216 16.633507 0.498284
42.802258 -25.954216 14.617563 0.716422
42.802265 -25.954216 12.629922 0.777819
42.566673 -25.827148 10.705529 0.160784
42.522251 -25.803188 8.757307 0.678431
42.522255 -25.803188 6.816272 0.678431
42.522259 -25.803188 4.885631 0.678431
42.522259 -25.803192 2.961191 0.678431
42.802265 -25.954216 1.044016 0.447794
58.388702 -34.361176 -0.000007 0.532843
72.752060 -42.108433 0.000003 0.543873
78.918617 -45.434528 -0.000007 0.525123
82.353188 -47.287056 0.000003 0.549755
84.545761 -48.469681 -0.000008 0.521691
86.069763 -49.291695 0.000002 0.527083
87.192520 -49.897278 -0.000008 0.528799
42.572247 -25.362915 16.754890 0.678431
42.572247 -25.362919 14.722221 0.678431
42.802265 -25.489063 12.670363 0.418627
42.635761 -25.397743 10.726958 0.160784
42.522255 -25.335503 8.783014 0.678431
42.522255 -25.335503 6.834594 0.678431
42.522259 -25.335503 4.896609 0.678431
42.522263 -25.335506 2.964846 0.678431
42.802261 -25.489059 1.040379 0.776593
58.524570 -34.111542 -0.000003 0.532721
72.833450 -41.958862 0.000006 0.542279
78.976624 -45.327919 -0.000005 0.537255
82.398170 -47.204376 0.000006 0.551593
84.582436 -48.402267 -0.000007 0.527451
86.100670 -49.234909 0.000006 0.544118
87.219177 -49.848320 -0.000004 0.532598
42.572250 -24.892094 16.811958 0.678431
42.572250 -24.892097 14.771429 0.678431
42.802258 -25.020329 12.711636 0.526348
42.653862 -24.937588 10.757640 0.160784
42.522259 -24.864216 8.809248 0.678431
42.522263 -24.864220 6.853292 0.678431
42.522266 -24.864220 4.907811 0.678431
42.522263 -24.864223 2.968579 0.678431
42.802261 -25.020329 1.036667 0.468995
58.662151 -33.862839 -0.000001 0.537868
72.915894 -41.809860 0.000011 0.540686
79.035378 -45.221714 -0.000001 0.538725
82.443741 -47.122005 0.000008 0.547181
84.619591 -48.335133 -0.000001 0.550735
86.131966 -49.178337 0.000007 0.494240
87.246147 -49.799538 -0.000003 0.576716
42.572247 -24.417576 16.870201 0.678431
42.572250 -24.417576 14.821650 0.678431
42.802261 -24.547932 12.753754 0.473284
42.653862 -24.463829 10.792076 0.196201
42.522263 -24.389248 8.836022 0.678431
42.522263 -24.389248 6.872377 0.678431
42.522266 -24.389248 4.919246 0.678431
42.522266 -24.389248 2.972387 0.678431
42.802258 -24.547928 1.032880 0.443505
58.801281 -33.615005 -0.000008 0.538235
72.999245 -41.661362 0.000001 0.536397
79.094788 -45.115875 -0.000010 0.540074
82.489822 -47.039928 0.000000 0.565196
84.657143 -48.268208 -0.000012 0.554289
86.163605 -49.121960 -0.000003 0.569240
87.273460 -49.750946 -0.000003 0.528309
42.572258 -23.939316 16.929630 0.678431
42.572258 -23.939316 14.872892 0.678431
42.802258 -24.071796 12.796734 0.543750
42.857315 -24.103504 10.792389 0.540686
42.522263 -23.910522 8.863344 0.678431
42.522263 -23.910522 6.891850 0.678431
42.522263 -23.910522 4.930913 0.678431
42.522259 -23.910519 2.976273 0.678431
42.802254 -24.071793 1.029014 0.772304
58.942505 -33.368362 0.000004 0.536887
73.083740 -41.513527 0.000004 0.545098
79.155014 -45.010506 -0.000007 0.535784
82.536514 -46.958206 0.000001 0.539216
84.695274 -48.201618 0.000001 0.564216
86.195648 -49.065815 -0.000010 0.530637
87.301117 -49.702549 -0.000002 0.546201
42.572254 -23.457165 16.990276 0.678431
42.572254 -23.457169 14.925180 0.678431
42.802258 -23.591793 12.840590 0.558088
42.802250 -23.591789 10.837567 0.585417
42.522255 -23.427902 8.891224 0.527819
42.522255 -23.427902 6.911721 0.527819
42.522255 -23.427902 4.942819 0.527819
42.522255 -23.427902 2.980240 0.527819
42.802265 -23.591797 1.025070 0.706863
59.085251 -33.122593 0.000006 0.536765
73.169273 -41.366280 0.000005 0.537500
79.216049 -44.905590 0.000003 0.539093
82.583733 -46.876774 -0.000007 0.525123
84.733810 -48.135262 0.000002 0.569975
86.228119 -49.009911 -0.000008 0.522549
87.329109 -49.654346 -0.000001 0.496814
42.572269 -22.971088 17.052145 0.678431
42.572262 -22.971088 14.978529 0.678431
42.802265 -23.107876 12.885334 0.532475
42.802254 -23.107872 10.874043 0.526716
42.522251 -22.941345 8.919668 0.678431
42.522247 -22.941345 6.931995 0.678431
42.522251 -22.941345 4.954967 0.678431
42.522251 -22.941345 2.984285 0.678431
42.802254 -23.107872 1.021046 0.574877
59.229572 -32.877750 0.000000 0.535539
73.255600 -41.219498 -0.000014 0.547304
79.277664 -44.801029 -0.000004 0.517647
82.631523 -46.795681 -0.000014 0.541667
84.772774 -48.069153 -0.000004 0.556985
86.260971 -48.954239 -0.000006 0.563235
87.357437 -49.606342 0.000001 0.535417
42.802258 -22.619900 17.047964 0.775123
42.802258 -22.619900 14.974923 0.582721
42.802254 -22.619896 12.930989 0.591299
42.802254 -22.619904 10.911262 0.753554
42.522259 -22.450718 8.948689 0.678431
42.522255 -22.450718 6.952680 0.678431
42.522255 -22.450718 4.967358 0.678431
42.522259 -22.450718 2.988412 0.678431
42.802261 -22.619900 1.016940 0.525980
59.375732 -32.633995 0.000002 0.535417
73.343178 -41.073460 -0.000011 0.544853
79.340080 -44.696934 -0.000003 0.550490
82.679932 -46.714951 -0.000013 0.519730
84.812225 -48.003338 -0.000004 0.556985
86.294212 -48.898788 -0.000007 0.488235
87.386086 -49.558521 -0.000005 0.523897
42.802258 -22.127796 17.112080 0.541789
42.802258 -22.127800 15.030204 0.572181
42.802261 -22.127800 12.977559 0.600735
42.802258 -22.127800 10.949226 0.490319
42.522255 -21.955936 8.978293 0.678431
42.522251 -21.955933 6.973782 0.678431
42.522247 -21.955933 4.980001 0.678431
42.522266 -21.955940 2.992624 0.678431
42.802265 -22.127804 1.012752 0.602083
59.523605 -32.391273 0.000004 0.531740
73.431778 -40.928036 -0.000009 0.530637
79.403221 -44.593281 -0.000001 0.516422
82.728951 -46.634594 -0.000002 0.533578
84.852142 -47.937798 -0.000005 0.516544
86.327850 -48.843582 -0.000003 0.521814
87.415085 -49.510914 -0.000005 0.590931
42.802254 -21.631466 17.177488 0.632966
42.802258 -21.631470 15.086601 0.561887
42.802261 -21.631474 13.025072 0.672794
42.802254 -21.631470 10.987962 0.628431
42.522263 -21.456909 9.008498 0.678431
42.522255 -21.456902 6.995309 0.678431
42.522259 -21.456905 4.992898 0.678431
42.522263 -21.456909 2.996920 0.678431
42.802258 -21.631470 1.008478 0.549877
59.673157 -32.149593 0.000006 0.537010
73.521385 -40.783241 -0.000007 0.531373
79.467087 -44.490070 0.000000 0.539461
82.778488 -46.554554 -0.000000 0.563358
84.892555 -47.872570 0.000006 0.535417
86.361855 -48.788601 -0.000004 0.581250
87.444412 -49.463512 -0.000003 0.559681
42.802254 -21.130787 17.244207 0.651471
42.802258 -21.130791 15.144130 0.613113
42.802258 -21.130791 13.073540 0.684191
42.802254 -21.130787 11.027473 0.510294
42.522259 -20.953495 9.039308 0.678431
42.522263 -20.953503 7.017268 0.678431
42.522255 -20.953495 5.006056 0.678431
42.522255 -20.953495 3.001304 0.678431
42.802254 -21.130787 1.004120 0.510539
59.824390 -31.908953 0.000008 0.539706
73.612007 -40.639065 -0.000004 0.527206
79.531677 -44.387314 0.000003 0.538725
82.828568 -46.474854 0.000001 0.526348
84.933357 -47.807575 0.000000 0.575368
86.396286 -48.733883 0.000005 0.569975
87.474060 -49.416313 -0.000004 0.554657
42.802254 -20.625668 17.312267 0.781618
42.802254 -20.625671 15.202815 0.607476
42.802265 -20.625679 13.122976 0.552328
42.802254 -20.625671 11.067779 0.743382
42.522259 -20.445629 9.070735 0.678431
42.522266 -20.445637 7.039668 0.678431
42.522263 -20.445633 5.019476 0.678431
42.522266 -20.445637 3.005774 0.678431
42.802265 -20.625675 0.999674 0.680760
59.977154 -31.669285 0.000000 0.540441
73.703606 -40.495510 -0.000004 0.537745
79.596901 -44.284958 -0.000005 0.543260
82.879150 -46.395473 -0.000008 0.563725
84.974594 -47.742863 -0.000008 0.542279
86.431038 -48.679367 -0.000001 0.539706
87.504044 -49.369324 -0.000004 0.470833
42.802254 -20.115990 17.381691 0.675858
42.802265 -20.115993 15.262671 0.380392
42.802258 -20.115990 13.173409 0.646078
42.802254 -20.115986 11.108891 0.686642
42.522243 -19.933167 9.102793 0.678431
42.522247 -19.933167 7.062519 0.678431
42.522255 -19.933167 5.033168 0.678431
42.522259 -19.933170 3.010334 0.678431
42.802261 -20.115993 0.995139 0.638113
60.131718 -31.430763 0.000001 0.537500
73.796211 -40.352608 -0.000003 0.527941
79.662964 -44.183140 0.000004 0.564706
82.930344 -46.316483 -0.000006 0.559681
85.016319 -47.678463 -0.000008 0.512500
86.466187 -48.625111 -0.000002 0.553309
87.534363 -49.322544 -0.000004 0.519853
42.802250 -19.601650 17.452503 0.736274
42.652252 -19.502205 15.362598 0.156863
42.572250 -19.449173 13.275058 0.678431
42.802250 -19.601646 11.150826 0.617402
42.522255 -19.416027 9.135490 0.678431
42.522251 -19.416023 7.085824 0.678431
42.522251 -19.416027 5.047131 0.678431
42.522251 -19.416023 3.014985 0.678431
42.802250 -19.601646 0.990512 0.677328
60.287956 -31.193348 0.000003 0.533088
73.889816 -40.210358 -0.000001 0.535662
79.729683 -44.081753 0.000005 0.541176
82.982086 -46.237850 -0.000006 0.543137
85.058510 -47.614365 -0.000006 0.563971
86.501724 -48.571102 -0.000002 0.532843
87.564995 -49.275974 -0.000003 0.563113
42.802254 -19.082516 17.524731 0.494608
42.652245 -18.981552 15.425063 0.355515
42.572250 -18.927719 13.327760 0.678431
42.802254 -19.082516 11.193597 0.581985
42.522259 -18.894073 9.168844 0.678431
42.522247 -18.894062 7.109596 0.678431
42.522251 -18.894066 5.061374 0.678431
42.522251 -18.894070 3.019730 0.678431
42.802254 -19.082516 0.985794 0.721324
60.445839 -30.957018 0.000004 0.539583
73.984406 -40.068764 -0.000001 0.538971
79.797089 -43.980820 0.000004 0.552819
83.034416 -46.159607 0.000003 0.553309
85.101128 -47.550552 -0.000006 0.524265
86.537605 -48.517330 -0.000008 0.545343
87.595985 -49.229641 0.000005 0.534681
42.716160 -18.499672 17.624517 0.550980
42.802254 -18.558491 15.449531 0.573162
42.716156 -18.499672 13.349802 0.595098
42.802254 -18.558495 11.237222 0.620098
42.522243 -18.367188 9.202864 0.678431
42.522247 -18.367191 7.133842 0.678431
42.522263 -18.367199 5.075900 0.678431
42.522247 -18.367191 3.024568 0.678431
42.802250 -18.558495 0.980981 0.651716
60.605392 -30.721821 0.000006 0.532353
74.080002 -39.927841 0.000001 0.538235
79.865227 -43.880383 0.000007 0.544485
83.087234 -46.081703 0.000003 0.526348
85.144226 -47.487064 0.000001 0.526961
86.573921 -48.463848 0.000000 0.549510
87.627251 -49.183491 -0.000001 0.573162
42.802258 -18.029438 17.673540 0.661274
42.802254 -18.029442 15.514318 0.655270
42.802265 -18.029446 13.385408 0.703431
42.802250 -18.029442 11.281720 0.812010
42.522255 -17.835262 9.237560 0.678431
42.522243 -17.835255 7.158575 0.678431
42.522247 -17.835255 5.090718 0.678431
42.522247 -17.835255 3.029503 0.678431
42.802254 -18.029438 0.976072 0.652083
60.766548 -30.487711 0.000006 0.537745
74.176559 -39.787575 0.000001 0.534314
79.933990 -43.780373 -0.000001 0.560907
83.140617 -46.004173 0.000004 0.553431
85.187744 -47.423855 0.000002 0.524510
86.610573 -48.410595 -0.000000 0.560172
87.658852 -49.137581 -0.000000 0.321446
42.802261 -17.495247 17.750175 0.512500
42.802265 -17.495251 15.580394 0.659926
42.802261 -17.495247 13.441081 0.561765
42.802258 -17.495247 11.327106 0.593260
42.522247 -17.298149 9.272950 0.678431
42.522240 -17.298145 7.183797 0.678431
42.522251 -17.298157 5.105831 0.678431
42.522255 -17.298161 3.034537 0.678431
42.802261 -17.495247 0.971066 0.598652
60.929321 -30.254728 0.000007 0.549020
74.274078 -39.647987 0.000001 0.533578
80.003510 -43.680878 -0.000000 0.544976
83.194527 -45.927006 0.000002 0.526716
85.231689 -47.360954 0.000002 0.534681
86.647598 -48.357597 -0.000001 0.561152
87.690788 -49.091888 0.000000 0.331250
42.572258 -16.791462 17.899147 0.668995
42.802254 -16.955765 15.647799 0.634681
42.572258 -16.791462 13.549295 0.678431
42.802258 -16.955761 11.373395 0.665931
42.522263 -16.755741 9.309045 0.678431
42.522251 -16.755737 7.209523 0.678431
42.522255 -16.755741 5.121243 0.678431
42.522255 -16.755741 3.039673 0.678431
42.802258 -16.955765 0.965959 0.615441
61.093643 -30.022827 0.000001 0.530147
74.372536 -39.509048 -0.000004 0.531495
80.073677 -43.581844 -0.000006 0.506250
83.248947 -45.850204 -0.000002 0.537377
85.276047 -47.298336 -0.000005 0.544976
86.684990 -48.304859 -0.000001 0.510907
87.723030 -49.046417 0.000001 0.334681
nan nan nan 0.000000
nan nan nan 0.000000
nan nan nan 0.000000
nan nan nan 0.000000
nan nan nan 0.000000
nan nan nan 0.000000
nan nan nan 0.000000
nan nan nan 0.000000
nan nan nan 0.000000
127.180099 -77.583176 0.000009 0.537255
113.967781 -68.004494 0.000007 0.534559
108.295135 -63.891937 0.000020 0.533211
105.135796 -61.601482 0.000027 0.526471
103.118881 -60.139259 0.000023 0.529167
101.717064 -59.122967 0.000016 0.529779
100.684242 -58.374191 0.000017 0.491054
nan nan nan 0.000000
nan nan nan 0.000000
nan nan nan 0.000000
nan nan nan 0.000000
nan nan nan 0.000000
nan nan nan 0.000000
nan nan nan 0.000000
nan nan nan 0.000000
nan nan nan 0.000000
127.012512 -77.812721 0.000006 0.533578
113.867371 -68.142029 0.000004 0.539338
108.223587 -63.989983 0.000014 0.550490
105.080338 -61.677536 0.000016 0.520711
103.073669 -60.201260 0.000013 0.525000
101.678932 -59.175171 0.000017 0.525123
100.651375 -58.419216 0.000013 0.561275
nan nan nan 0.000000
nan nan nan 0.000000
nan nan nan 0.000000
nan nan nan 0.000000
nan nan nan 0.000000
nan nan nan 0.000000
nan nan nan 0.000000
nan nan nan 0.000000
nan nan nan 0.000000
126.843246 -78.041031 0.000010 0.535539
113.765968 -68.278839 0.000006 0.545098
108.151222 -64.087418 0.000027 0.525245
105.024284 -61.753159 0.000018 0.562868
103.027977 -60.262913 0.000014 0.564216
101.640411 -59.227093 0.000024 0.580882
100.618172 -58.463993 0.000016 0.549755
nan nan nan 0.000000
nan nan nan 0.000000
nan nan nan 0.000000
nan nan nan 0.000000
nan nan nan 0.000000
nan nan nan 0.000000
nan nan nan 0.000000
nan nan nan 0.000000
nan nan nan 0.000000
126.672424 -78.268181 0.000010 0.531618
113.663612 -68.414925 0.000007 0.546201
108.078362 -64.184479 0.000017 0.546814
104.967743 -61.828407 0.000014 0.534314
102.981850 -60.324234 0.000016 0.569118
101.601593 -59.278786 0.000015 0.542770
100.584679 -58.508545 0.000016 0.509926
nan nan nan 0.000000
nan nan nan 0.000000
nan nan nan 0.000000
nan nan nan 0.000000
nan nan nan 0.000000
nan nan nan 0.000000
nan nan nan 0.000000
nan nan nan 0.000000
nan nan nan 0.000000
126.500046 -78.494164 0.000009 0.530270
113.560349 -68.550323 0.000004 0.542402
108.004768 -64.280998 0.000013 0.554779
104.910637 -61.903236 0.000015 0.520833
102.935349 -60.385273 0.000006 0.506740
101.562408 -59.330212 0.000006 0.535662
100.550880 -58.552868 0.000013 0.527696
nan nan nan 0.000000
nan nan nan 0.000000
nan nan nan 0.000000
nan nan nan 0.000000
nan nan nan 0.000000
nan nan nan 0.000000
nan nan nan 0.000000
nan nan nan 0.000000
nan nan nan 0.000000
126.326080 -78.718903 0.000009 0.535417
113.456108 -68.684975 0.000006 0.538725
107.930397 -64.376915 0.000024 0.550123
104.853012 -61.977665 0.000017 0.540074
102.888329 -60.445915 0.000018 0.530147
101.522797 -59.381298 0.000017 0.588848
100.516754 -58.596947 0.000014 0.501103
nan nan nan 0.000000
nan nan nan 0.000000
nan nan nan 0.000000
nan nan nan 0.000000
nan nan nan 0.000000
nan nan nan 0.000000
nan nan nan 0.000000
nan nan nan 0.000000
nan nan nan 0.000000
126.150520 -78.942413 0.000010 0.541912
113.350922 -68.818893 0.000007 0.521936
107.855469 -64.472389 0.000020 0.552574
104.794884 -62.051693 0.000017 0.570343
102.840958 -60.506279 0.000014 0.561397
101.482910 -59.432167 0.000008 0.543015
100.482353 -58.640804 0.000006 0.530760
nan nan nan 0.000000
nan nan nan 0.000000
nan nan nan 0.000000
nan nan nan 0.000000
nan nan nan 0.000000
nan nan nan 0.000000
nan nan nan 0.000000
nan nan nan 0.000000
nan nan nan 0.000000
125.973434 -79.164719 0.000010 0.536520
113.244827 -68.952080 0.000007 0.534191
107.779846 -64.567322 0.000021 0.542892
104.736198 -62.125298 0.000022 0.552083
102.793129 -60.566296 0.000015 0.566912
101.442596 -59.482704 0.000018 0.525735
100.447601 -58.684387 0.000013 0.564706
nan nan nan 0.000000
nan nan nan 0.000000
nan nan nan 0.000000
nan nan nan 0.000000
nan nan nan 0.000000
nan nan nan 0.000000
nan nan nan 0.000000
nan nan nan 0.000000
nan nan nan 0.000000
125.794815 -79.385788 0.000010 0.539461
113.137802 -69.084534 0.000006 0.526716
107.703545 -64.661713 0.000023 0.544485
104.677078 -62.198540 0.000014 0.569240
102.744904 -60.625977 0.000016 0.498039
101.401993 -59.533012 0.000009 0.495466
100.412560 -58.727741 0.000013 0.525858
nan nan nan 0.000000
nan nan nan 0.000000
nan nan nan 0.000000
nan nan nan 0.000000
nan nan nan 0.000000
nan nan nan 0.000000
nan nan nan 0.000000
nan nan nan 0.000000
nan nan nan 0.000000
125.614624 -79.605583 0.000010 0.537868
113.029854 -69.216225 0.000007 0.536397
107.626572 -64.755554 0.000027 0.532966
104.617371 -62.271301 0.000022 0.524142
102.696251 -60.685322 0.000016 0.526838
101.360977 -59.582981 0.000019 0.541789
100.377228 -58.770847 0.000014 0.538971
nan nan nan 0.000000
nan nan nan 0.000000
nan nan nan 0.000000
nan nan nan 0.000000
nan nan nan 0.000000
nan nan nan 0.000000
nan nan nan 0.000000
nan nan nan 0.000000
nan nan nan 0.000000
125.432930 -79.824135 0.000010 0.532230
112.920990 -69.347168 0.000006 0.534436
107.549141 -64.849007 0.000004 0.527941
104.557205 -62.343689 0.000020 0.536397
102.647186 -60.744320 0.000018 0.566667
101.319672 -59.632710 0.000012 0.541789
100.341583 -58.813705 0.000016 0.561642
nan nan nan 0.000000
nan nan nan 0.000000
nan nan nan 0.000000
nan nan nan 0.000000
nan nan nan 0.000000
nan nan nan 0.000000
nan nan nan 0.000000
nan nan nan 0.000000
nan nan nan 0.000000
125.249702 -80.041397 0.000010 0.536152
112.811203 -69.477341 0.000006 0.545343
107.470879 -64.941780 0.000005 0.554902
104.496552 -62.415672 0.000013 0.530760
102.597740 -60.803005 0.000012 0.552083
101.277977 -59.682121 0.000015 0.555882
100.305664 -58.856331 0.000010 0.563848
nan nan nan 0.000000
nan nan nan 0.000000
nan nan nan 0.000000
nan nan nan 0.000000
nan nan nan 0.000000
nan nan nan 0.000000
nan nan nan 0.000000
nan nan nan 0.000000
nan nan nan 0.000000
125.064980 -80.257393 0.000009 0.536152
112.700531 -69.606750 0.000006 0.541299
107.391991 -65.034012 0.000005 0.530392
104.435341 -62.487179 0.000020 0.516667
102.547859 -60.861309 0.000013 0.508211
101.235962 -59.731255 0.000015 0.545588
100.269424 -58.898678 0.000015 0.563971
nan nan nan 0.000000
nan nan nan 0.000000
nan nan nan 0.000000
nan nan nan 0.000000
nan nan nan 0.000000
nan nan nan 0.000000
nan nan nan 0.000000
nan nan nan 0.000000
nan nan nan 0.000000
124.878738 -80.472092 0.000009 0.539338
112.588936 -69.735374 0.000006 0.527083
107.312462 -65.125694 0.000005 0.550368
104.373680 -62.558292 0.000017 0.565319
102.497589 -60.919285 0.000012 0.561029
101.193619 -59.780098 0.000010 0.518015
100.232903 -58.940792 0.000012 0.553799
nan nan nan 0.000000
nan nan nan 0.000000
nan nan nan 0.000000
nan nan nan 0.000000
nan nan nan 0.000000
nan nan nan 0.000000
nan nan nan 0.000000
nan nan nan 0.000000
nan nan nan 0.000000
124.691017 -80.685486 0.000008 0.528676
112.476463 -69.863228 0.000006 0.534804
107.232292 -65.216827 0.000005 0.547549
104.311523 -62.628975 0.000013 0.530760
102.446899 -60.976894 0.000012 0.555637
101.150909 -59.828636 0.000011 0.535907
100.196098 -58.982658 0.000006 0.544118
nan nan nan 0.000000
nan nan nan 0.000000
nan nan nan 0.000000
nan nan nan 0.000000
nan nan nan 0.000000
nan nan nan 0.000000
nan nan nan 0.000000
nan nan nan 0.000000
nan nan nan 0.000000
124.501808 -80.897568 0.000007 0.539216
112.363091 -69.990280 0.000006 0.535539
107.151482 -65.307381 0.000005 0.520343
104.248856 -62.699215 0.000012 0.544240
102.395805 -61.034149 0.000013 0.517770
101.107864 -59.876869 0.000012 0.557108
100.158966 -59.024231 0.000013 0.548652
nan nan nan 0.000000
nan nan nan 0.000000
nan nan nan 0.000000
nan nan nan 0.000000
nan nan nan 0.000000
nan nan nan 0.000000
nan nan nan 0.000000
nan nan nan 0.000000
nan nan nan 0.000000
124.311111 -81.108315 0.000007 0.538725
112.248840 -70.116554 0.000006 0.542525
107.070061 -65.397385 0.000003 0.529412
104.185715 -62.769020 0.000010 0.543750
102.344322 -61.091053 0.000011 0.546814
101.064499 -59.924809 0.000011 0.553922
100.121567 -59.065567 0.000011 0.548039
nan nan nan 0.000000
nan nan nan 0.000000
nan nan nan 0.000000
nan nan nan 0.000000
nan nan nan 0.000000
nan nan nan 0.000000
nan nan nan 0.000000
nan nan nan 0.000000
nan nan nan 0.000000
124.118927 -81.317696 0.000008 0.534681
112.133705 -70.242012 0.000006 0.531740
106.987991 -65.486801 0.000005 0.529779
104.122025 -62.838329 0.000019 0.498652
102.292427 -61.147579 0.000015 0.535662
101.020782 -59.972435 0.000013 0.545466
100.083878 -59.106636 0.000012 0.549755
nan nan nan 0.000000
nan nan nan 0.000000
nan nan nan 0.000000
nan nan nan 0.000000
nan nan nan 0.000000
nan nan nan 0.000000
nan nan nan 0.000000
nan nan nan 0.000000
nan nan nan 0.000000
123.925316 -81.525764 0.000008 0.538358
112.017700 -70.366669 0.000005 0.537132
106.905304 -65.575653 0.000004 0.560662
104.057907 -62.907249 0.000017 0.541667
102.240166 -61.203770 0.000011 0.575000
100.976746 -60.019768 0.000010 0.523407
100.045914 -59.147446 0.000010 0.551716
nan nan nan 0.000000
nan nan nan 0.000000
nan nan nan 0.000000
nan nan nan 0.000000
nan nan nan 0.000000
nan nan nan 0.000000
nan nan nan 0.000000
nan nan nan 0.000000
nan nan nan 0.000000
123.730240 -81.732460 0.000008 0.536765
111.900833 -70.490524 0.000005 0.533211
106.822006 -65.663925 0.000004 0.556863
103.993317 -62.975712 0.000015 0.526471
102.187500 -61.259579 0.000010 0.518873
100.932373 -60.066788 0.000010 0.559191
100.007652 -59.187988 0.000010 0.481740
nan nan nan 0.000000
nan nan nan 0.000000
nan nan nan 0.000000
nan nan nan 0.000000
nan nan nan 0.000000
nan nan nan 0.000000
nan nan nan 0.000000
nan nan nan 0.000000
nan nan nan 0.000000
123.533760 -81.937828 0.000006 0.533578
111.783096 -70.613548 0.000005 0.538603
106.738091 -65.751617 0.000003 0.553186
103.928223 -63.043701 0.000017 0.509804
102.134445 -61.315014 0.000011 0.509436
100.887672 -60.113487 0.000011 0.515564
99.969109 -59.228256 0.000010 0.508946
nan nan nan 0.000000
nan nan nan 0.000000
nan nan nan 0.000000
nan nan nan 0.000000
nan nan nan 0.000000
nan nan nan 0.000000
nan nan nan 0.000000
nan nan nan 0.000000
nan nan nan 0.000000
123.335838 -82.141800 0.000006 0.535049
111.664505 -70.735756 0.000005 0.532230
106.653580 -65.838722 0.000003 0.553554
103.862679 -63.111263 0.000015 0.553431
102.081009 -61.370090 0.000008 0.531127
100.842659 -60.159882 0.000010 0.537990
