# This PCD file was generated using the MATLABÂ® pcwrite function
# from Computer Vision ToolboxÂ®.
# .PCD v.7 - Point Cloud Data file format
VERSION .7
FIELDS x y z intensity
SIZE 4 4 4 4
TYPE F F F F
COUNT 1 1 1 1
WIDTH 1215
HEIGHT 1
VIEWPOINT 0 0 0 1 0 0 0
POINTS 1215
DATA ascii
-53.958267 6.223304 0.314104 0.424265
-53.640034 6.027526 -0.000018 0.503309
-52.165215 5.120210 -0.000009 0.542034
-51.078667 4.451762 -0.000011 0.572794
-53.958267 6.316868 4.859232 0.750000
-53.958267 6.316868 4.465337 0.465074
-53.958267 6.316868 4.076974 0.478799
-53.958271 6.316869 3.693210 0.464093
-53.958267 6.316869 3.313154 0.779289
-53.958267 6.316868 2.935951 0.711887
-53.958267 6.316868 2.560768 0.454534
-53.958267 6.316868 2.186789 0.598039
-53.958267 6.316868 1.813211 0.482966
-53.958267 6.316868 1.439232 0.661642
-53.958267 6.316868 1.064049 0.461397
-53.958267 6.316868 0.686845 0.451348
-53.958267 6.316868 0.306790 0.718137
-53.599548 6.092714 -0.000007 0.534191
-52.131107 5.175131 0.000001 0.527819
-51.049320 4.499155 -0.000019 0.518015
-53.958267 6.411248 4.871829 0.517279
-53.958267 6.411248 4.476199 0.465686
-53.958267 6.411248 4.086124 0.464216
-53.958267 6.411248 3.700670 0.444485
-53.958267 6.411248 3.318940 0.625858
-53.958267 6.411248 2.940075 0.789828
-53.958267 6.411248 2.563238 0.464828
-53.958267 6.411247 2.187612 0.459681
-53.958267 6.411247 1.812388 0.475490
-53.958267 6.411247 1.436761 0.769118
-53.958267 6.411248 1.059925 0.473162
-53.958267 6.411247 0.681060 0.462132
-53.958267 6.411247 0.299330 0.448652
-53.558651 6.157643 -0.000005 0.529044
-52.096653 5.229831 0.000002 0.530882
-51.019627 4.546328 -0.000021 0.532843
-53.958267 6.506471 4.884681 0.574387
-53.958267 6.506470 4.487280 0.534436
-53.958267 6.506470 4.095460 0.471324
-53.958267 6.506470 3.708280 0.618873
-53.958267 6.506470 3.324842 0.779289
-53.958267 6.506470 2.944282 0.463480
-53.958267 6.506470 2.565759 0.453309
-53.958267 6.506470 2.188452 0.465196
-53.958267 6.506469 1.811548 0.477206
-53.958267 6.506470 1.434241 0.768137
-53.958267 6.506470 1.055718 0.479044
-53.958267 6.506469 0.675158 0.468505
-53.958267 6.506469 0.291720 0.461765
-53.517319 6.222298 -0.000009 0.506005
-52.061859 5.284319 -0.000008 0.561765
-50.989586 4.593284 -0.000019 0.574877
-53.958267 6.602552 4.897788 0.806373
-53.958267 6.602552 4.498582 0.728799
-53.958267 6.602552 4.104981 0.701103
-53.958267 6.602551 3.716042 0.791176
-53.958267 6.602551 3.330862 0.570588
-53.958267 6.602551 2.948573 0.440686
-53.958267 6.602551 2.568330 0.461029
-53.958267 6.602552 2.189308 0.471078
-53.958267 6.602552 1.810692 0.542279
-53.958267 6.602551 1.431670 0.807721
-53.958267 6.602551 1.051427 0.472181
-53.958267 6.602550 0.669138 0.457598
-53.958267 6.602550 0.283958 0.767402
-53.475517 6.286649 -0.000006 0.540441
-52.026672 5.338550 -0.000013 0.533333
-50.959259 4.640056 -0.000030 0.516422
-53.958267 6.699517 4.911159 0.446201
-53.958267 6.699518 4.510111 0.751348
-53.958267 6.699517 4.114694 0.807598
-53.958267 6.699517 3.723960 0.648897
-53.958267 6.699517 3.337003 0.623407
-53.958267 6.699516 2.952949 0.477574
-53.958267 6.699518 2.570952 0.477083
-53.958267 6.699518 2.190181 0.458211
-53.958267 6.699518 1.809819 0.439583
-53.958267 6.699517 1.429048 0.585539
-53.958267 6.699515 1.047051 0.702206
-53.958267 6.699516 0.662997 0.471324
-53.958267 6.699516 0.276040 0.446446
-53.433228 6.350681 0.000004 0.527941
-51.991016 5.392477 0.000004 0.552696
-50.928524 4.686560 -0.000014 0.551103
-53.958267 6.797383 4.924796 0.574510
-53.958267 6.797383 4.521869 0.427819
-53.958267 6.797383 4.124600 0.463603
-53.958267 6.797384 3.732036 0.448529
-53.958267 6.797384 3.343266 0.624877
-53.958267 6.797385 2.957413 0.481005
-53.958267 6.797385 2.573627 0.459804
-53.958267 6.797384 2.191072 0.441422
-53.958267 6.797384 1.808928 0.457598
-53.958267 6.797385 1.426373 0.592279
-53.958267 6.797384 1.042586 0.593015
-53.958267 6.797383 0.656734 0.578186
-53.958267 6.797383 0.267964 0.442279
-53.390587 6.414478 -0.000006 0.544118
-51.955116 5.446240 -0.000012 0.530760
-50.897522 4.732885 -0.000016 0.514583
-53.958267 6.896179 4.938706 0.439951
-53.958271 6.896180 4.533863 0.432966
-53.958267 6.896179 4.134705 0.484314
-53.958267 6.896179 3.740274 0.816054
-53.958267 6.896178 3.349654 0.445833
-53.958267 6.896179 2.961967 0.468505
-53.958267 6.896179 2.576355 0.513235
-53.958267 6.896178 2.191981 0.547181
-53.958267 6.896178 1.808019 0.454902
-53.958267 6.896178 1.423645 0.803186
-53.958267 6.896178 1.038033 0.765074
-53.958267 6.896178 0.650346 0.749387
-53.958267 6.896179 0.259727 0.798774
-53.347446 6.477941 -0.000005 0.514951
-51.918789 5.499719 -0.000015 0.568382
-50.866184 4.778984 -0.000014 0.562868
-53.958267 6.995922 4.952893 0.458088
-53.958267 6.995922 4.546096 0.452206
-53.958267 6.995922 4.145010 0.471691
-53.958267 6.995922 3.748675 0.459069
-53.958267 6.995921 3.356170 0.443995
-53.958267 6.995921 2.966610 0.453309
-53.958271 6.995922 2.579137 0.476838
-53.958267 6.995921 2.192908 0.465441
-53.958267 6.995921 1.807092 0.496201
-53.958271 6.995922 1.420863 0.472304
-53.958267 6.995921 1.033389 0.786765
-53.958267 6.995921 0.643830 0.669485
-53.958267 6.995921 0.251325 0.680025
-53.303825 6.541072 0.000005 0.560294
-51.882072 5.552927 -0.000013 0.535662
-50.834526 4.824862 -0.000012 0.521569
-53.958267 7.096637 4.967362 0.595466
-53.958267 7.096638 4.558573 0.479167
-53.958267 7.096637 4.155521 0.461397
-53.958267 7.096638 3.757244 0.455025
-53.958267 7.096638 3.362816 0.458824
-53.958267 7.096638 2.971348 0.459069
-53.958267 7.096638 2.581975 0.446446
-53.958267 7.096638 2.193853 0.465441
-53.958267 7.096638 1.806147 0.492892
-53.958267 7.096636 1.418025 0.453676
-53.958267 7.096637 1.028652 0.516544
-53.958267 7.096637 0.637184 0.764461
-53.958267 7.096637 0.242756 0.685172
-53.259838 6.603949 0.000000 0.509559
-51.845009 5.605897 -0.000018 0.508088
-50.802567 4.870533 -0.000016 0.535539
-53.958267 7.198350 4.982122 0.819240
-53.958267 7.198351 4.571299 0.762377
-53.958267 7.198351 4.166243 0.529412
-53.958267 7.198351 3.765984 0.752819
-53.958267 7.198350 3.369594 0.472304
-53.958267 7.198351 2.976179 0.475368
-53.958267 7.198350 2.584870 0.423039
-53.958267 7.198352 2.194817 0.802083
-53.958267 7.198352 1.805183 0.517524
-53.958267 7.198350 1.415130 0.781373
-53.958267 7.198350 1.023821 0.458946
-53.958267 7.198349 0.630406 0.629289
-53.958267 7.198350 0.234016 0.445588
-53.215378 6.666494 0.000001 0.532475
-51.807549 5.658587 -0.000015 0.547549
-50.770229 4.915937 -0.000002 0.548652
-53.958267 7.301085 4.997175 0.466912
-53.958267 7.301085 4.584278 0.720833
-53.958267 7.301085 4.177177 0.668995
-53.958267 7.301085 3.774899 0.423775
-53.958267 7.301085 3.376508 0.476348
-53.958267 7.301084 2.981106 0.466422
-53.958267 7.301085 2.587822 0.461642
-53.958267 7.301085 2.195801 0.456005
-53.958267 7.301085 1.804199 0.497304
-53.958267 7.301085 1.412178 0.472549
-53.958267 7.301084 1.018894 0.459314
-53.958267 7.301085 0.623492 0.451961
-53.958267 7.301085 0.225102 0.449387
-53.170506 6.728741 -0.000001 0.530147
-51.769745 5.711029 -0.000018 0.533946
-50.737652 4.961170 -0.000012 0.590441
-53.958267 7.404868 5.012529 0.463480
-53.958267 7.404868 4.597516 0.410662
-53.958267 7.404867 4.188330 0.703922
-53.958267 7.404868 3.783991 0.465074
-53.958267 7.404868 3.383559 0.493260
-53.958267 7.404867 2.986132 0.441912
-53.958267 7.404867 2.590833 0.449020
-53.958267 7.404868 2.196804 0.437255
-53.958267 7.404868 1.803196 0.480025
-53.958267 7.404867 1.409167 0.483578
-53.958267 7.404867 1.013867 0.460662
-53.958267 7.404867 0.616441 0.468505
-53.958267 7.404866 0.216009 0.502328
-53.125175 6.790657 0.000001 0.492034
-51.731552 5.763190 -0.000015 0.535417
-50.704723 5.006147 -0.000010 0.551838
-53.958267 7.509724 5.028189 0.498284
-53.958267 7.509724 4.611019 0.462132
-53.958267 7.509723 4.199706 0.439216
-53.958267 7.509723 3.793264 0.689093
-53.958267 7.509723 3.390751 0.637990
-53.958267 7.509723 2.991259 0.707966
-53.958267 7.509723 2.593904 0.439583
-53.958267 7.509723 2.197827 0.501593
-53.958267 7.509723 1.802173 0.459926
-53.958267 7.509723 1.406095 0.467647
-53.958267 7.509723 1.008741 0.479657
-53.958267 7.509722 0.609249 0.633211
-53.958267 7.509722 0.206736 0.466176
-53.079487 6.852310 -0.000014 0.549755
-51.692955 5.815052 -0.000001 0.538235
-50.671444 5.050865 0.000004 0.539706
-53.958267 7.615680 5.044162 0.567157
-53.958271 7.615681 4.624792 0.459069
-53.958267 7.615680 4.211308 0.433088
-53.958267 7.615680 3.802724 0.494975
-53.958267 7.615681 3.398088 0.766422
-53.958267 7.615681 2.996487 0.542157
-53.958267 7.615680 2.597037 0.503799
-53.958267 7.615680 2.198870 0.506373
-53.958267 7.615680 1.801130 0.461397
-53.958267 7.615681 1.402962 0.461642
-53.958267 7.615680 1.003513 0.472304
-53.958267 7.615680 0.601913 0.493382
-53.958267 7.615680 0.197276 0.455882
-53.033344 6.913624 -0.000023 0.548529
-51.654106 5.866726 -0.000017 0.542647
-50.637947 5.095419 -0.000011 0.557230
-53.958267 7.722764 5.060453 0.555515
-53.958271 7.722766 4.638839 0.468873
-53.958267 7.722765 4.223144 0.466299
-53.958267 7.722764 3.812372 0.450980
-53.958267 7.722764 3.405570 0.797794
-53.958267 7.722765 3.001820 0.689461
-53.958267 7.722764 2.600232 0.528922
-53.958267 7.722764 2.199935 0.482353
-53.958267 7.722764 1.800065 0.477083
-53.958267 7.722764 1.399767 0.492279
-53.958267 7.722764 0.998179 0.465809
-53.958267 7.722764 0.594430 0.467279
-53.958267 7.722764 0.187629 0.451716
-52.986702 6.974559 -0.000015 0.567892
-51.614819 5.918065 -0.000010 0.530882
-50.604073 5.139685 -0.000005 0.512132
-53.958267 7.831010 5.077072 0.455882
-53.958267 7.831008 4.653167 0.521691
-53.958267 7.831010 4.235216 0.464093
-53.958267 7.831010 3.822213 0.451838
-53.958267 7.831009 3.413202 0.644975
-53.958267 7.831009 3.007260 0.737255
-53.958267 7.831009 2.603492 0.501961
-53.958267 7.831009 2.201020 0.482353
-53.958267 7.831009 1.798980 0.462010
-53.958267 7.831009 1.396508 0.475980
-53.958267 7.831009 0.992740 0.434926
-53.958267 7.831008 0.586798 0.448775
-53.958267 7.831009 0.177788 0.816176
-52.939659 7.035186 -0.000013 0.543750
-51.575203 5.969152 -0.000013 0.527451
-50.569912 5.183736 -0.000007 0.578431
-53.958267 7.940441 5.094023 0.583824
-53.958267 7.940440 4.667784 0.754167
-53.958267 7.940441 4.247529 0.465564
-53.958267 7.940441 3.832251 0.468873
-53.958271 7.940442 3.420987 0.461520
-53.958267 7.940441 3.012809 0.797426
-53.958267 7.940441 2.606816 0.653431
-53.958267 7.940440 2.202128 0.482353
-53.958267 7.940440 1.797872 0.463848
-53.958267 7.940441 1.393183 0.485417
-53.958267 7.940441 0.987191 0.432721
-53.958267 7.940441 0.579013 0.480147
-53.958267 7.940440 0.167749 0.701348
-52.892197 7.095483 -0.000011 0.523162
-51.535198 6.019937 -0.000005 0.576961
-50.535458 5.227552 -0.000011 0.527819
-53.958267 8.051091 5.111315 0.489951
-53.958267 8.051091 4.682693 0.482353
-53.958267 8.051091 4.260090 0.757108
-53.958267 8.051091 3.842491 0.466789
-53.958267 8.051089 3.428928 0.723652
-53.958267 8.051090 3.018469 0.490686
-53.958267 8.051090 2.610208 0.695956
-53.958267 8.051090 2.203257 0.593015
-53.958267 8.051090 1.796743 0.461887
-53.958267 8.051090 1.389792 0.762255
-53.958267 8.051089 0.981530 0.438113
-53.958267 8.051089 0.571072 0.618627
-53.958267 8.051089 0.157509 0.797672
-52.844364 7.155488 -0.000021 0.534191
-51.494896 6.070487 -0.000014 0.543382
-50.500660 5.271101 -0.000005 0.524387
-53.958267 8.162986 5.128954 0.705637
-53.958267 8.162986 4.697903 0.432843
-53.958267 8.162987 4.272903 0.693873
-53.958267 8.162986 3.852937 0.492279
-53.958267 8.162986 3.437030 0.456005
-53.958267 8.162986 3.024243 0.531740
-53.958267 8.162986 2.613667 0.758578
-53.958267 8.162986 2.204410 0.472304
-53.958267 8.162986 1.795590 0.462132
-53.958267 8.162986 1.386333 0.459559
-53.958267 8.162986 0.975757 0.431250
-53.958267 8.162985 0.562971 0.766299
-53.958267 8.162986 0.147063 0.473284
-52.796043 7.215096 -0.000013 0.535907
-51.454189 6.120708 -0.000008 0.509559
-50.465595 5.314431 -0.000010 0.501838
-53.958271 8.276170 5.146950 0.433088
-53.958267 8.276169 4.713418 0.423897
-53.958267 8.276168 4.285975 0.462255
-53.958271 8.276169 3.863594 0.693137
-53.958267 8.276169 3.445294 0.433701
-53.958267 8.276169 3.030134 0.392770
-53.958271 8.276169 2.617197 0.708333
-53.958267 8.276168 2.205585 0.445588
-53.958267 8.276168 1.794415 0.458333
-53.958271 8.276169 1.382803 0.454779
-53.958267 8.276168 0.969866 0.429902
-53.958267 8.276168 0.554706 0.588848
-53.958267 8.276168 0.136407 0.476838
-52.747307 7.274373 -0.000007 0.584436
-51.413170 6.170676 -0.000012 0.567524
-50.430191 5.357488 -0.000003 0.564583
-53.958271 8.390662 5.165307 0.455637
-53.958271 8.390661 4.729247 0.569975
-53.958271 8.390662 4.299310 0.461275
-53.958267 8.390661 3.874465 0.758824
-53.958267 8.390661 3.453725 0.453186
-53.958267 8.390660 3.036143 0.459069
-53.958271 8.390662 2.620797 0.472917
-53.958271 8.390661 2.206784 0.448897
-53.958271 8.390661 1.793216 0.454167
-53.958267 8.390661 1.379203 0.461520
-53.958267 8.390660 0.963857 0.714093
-53.958267 8.390660 0.546275 0.456618
-53.958267 8.390659 0.125536 0.437745
-52.698196 7.333334 -0.000009 0.541299
-51.371780 6.220339 -0.000010 0.537377
-50.394543 5.400340 -0.000013 0.545221
-53.958267 8.506506 5.184037 0.463358
-53.958267 8.506505 4.745397 0.753186
-53.958267 8.506506 4.312916 0.735662
-53.958267 8.506505 3.885556 0.589216
-53.958267 8.506505 3.462327 0.470221
-53.958267 8.506505 3.042274 0.712132
-53.958267 8.506505 2.624470 0.572304
-53.958271 8.506507 2.208008 0.660907
-53.958267 8.506506 1.791992 0.788235
-53.958267 8.506505 1.375530 0.455147
-53.958267 8.506505 0.957726 0.833578
-53.958267 8.506505 0.537673 0.783578
-53.958267 8.506504 0.114444 0.448162
-52.648682 7.391959 -0.000013 0.528799
-51.330032 6.269700 -0.000004 0.515931
-50.358574 5.442924 -0.000016 0.556495
-53.958271 8.623736 5.203147 0.760417
-53.958271 8.623735 4.761874 0.412868
-53.958267 8.623735 4.326797 0.552206
-53.958271 8.623736 3.896873 0.519608
-53.958267 8.623735 3.471104 0.782475
-53.958267 8.623735 3.048530 0.450613
-53.958267 8.623735 2.628218 0.538235
-53.958267 8.623734 2.209256 0.735417
-53.958267 8.623734 1.790743 0.437255
-53.958267 8.623734 1.371782 0.800000
-53.958267 8.623735 0.951470 0.630392
-53.958267 8.623734 0.528896 0.452083
-53.958267 8.623734 0.103128 0.762132
-52.598717 7.450200 -0.000006 0.521078
-51.287971 6.318797 -0.000008 0.526226
-50.322277 5.485231 -0.000010 0.535662
-53.958271 8.742385 5.222646 0.446078
-53.958267 8.742384 4.778687 0.433946
-53.958267 8.742384 4.340961 0.715686
-53.958271 8.742384 3.908420 0.461397
-53.958267 8.742384 3.480059 0.790686
-53.958267 8.742384 3.054913 0.445343
-53.958267 8.742384 2.632042 0.469363
-53.958271 8.742384 2.210530 0.723162
-53.958271 8.742384 1.789470 0.436029
-53.958267 8.742384 1.367958 0.538725
-53.958267 8.742384 0.945087 0.462377
-53.958267 8.742383 0.519941 0.461520
-53.958267 8.742383 0.091580 0.798774
-52.548344 7.508088 0.000001 0.542279
-51.245537 6.367566 -0.000001 0.541789
-50.285690 5.527282 -0.000004 0.526838
-53.958267 8.862494 5.242541 0.490441
-53.958271 8.862495 4.795842 0.465441
-53.958267 8.862494 4.355413 0.510294
-53.958267 8.862494 3.920202 0.464338
-53.958267 8.862494 3.489197 0.521936
-53.958267 8.862494 3.061425 0.467770
-53.958267 8.862495 2.635944 0.458211
-53.958267 8.862494 2.211830 0.722181
-53.958267 8.862494 1.788170 0.482598
-53.958267 8.862494 1.364055 0.581127
-53.958267 8.862494 0.938574 0.465196
-53.958267 8.862494 0.510804 0.422304
-53.958267 8.862494 0.079798 0.669118
-52.497608 7.565659 -0.000002 0.552328
-51.202755 6.416033 0.000007 0.581373
-50.248829 5.569099 -0.000005 0.537132
-53.958271 8.984103 5.262845 0.484436
-53.958271 8.984102 4.813348 0.768750
-53.958267 8.984101 4.370162 0.463848
-53.958267 8.984102 3.932226 0.570343
-53.958267 8.984102 3.498521 0.454779
-53.958267 8.984101 3.068071 0.525368
-53.958267 8.984101 2.639926 0.465319
-53.958267 8.984101 2.213156 0.779779
-53.958267 8.984100 1.786844 0.483578
-53.958267 8.984100 1.360073 0.656250
-53.958267 8.984100 0.931928 0.462377
-53.958267 8.984100 0.501479 0.470956
-53.958267 8.984101 0.067775 0.496201
-52.446487 7.622886 -0.000008 0.526716
-51.159714 6.464269 -0.000006 0.509069
-50.211685 5.610663 -0.000009 0.529902
-53.958271 9.107250 5.283566 0.646814
-53.958271 9.107250 4.831214 0.537500
-53.958267 9.107249 4.385214 0.482966
-53.958271 9.107250 3.944496 0.703922
-53.958271 9.107249 3.508037 0.472304
-53.958267 9.107249 3.074854 0.518995
-53.958267 9.107250 2.643991 0.472304
-53.958267 9.107249 2.214510 0.728431
-53.958267 9.107248 1.785490 0.480392
-53.958267 9.107249 1.356009 0.615074
-53.958267 9.107248 0.925146 0.485049
-53.958267 9.107249 0.491963 0.755637
-53.958267 9.107249 0.055504 0.481373
-52.394932 7.679726 -0.000006 0.519485
-51.116249 6.512126 0.000005 0.538603
-50.174229 5.651942 -0.000003 0.556005
-53.958271 9.231975 5.304712 0.504534
-53.958267 9.231975 4.849447 0.480392
-53.958267 9.231975 4.400575 0.802451
-53.958267 9.231976 3.957019 0.535907
-53.958267 9.231975 3.517749 0.461520
-53.958267 9.231975 3.081776 0.650368
-53.958271 9.231976 2.648138 0.824877
-53.958267 9.231975 2.215892 0.759069
-53.958267 9.231975 1.784108 0.460049
-53.958267 9.231975 1.351862 0.667647
-53.958267 9.231974 0.918223 0.814828
-53.958267 9.231973 0.482251 0.728309
-53.958267 9.231974 0.042981 0.459681
-52.343021 7.736237 -0.000013 0.529779
-51.072540 6.559760 -0.000010 0.512500
-50.136509 5.692985 -0.000007 0.527451
-53.958271 9.358326 5.326298 0.476961
-53.958271 9.358328 4.868060 0.459436
-53.958267 9.358325 4.416254 0.732353
-53.958267 9.358325 3.969801 0.499265
-53.958267 9.358326 3.527663 0.756127
-53.958271 9.358327 3.088842 0.776716
-53.958267 9.358325 2.652371 0.436397
-53.958271 9.358326 2.217302 0.750368
-53.958271 9.358326 1.782698 0.746078
-53.958267 9.358325 1.347629 0.711520
-53.958267 9.358326 0.911157 0.431740
-53.958267 9.358325 0.472337 0.496446
-53.958267 9.358324 0.030199 0.781127
-52.290634 7.792309 0.000000 0.561765
-51.028442 6.607034 -0.000008 0.509191
-50.098484 5.733744 -0.000004 0.468505
-53.958271 9.486342 5.348330 0.713480
-53.958271 9.486341 4.887057 0.769240
-53.958267 9.486340 4.432259 0.530882
-53.958267 9.486339 3.982848 0.466789
-53.958267 9.486341 3.537782 0.491299
-53.958271 9.486341 3.096054 0.721814
-53.958267 9.486339 2.656692 0.449387
-53.958267 9.486340 2.218741 0.727206
-53.958267 9.486340 1.781259 0.460907
-53.958267 9.486339 1.343308 0.551471
-53.958267 9.486340 0.903945 0.428064
-53.958267 9.486339 0.462218 0.493260
-53.958267 9.486338 0.017152 0.744118
-52.237919 7.848073 -0.000002 0.527206
-50.984035 6.654014 -0.000011 0.529044
-50.060184 5.774243 -0.000004 0.467279
-53.958271 9.616074 5.370822 0.803554
-53.958271 9.616074 4.906450 0.566544
-53.958271 9.616073 4.448598 0.455392
-53.958267 9.616071 3.996168 0.489338
-53.958271 9.616072 3.548112 0.522549
-53.958267 9.616073 3.103417 0.457843
-53.958267 9.616073 2.661104 0.476838
-53.958267 9.616071 2.220210 0.752941
-53.958267 9.616071 1.779789 0.461642
-53.958267 9.616072 1.338896 0.658456
-53.958267 9.616071 0.896583 0.455025
-53.958267 9.616071 0.451888 0.492770
-53.958267 9.616069 0.003832 0.611029
-52.184803 7.903454 -0.000001 0.550980
-50.939281 6.700669 -0.000009 0.481127
-50.021599 5.814472 -0.000003 0.531985
-53.958271 9.747565 5.393785 0.455392
-53.958271 9.747565 4.926249 0.443627
-53.958271 9.747566 4.465279 0.458578
-53.958267 9.747562 4.009767 0.498284
-53.958267 9.747563 3.558658 0.664093
-53.958267 9.747563 3.110934 0.450980
-53.958267 9.747562 2.665607 0.460417
-53.958267 9.747562 2.221711 0.687745
-53.958267 9.747562 1.778289 0.464216
-53.958267 9.747561 1.334393 0.490931
-53.958267 9.747562 0.889066 0.648652
-53.958267 9.747561 0.441342 0.464216
-53.911232 9.701500 -0.000001 0.537255
-52.131294 7.958456 0.000002 0.526961
-50.894188 6.746993 -0.000002 0.545466
-49.982731 5.854428 -0.000000 0.512132
-53.958267 9.880866 5.417230 0.420466
-53.958271 9.880867 4.946465 0.440319
-53.958271 9.880866 4.482309 0.482353
-53.958271 9.880868 4.023651 0.744240
-53.958267 9.880866 3.569426 0.589093
-53.958267 9.880866 3.118608 0.466054
-53.958267 9.880866 2.670205 0.456863
-53.958267 9.880865 2.223242 0.696569
-53.958267 9.880865 1.776758 0.462990
-53.958267 9.880865 1.329794 0.482353
-53.958267 9.880865 0.881391 0.747672
-53.958267 9.880864 0.430575 0.490809
-53.845177 9.768559 -0.000008 0.566789
-52.077408 8.013087 0.000003 0.531250
-50.848820 6.793048 -0.000009 0.568873
-49.943600 5.894125 -0.000003 0.514828
-29.874012 -14.236960 7.120425 0.466912
-29.874010 -14.236961 6.415023 0.605392
-29.874008 -14.236961 5.719526 0.548039
-29.874008 -14.236963 5.032268 0.355637
-29.874008 -14.236962 4.351649 0.702696
-29.874008 -14.236962 3.676139 0.756863
-29.874012 -14.236960 3.004245 0.737377
-29.874012 -14.236959 2.334510 0.443382
-29.874012 -14.236959 1.665491 0.742279
-29.874012 -14.236960 0.995755 0.482966
-29.874006 -14.236964 0.323861 0.431005
-32.027699 -12.068184 -0.000031 0.551593
-34.777519 -9.299096 -0.000005 0.333578
-36.532951 -7.531370 -0.000003 0.340564
-37.753036 -6.302735 -0.000002 0.324510
-38.651939 -5.397535 -0.000002 0.326348
-30.073753 -14.236959 7.085294 0.604534
-30.073751 -14.236962 6.384733 0.518260
-30.073751 -14.236962 5.694008 0.242770
-30.073753 -14.236961 5.011463 0.474265
-30.073753 -14.236961 4.335515 0.724510
-30.073751 -14.236962 3.664639 0.805147
-30.073755 -14.236959 2.997355 0.925613
-30.073753 -14.236960 2.332214 0.495588
-30.073753 -14.236960 1.667786 0.796201
-30.073755 -14.236959 1.002645 0.408333
-30.073751 -14.236962 0.335360 0.900245
-32.114071 -12.153456 -0.000040 0.555147
-34.844543 -9.365189 -0.000005 0.336397
-36.587589 -7.585251 -0.000003 0.333211
-37.799068 -6.348128 -0.000002 0.335049
-38.691631 -5.436673 -0.000001 0.337500
-30.270782 -14.236959 7.050886 0.728309
-30.270782 -14.236962 6.355065 0.508578
-30.185635 -14.325133 5.691317 0.425123
-30.185635 -14.325132 5.009269 0.423039
-30.185638 -14.325130 4.333814 0.734804
-30.185635 -14.325132 3.663426 0.574020
-30.270786 -14.236959 2.990607 0.906618
-30.270782 -14.236959 2.329966 0.453309
-30.270782 -14.236959 1.670033 0.511029
-30.270786 -14.236959 1.009393 0.529902
-30.270781 -14.236962 0.346624 0.717034
-32.200943 -12.238221 -0.000063 0.529902
-34.912025 -9.430811 -0.000005 0.340564
-36.642601 -7.638749 -0.000003 0.317402
-37.845413 -6.393199 -0.000002 0.330025
-38.731594 -5.475534 -0.000001 0.331985
-30.465172 -14.236960 7.017184 0.369853
-30.465172 -14.236961 6.326006 0.601838
-30.273228 -14.438522 5.695176 0.121446
-30.273226 -14.438524 5.012416 0.160784
-30.273226 -14.438523 4.336254 0.090319
-30.305538 -14.404593 3.661324 0.160784
-30.465176 -14.236958 2.983997 0.774387
-30.465172 -14.236959 2.327765 0.572549
-30.465176 -14.236958 1.672235 0.599755
-30.465176 -14.236958 1.016003 0.725858
-30.465172 -14.236961 0.357656 0.578922
-32.288643 -12.322129 -0.000047 0.541912
-34.979965 -9.495963 -0.000005 0.334681
-36.697987 -7.691862 -0.000003 0.335417
-37.892075 -6.437944 -0.000002 0.335539
-38.771824 -5.514116 -0.000002 0.335539
-30.656994 -14.236960 6.984169 0.417279
-30.656994 -14.236963 6.297541 0.571078
-30.415621 -14.493998 5.684709 0.678431
-30.415621 -14.493998 5.003881 0.678431
-30.415621 -14.493998 4.329636 0.678431
-30.499580 -14.404591 3.650392 0.102451
-30.656996 -14.236960 2.977522 0.758333
-30.656996 -14.236960 2.325608 0.473039
-30.656998 -14.236959 1.674392 0.521569
-30.656996 -14.236960 1.022478 0.373529
-30.656992 -14.236964 0.368462 0.584559
-32.376808 -12.405545 -0.000051 0.543015
-35.048355 -9.560636 -0.000005 0.333824
-36.753742 -7.744584 -0.000003 0.344118
-37.939045 -6.482365 -0.000003 0.330760
-38.812325 -5.552416 -0.000002 0.341176
-30.846319 -14.236959 6.951827 0.325245
-30.846315 -14.236963 6.269653 0.405515
-30.608295 -14.494000 5.660798 0.678431
-30.608295 -14.493999 4.984390 0.678431
-30.608299 -14.493998 4.314518 0.678431
-30.691093 -14.404588 3.639682 0.117279
-30.846321 -14.236958 2.971179 0.750613
-30.846317 -14.236960 2.323495 0.516299
-30.846319 -14.236959 1.676505 0.814951
-30.846321 -14.236958 1.028821 0.556863
-30.846315 -14.236964 0.379050 0.416299
-32.465549 -12.488350 -0.000055 0.544976
-35.117195 -9.624830 -0.000005 0.330760
-36.809860 -7.796920 -0.000004 0.332230
-37.986328 -6.526452 -0.000002 0.340441
-38.853092 -5.590432 -0.000002 0.329044
-31.033211 -14.236959 6.920140 0.811765
-31.033207 -14.236963 6.242332 0.483701
-30.798500 -14.494000 5.637372 0.678431
-30.798500 -14.494000 4.965292 0.678431
-30.798500 -14.494001 4.299708 0.678431
-31.033211 -14.236959 3.610576 0.775613
-31.033211 -14.236959 2.964964 0.472549
-31.033211 -14.236959 2.321425 0.452696
-31.033211 -14.236959 1.678575 0.551961
-31.033211 -14.236959 1.035035 0.449755
-31.033207 -14.236963 0.389423 0.566176
-32.554871 -12.570530 -0.000059 0.527941
-35.186485 -9.688546 -0.000005 0.330760
-36.866348 -7.848860 -0.000003 0.328799
-38.033913 -6.570212 -0.000002 0.333333
-38.894123 -5.628163 -0.000002 0.341176
-31.217735 -14.236959 6.889092 0.719853
-31.217730 -14.236965 6.215562 0.799142
-30.986294 -14.494001 5.614420 0.678431
-30.986294 -14.494001 4.946580 0.678431
-30.986294 -14.494002 4.285196 0.678431
-31.217737 -14.236958 3.600413 0.495221
-31.217735 -14.236959 2.958875 0.301348
-31.217735 -14.236958 2.319397 0.543873
-31.217735 -14.236958 1.680603 0.648039
-31.217735 -14.236959 1.041125 0.626103
-31.217735 -14.236960 0.399586 0.643382
-32.644989 -12.651835 -0.000024 0.526471
-35.256218 -9.751772 -0.000005 0.329779
-36.923195 -7.900405 -0.000003 0.318505
-38.081806 -6.613636 -0.000002 0.333578
-38.935417 -5.665605 -0.000002 0.336642
-31.399952 -14.236960 6.858669 0.544730
-31.399952 -14.236962 6.189329 0.811642
-31.171743 -14.494000 5.591928 0.678431
-31.171741 -14.494001 4.928245 0.678431
-31.171743 -14.494001 4.270976 0.678431
-31.399956 -14.236959 3.590454 0.712868
-31.399956 -14.236959 2.952908 0.570343
-31.399956 -14.236959 2.317409 0.485539
-31.399956 -14.236959 1.682591 0.736152
-31.399956 -14.236959 1.047092 0.452941
-31.399952 -14.236962 0.409545 0.772549
-32.735481 -12.732722 -0.000022 0.568137
-35.326385 -9.814515 -0.000005 0.328186
-36.980400 -7.951554 -0.000003 0.334559
-38.130001 -6.656727 -0.000002 0.325123
-38.976971 -5.702759 -0.000002 0.327696
-31.579926 -14.236961 6.828857 0.705515
-31.579926 -14.236962 6.163623 0.416667
-31.579926 -14.236961 5.507729 0.795221
-31.579927 -14.236961 4.859603 0.508946
-31.579927 -14.236961 4.217741 0.546078
-31.579929 -14.236960 3.580695 0.410417
-31.579929 -14.236959 2.947061 0.662623
-31.579929 -14.236959 2.315461 0.461887
-31.579929 -14.236959 1.684538 0.764583
-31.579929 -14.236959 1.052939 0.451716
-31.579927 -14.236961 0.419304 0.788725
-32.826504 -12.813007 -0.000026 0.525245
-35.396992 -9.876761 -0.000005 0.336397
-37.037964 -8.002297 -0.000003 0.337868
-38.178493 -6.699480 -0.000003 0.321814
-39.018784 -5.739622 -0.000002 0.334191
-31.757713 -14.236962 6.799640 0.408701
-31.757713 -14.236963 6.138432 0.418137
-31.757713 -14.236961 5.486506 0.551225
-31.757710 -14.236963 4.842301 0.487623
-31.757713 -14.236961 4.204323 0.419608
-31.757715 -14.236960 3.571131 0.770466
-31.757715 -14.236959 2.941331 0.656985
-31.757717 -14.236959 2.313553 0.780025
-31.757717 -14.236959 1.686447 0.710417
-31.757715 -14.236959 1.058669 0.783946
-31.757713 -14.236963 0.428868 0.740564
-32.918110 -12.892630 -0.000024 0.550613
-35.468033 -9.938513 -0.000004 0.332353
-37.095871 -8.052645 -0.000004 0.330392
-38.227283 -6.741893 -0.000002 0.339338
-39.060852 -5.776192 -0.000002 0.341912
-31.933372 -14.236959 6.771005 0.782475
-31.933369 -14.236963 6.113743 0.384559
-31.933371 -14.236962 5.465705 0.612623
-31.933369 -14.236963 4.825344 0.645221
-31.933371 -14.236962 4.191173 0.483088
-31.933372 -14.236960 3.561758 0.748897
-31.933372 -14.236959 2.935715 0.491176
-31.933372 -14.236959 2.311682 0.639583
-31.933372 -14.236959 1.688318 0.501103
-31.933372 -14.236959 1.064285 0.649877
-31.933369 -14.236963 0.438241 0.491544
-33.010254 -12.971627 -0.000026 0.558456
-35.539501 -9.999773 -0.000005 0.335539
-37.154137 -8.102581 -0.000003 0.344363
-38.276367 -6.783964 -0.000002 0.333824
-39.103176 -5.812469 -0.000002 0.333701
-32.106953 -14.236960 6.742941 0.732353
-32.106949 -14.236964 6.089544 0.479779
-32.106953 -14.236962 5.445319 0.605025
-32.106953 -14.236962 4.808724 0.841176
-32.106949 -14.236963 4.178283 0.570466
-32.106953 -14.236960 3.552571 0.841422
-32.106953 -14.236959 2.930211 0.595833
-32.106953 -14.236960 2.309849 0.841422
-32.106953 -14.236960 1.690151 0.589461
-32.106953 -14.236959 1.069789 0.834681
-32.106953 -14.236962 0.447428 0.598407
-33.102859 -13.050083 -0.000044 0.546446
-35.611397 -10.060530 -0.000005 0.329657
-37.212749 -8.152109 -0.000003 0.329657
-38.325748 -6.825691 -0.000002 0.325613
-39.145752 -5.848447 -0.000002 0.335049
-32.278511 -14.236963 6.715435 0.604657
-32.278511 -14.236961 6.065825 0.844608
-32.278511 -14.236962 5.425337 0.578186
-32.278511 -14.236963 4.792435 0.852696
-32.278511 -14.236964 4.165650 0.560294
-32.278515 -14.236959 3.543567 0.860172
-32.278511 -14.236961 2.924816 0.578676
-32.278515 -14.236959 2.308052 0.843750
-32.278515 -14.236959 1.691948 0.542647
-32.278515 -14.236959 1.075184 0.692157
-32.278515 -14.236959 0.456432 0.500123
-33.196117 -13.127769 -0.000043 0.547917
-35.683712 -10.120782 -0.000005 0.340686
-37.271702 -8.201231 -0.000004 0.335907
-38.375416 -6.867073 -0.000002 0.326961
-39.188576 -5.884129 -0.000002 0.329657
-32.448105 -14.236960 6.688469 0.650735
-32.448101 -14.236961 6.042576 0.755637
-32.448101 -14.236962 5.405751 0.768137
-32.448101 -14.236960 4.776467 0.594975
-32.448101 -14.236961 4.153266 0.768137
-32.448101 -14.236960 3.534740 0.684436
-32.448105 -14.236960 2.919528 0.789583
-32.448105 -14.236959 2.306290 0.758333
-32.448105 -14.236959 1.693710 0.602328
-32.448105 -14.236959 1.080472 0.652083
-32.448105 -14.236959 0.465259 0.479657
-33.289921 -13.204791 -0.000040 0.548529
-35.756451 -10.180524 -0.000004 0.337010
-37.331001 -8.249936 -0.000003 0.328922
-38.425369 -6.908106 -0.000002 0.334681
-39.231651 -5.919509 -0.000002 0.348039
-32.615772 -14.236960 6.662039 0.858211
-32.615768 -14.236962 6.019786 0.480515
-32.615768 -14.236962 5.386550 0.670466
-32.615768 -14.236963 4.760816 0.263235
-32.615772 -14.236961 4.141127 0.604779
-32.615768 -14.236960 3.526089 0.532843
-32.615772 -14.236959 2.914344 0.877941
-32.615772 -14.236959 2.304564 0.649020
-32.615772 -14.236959 1.695436 0.696936
-32.615772 -14.236959 1.085656 0.405637
-32.615768 -14.236960 0.473911 0.521201
-33.384228 -13.281194 -0.000043 0.536642
-35.829601 -10.239763 -0.000005 0.330147
-37.390633 -8.298230 -0.000004 0.336152
-38.475609 -6.948792 -0.000002 0.333824
-39.274971 -5.954587 -0.000002 0.329167
-32.781570 -14.236959 6.636128 0.365319
-32.686729 -14.356616 6.030421 0.493015
-32.686729 -14.356619 5.395511 0.570711
-32.686729 -14.356617 4.768119 0.475613
-32.686733 -14.356615 4.146791 0.579167
-32.781570 -14.236959 3.517607 0.675490
-32.781570 -14.236959 2.909262 0.532966
-32.781570 -14.236959 2.302871 0.641912
-32.781570 -14.236959 1.697129 0.475490
-32.781570 -14.236959 1.090737 0.471324
-32.781570 -14.236959 0.482393 0.775858
-33.479118 -13.356876 -0.000037 0.540809
-35.945053 -10.245636 0.009999 1.000000
-37.450603 -8.346106 -0.000004 0.331618
-38.526134 -6.989125 -0.000003 0.337377
-39.318535 -5.989365 -0.000002 0.330025
-32.945541 -14.236959 6.610729 0.270098
-32.777382 -14.452192 6.034535 0.160049
-32.777382 -14.452193 5.398976 0.199265
-32.777382 -14.452194 4.770946 0.146201
-32.777382 -14.452193 4.148983 0.160784
-32.945541 -14.236959 3.509293 0.357230
-32.945541 -14.236959 2.904281 0.644363
-32.945545 -14.236958 2.301211 0.607108
-32.945545 -14.236958 1.698788 0.543627
-32.945541 -14.236959 1.095719 0.512500
-32.945541 -14.236959 0.490707 0.668627
-33.574486 -13.431950 -0.000039 0.521814
-36.018654 -10.303554 0.009999 1.000000
-37.510910 -8.393558 -0.000003 0.335417
-38.576939 -7.029103 -0.000002 0.327819
-39.362339 -6.023836 -0.000002 0.335662
-33.107735 -14.236960 6.585827 0.806005
-32.909790 -14.494000 6.024143 0.491667
-32.909790 -14.494000 5.390222 0.678431
-32.909790 -14.493999 4.763807 0.678431
-32.909790 -14.494000 4.143448 0.678431
-33.107735 -14.236959 3.501142 0.345466
-33.107738 -14.236959 2.899397 0.866667
-33.107738 -14.236957 2.299585 0.450245
-33.107738 -14.236957 1.700415 0.616422
-33.107738 -14.236959 1.100603 0.751961
-33.107735 -14.236959 0.498858 0.570221
-33.670330 -13.506416 -0.000051 0.530147
-36.092667 -10.360952 0.010000 1.000000
-37.571541 -8.440590 -0.000003 0.330637
-38.628021 -7.068727 -0.000003 0.329534
-39.406384 -6.057999 -0.000002 0.342892
-33.268196 -14.236959 6.561415 0.397672
-33.073090 -14.494001 6.002720 0.665319
-33.073090 -14.493999 5.372173 0.678431
-33.073093 -14.493999 4.749094 0.678431
-33.073093 -14.493999 4.132037 0.678431
-33.268196 -14.236959 3.493150 0.651226
-33.268196 -14.236959 2.894609 0.805392
-33.268196 -14.236959 2.297990 0.454657
-33.268196 -14.236959 1.702010 0.672426
-33.268196 -14.236959 1.105391 0.464583
-33.268196 -14.236959 0.506849 0.882843
-33.766743 -13.580150 -0.000052 0.524387
-36.167068 -10.417837 0.010000 1.000000
-37.632504 -8.487197 -0.000004 0.337377
-38.679375 -7.107994 -0.000003 0.341054
-39.450665 -6.091856 -0.000002 0.330637
-33.426964 -14.236960 6.537481 0.529044
-33.234673 -14.493998 5.981718 0.678431
-33.234673 -14.493999 5.354479 0.678431
-33.234673 -14.493999 4.734670 0.678431
-33.234673 -14.493999 4.120850 0.678431
-33.426964 -14.236960 3.485316 0.530025
-33.426964 -14.236959 2.889915 0.425858
-33.426964 -14.236959 2.296426 0.556250
-33.426964 -14.236959 1.703573 0.423039
-33.426964 -14.236959 1.110085 0.739951
-33.426964 -14.236960 0.514684 0.664338
-33.863689 -13.653176 -0.000050 0.550368
-36.201462 -10.528210 -0.000005 0.334314
-37.693787 -8.533380 -0.000004 0.335662
-38.731007 -7.146897 -0.000002 0.337990
-39.495182 -6.125403 -0.000002 0.340931
-33.584084 -14.236960 6.514016 0.488971
-33.394577 -14.493998 5.961126 0.678431
-33.394577 -14.493999 5.337132 0.678431
-33.394577 -14.493998 4.720527 0.678431
-33.394577 -14.493999 4.109882 0.678431
-33.584084 -14.236959 3.477634 0.806127
-33.584084 -14.236958 2.885313 0.418873
-33.584084 -14.236959 2.294894 0.830637
-33.584084 -14.236959 1.705106 0.439093
-33.584084 -14.236958 1.114687 0.363971
-33.584084 -14.236959 0.522365 0.833211
-33.961159 -13.725503 -0.000044 0.533456
-36.276909 -10.584496 -0.000035 0.565441
-37.755394 -8.579133 -0.000004 0.329044
-38.782909 -7.185443 -0.000003 0.330270
-39.539936 -6.158638 -0.000002 0.334191
-33.739586 -14.236962 6.491011 0.697304
-33.552841 -14.494000 5.940939 0.678431
-33.552841 -14.494000 5.320124 0.678431
-33.552837 -14.494000 4.706663 0.678431
-33.552841 -14.493997 4.099129 0.678431
-33.739590 -14.236960 3.470104 0.727941
-33.739590 -14.236959 2.880801 0.349142
-33.739590 -14.236959 2.293391 0.690441
-33.739590 -14.236959 1.706609 0.530147
-33.739590 -14.236959 1.119199 0.527941
-33.739590 -14.236959 0.529896 0.367892
-34.059116 -13.797170 -0.000041 0.544608
-36.352821 -10.640155 -0.000047 0.509069
-37.817314 -8.624453 -0.000004 0.333211
-38.835075 -7.223625 -0.000003 0.337010
-39.584915 -6.191560 -0.000002 0.336887
-33.893528 -14.236960 6.468454 0.479902
-33.709507 -14.494000 5.921146 0.666667
-33.709511 -14.493998 5.303449 0.674142
-33.709511 -14.493998 4.693068 0.678431
-33.709507 -14.493998 4.088587 0.678431
-33.893528 -14.236959 3.462720 0.586029
-33.893532 -14.236957 2.876377 0.404167
-33.893532 -14.236959 2.291917 0.865931
-33.893532 -14.236959 1.708083 0.399265
-33.893532 -14.236957 1.123623 0.638358
-33.893528 -14.236959 0.537279 0.377328
-34.157501 -13.868247 -0.000053 0.545343
-36.429115 -10.695292 -0.000061 0.545833
-37.879555 -8.669339 -0.000004 0.336275
-38.887508 -7.261443 -0.000003 0.338971
-39.630127 -6.224166 -0.000002 0.346078
-34.045937 -14.236958 6.446338 0.812868
-34.045933 -14.236965 5.833803 0.846569
-34.045937 -14.236963 5.229865 0.369363
-34.045933 -14.236963 4.633080 0.296936
-34.045937 -14.236963 4.042064 0.518260
-34.045937 -14.236960 3.455481 0.706005
-34.045937 -14.236960 2.872040 0.408578
-34.045937 -14.236959 2.290472 0.866299
-34.045937 -14.236959 1.709528 0.304902
-34.045937 -14.236960 1.127960 0.739706
-34.045937 -14.236959 0.544519 0.608578
-34.256447 -13.938541 -0.000051 0.537500
-36.505955 -10.749660 -0.000032 0.521078
-37.942104 -8.713791 -0.000004 0.331985
-38.940205 -7.298892 -0.000003 0.326961
-39.675564 -6.256456 -0.000002 0.335049
-34.196850 -14.236960 6.424656 0.490319
-34.196850 -14.236961 5.815106 0.647917
-34.196850 -14.236960 5.214114 0.498162
-34.196846 -14.236963 4.620240 0.738848
-34.196850 -14.236960 4.032105 0.482843
-34.196850 -14.236959 3.448383 0.740931
-34.196850 -14.236962 2.867787 0.481373
-34.196854 -14.236959 2.289056 0.712010
-34.196854 -14.236959 1.710944 0.416176
-34.196850 -14.236962 1.132212 0.386520
-34.196850 -14.236959 0.551616 0.739216
-34.355888 -14.008135 -0.000047 0.534804
-36.583076 -10.803628 -0.000027 0.545711
-38.004959 -8.757806 -0.000004 0.329167
-38.993164 -7.335970 -0.000003 0.334804
-39.721222 -6.288429 -0.000002 0.330025
-34.346306 -14.236959 6.403398 0.452696
-34.346306 -14.236963 5.796777 0.447426
-34.346306 -14.236962 5.198672 0.463725
-34.346306 -14.236962 4.607651 0.473162
-34.346306 -14.236959 4.022342 0.569853
-34.346310 -14.236959 3.441424 0.580882
-34.346306 -14.236959 2.863618 0.761887
-34.346306 -14.236961 2.287667 0.630637
-34.346306 -14.236961 1.712333 0.446201
-34.346306 -14.236959 1.136382 0.672549
-34.346310 -14.236959 0.558575 0.739951
-34.455742 -14.077136 -0.000058 0.543015
-36.660587 -10.857041 -0.000021 0.550123
-38.068127 -8.801381 -0.000004 0.339951
-39.046375 -7.372682 -0.000003 0.336642
-39.767105 -6.320082 -0.000002 0.334436
-34.494339 -14.236962 6.382556 0.830392
-34.494339 -14.236963 5.778805 0.778064
-34.494339 -14.236964 5.183532 0.750245
-34.494339 -14.236963 4.595308 0.472672
-34.494339 -14.236963 4.012770 0.590809
-34.494339 -14.236959 3.434602 0.420956
-34.494339 -14.236960 2.859530 0.475858
-34.494339 -14.236959 2.286306 0.597304
-34.494339 -14.236959 1.713694 0.393995
-34.494339 -14.236960 1.140470 0.503554
-34.494339 -14.236959 0.565398 0.418382
-34.556137 -14.145345 -0.000056 0.549142
-36.738445 -10.909940 -0.000019 0.537132
-38.131592 -8.844514 -0.000004 0.336029
-39.099846 -7.409020 -0.000003 0.323407
-39.813210 -6.351413 -0.000002 0.334314
-34.640987 -14.236960 6.362121 0.844853
-34.640987 -14.236962 5.761187 0.632966
-34.640987 -14.236961 5.168687 0.867892
-34.640984 -14.236963 4.583208 0.626225
-34.640987 -14.236960 4.003385 0.466299
-34.640991 -14.236959 3.427912 0.508333
-34.640987 -14.236959 2.855523 0.292157
-34.640987 -14.236959 2.284970 0.482108
-34.640987 -14.236959 1.715029 0.333824
-34.640987 -14.236959 1.144477 0.689828
-34.640991 -14.236957 0.572087 0.838971
-34.640987 -14.236960 -0.003384 0.670833
-36.816563 -10.962456 -0.000046 0.556740
-38.195358 -8.887201 -0.000004 0.341912
-39.153568 -7.444981 -0.000003 0.335907
-39.859531 -6.382422 -0.000002 0.321569
-34.786282 -14.236959 6.342087 0.766422
-34.786282 -14.236960 5.743911 0.328186
-34.786278 -14.236959 5.154134 0.465564
-34.786278 -14.236961 4.571342 0.609926
-34.786282 -14.236959 3.994183 0.534069
-34.786282 -14.236958 3.421355 0.606127
-34.786282 -14.236958 2.851593 0.804657
-34.786282 -14.236958 2.283662 0.434804
-34.786282 -14.236958 1.716338 0.757721
-34.786282 -14.236958 1.148407 0.558333
-34.786282 -14.236958 0.578645 0.774632
-34.786278 -14.236963 0.005816 0.439828
-36.895153 -11.014265 -0.000045 0.552328
-38.259422 -8.929443 -0.000004 0.339461
-39.207539 -7.480569 -0.000003 0.320343
-39.906067 -6.413107 -0.000002 0.335172
-34.930252 -14.236961 6.322446 0.648284
-34.930248 -14.236961 5.726976 0.546936
-34.930252 -14.236961 5.139867 0.607598
-34.930248 -14.236963 4.559711 0.599142
-34.930248 -14.236962 3.985163 0.556373
-34.930252 -14.236959 3.414925 0.633824
-34.930252 -14.236959 2.847741 0.368873
-34.930252 -14.236958 2.282379 0.442402
-34.930252 -14.236958 1.717622 0.899020
-34.930252 -14.236959 1.152259 0.562132
-34.930252 -14.236960 0.585074 0.807230
-34.930248 -14.236964 0.014837 0.561642
-36.974140 -11.065466 -0.000033 0.535539
-38.323776 -8.971236 -0.000004 0.322181
-39.261757 -7.515780 -0.000003 0.327696
-39.952816 -6.443467 -0.000002 0.324020
-35.072933 -14.236959 6.303189 0.651838
-35.072933 -14.236960 5.710372 0.314461
-35.072929 -14.236960 5.125880 0.639216
-35.072929 -14.236961 4.548308 0.574265
-35.072929 -14.236961 3.976320 0.311152
-35.072933 -14.236959 3.408622 0.593505
-35.072933 -14.236957 2.843964 0.837500
-35.072933 -14.236958 2.281121 0.372917
-35.072933 -14.236958 1.718879 0.555637
-35.072933 -14.236957 1.156035 0.553922
-35.072933 -14.236959 0.591378 0.397059
-35.072933 -14.236960 0.023681 0.688603
-37.053452 -11.116159 -0.000030 0.550245
-38.388424 -9.012580 -0.000004 0.333211
-39.316219 -7.550612 -0.000003 0.342647
-39.999775 -6.473498 -0.000002 0.337132
-35.214355 -14.236959 6.284312 0.523897
-35.214355 -14.236959 5.694097 0.221324
-35.214355 -14.236959 5.112166 0.561275
-35.214355 -14.236963 4.537129 0.519240
-35.214355 -14.236962 3.967650 0.391912
-35.214355 -14.236958 3.402442 0.586397
-35.214355 -14.236958 2.840262 0.515074
-35.214355 -14.236960 2.279888 0.772426
-35.214355 -14.236960 1.720113 0.324387
-35.214355 -14.236958 1.159737 0.564338
-35.214355 -14.236958 0.597557 0.718137
-35.214352 -14.236964 0.032350 0.505392
-37.133068 -11.166375 -0.000039 0.535907
-38.453358 -9.053471 -0.000004 0.333333
-39.370926 -7.585060 -0.000003 0.334191
-40.046944 -6.503202 -0.000002 0.325000
-35.354549 -14.236961 6.265808 0.592034
-35.354546 -14.236963 5.678142 0.553922
-35.354546 -14.236961 5.098724 0.473897
-35.354549 -14.236961 4.526171 0.716912
-35.354549 -14.236961 3.959151 0.443627
-35.354549 -14.236959 3.396385 0.457966
-35.354553 -14.236958 2.836633 0.840074
-35.354549 -14.236959 2.278679 0.822059
-35.354549 -14.236959 1.721322 0.914583
-35.354553 -14.236958 1.163367 0.394485
-35.354549 -14.236959 0.603615 0.526716
-35.354549 -14.236963 0.040849 0.540686
-37.213093 -11.215941 -0.000033 0.538358
-38.518574 -9.093909 -0.000004 0.339461
-39.425869 -7.619125 -0.000003 0.328064
-40.094318 -6.532576 -0.000002 0.341299
-35.493546 -14.236959 6.247668 0.573039
-35.493546 -14.236959 5.662500 0.780637
-35.493546 -14.236960 5.085547 0.685417
-35.493546 -14.236960 4.515429 0.534436
-35.493546 -14.236962 3.950820 0.480760
-35.493546 -14.236957 3.390447 0.611152
-35.493546 -14.236959 2.833075 0.623652
-35.493546 -14.236958 2.277493 0.447181
-35.493546 -14.236958 1.722507 0.821446
-35.493546 -14.236959 1.166924 0.516422
-35.493546 -14.236957 0.609553 0.456127
-35.493542 -14.236963 0.049180 0.630637
-37.293404 -11.265039 -0.000043 0.535417
-38.584076 -9.133886 -0.000004 0.335294
-39.481049 -7.652810 -0.000003 0.333088
-40.162582 -6.527462 0.010000 1.000000
-35.631367 -14.236962 6.229887 0.764828
-35.631367 -14.236961 5.647169 0.618505
-35.631367 -14.236962 5.072632 0.588603
-35.631367 -14.236962 4.504900 0.570098
-35.631371 -14.236959 3.942653 0.632598
-35.631371 -14.236958 3.384626 0.702206
-35.631371 -14.236959 2.829588 0.596201
-35.631371 -14.236956 2.276332 0.901838
-35.631371 -14.236956 1.723668 0.835907
-35.631371 -14.236959 1.170412 0.552574
-35.631371 -14.236958 0.615373 0.482475
-35.631367 -14.236960 0.057346 0.761397
-37.374111 -11.313481 -0.000036 0.552819
-38.649849 -9.173412 -0.000004 0.329657
-39.536461 -7.686106 -0.000003 0.332966
-40.210121 -6.556028 0.010000 1.000000
-35.768051 -14.236964 6.212460 0.613113
-35.768051 -14.236961 5.632142 0.608333
-35.768051 -14.236962 5.059972 0.489216
-35.768051 -14.236962 4.494578 0.676225
-35.768051 -14.236960 3.934649 0.826593
-35.768051 -14.236959 3.378922 0.293137
-35.768051 -14.236960 2.826170 0.708211
-35.768051 -14.236959 2.275193 0.899265
-35.768051 -14.236959 1.724807 0.767647
-35.768051 -14.236960 1.173830 0.490931
-35.768051 -14.236959 0.621078 0.486152
-35.768051 -14.236964 0.065350 0.426225
-37.455154 -11.361361 -0.000030 0.527328
-38.715900 -9.212470 -0.000004 0.337623
-39.592106 -7.719014 -0.000003 0.334436
-40.257862 -6.584260 0.010000 1.000000
-35.903614 -14.236965 6.195379 0.657966
-35.903618 -14.236962 5.617414 0.395956
-35.903618 -14.236960 5.047564 0.401838
-35.903618 -14.236961 4.484463 0.718873
-35.903618 -14.236961 3.926804 0.523897
-35.903618 -14.236959 3.373330 0.739093
-35.903618 -14.236959 2.822820 0.819853
-35.903618 -14.236960 2.274078 0.596814
-35.903618 -14.236960 1.725923 0.791544
-35.903618 -14.236958 1.177180 0.495711
-35.903618 -14.236959 0.626669 0.544608
-35.903618 -14.236961 0.073196 0.459069
-37.536472 -11.408772 -0.000040 0.539583
-38.782223 -9.251071 -0.000004 0.332598
-39.647980 -7.751533 -0.000003 0.334681
-40.305798 -6.612158 0.010001 1.000000
-36.038094 -14.236961 6.178638 0.441054
-36.038094 -14.236962 5.602979 0.628799
-36.038094 -14.236962 5.035403 0.418995
-36.038097 -14.236960 4.474549 0.740564
-36.038097 -14.236959 3.919116 0.581985
-36.038097 -14.236960 3.367850 0.841299
-36.038097 -14.236959 2.819537 0.758578
-36.038097 -14.236959 2.272984 0.519118
-36.038097 -14.236959 1.727016 0.804167
-36.038097 -14.236959 1.180463 0.459804
-36.038097 -14.236959 0.632149 0.831127
-36.038097 -14.236961 0.080884 0.522917
-37.618126 -11.455602 -0.000049 0.524142
-38.848808 -9.289209 -0.000004 0.325123
-39.704079 -7.783663 -0.000003 0.323284
-40.334202 -6.674446 -0.000003 0.322794
-36.171509 -14.236963 6.162232 0.385294
-36.171509 -14.236961 5.588834 0.608333
-36.171509 -14.236961 5.023485 0.878431
-36.171509 -14.236961 4.464834 0.640686
-36.171509 -14.236961 3.911582 0.865441
-36.171513 -14.236959 3.362480 0.798162
-36.171513 -14.236960 2.816319 0.835539
-36.171513 -14.236960 2.271912 0.438480
-36.171513 -14.236960 1.728088 0.804657
-36.171513 -14.236960 1.183681 0.678799
-36.171513 -14.236959 0.637520 0.869608
-36.171509 -14.236961 0.088419 0.865564
-37.700157 -11.501768 -0.000041 0.540074
-38.915665 -9.326878 -0.000004 0.328186
-39.760403 -7.815399 -0.000003 0.331618
-40.382767 -6.701809 -0.000003 0.335049
-36.303890 -14.236965 6.146157 0.601961
-36.303890 -14.236960 5.574972 0.444975
-36.303890 -14.236960 5.011808 0.621936
-36.303890 -14.236959 4.455314 0.423897
-36.303894 -14.236959 3.904198 0.867770
-36.303894 -14.236959 3.357217 0.414706
-36.303890 -14.236960 2.813166 0.458578
-36.303894 -14.236959 2.270862 0.565441
-36.303894 -14.236959 1.729138 0.741912
-36.303890 -14.236959 1.186834 0.706863
-36.303894 -14.236959 0.642782 0.745833
-36.303894 -14.236959 0.095802 0.803186
-37.782467 -11.547442 -0.000048 0.546936
-38.982780 -9.364080 -0.000004 0.331740
-39.816944 -7.846741 -0.000003 0.338480
-40.431515 -6.728839 -0.000005 0.339338
-36.435257 -14.236960 6.130403 0.749877
-36.435257 -14.236959 5.561390 0.840931
-36.435257 -14.236959 5.000365 0.378186
-36.435257 -14.236959 4.445986 0.373162
-36.435257 -14.236961 3.896964 0.451716
-36.435257 -14.236962 3.352062 0.377819
-36.435257 -14.236958 2.810076 0.568260
-36.435257 -14.236959 2.269833 0.687745
-36.435257 -14.236959 1.730167 0.813725
-36.435257 -14.236958 1.189923 0.848652
-36.435257 -14.236960 0.647938 0.799265
-36.435257 -14.236959 0.103036 0.869240
-37.865124 -11.592479 -0.000044 0.545343
-39.050152 -9.400813 -0.000004 0.334069
-39.873703 -7.877686 -0.000003 0.340319
-40.480461 -6.755517 -0.000003 0.335049
-36.565636 -14.236961 6.114971 0.478309
-36.565636 -14.236961 5.548083 0.525123
-36.565636 -14.236961 4.989155 0.534314
-36.565636 -14.236960 4.436847 0.282721
-36.565636 -14.236959 3.889876 0.618873
-36.565639 -14.236957 3.347009 0.495588
-36.565636 -14.236959 2.807050 0.568137
-36.565639 -14.236958 2.268825 0.528186
-36.565639 -14.236958 1.731175 0.396569
-36.565636 -14.236959 1.192950 0.868137
-36.565639 -14.236957 0.652991 0.743015
