# This PCD file was generated using the MATLABÂ® pcwrite function
# from Computer Vision ToolboxÂ®.
# .PCD v.7 - Point Cloud Data file format
VERSION .7
FIELDS x y z intensity
SIZE 4 4 4 4
TYPE F F F F
COUNT 1 1 1 1
WIDTH 1194
HEIGHT 1
VIEWPOINT 0 0 0 1 0 0 0
POINTS 1194
DATA ascii
-21.425226 -36.851643 0.000026 0.534559
-23.582218 -40.103485 0.000026 0.527451
-24.959259 -42.179485 0.000021 0.550980
-25.916327 -43.622341 0.000005 0.576716
-26.621468 -44.685402 -0.000003 0.548162
-19.445843 -34.129601 7.197089 0.468873
-19.445845 -34.129601 6.481126 0.477574
-19.445841 -34.129597 5.775216 0.501593
-19.445843 -34.129597 5.077666 0.649142
-19.445843 -34.129597 4.386858 0.538725
-19.445839 -34.129597 3.701234 0.859681
-19.445843 -34.129597 3.019281 0.566422
-19.445843 -34.129601 2.339517 0.290564
-19.445843 -34.129601 1.660482 0.784069
-19.445843 -34.129597 0.980719 0.519118
-19.445843 -34.129597 0.298766 0.485662
-21.324299 -36.919052 0.000021 0.543137
-23.503944 -40.155766 0.000021 0.545711
-24.895447 -42.222107 0.000017 0.506863
-25.862577 -43.658268 0.000005 0.526838
-26.575132 -44.716393 0.000002 0.471569
-19.270390 -34.129604 7.221764 0.691176
-19.270390 -34.129604 6.502401 0.663113
-19.270386 -34.129597 5.793141 0.642034
-19.270386 -34.129597 5.092279 0.430760
-19.270386 -34.129601 4.398191 0.598529
-19.270386 -34.129597 3.709312 0.863113
-19.270388 -34.129604 3.024120 0.576348
-19.270386 -34.129601 2.341130 0.405637
-19.270386 -34.129601 1.658870 0.346814
-19.270388 -34.129604 0.975880 0.689706
-19.270386 -34.129597 0.290688 0.641422
-21.223841 -36.987164 0.000017 0.531495
-23.426041 -40.208595 0.000018 0.523284
-24.831932 -42.265167 0.000012 0.520711
-25.809071 -43.694553 0.000002 0.522426
-26.528996 -44.747673 -0.000003 0.529289
-19.093246 -34.129608 7.246932 0.476838
-19.093250 -34.129608 6.524102 0.605270
-19.093243 -34.129601 5.811423 0.604779
-19.093243 -34.129601 5.107183 0.629289
-19.093243 -34.129597 4.409751 0.539706
-19.093243 -34.129601 3.717550 0.753309
-19.093243 -34.129597 3.029057 0.497794
-19.093243 -34.129597 2.342774 0.547549
-19.093243 -34.129597 1.657226 0.585294
-19.093243 -34.129597 0.970943 0.540809
-19.093243 -34.129601 0.282449 0.592157
-21.123869 -37.055988 0.000013 0.531618
-23.348501 -40.261959 0.000013 0.538848
-24.768703 -42.308647 0.000001 0.547549
-25.755819 -43.731205 -0.000002 0.568995
-26.483078 -44.779278 -0.000007 0.506618
-18.914383 -34.129604 7.272604 0.623162
-18.914383 -34.129604 6.546238 0.509191
-18.733299 -33.872498 5.887291 0.678431
-18.733299 -33.872498 5.169033 0.678431
-18.733303 -33.872498 4.457717 0.678431
-18.733303 -33.872498 3.751738 0.673407
-18.914379 -34.129601 3.034092 0.485049
-18.914379 -34.129601 2.344451 0.629167
-18.914379 -34.129601 1.655549 0.556985
-18.914379 -34.129601 0.965908 0.683701
-18.914379 -34.129601 0.274046 0.522304
-21.024364 -37.125477 0.000007 0.541176
-23.271278 -40.315777 -0.000007 0.556005
-24.705748 -42.352528 -0.000018 0.515931
-25.702784 -43.768173 -0.000022 0.537745
-26.437349 -44.811153 -0.000026 0.564461
-18.733747 -34.129601 7.298787 0.697794
-18.733751 -34.129604 6.568813 0.699142
-18.549973 -33.872494 5.906595 0.678431
-18.549971 -33.872494 5.184770 0.678431
-18.549973 -33.872494 4.469922 0.678431
-18.549974 -33.872501 3.760437 0.678431
-18.733747 -34.129601 3.039226 0.552328
-18.733747 -34.129601 2.346161 0.417892
-18.733747 -34.129601 1.653839 0.740564
-18.733747 -34.129601 0.960773 0.695588
-18.733749 -34.129601 0.265475 0.493750
-20.925354 -37.195683 0.000003 0.542157
-23.194494 -40.370228 -0.000011 0.535417
-24.643147 -42.396904 -0.000025 0.530025
-25.650047 -43.805565 -0.000026 0.539461
-26.391876 -44.843391 -0.000032 0.532966
-18.551306 -34.129604 7.325491 0.586029
-18.551308 -34.129608 6.591838 0.807598
-18.364803 -33.872498 5.926282 0.678431
-18.364801 -33.872494 5.200820 0.678431
-18.364803 -33.872498 4.482369 0.678431
-18.364803 -33.872498 3.769310 0.678431
-18.551302 -34.129601 3.044464 0.707598
-18.551302 -34.129601 2.347906 0.665931
-18.551302 -34.129601 1.652094 0.708456
-18.551302 -34.129601 0.955536 0.773775
-18.551302 -34.129601 0.256734 0.540686
-20.826845 -37.266575 -0.000001 0.515931
-23.118088 -40.425205 -0.000016 0.551838
-24.580858 -42.441723 -0.000029 0.542647
-25.597570 -43.843323 -0.000031 0.578676
-26.346630 -44.875954 -0.000036 0.542647
-18.367001 -34.129597 7.352729 0.708946
-18.367001 -34.129597 6.615324 0.397794
-18.177752 -33.872501 5.946362 0.678431
-18.177752 -33.872501 5.217191 0.678431
-18.177752 -33.872501 4.495065 0.678431
-18.177752 -33.872505 3.778358 0.678431
-18.367001 -34.129597 3.049806 0.356985
-18.367002 -34.129597 2.349685 0.687745
-18.367002 -34.129597 1.650315 0.564583
-18.367002 -34.129597 0.950194 0.690319
-18.367002 -34.129601 0.247818 0.537623
-20.728823 -37.338150 -0.000006 0.524510
-23.042282 -40.480999 0.000032 0.533824
-24.519056 -42.487213 0.000018 0.507353
-25.545498 -43.881638 0.000014 0.549387
-26.301733 -44.908989 0.000010 0.571936
-18.180796 -34.129597 7.380511 0.758088
-18.180799 -34.129604 6.639277 0.430882
-17.988764 -33.872501 5.966845 0.678431
-17.988764 -33.872501 5.233888 0.678431
-17.988766 -33.872501 4.508015 0.678431
-17.988766 -33.872501 3.787588 0.678431
-18.180796 -34.129597 3.055254 0.764461
-18.180796 -34.129597 2.351500 0.800368
-18.180798 -34.129601 1.648499 0.463235
-18.180796 -34.129597 0.944745 0.594608
-18.180798 -34.129601 0.238723 0.548652
-20.631226 -37.410301 -0.000026 0.535784
-22.966383 -40.536674 -0.000040 0.536029
-24.457403 -42.532894 0.000014 0.522794
-25.493559 -43.920132 0.000011 0.546936
-26.256947 -44.942173 0.000006 0.502083
-17.992638 -34.129597 7.408847 0.560907
-17.992641 -34.129608 6.663710 0.729044
-17.797794 -33.872501 5.987736 0.598529
-17.797796 -33.872505 5.250918 0.648039
-17.797796 -33.872505 4.521223 0.678431
-17.797796 -33.872505 3.797002 0.554534
-17.992636 -34.129597 3.060812 0.722794
-17.992638 -34.129597 2.353351 0.516422
-17.992638 -34.129597 1.646649 0.744976
-17.992638 -34.129601 0.939188 0.560294
-17.992638 -34.129597 0.229448 0.524877
-20.534172 -37.483189 -0.000039 0.534314
-22.891138 -40.593235 -0.000046 0.555392
-24.396072 -42.579014 0.000010 0.539706
-25.441883 -43.958977 0.000005 0.514216
-26.212416 -44.975704 0.000010 0.546446
-17.802479 -34.129601 7.437748 0.844730
-17.802483 -34.129601 6.688632 0.550613
-17.673529 -33.961891 5.988526 0.503922
-17.673527 -33.961887 5.251564 0.509436
-17.673529 -33.961891 4.521724 0.160784
-17.673531 -33.961899 3.797359 0.176961
-17.802479 -34.129597 3.066481 0.246446
-17.802481 -34.129601 2.355239 0.792892
-17.802479 -34.129601 1.644760 0.549632
-17.802479 -34.129597 0.933519 0.447181
-17.802481 -34.129601 0.219986 0.510907
-20.437672 -37.556805 -0.000043 0.544853
-22.816299 -40.650330 -0.000050 0.542892
-24.335012 -42.625488 -0.000010 0.545098
-25.390446 -43.998135 -0.000013 0.544730
-26.168062 -45.009464 -0.000008 0.511152
-17.610268 -34.129601 7.467229 0.686397
-17.610273 -34.129604 6.714050 0.532108
-17.610262 -34.129589 5.971451 0.796936
-17.610258 -34.129585 5.237643 0.487010
-17.610262 -34.129589 4.510926 0.612500
-17.610262 -34.129589 3.789664 0.560784
-17.610266 -34.129597 3.072263 0.416054
-17.610268 -34.129601 2.357166 0.343260
-17.610268 -34.129601 1.642834 0.404412
-17.610266 -34.129593 0.927737 0.551103
-17.610268 -34.129601 0.210336 0.464216
-20.341961 -37.631439 0.000003 0.541299
-22.742086 -40.708233 -0.000000 0.548652
-24.274328 -42.672459 -0.000014 0.548162
-25.339336 -44.037724 -0.000012 0.521324
-26.123978 -45.043579 -0.000014 0.550000
-17.415953 -34.129601 7.497301 0.446324
-17.415956 -34.129608 6.739979 0.869240
-17.415947 -34.129589 5.993295 0.663848
-17.415945 -34.129589 5.255451 0.641667
-17.415947 -34.129589 4.524737 0.569975
-17.415947 -34.129597 3.799507 0.580024
-17.415951 -34.129597 3.078160 0.615809
-17.415949 -34.129597 2.359130 0.457721
-17.415949 -34.129597 1.640870 0.430637
-17.415951 -34.129597 0.921840 0.564951
-17.415953 -34.129601 0.200493 0.462868
-20.246498 -37.706390 -0.000001 0.527574
-22.668047 -40.766354 -0.000006 0.531740
-24.213970 -42.719841 -0.000019 0.515074
-25.288488 -44.077648 -0.000017 0.536274
-26.080137 -45.078003 -0.000018 0.573775
-17.219477 -34.129604 7.527976 0.621569
-17.219479 -34.129604 6.766429 0.578309
-17.219463 -34.129585 6.015579 0.674020
-17.219463 -34.129585 5.273617 0.552083
-17.219467 -34.129589 4.538826 0.477574
-17.219467 -34.129589 3.809548 0.570221
-17.219473 -34.129597 3.084176 0.690074
-17.219475 -34.129604 2.361134 0.604657
-17.219475 -34.129604 1.638866 0.533701
-17.219473 -34.129597 0.915823 0.397181
-17.219475 -34.129601 0.190451 0.505882
-20.151560 -37.782009 -0.000006 0.534314
-22.594448 -40.825039 -0.000004 0.527696
-24.154181 -42.767944 0.000045 0.509191
-25.237925 -44.117928 -0.000020 0.573529
-26.036533 -45.112732 -0.000023 0.535172
-17.020786 -34.129601 7.559267 0.414216
-17.020790 -34.129604 6.793410 0.505760
-17.020777 -34.129589 6.038309 0.656495
-17.020779 -34.129593 5.292148 0.472549
-17.020777 -34.129589 4.553198 0.564828
-17.020779 -34.129593 3.819792 0.400613
-17.020782 -34.129597 3.090313 0.617525
-17.020782 -34.129597 2.363178 0.396569
-17.020782 -34.129597 1.636822 0.592402
-17.020782 -34.129597 0.909686 0.595711
-17.020786 -34.129601 0.180208 0.505882
-20.057365 -37.858543 0.000027 0.547426
-22.521395 -40.884392 0.000029 0.533088
-24.094629 -42.816334 0.000078 0.557230
-25.187639 -44.158562 -0.000025 0.554044
-25.993177 -45.147766 -0.000027 0.563725
-16.819822 -34.129601 7.591191 0.781985
-16.819824 -34.129604 6.820934 0.829657
-16.819811 -34.129589 6.061498 0.631740
-16.819815 -34.129593 5.311051 0.617892
-16.819815 -34.129589 4.567858 0.801593
-16.819815 -34.129589 3.830241 0.543505
-16.819818 -34.129597 3.096574 0.819975
-16.819818 -34.129597 2.365263 0.766667
-16.819820 -34.129601 1.634737 0.551471
-16.819820 -34.129604 0.903425 0.680515
-16.819822 -34.129597 0.169758 0.832721
-19.963493 -37.935478 0.000022 0.548039
-22.448597 -40.944061 0.000025 0.525490
-24.035284 -42.864979 0.000075 0.500245
-25.137789 -44.199722 0.000022 0.551471
-25.950197 -45.183262 0.000020 0.532108
-16.616526 -34.129601 7.623758 0.849387
-16.616533 -34.129608 6.849014 0.632966
-16.616518 -34.129589 6.085155 0.532721
-16.616520 -34.129593 5.330337 0.376716
-16.616520 -34.129593 4.582815 0.596078
-16.616520 -34.129593 3.840902 0.728309
-16.616526 -34.129601 3.102962 0.626716
-16.616522 -34.129593 2.367391 0.731495
-16.616526 -34.129601 1.632609 0.524265
-16.616529 -34.129601 0.897039 0.731985
-16.616526 -34.129601 0.159098 0.766299
-19.870161 -38.013065 0.000018 0.529657
-22.376215 -41.004234 0.000021 0.535417
-23.976273 -42.914024 0.000069 0.519240
-25.088078 -44.241051 0.000017 0.580637
-25.907322 -45.218884 0.000011 0.554044
-16.410837 -34.129597 7.656984 0.538725
-16.410841 -34.129604 6.877664 0.664706
-16.291103 -33.988697 6.142932 0.498774
-16.192362 -33.872498 5.400059 0.678431
-16.192360 -33.872498 4.636888 0.678431
-16.192360 -33.872498 3.879442 0.678431
-16.410841 -34.129601 3.109478 0.725613
-16.410839 -34.129597 2.369562 0.793260
-16.410839 -34.129597 1.630438 0.586642
-16.410841 -34.129601 0.890522 0.693627
-16.410841 -34.129601 0.148222 0.541176
-19.777374 -38.091305 0.000013 0.545343
-22.304253 -41.064911 0.000016 0.530515
-23.917614 -42.963497 0.000065 0.551103
-25.038824 -44.282928 0.000070 0.534069
-25.864676 -45.254780 -0.000006 0.530392
-16.202696 -34.129597 7.690884 0.628676
-16.202703 -34.129608 6.906893 0.690564
-16.170340 -34.092056 6.142931 0.530147
-15.981107 -33.872494 5.420434 0.678431
-15.981112 -33.872501 4.652689 0.678431
-15.981110 -33.872498 3.890705 0.678431
-16.202698 -34.129604 3.116126 0.672549
-16.202698 -34.129601 2.371776 0.570833
-16.202698 -34.129604 1.628224 0.456740
-16.202698 -34.129604 0.883873 0.491176
-16.202698 -34.129604 0.137125 0.601348
-19.685135 -38.170185 0.000008 0.535049
-22.232714 -41.126083 0.000010 0.547059
-23.859295 -43.013371 0.000060 0.527819
-24.989695 -44.324940 0.000064 0.576348
-25.822309 -45.291008 -0.000011 0.567402
-15.992038 -34.129604 7.725471 0.487377
-15.992040 -34.129604 6.936718 0.411520
-15.992040 -34.129604 6.159037 0.612623
-15.767302 -33.872498 5.441224 0.678431
-15.767299 -33.872494 4.668813 0.678431
-15.767300 -33.872498 3.902197 0.678431
-15.992036 -34.129597 3.122910 0.593382
-15.992033 -34.129597 2.374037 0.426838
-15.992037 -34.129601 1.625964 0.548652
-15.992038 -34.129604 0.877090 0.677941
-15.992040 -34.129604 0.125803 0.617402
-19.593370 -38.249622 -0.000010 0.539338
-22.161549 -41.187691 -0.000008 0.544730
-23.801281 -43.063591 0.000042 0.545588
-24.940811 -44.367245 0.000045 0.545098
-25.780203 -45.327534 -0.000015 0.483701
-15.778792 -34.129604 7.760765 0.667402
-15.778790 -34.129604 6.967150 0.728309
-15.778791 -34.129604 6.184675 0.870221
-15.550864 -33.872494 5.462438 0.678431
-15.550863 -33.872490 4.685266 0.678431
-15.550864 -33.872494 3.913923 0.678431
-15.778788 -34.129601 3.129832 0.614951
-15.778788 -34.129601 2.376341 0.493382
-15.778788 -34.129601 1.623658 0.541544
-15.778788 -34.129601 0.870167 0.666054
-15.778789 -34.129601 0.114250 0.446569
-19.502241 -38.329792 -0.000015 0.531740
-22.090870 -41.249859 -0.000013 0.538480
-23.743666 -43.114269 0.000037 0.530882
-24.892277 -44.409946 0.000041 0.527206
-25.738352 -45.364349 -0.000020 0.523652
-15.562886 -34.129601 7.796782 0.611397
-15.562890 -34.129608 6.998204 0.475980
-15.562894 -34.129612 6.210837 0.686152
-15.331732 -33.872486 5.484086 0.678431
-15.331733 -33.872490 4.702053 0.678431
-15.331733 -33.872490 3.925889 0.678431
-15.562886 -34.129601 3.136895 0.509191
-15.562886 -34.129601 2.378695 0.628431
-15.562886 -34.129601 1.621305 0.504044
-15.562887 -34.129604 0.863104 0.638480
-15.562887 -34.129604 0.102460 0.623529
-19.411667 -38.410583 -0.000021 0.538725
-22.020634 -41.312523 -0.000018 0.553309
-23.686403 -43.165352 0.000031 0.544853
-24.844038 -44.452984 0.000036 0.537377
-25.696756 -45.401459 -0.000024 0.550858
-15.344251 -34.129597 7.833539 0.651226
-15.344257 -34.129601 7.029896 0.548162
-15.344257 -34.129601 6.237539 0.355637
-15.178740 -33.948063 5.491007 0.539583
-15.178738 -33.948063 4.707421 0.734191
-15.178736 -33.948059 3.929716 0.608578
-15.344250 -34.129593 3.144105 0.560294
-15.344249 -34.129593 2.381096 0.502451
-15.344253 -34.129601 1.618904 0.563603
-15.344254 -34.129601 0.855895 0.542525
-15.344254 -34.129601 0.090427 0.846446
-19.321815 -38.492180 0.000000 0.543260
-21.950951 -41.375805 0.000003 0.522059
-23.629593 -43.216934 0.000051 0.520588
-24.796177 -44.496441 0.000056 0.526348
-25.655630 -45.439087 0.000049 0.540441
-15.122820 -34.129601 7.871052 0.630882
-15.122823 -34.129601 7.062242 0.771691
-15.122824 -34.129601 6.264789 0.863480
-15.122803 -34.129578 5.476785 0.598897
-15.122805 -34.129581 4.696391 0.751961
-15.122807 -34.129585 3.921854 0.847181
-15.122817 -34.129597 3.151462 0.870588
-15.122817 -34.129597 2.383547 0.763603
-15.122820 -34.129601 1.616453 0.674387
-15.122817 -34.129597 0.848537 0.501348
-15.122819 -34.129597 0.078148 0.547672
-19.232382 -38.574230 -0.000005 0.538358
-21.881588 -41.439438 -0.000002 0.548407
-23.573053 -43.268814 0.000046 0.509926
-24.748539 -44.540146 0.000050 0.534804
-25.614553 -45.476768 0.000042 0.512623
-14.898514 -34.129604 7.909340 0.663971
-14.898508 -34.129601 7.095257 0.451961
-14.898516 -34.129604 6.292601 0.507108
-14.898497 -34.129585 5.499458 0.770833
-14.898497 -34.129585 4.713976 0.706863
-14.898497 -34.129585 3.934387 0.806250
-14.898507 -34.129597 3.158972 0.746691
-14.898505 -34.129593 2.386048 0.692402
-14.898507 -34.129597 1.613952 0.358211
-14.898508 -34.129601 0.841028 0.500000
-14.898508 -34.129601 0.065614 0.568260
-19.143448 -38.656826 -0.000023 0.534436
-21.812616 -41.503494 -0.000020 0.535662
-23.516825 -43.321033 0.000028 0.570956
-24.701170 -44.584133 0.000032 0.512745
-25.573715 -45.514706 0.000026 0.506863
-14.671246 -34.129604 7.948424 0.699142
-14.671244 -34.129601 7.128956 0.737623
-14.671249 -34.129608 6.320992 0.640931
-14.671230 -34.129585 5.522603 0.406740
-14.671232 -34.129589 4.731925 0.572794
-14.671231 -34.129585 3.947180 0.506005
-14.671242 -34.129601 3.166637 0.588971
-14.671240 -34.129601 2.388602 0.528922
-14.671243 -34.129601 1.611399 0.610172
-14.671244 -34.129601 0.833363 0.569730
-14.671243 -34.129601 0.052820 0.526961
-19.055168 -38.740124 -0.000028 0.532966
-21.744152 -41.568092 -0.000026 0.534191
-23.461012 -43.373692 0.000023 0.547426
-24.654150 -44.628498 0.000027 0.544853
-25.533175 -45.552959 0.000022 0.512990
-14.440944 -34.129601 7.988320 0.603922
-14.440941 -34.129597 7.163357 0.476838
-14.440946 -34.129604 6.349974 0.668382
-14.440928 -34.129585 5.546229 0.238358
-14.440928 -34.129585 4.750249 0.449755
-14.440931 -34.129593 3.960240 0.529657
-14.440939 -34.129597 3.174461 0.698039
-14.440941 -34.129597 2.391207 0.673897
-14.440944 -34.129601 1.608792 0.784069
-14.440939 -34.129597 0.825538 0.493995
-14.440944 -34.129601 0.039761 0.629289
-18.967476 -38.824036 -0.000032 0.545956
-21.676144 -41.633171 -0.000030 0.523162
-23.405571 -43.426746 0.000019 0.533456
-24.607441 -44.673195 0.000022 0.535662
-25.492897 -45.591492 0.000015 0.552451
-14.207514 -34.129601 8.029053 0.824755
-14.207510 -34.129597 7.198478 0.777206
-14.207520 -34.129604 6.379561 0.539828
-14.207500 -34.129581 5.570351 0.417279
-14.207502 -34.129589 4.768956 0.740319
-14.207500 -34.129581 3.973574 0.430760
-14.207510 -34.129597 3.182450 0.605392
-14.207512 -34.129597 2.393869 0.513726
-14.207514 -34.129597 1.606131 0.738235
-14.207512 -34.129597 0.817550 0.707230
-14.207514 -34.129597 0.026426 0.573162
-18.880365 -38.908550 -0.000038 0.534191
-21.608583 -41.698715 -0.000035 0.537500
-23.350502 -43.480183 0.000015 0.531740
-24.561045 -44.718212 0.000017 0.518137
-25.452894 -45.630314 0.000012 0.541299
-13.970881 -34.129597 8.070642 0.631005
-13.970882 -34.129601 7.234335 0.629902
-13.970884 -34.129604 6.409771 0.500735
-13.970864 -34.129581 5.594978 0.611887
-13.970866 -34.129581 4.788055 0.898897
-13.970866 -34.129581 3.987187 0.635784
-13.970881 -34.129597 3.190607 0.441054
-13.970881 -34.129597 2.396585 0.490441
-13.970881 -34.129597 1.603415 0.557598
-13.970879 -34.129597 0.809393 0.583211
-13.970881 -34.129597 0.012813 0.629902
-18.793854 -38.993683 -0.000042 0.538848
-21.541489 -41.764736 -0.000040 0.529534
-23.295801 -43.533997 0.000009 0.548652
-24.514971 -44.763561 0.000014 0.522794
-25.413158 -45.669407 0.000006 0.504902
-13.730947 -34.129601 8.113108 0.488848
-13.730948 -34.129601 7.270951 0.588603
-13.730952 -34.129608 6.440618 0.843995
-13.472433 -33.872498 5.674207 0.678431
-13.472433 -33.872498 4.849500 0.678431
-13.472433 -33.872498 4.030981 0.678431
-13.730947 -34.129601 3.198935 0.436152
-13.730945 -34.129597 2.399359 0.566299
-13.730950 -34.129601 1.600641 0.734681
-13.730950 -34.129601 0.801065 0.892279
-13.730950 -34.129601 -0.001087 0.493750
-18.707933 -39.079411 -0.000047 0.538725
-21.474859 -41.831226 -0.000044 0.547304
-23.241482 -43.588200 0.000004 0.514828
-24.469202 -44.809219 0.000009 0.551593
-25.373709 -45.708786 0.000004 0.505515
-13.487621 -34.129597 8.156472 0.840441
-13.487623 -34.129597 7.308343 0.604412
-13.487629 -34.129604 6.472119 0.496814
-13.225477 -33.872501 5.700271 0.678431
-13.225475 -33.872498 4.869714 0.678431
-13.225475 -33.872498 4.045389 0.678431
-13.487621 -34.129597 3.207440 0.425000
-13.487621 -34.129597 2.402193 0.448039
-13.487623 -34.129597 1.597807 0.683456
-13.487625 -34.129601 0.792559 0.676348
-13.620713 -34.260132 0.000002 0.538603
-18.622866 -39.165981 -0.000012 0.530637
-21.408880 -41.898361 -0.000010 0.514583
-23.187696 -43.642933 0.000039 0.537377
-24.423885 -44.855324 0.000041 0.513603
-25.334639 -45.748543 0.000038 0.523407
-13.240815 -34.129608 8.200759 0.386029
-13.240806 -34.129601 7.346532 0.606863
-13.240809 -34.129604 6.504293 0.563113
-12.974971 -33.872498 5.726891 0.678431
-12.974976 -33.872505 4.890359 0.678431
-12.974974 -33.872501 4.060103 0.678431
-13.240801 -34.129597 3.216126 0.391299
-13.240801 -34.129597 2.405086 0.589461
-13.240803 -34.129597 1.594914 0.356618
-13.240803 -34.129597 0.783873 0.644975
-13.501860 -34.382076 -0.000003 0.523407
-18.538155 -39.252907 -0.000017 0.537500
-21.343178 -41.965767 -0.000016 0.528922
-23.134134 -43.697880 0.000033 0.526961
-24.378767 -44.901623 0.000038 0.531985
-25.295731 -45.788456 0.000033 0.548652
-12.990418 -34.129616 8.245996 0.350123
-12.990410 -34.129608 7.385536 0.754657
-12.990410 -34.129608 6.537154 0.478922
-12.767565 -33.917076 5.744499 0.129412
-12.767564 -33.917076 4.904016 0.173407
-12.767565 -33.917076 4.069838 0.193995
-12.990400 -34.129601 3.225000 0.510417
-12.990400 -34.129601 2.408042 0.587745
-12.990400 -34.129601 1.591959 0.787623
-12.990402 -34.129601 0.775000 0.560417
-13.383858 -34.504848 -0.000008 0.537255
-18.454048 -39.340408 -0.000022 0.546569
-21.277927 -42.033607 -0.000026 0.529902
-23.080965 -43.753208 0.000029 0.543015
-24.333973 -44.948235 0.000032 0.534191
-25.257101 -45.828644 0.000027 0.531495
-12.677537 -34.074333 8.312421 0.626593
-12.736313 -34.129604 7.425382 0.647059
-12.736310 -34.129604 6.570723 0.628064
-12.677541 -34.074337 5.738155 0.701103
-12.677544 -34.074333 4.899094 0.535172
-12.677539 -34.074337 4.066330 0.590074
-12.736298 -34.129597 3.234063 0.520711
-12.736300 -34.129601 2.411061 0.644118
-12.736304 -34.129597 1.588940 0.772426
-12.736302 -34.129597 0.765937 0.457230
-13.266718 -34.628445 -0.000013 0.523652
-18.370554 -39.428501 -0.000027 0.517279
-21.213177 -42.101933 -0.000031 0.568015
-23.028181 -43.808907 0.000024 0.531740
-24.289501 -44.995152 0.000028 0.536642
-25.218761 -45.869102 0.000023 0.570343
-12.478397 -34.129593 8.339428 0.646691
-12.478412 -34.129604 7.466091 0.617892
-12.478414 -34.129612 6.605019 0.796936
-12.478401 -34.129597 5.754149 0.597549
-12.478397 -34.129593 4.911500 0.492402
-12.478401 -34.129597 4.075171 0.714706
-12.478401 -34.129597 3.243323 0.603922
-12.478403 -34.129597 2.414145 0.478309
-12.478405 -34.129601 1.585855 0.856250
-12.478401 -34.129597 0.756677 0.610662
-13.150449 -34.752861 -0.000018 0.530515
-18.287682 -39.517178 -0.000032 0.540931
-21.148905 -42.170700 -0.000036 0.528186
-22.975786 -43.864971 0.000019 0.518505
-24.245331 -45.042355 0.000014 0.523775
-25.180698 -45.909828 0.000017 0.516176
-12.216585 -34.129589 8.387670 0.611765
-12.216603 -34.129608 7.507684 0.800613
-12.216605 -34.129612 6.640060 0.493750
-12.216589 -34.129593 5.782716 0.546936
-12.216591 -34.129597 4.933654 0.627206
-12.216591 -34.129597 4.090962 0.524142
-12.216593 -34.129597 3.252783 0.580637
-12.216593 -34.129597 2.417296 0.585662
-12.216595 -34.129597 1.582704 0.524632
-12.216593 -34.129597 0.747216 0.591422
-13.034925 -34.877968 -0.000036 0.536397
-18.205347 -39.606354 -0.000050 0.539706
-21.085052 -42.239864 -0.000053 0.559559
-22.923727 -43.921349 0.000001 0.540931
-24.201485 -45.089863 -0.000001 0.529044
-25.142887 -45.950783 -0.000000 0.505024
-11.950751 -34.129597 8.436965 0.592157
-11.950751 -34.129597 7.550193 0.528431
-11.950764 -34.129604 6.675870 0.586152
-11.950751 -34.129597 5.811909 0.919363
-11.950751 -34.129597 4.956294 0.603186
-11.950751 -34.129597 4.107100 0.747426
-11.950754 -34.129597 3.262451 0.584804
-11.950754 -34.129597 2.420516 0.345956
-11.950751 -34.129597 1.579483 0.698897
-11.950751 -34.129597 0.737548 0.651103
-12.920404 -35.003994 -0.000041 0.538971
-18.123768 -39.696224 -0.000047 0.544485
-21.021748 -42.309528 -0.000058 0.546936
-22.872126 -43.978142 -0.000002 0.545833
-24.158005 -45.137707 -0.000006 0.559314
-25.105381 -45.992020 -0.000010 0.551348
-11.680764 -34.129593 8.487347 0.635907
-11.680760 -34.129589 7.593635 0.741544
-11.680778 -34.129608 6.712468 0.522059
-11.680764 -34.129593 5.841745 0.627451
-11.680760 -34.129593 4.979433 0.639461
-11.680766 -34.129593 4.123591 0.574877
-11.680767 -34.129593 3.272332 0.777819
-11.680766 -34.129593 2.423807 0.542647
-11.680771 -34.129601 1.576192 0.773284
-11.680769 -34.129601 0.727667 0.637623
-12.806702 -35.130764 -0.000052 0.540319
-18.042767 -39.786613 -0.000052 0.550858
-20.958927 -42.379635 -0.000062 0.535172
-22.820915 -44.035290 -0.000008 0.553064
-24.114861 -45.185852 -0.000012 0.551103
-25.068184 -46.033535 -0.000015 0.547181
-11.113270 -33.872498 8.636529 0.678431
-11.406504 -34.129593 7.638038 0.765074
-11.406523 -34.129608 6.749875 0.681005
-11.113268 -33.872494 5.930089 0.678431
-11.113270 -33.872498 5.047948 0.677206
-11.113270 -33.872498 4.172426 0.678431
-11.406507 -34.129597 3.282433 0.507966
-11.406508 -34.129597 2.427172 0.654167
-11.406508 -34.129597 1.572828 0.308456
-11.406507 -34.129597 0.717567 0.643015
-12.693570 -35.258049 -0.000098 0.539951
-17.962397 -39.877567 -0.000057 0.546814
-20.896595 -42.450172 -0.000068 0.524142
-22.770103 -44.092796 -0.000012 0.553922
-24.072054 -45.234299 -0.000016 0.529289
-25.031275 -46.075306 -0.000019 0.503064
-10.830447 -33.872494 8.689960 0.678431
-11.127842 -34.129593 7.683432 0.602083
-11.127859 -34.129608 6.788119 0.623284
-10.830452 -33.872498 5.961730 0.678431
-10.830449 -33.872498 5.072487 0.678431
-10.830449 -33.872498 4.189916 0.678431
-11.127851 -34.129601 3.292757 0.590686
-11.127851 -34.129601 2.430611 0.717892
-11.127851 -34.129601 1.569388 0.388971
-11.127851 -34.129601 0.707242 0.410662
-12.581707 -35.386444 -0.000103 0.530515
-17.882673 -39.969086 -0.000062 0.538603
-20.834766 -42.521145 -0.000072 0.536520
-22.719698 -44.150654 -0.000017 0.555270
-24.029589 -45.283043 -0.000021 0.538235
-24.994661 -46.117336 -0.000024 0.553554
-10.543016 -33.872494 8.744591 0.678431
-10.844638 -34.129589 7.729845 0.519853
-10.844660 -34.129608 6.827218 0.643750
-10.543020 -33.872498 5.994081 0.678431
-10.543020 -33.872498 5.097576 0.678431
-10.543020 -33.872498 4.207798 0.678431
-10.844648 -34.129597 3.303315 0.549632
-10.844645 -34.129593 2.434128 0.877574
-10.844648 -34.129597 1.565872 0.575368
-10.844653 -34.129601 0.696685 0.428922
-12.471231 -35.516041 -0.000054 0.530760
-17.803497 -40.061081 -0.000079 0.527328
-20.773367 -42.592495 -0.000089 0.548407
-22.669641 -44.208817 -0.000035 0.532721
-23.987429 -45.332054 -0.000036 0.547426
-24.958300 -46.159592 -0.000041 0.572794
-10.272388 -33.890606 8.793406 0.250000
-10.556769 -34.129597 7.777300 0.625980
-10.556778 -34.129604 6.867202 0.596936
-10.272389 -33.890610 6.022989 0.248652
-10.272390 -33.890610 5.119996 0.358333
-10.272392 -33.890610 4.223778 0.333456
-10.556770 -34.129597 3.314109 0.805515
-10.556772 -34.129597 2.437724 0.842892
-10.556774 -34.129601 1.562276 0.557353
-10.556770 -34.129597 0.685890 0.624387
-12.361177 -35.645992 -0.000059 0.551225
-17.725403 -40.153999 -0.000031 0.523652
-20.712793 -42.664551 -0.000043 0.519975
-22.620268 -44.267559 0.000013 0.547672
-23.945824 -45.381535 0.000010 0.521691
-24.922426 -46.202255 0.000004 0.545098
-10.176440 -34.056988 8.785156 0.471324
-10.264071 -34.129597 7.825839 0.648407
-10.264076 -34.129601 6.908095 0.580515
-10.176440 -34.056992 6.018105 0.640196
-10.176442 -34.056992 5.116207 0.781863
-10.176442 -34.056992 4.221077 0.569853
-10.264070 -34.129593 3.325151 0.845221
-10.264071 -34.129597 2.441401 0.465931
-10.264071 -34.129597 1.558599 0.526716
-10.264071 -34.129597 0.674850 0.558824
-12.252026 -35.776699 -0.000064 0.546814
-17.647310 -40.246910 -0.000081 0.538358
-20.652466 -42.736805 -0.000047 0.553676
-22.571064 -44.326443 0.000003 0.524632
-23.904390 -45.431160 0.000005 0.568137
-24.886702 -46.245041 0.000000 0.547672
-9.966388 -34.129589 8.814236 0.763358
-9.966393 -34.129593 7.875490 0.646324
-9.966403 -34.129601 6.949923 0.447794
-9.966391 -34.129593 6.035324 0.537990
-9.966391 -34.129593 5.129561 0.709314
-9.966396 -34.129597 4.230596 0.635294
-9.966398 -34.129601 3.336443 0.654044
-9.966399 -34.129601 2.445163 0.593750
-9.966401 -34.129601 1.554837 0.632353
-9.966396 -34.129597 0.663556 0.826716
-12.143682 -35.908077 -0.000081 0.543137
-17.570084 -40.340553 -0.000098 0.542402
-20.592632 -42.809471 -0.000053 0.522549
-22.522287 -44.385685 -0.000003 0.532230
-23.863300 -45.481068 0.000000 0.545098
-24.851278 -46.288082 -0.000003 0.525123
-9.663572 -34.129585 8.873146 0.716176
-9.663586 -34.129597 7.926285 0.614828
-9.663591 -34.129601 6.992718 0.687745
-9.663578 -34.129593 6.070211 0.720588
-9.663578 -34.129593 5.156618 0.595466
-9.663581 -34.129593 4.249880 0.622304
-9.663586 -34.129597 3.347997 0.518505
-9.663589 -34.129601 2.449011 0.808088
-9.663594 -34.129604 1.550989 0.425490
-9.663591 -34.129601 0.652002 0.578064
-12.036367 -36.040306 -0.000085 0.537745
-17.493597 -40.434795 -0.000102 0.549020
-20.533316 -42.882561 -0.000057 0.517524
-22.473930 -44.445267 -0.000007 0.499877
-23.822542 -45.531250 -0.000010 0.540319
-24.816124 -46.331345 -0.000017 0.551961
-9.355474 -34.129585 8.933425 0.639338
-9.355489 -34.129597 7.978257 0.803064
-9.355494 -34.129601 7.036503 0.441299
-9.355475 -34.129589 6.105908 0.432843
-9.355477 -34.129589 5.184302 0.668505
-9.355480 -34.129593 4.269613 0.847426
-9.355491 -34.129601 3.359819 0.399755
-9.355491 -34.129601 2.452950 0.774142
-9.355491 -34.129601 1.547050 0.455025
-9.355494 -34.129601 0.640180 0.704902
-11.929982 -36.173275 -0.000090 0.534191
-17.417763 -40.529568 -0.000108 0.531005
-20.474504 -42.956062 -0.000062 0.518873
-22.425991 -44.505184 -0.000012 0.550123
-23.782154 -45.581730 -0.000015 0.550858
-24.781300 -46.374866 -0.000021 0.555882
-9.041898 -34.129589 8.995116 0.435172
-9.041908 -34.129597 8.031449 0.788235
-9.041920 -34.129604 7.081315 0.611152
-9.041925 -34.129608 6.142436 0.514338
-9.041895 -34.129585 5.212636 0.454657
-9.041895 -34.129585 4.289807 0.676103
-9.041911 -34.129601 3.371918 0.581005
-9.041909 -34.129597 2.456980 0.699020
-9.041909 -34.129597 1.543020 0.567892
-9.041916 -34.129601 0.628081 0.638603
-11.824531 -36.306992 -0.000094 0.529657
-17.342598 -40.624874 -0.000113 0.523039
-20.415926 -43.029751 -0.000121 0.545833
-22.378414 -44.565392 -0.000030 0.531127
-23.742081 -45.632462 -0.000030 0.529534
-24.746746 -46.418610 -0.000037 0.537990
-8.389351 -33.872490 9.163706 0.678431
-8.722699 -34.129601 8.085893 0.594118
-8.722698 -34.129601 7.127184 0.622426
-8.722703 -34.129604 6.179830 0.628799
-8.389356 -33.872494 5.290062 0.678431
-8.389349 -33.872490 4.344993 0.678431
-8.722694 -34.129597 3.384303 0.619240
-8.722694 -34.129601 2.461104 0.661642
-8.722694 -34.129597 1.538895 0.614951
-8.722694 -34.129597 0.615697 0.506863
-11.720247 -36.441624 -0.000074 0.541544
-17.268267 -40.720829 -0.000093 0.529534
-20.358282 -43.104168 -0.000101 0.517402
-22.331423 -44.626057 -0.000010 0.535294
-23.702486 -45.683563 -0.000012 0.553064
-24.712618 -46.462685 -0.000015 0.540931
-8.059450 -33.872490 9.229315 0.678431
-8.397657 -34.129604 8.141630 0.838726
-8.397659 -34.129604 7.174141 0.594853
-8.397665 -34.129608 6.218110 0.532475
-8.059455 -33.872490 5.320196 0.678431
-8.059453 -33.872490 4.366470 0.678431
-8.397648 -34.129597 3.396981 0.655270
-8.397648 -34.129597 2.465328 0.506985
-8.397648 -34.129597 1.534672 0.481127
-8.397651 -34.129597 0.603019 0.487623
-11.616656 -36.576778 -0.000080 0.542892
-17.194445 -40.817173 -0.000098 0.534069
-20.301027 -43.178886 -0.000106 0.538358
-22.284742 -44.686962 -0.000016 0.535049
-23.663158 -45.734875 -0.000018 0.539093
-24.678705 -46.506924 -0.000022 0.562010
-7.767806 -33.905739 9.282606 0.216054
-8.066581 -34.129601 8.198706 0.442525
-8.066581 -34.129601 7.222227 0.743505
-8.066597 -34.129612 6.257308 0.472549
-7.767807 -33.905739 5.344670 0.129412
-7.767810 -33.905743 4.383915 0.214828
-8.066571 -34.129597 3.409964 0.788235
-8.066574 -34.129597 2.469652 0.706005
-8.066572 -34.129597 1.530348 0.537010
-8.066571 -34.129597 0.590036 0.552819
-11.513918 -36.712589 -0.000096 0.543873
-17.121218 -40.913975 -0.000113 0.544730
-20.244232 -43.253956 -0.000122 0.545833
-22.238495 -44.748199 -0.000020 0.529412
-23.624199 -45.786465 -0.000022 0.538235
-24.645113 -46.551407 -0.000025 0.580637
-7.675246 -34.089703 9.273706 0.501348
-7.729280 -34.129604 8.257159 0.450123
-7.729279 -34.129604 7.271471 0.443382
-7.729290 -34.129612 6.297455 0.579412
-7.675246 -34.089703 5.340584 0.616176
-7.675246 -34.089703 4.381002 0.651103
-7.729267 -34.129593 3.423259 0.688235
-7.729271 -34.129597 2.474081 0.766544
-7.729271 -34.129601 1.525919 0.651471
-7.729273 -34.129601 0.576740 0.818505
-11.412228 -36.849190 -0.000101 0.536029
-17.048740 -41.011337 -0.000118 0.544363
-20.188028 -43.329475 -0.000125 0.545833
-22.192703 -44.809776 -0.000019 0.535907
-23.585594 -45.838322 -0.000027 0.567034
-24.611837 -46.596127 -0.000028 0.528431
-7.385518 -34.129585 9.326334 0.489461
-7.385520 -34.129585 8.317042 0.704167
-7.385543 -34.129604 7.321915 0.648652
-7.385553 -34.129612 6.338579 0.628431
-7.385520 -34.129585 5.364753 0.522181
-7.385520 -34.129585 4.398229 0.729289
-7.385532 -34.129593 3.436879 0.702574
-7.385534 -34.129597 2.478617 0.772059
-7.385536 -34.129601 1.521382 0.570466
-7.385534 -34.129597 0.563121 0.455025
-11.312021 -36.986877 -0.000053 0.532353
-16.977346 -41.109497 -0.000066 0.552696
-20.132633 -43.405579 -0.000079 0.550368
-22.147272 -44.871620 -0.000033 0.541544
-23.547338 -45.890442 -0.000036 0.534436
-24.578833 -46.641048 -0.000043 0.535417
-7.035113 -34.129581 9.397486 0.578554
-7.035110 -34.129581 8.378391 0.626225
-7.035139 -34.129601 7.373599 0.646569
-7.035153 -34.129612 6.380712 0.636152
-7.035115 -34.129585 5.397430 0.537868
-7.035120 -34.129589 4.421518 0.558946
-7.035135 -34.129601 3.450832 0.526226
-7.035131 -34.129597 2.483266 0.723284
-7.035132 -34.129597 1.516734 0.620711
-7.035135 -34.129601 0.549167 0.596936
-11.212265 -37.124889 -0.000058 0.549142
-16.906244 -41.207867 -0.000070 0.552451
-20.077488 -43.481865 -0.000083 0.549877
-22.102312 -44.933804 -0.000039 0.562623
-23.509468 -45.942833 -0.000041 0.528554
-24.546185 -46.686234 -0.000045 0.508946
-6.677824 -34.129585 9.470396 0.664828
-6.677820 -34.129581 8.441257 0.654044
-6.677870 -34.129620 7.426558 0.469485
-6.677860 -34.129612 6.423891 0.489706
-6.677819 -34.129581 5.430918 0.724020
-6.677822 -34.129585 4.445386 0.618260
-6.677841 -34.129601 3.465133 0.673407
-6.677841 -34.129597 2.488028 0.499387
-6.677841 -34.129597 1.511971 0.476838
-6.677838 -34.129597 0.534866 0.664828
-11.113466 -37.263592 -0.000062 0.533701
-16.835831 -41.306732 -0.000074 0.526226
-20.022877 -43.558540 -0.000087 0.547181
-22.057791 -44.996307 -0.000043 0.528064
-23.471954 -45.995487 -0.000046 0.553676
-24.513845 -46.731636 -0.000049 0.475368
-5.944088 -33.872494 9.657846 0.678431
-5.944088 -33.872494 8.602885 0.678431
-6.313426 -34.129604 7.480852 0.536274
-6.313435 -34.129608 6.468148 0.708578
-5.944094 -33.872498 5.517007 0.678431
-5.944093 -33.872498 4.506747 0.678431
-6.313420 -34.129601 3.479791 0.669485
-6.313423 -34.129601 2.492911 0.533701
-6.313423 -34.129601 1.507089 0.425000
-6.313420 -34.129601 0.520209 0.671324
-11.015877 -37.403141 -0.000043 0.535049
-16.766270 -41.406193 -0.000056 0.531495
-19.968929 -43.635681 -0.000068 0.558578
-22.013809 -45.059189 -0.000025 0.538235
-23.434898 -46.048462 -0.000029 0.530637
-24.481874 -46.777298 -0.000038 0.510784
-5.566726 -33.872490 9.735615 0.678431
-5.566731 -33.872494 8.669938 0.678431
-5.941618 -34.129601 7.536511 0.560784
-5.941632 -34.129608 6.513523 0.518015
-5.566733 -33.872498 5.552721 0.678431
-5.566738 -33.872501 4.532203 0.678431
-5.941613 -34.129597 3.494818 0.600000
-5.941615 -34.129597 2.497917 0.441054
-5.941617 -34.129601 1.502083 0.487623
-5.941615 -34.129601 0.505182 0.834069
-10.918986 -37.543182 -0.000052 0.545221
-16.697245 -41.506031 -0.000060 0.550490
-19.915632 -43.713268 -0.000030 0.552696
-21.970165 -45.122307 -0.000031 0.527696
-23.398136 -46.101639 -0.000033 0.531985
-24.450172 -46.823151 -0.000043 0.551961
-5.261960 -33.926777 9.791069 0.150858
-5.261957 -33.926777 8.717756 0.111029
-5.562176 -34.129604 7.593585 0.428431
-5.562181 -34.129608 6.560053 0.636029
-5.261965 -33.926781 5.578192 0.160784
-5.261957 -33.926777 4.550358 0.196814
-5.562161 -34.129593 3.510228 0.586397
-5.562161 -34.129593 2.503049 0.479534
-5.562161 -34.129593 1.496950 0.623039
-5.562161 -34.129593 0.489771 0.764461
-10.823013 -37.683849 -0.000067 0.539338
-16.628845 -41.606297 -0.000074 0.535784
-19.862589 -43.791031 -0.000044 0.528554
-21.926903 -45.185688 -0.000049 0.561275
-23.361677 -46.155025 -0.000054 0.545956
-24.418766 -46.869202 -0.000055 0.536765
-5.174109 -34.129150 9.781116 0.514461
-5.174106 -34.129147 8.709173 0.785539
-5.174786 -34.129601 7.652131 0.609069
-5.174791 -34.129601 6.607781 0.599510
-5.174111 -34.129150 5.573621 0.680515
-5.174110 -34.129150 4.547099 0.680760
-5.174778 -34.129597 3.526034 0.756250
-5.174778 -34.129597 2.508315 0.531740
-5.174781 -34.129597 1.491685 0.454779
-5.174783 -34.129597 0.473966 0.644608
-10.728123 -37.825260 -0.000072 0.536029
-16.561209 -41.707081 -0.000079 0.527328
-19.810131 -43.869190 -0.000050 0.539951
-21.884146 -45.249413 -0.000053 0.559436
-23.325663 -46.208717 -0.000056 0.556618
-24.387703 -46.915489 -0.000060 0.529657
-4.779179 -34.129585 9.863603 0.759559
-4.779175 -34.129585 8.780296 0.802941
-4.779201 -34.129601 7.712192 0.765196
-4.779205 -34.129604 6.656746 0.548529
-4.779176 -34.129585 5.611504 0.717892
-4.779176 -34.129585 4.574101 0.767279
-4.779194 -34.129597 3.542251 0.500735
-4.779195 -34.129597 2.513716 0.776961
-4.779193 -34.129597 1.486284 0.542157
-4.779196 -34.129597 0.457749 0.591912
-10.634474 -37.967484 -0.000052 0.533946
-16.494455 -41.808453 -0.000060 0.549877
-19.758366 -43.947807 -0.000031 0.523039
-21.841938 -45.313499 -0.000035 0.523652
-23.290106 -46.262711 -0.000037 0.546691
-24.357016 -46.962025 -0.000050 0.519363
-4.375075 -34.129593 9.948454 0.792279
-4.375076 -34.129593 8.853456 0.697181
-4.375097 -34.129608 7.773829 0.530147
-4.375094 -34.129604 6.706995 0.608946
-4.375078 -34.129593 5.650473 0.714093
-4.375075 -34.129589 4.601876 0.583211
-4.375085 -34.129597 3.558893 0.475368
-4.375082 -34.129597 2.519260 0.433824
-4.375085 -34.129597 1.480740 0.499265
-4.375090 -34.129601 0.441108 0.663603
-10.541577 -38.110203 -0.000057 0.541422
-16.428240 -41.910175 -0.000065 0.524265
-19.707012 -44.026695 -0.000036 0.517892
-21.800072 -45.377811 -0.000040 0.534559
-23.254833 -46.316891 -0.000043 0.545466
-24.326603 -47.008739 -0.000055 0.573897
-3.962138 -34.129593 10.035551 0.568137
-3.962141 -34.129597 8.928555 0.436152
-3.962150 -34.129604 7.837100 0.811642
-3.962156 -34.129604 6.758573 0.854289
-3.962141 -34.129593 5.690474 0.406618
-3.962135 -34.129593 4.630387 0.581985
-3.962141 -34.129597 3.575975 0.745588
-3.962145 -34.129601 2.524949 0.491176
-3.962145 -34.129601 1.475050 0.502819
-3.962145 -34.129601 0.424025 0.579657
-10.449673 -38.253563 -0.000061 0.535172
-16.363028 -42.012543 -0.000029 0.544118
-19.656212 -44.105942 -0.000040 0.542157
-21.758659 -45.442413 -0.000044 0.543873
-23.219925 -46.371304 -0.000052 0.546324
-24.296537 -47.055683 -0.000054 0.531373
-3.129255 -33.872486 10.246366 0.678431
-3.129255 -33.872486 9.110330 0.678431
-3.540059 -34.129616 7.902057 0.535417
-3.540058 -34.129616 6.811530 0.592647
-3.129256 -33.872490 5.787295 0.678431
-3.129257 -33.872490 4.699395 0.678431
-3.540032 -34.129601 3.593514 0.681618
-3.540025 -34.129597 2.530792 0.798284
-3.540028 -34.129597 1.469208 0.568627
-3.540032 -34.129601 0.406486 0.549632
-10.358766 -38.397560 -0.000067 0.530392
-16.298243 -42.115177 -0.000034 0.521078
-19.605997 -44.185558 -0.000039 0.544240
-21.717669 -45.507286 -0.000055 0.558824
-23.185417 -46.425972 -0.000056 0.521691
-24.266781 -47.102814 -0.000060 0.533088
-2.763043 -33.916779 10.318438 0.208333
-2.763045 -33.916779 9.172472 0.204534
-3.108392 -34.129597 7.968783 0.574510
-3.108394 -34.129601 6.865925 0.661029
-2.763053 -33.916786 5.820394 0.160784
-2.763053 -33.916786 4.722987 0.160784
-2.836238 -33.961884 3.627233 0.160784
-3.108401 -34.129601 2.536793 0.793505
-3.108396 -34.129601 1.463208 0.684069
-3.108394 -34.129597 0.388472 0.615441
-10.269025 -38.542286 -0.000057 0.538113
-16.234274 -42.218327 -0.000024 0.526716
-19.556381 -44.265549 -0.000031 0.551103
-21.677225 -45.572498 -0.000046 0.560172
-23.151333 -46.480911 -0.000050 0.571814
-24.237373 -47.150173 -0.000059 0.545098
-2.666830 -34.129578 10.311194 0.502941
-2.666824 -34.129578 9.166225 0.716912
-2.666865 -34.129601 8.037325 0.567647
-2.666866 -34.129601 6.921803 0.657721
-2.666830 -34.129578 5.817068 0.566912
-2.666839 -34.129585 4.720615 0.617647
-2.666835 -34.129581 3.630035 0.635539
-2.666850 -34.129593 2.542957 0.554289
-2.666855 -34.129593 1.457043 0.566299
-2.666854 -34.129593 0.369965 0.690564
-10.180140 -38.687538 -0.000062 0.542525
-16.170929 -42.321857 -0.000028 0.534069
-19.507254 -44.345840 -0.000035 0.526838
-21.637177 -45.637962 -0.000049 0.539951
-23.117603 -46.536060 -0.000052 0.548774
-24.208281 -47.197723 -0.000063 0.561152
-2.215031 -34.129585 10.408155 0.538480
-2.215031 -34.129585 9.249829 0.834436
-2.215057 -34.129601 8.107761 0.677206
-2.215054 -34.129601 6.979225 0.455147
-2.215031 -34.129585 5.861600 0.550980
-2.215034 -34.129585 4.752356 0.600613
-2.215036 -34.129589 3.649052 0.526838
-2.215047 -34.129593 2.549292 0.575245
-2.215047 -34.129593 1.450709 0.457843
-2.215044 -34.129593 0.350948 0.786029
-10.092278 -38.833412 -0.000066 0.539828
-16.108305 -42.425823 -0.000033 0.548284
-19.458693 -44.426476 -0.000039 0.530515
-21.597588 -45.703697 -0.000053 0.541299
-23.084230 -46.591431 -0.000060 0.552083
-24.179533 -47.245483 -0.000063 0.512868
-1.752531 -34.129589 10.507828 0.632353
-1.752531 -34.129589 9.335770 0.630147
-1.752541 -34.129593 8.180166 0.550245
-1.752543 -34.129597 7.038252 0.598162
-1.752531 -34.129589 5.907376 0.396569
-1.752531 -34.129589 4.784983 0.758456
-1.752531 -34.129589 3.668600 0.424020
-1.752536 -34.129593 2.555803 0.566667
-1.752543 -34.129597 1.444197 0.603554
-1.752536 -34.129593 0.331399 0.584191
-10.005684 -38.980042 -0.000047 0.535662
-16.046577 -42.530327 -0.000015 0.547304
-19.410818 -44.507523 -0.000021 0.528922
-21.558552 -45.769768 -0.000036 0.533824
-23.051346 -46.647095 -0.000043 0.486520
-24.151184 -47.293476 -0.000045 0.579779
-0.945542 -33.936779 10.706780 0.160784
-0.834373 -33.872486 9.535053 0.678431
-1.278941 -34.129604 8.254612 0.547672
-1.278935 -34.129601 7.098944 0.679902
-0.834378 -33.872486 6.013523 0.660417
-0.834383 -33.872494 4.860639 0.678431
-0.834381 -33.872490 3.713930 0.383456
-1.278930 -34.129597 2.562499 0.671569
-1.278930 -34.129597 1.437502 0.735662
-1.278931 -34.129597 0.311299 0.635049
-9.920256 -39.127350 -0.000015 0.546814
-15.985415 -42.635162 -0.000020 0.537255
-19.363380 -44.588825 -0.000026 0.554412
-21.519909 -45.836060 -0.000035 0.528799
-23.018766 -46.702934 -0.000048 0.516667
-24.123089 -47.341621 -0.000050 0.522426
-0.527760 -33.978241 10.792388 0.628799
-0.341938 -33.872494 9.627306 0.677206
-0.341936 -33.872490 8.425779 0.667892
-0.793760 -34.129612 7.161367 0.581005
-0.417917 -33.915730 6.052604 0.214583
-0.341928 -33.872486 4.895663 0.671936
-0.341933 -33.872490 3.734914 0.571446
-0.793731 -34.129597 2.569385 0.555882
-0.793731 -34.129597 1.430615 0.582721
-0.793732 -34.129597 0.290624 0.450368
-9.835185 -39.274864 -0.000046 0.525858
-15.924742 -42.740284 -0.000056 0.538603
-19.316326 -44.670353 -0.000062 0.515686
-21.481583 -45.902542 -0.000065 0.566299
-22.986477 -46.758942 -0.000077 0.526226
-24.095255 -47.389919 -0.000078 0.555882
-0.296474 -34.129597 10.824202 0.699632
-0.171804 -34.059799 9.639420 0.712132
-0.171804 -34.059799 8.435984 0.530882
-0.296497 -34.129608 7.225605 0.685907
-0.171812 -34.059803 6.069113 0.518873
-0.171804 -34.059799 4.900261 0.536520
-0.171807 -34.059799 3.737669 0.581250
-0.296467 -34.129593 2.576472 0.497181
-0.296474 -34.129597 1.423529 0.453309
-0.296467 -34.129593 0.269349 0.599632
-9.751332 -39.423084 -0.000059 0.527941
-15.864983 -42.845928 -0.000069 0.525245
-19.269978 -44.752281 -0.000075 0.534191
-21.443794 -45.969334 -0.000078 0.516054
-22.954660 -46.815224 -0.000086 0.548529
-24.067793 -47.438431 -0.000095 0.506005
0.213330 -34.129597 10.935845 0.615686
0.213348 -34.129585 9.704826 0.657230
0.213347 -34.129585 8.491089 0.640319
0.213325 -34.129597 7.291720 0.597794
0.213351 -34.129585 6.103953 0.484436
0.213350 -34.129581 4.925095 0.401348
0.213347 -34.129585 3.752545 0.405270
0.213337 -34.129593 2.583765 0.623897
0.213333 -34.129593 1.416236 0.484926
0.213333 -34.129593 0.247454 0.473529
-9.668865 -39.572071 -0.000041 0.530270
-15.806190 -42.952114 -0.000051 0.548284
-19.224390 -44.834637 -0.000057 0.507598
-21.406626 -46.036472 -0.000061 0.541299
-22.923338 -46.871780 -0.000070 0.547549
-24.040789 -47.487198 -0.000079 0.520956
0.736231 -34.129597 11.050795 0.510907
0.736247 -34.129589 9.803941 0.512500
0.736235 -34.129593 8.574586 0.603309
0.736235 -34.129593 7.359796 0.693627
0.736197 -34.129616 6.156740 0.626225
0.736235 -34.129593 4.962721 0.700368
0.736235 -34.129593 3.775090 0.511642
0.736234 -34.129593 2.591275 0.681005
0.736231 -34.129597 1.408726 0.562500
0.736232 -34.129597 0.224909 0.514706
-9.587185 -39.721489 -0.000045 0.527941
-15.747981 -43.058620 -0.000055 0.541912
-19.179239 -44.917236 -0.000061 0.546324
-21.369802 -46.103798 -0.000068 0.535294
-22.892336 -46.928513 -0.000073 0.556985
-24.014059 -47.536114 -0.000081 0.535907
1.272780 -34.129593 11.169193 0.666789
1.755457 -33.872486 10.024142 0.678431
1.755465 -33.872482 8.760103 0.678431
1.272775 -34.129597 7.429908 0.773897
1.272746 -34.129616 6.211117 0.796078
1.755464 -33.872482 5.046321 0.678431
1.755460 -33.872486 3.825178 0.678431
1.272789 -34.129593 2.599009 0.475858
1.272786 -34.129593 1.400991 0.431373
1.272780 -34.129593 0.201688 0.447304
-9.506800 -39.871613 -0.000027 0.533211
-15.690680 -43.165615 -0.000037 0.532353
-19.134775 -45.000198 -0.000048 0.535294
-21.333569 -46.171444 -0.000052 0.558946
-22.861797 -46.985493 -0.000060 0.514951
-23.987724 -47.585247 -0.000068 0.505882
1.823586 -34.129597 11.291193 0.503309
2.238274 -33.912403 10.112321 0.160784
2.238274 -33.912403 8.834390 0.083946
1.823578 -34.129601 7.502153 0.411887
1.823578 -34.129601 6.267150 0.420221
2.238274 -33.912403 5.079797 0.160784
2.238276 -33.912399 3.845235 0.160784
1.823586 -34.129597 2.606980 0.729902
1.823586 -34.129597 1.393021 0.633578
1.823582 -34.129597 0.177761 0.564461
-9.427215 -40.022160 -0.000031 0.540196
-15.633965 -43.272923 -0.000041 0.543627
-19.090788 -45.083424 -0.000052 0.538603
-21.297710 -46.239292 -0.000055 0.552819
-22.831581 -47.042648 -0.000065 0.570098
-23.961678 -47.634533 -0.000071 0.542279
2.389265 -34.129601 11.416942 0.568750
2.389292 -34.129581 10.119650 0.725368
2.389297 -34.129581 8.840565 0.738480
2.389235 -34.129612 7.576618 0.567157
2.389236 -34.129608 6.324901 0.671814
2.389289 -34.129585 5.082579 0.594485
2.389289 -34.129585 3.846903 0.740074
2.389292 -34.129581 2.615194 0.723284
2.389292 -34.129581 1.384806 0.646078
2.389297 -34.129578 0.153096 0.567034
-9.348930 -40.173382 -0.000014 0.555392
-15.578135 -43.380692 -0.000027 0.542647
-19.047514 -45.167015 -0.000034 0.543627
-21.262402 -46.307419 -0.000044 0.558946
-22.801853 -47.100056 -0.000049 0.525858
-23.936052 -47.684036 -0.000053 0.513971
2.970491 -34.129601 11.546616 0.576103
3.445114 -33.889404 10.346340 0.160784
3.445120 -33.889404 9.031544 0.160784
3.445120 -33.889404 7.732320 0.174142
3.445122 -33.889400 6.445653 0.161275
3.445120 -33.889404 5.168640 0.160784
3.445119 -33.889400 3.898466 0.160784
3.445120 -33.889404 2.632370 0.160784
2.970537 -34.129578 1.376334 0.515809
2.970531 -34.129581 0.127664 0.492647
-9.271410 -40.325005 -0.000022 0.535784
-15.522856 -43.488743 -0.000039 0.534681
-19.004648 -45.250816 -0.000045 0.563480
-21.227455 -46.375740 -0.000055 0.551838
-22.772404 -47.157608 -0.000062 0.521814
-23.910643 -47.733650 -0.000072 0.577206
3.568001 -34.129597 11.680389 0.679779
4.197159 -33.816689 10.498563 0.678431
4.197157 -33.816689 9.159785 0.678431
4.197151 -33.816692 7.836865 0.678431
4.197156 -33.816689 6.526732 0.678431
