# This PCD file was generated using the MATLAB® pcwrite function
# from Computer Vision Toolbox®.
# .PCD v.7 - Point Cloud Data file format
VERSION .7
FIELDS x y z intensity
SIZE 4 4 4 4
TYPE F F F F
COUNT 1 1 1 1
WIDTH 1331
HEIGHT 1
VIEWPOINT 0 0 0 1 0 0 0
POINTS 1331
DATA ascii
38.321442 -0.174978 1.345086 0.543995
38.167343 0.083520 1.110899 0.506250
37.948055 0.451381 0.831461 0.565564
37.862518 0.594873 0.576881 0.476838
37.147995 1.793496 -0.000033 0.529289
38.213158 0.088122 3.496526 0.389338
37.972839 0.497738 3.392932 0.459436
17.515511 35.366417 10.529410 0.678431
37.835461 0.731892 2.996945 0.459069
17.515511 35.366417 7.392671 0.678431
17.603573 35.216316 5.829358 0.702696
37.916912 0.593066 2.322267 0.482721
38.319653 -0.093389 2.094322 0.456005
38.343933 -0.134778 1.906463 0.480392
38.112011 0.260525 1.696673 0.467402
38.362087 -0.165719 1.534253 0.487990
38.586319 -0.547910 1.397526 0.431495
38.462532 -0.336924 1.186871 0.520098
37.984497 0.477868 0.830688 0.388235
36.550426 2.922180 -0.000029 0.531863
37.195999 1.821829 -0.000021 0.531127
37.960445 0.609251 3.641189 0.527206
37.992485 0.553763 3.401256 0.535294
17.893389 35.366417 10.494826 0.678431
37.928181 0.665136 2.981468 0.511029
37.991104 0.556153 2.746692 0.518382
38.113041 0.344954 2.512209 0.502574
37.848911 0.802439 2.332838 0.463725
38.342285 -0.052108 2.094720 0.481985
38.402683 -0.156724 1.907257 0.467034
38.113037 0.344954 1.693114 0.478676
38.371811 -0.103251 1.530227 0.479779
38.103428 0.361598 1.279152 0.407230
38.141068 0.296410 1.081689 0.487868
35.740433 4.454427 -0.000066 0.535784
36.606239 2.954805 -0.000056 0.573162
37.244087 1.850025 -0.000067 0.578554
38.280304 0.138804 3.499112 0.469363
37.894135 0.818591 3.461447 0.525490
18.268236 35.366425 10.460929 0.678431
37.841457 0.911313 3.019550 0.514828
38.286407 0.128062 2.687073 0.474632
38.071655 0.506091 2.525361 0.519118
18.268240 35.366417 4.284389 0.678431
38.365112 -0.010481 2.095125 0.570221
38.318348 0.071836 1.903326 0.515441
38.121891 0.417665 1.690230 0.481863
38.365078 -0.010425 1.523348 0.538358
38.629074 -0.475140 1.392735 0.516667
38.180893 0.313802 1.082386 0.487010
37.862862 0.873634 0.757255 0.501471
38.480537 -0.213668 0.794963 0.492402
37.292473 1.877701 -0.000058 0.549510
17.926397 36.643471 13.968322 0.653431
37.948364 0.818382 3.455657 0.510539
18.640121 35.366417 10.427709 0.678431
38.076042 0.589931 2.960934 0.536152
38.298195 0.192432 2.692859 0.442157
37.736588 1.197310 2.588226 0.449142
38.047791 0.640480 2.321093 0.468750
38.388138 0.031505 2.095539 0.518137
38.408974 -0.005779 1.905160 0.468750
37.951981 0.811912 1.669259 0.514951
38.473576 -0.121373 1.535641 0.486029
38.633121 -0.406846 1.386119 0.496078
38.340595 0.116569 1.119504 0.482353
38.133926 0.486362 0.842859 0.477328
36.718647 3.018703 -0.000063 0.522549
37.341011 1.905115 -0.000073 0.563235
18.251749 36.744064 13.950851 0.642402
38.297562 0.280862 3.317555 0.484436
37.631588 1.492265 3.361537 0.539338
38.147739 0.553392 2.951038 0.502696
38.310226 0.257831 2.698769 0.492770
37.801155 1.183826 2.584692 0.449755
38.102455 0.635765 2.319588 0.475490
38.365814 0.156713 2.097508 0.462132
38.426575 0.046188 1.904556 0.451838
37.987747 0.844418 1.668714 0.487990
38.500904 -0.089014 1.534406 0.571446
38.672520 -0.401180 1.387746 0.473897
38.894554 -0.805059 1.278913 0.577451
37.961685 0.891820 0.763139 0.510539
36.775223 3.049991 -0.000050 0.557353
37.389832 1.932023 -0.000039 0.490564
37.770866 1.344507 3.825141 0.488358
38.322773 0.323779 3.323087 0.492647
37.840538 1.215656 3.299147 0.455270
38.180336 0.587213 2.953128 0.481985
38.322498 0.324288 2.704805 0.488725
38.221214 0.511608 2.519811 0.490441
19.375294 35.366409 4.258019 0.678431
38.046898 0.834000 2.109737 0.491054
38.554508 -0.104803 1.907728 0.495098
38.023632 0.877026 1.668151 0.486887
38.456360 0.076714 1.520727 0.504044
38.694511 -0.363735 1.385175 0.510172
38.053661 0.821492 1.007365 0.533456
38.148041 0.646941 0.818492 0.472917
38.539642 -0.077310 0.775392 0.447917
37.438786 1.958681 -0.000032 0.489461
18.788158 37.154144 13.977302 0.682476
38.105568 0.823378 3.440351 0.426593
38.076797 0.877491 3.224605 0.530147
38.213051 0.621232 2.955282 0.538971
38.240726 0.569184 2.734080 0.458088
38.628822 -0.160721 2.455432 0.511642
38.297935 0.461592 2.307494 0.493382
38.252007 0.547965 2.104026 0.427574
38.359283 0.346210 1.899714 0.460049
38.074459 0.881891 1.669121 0.494975
38.555996 -0.023751 1.531848 0.438971
38.531590 0.022151 1.337194 0.500490
38.472874 0.132582 1.126812 0.464828
36.076035 4.640378 -0.000053 0.511029
36.888977 3.111456 -0.000042 0.512868
38.891628 -0.654983 0.748922 0.468137
38.089432 0.954740 3.701473 0.499877
38.269455 0.610388 3.383151 0.501103
38.009670 1.107308 3.267292 0.507721
38.272907 0.603784 2.948852 0.516789
20.099445 35.366409 7.248515 0.678431
38.722588 -0.256381 2.444908 0.523529
38.218315 0.708208 2.320035 0.509314
38.410591 0.340414 2.099811 0.494485
38.646927 -0.111652 1.908537 0.549142
38.145973 0.846583 1.672294 0.512623
38.525249 0.121092 1.520166 0.460417
38.779243 -0.364755 1.389855 0.569118
38.532055 0.108079 1.134121 0.482353
36.143951 4.676097 -0.000039 0.549510
38.580143 0.016091 0.761687 0.483824
38.907352 -0.609799 0.740747 0.525980
38.114159 1.010369 3.710993 0.496936
38.379772 0.493540 3.349780 0.453309
38.230930 0.783157 3.196399 0.530270
38.613380 0.038991 2.851228 0.580270
38.296017 0.656508 2.740035 0.504167
38.750664 -0.228137 2.445905 0.533211
38.362755 0.526649 2.308851 0.561152
38.465534 0.326668 2.099197 0.520711
38.703823 -0.136996 1.909333 0.561152
38.063881 1.108201 1.659027 0.493137
38.611694 0.042270 1.529166 0.436520
38.772522 -0.270671 1.379890 0.509069
38.523834 0.213228 1.119713 0.481005
38.310402 0.628518 0.835237 0.516789
38.600742 0.063579 0.754628 0.468750
38.923286 -0.564025 0.732404 0.463725
38.153931 1.037395 3.712502 0.507353
38.404057 0.542232 3.356770 0.469363
38.656410 0.042655 3.041198 0.493382
38.633877 0.087264 2.856228 0.522794
38.101681 1.140838 2.799830 0.553309
38.778873 -0.199781 2.446926 0.463848
38.764347 -0.171021 2.269355 0.433333
38.519802 0.313098 2.098597 0.484926
38.460762 0.429976 1.899261 0.490686
38.269226 0.809152 1.676697 0.505147
38.741119 -0.125041 1.546208 0.505515
38.807907 -0.257252 1.380362 0.476961
38.632092 0.090800 1.143184 0.479534
38.340778 0.667499 0.831426 0.489951
38.624329 0.106163 0.748746 0.523284
38.939438 -0.517643 0.723889 0.465686
38.270786 0.909337 3.670714 0.507108
38.435719 0.577079 3.360437 0.496201
38.677109 0.090803 3.047345 0.454534
38.356800 0.736064 2.960686 0.479044
37.759766 1.938780 2.899523 0.474142
38.492222 0.463258 2.506063 0.450980
38.790958 -0.138542 2.270197 0.484559
38.298035 0.854448 2.108142 0.470833
38.443550 0.561309 1.897213 0.531740
38.254433 0.942277 1.670524 0.468015
38.792137 -0.140919 1.549245 0.542034
38.843277 -0.243938 1.380815 0.481005
38.673271 0.098537 1.144893 0.525490
36.349014 4.780725 -0.000062 0.519608
38.520012 0.407277 0.680507 0.489093
38.955811 -0.470637 0.715198 0.490441
38.269070 1.019076 3.695568 0.549632
38.467579 0.612076 3.364181 0.522059
38.572495 0.396960 3.105733 0.541054
37.966000 1.640465 3.106652 0.488725
38.240864 1.076909 2.786123 0.501225
38.560310 0.421948 2.500559 0.495711
38.817734 -0.105850 2.271057 0.524142
38.335178 0.883535 2.108301 0.440686
38.504196 0.536997 1.898008 0.502083
38.384335 0.782750 1.680373 0.516544
38.927582 -0.331072 1.568138 0.502451
38.878639 -0.230723 1.381247 0.490931
38.601669 0.337146 1.108446 0.495466
36.417957 4.814419 -0.000025 0.534559
37.863045 1.851555 0.337973 0.489706
38.972412 -0.422990 0.706325 0.482353
38.573559 0.492925 3.543715 0.461520
38.460064 0.729809 3.387781 0.539828
38.281792 1.101893 3.244237 0.459436
38.357910 0.943021 2.988206 0.475490
38.274956 1.116161 2.788482 0.506250
38.864357 -0.114013 2.450142 0.488603
38.775612 0.071213 2.279789 0.441789
38.683186 0.264116 2.096697 0.461029
38.526318 0.591528 1.897362 0.465931
38.379082 0.898832 1.675127 0.483701
38.669014 0.293699 1.512788 0.488235
38.342857 0.974440 1.229597 0.498652
38.628010 0.379280 1.104519 0.474632
38.740871 0.143719 0.949087 0.512990
37.920414 1.856150 0.342473 0.474877
38.968616 -0.331622 0.685305 0.471446
38.233894 1.315801 3.766407 0.550735
38.566570 0.608825 3.354309 0.516299
38.350990 1.066961 3.233094 0.495711
38.133228 1.529725 3.081120 0.509191
38.474476 0.804540 2.746252 0.506127
38.593132 0.552383 2.509041 0.506985
39.049828 -0.418147 2.252294 0.455392
38.417137 0.926390 2.108354 0.506495
38.547329 0.649721 1.896650 0.491912
38.667786 0.393734 1.703626 0.523162
38.935474 -0.175129 1.556886 0.433701
38.394005 0.975546 1.232006 0.476593
38.575626 0.589586 1.073006 0.537745
38.786697 0.141034 0.953105 0.494363
37.293568 3.314100 -0.000050 0.525858
37.836765 2.159739 -0.000037 0.510417
38.641129 0.551832 3.549860 0.498407
38.556248 0.735535 3.380054 0.479167
38.776554 0.258747 3.067087 0.497059
38.098919 1.725286 3.109561 0.545098
38.513950 0.827074 2.746683 0.469608
39.058022 -0.350408 2.425842 0.579412
39.067165 -0.370197 2.254069 0.376348
38.671204 0.486744 2.100077 0.540441
38.571411 0.702715 1.896030 0.462623
38.660217 0.510520 1.698269 0.521446
38.732574 0.353929 1.510539 0.476225
38.965229 -0.149586 1.377087 0.447059
38.608089 0.623342 1.070503 0.467647
38.776505 0.258854 0.932891 0.479167
38.098576 1.726030 0.384286 0.485417
38.973663 -0.167838 0.648722 0.462745
21.999750 37.342117 13.664221 0.618505
38.566063 0.821880 3.396128 0.524265
38.842438 0.212615 3.054464 0.384926
38.142021 1.756673 3.111133 0.475735
38.553459 0.849663 2.747153 0.502819
38.910732 0.062061 2.461620 0.510539
38.889599 0.108650 2.279089 0.528554
38.867153 0.158131 2.093852 0.499265
38.598038 0.751390 1.895487 0.481985
38.674015 0.583903 1.695273 0.516176
38.808197 0.288095 1.518028 0.449265
39.047012 -0.238369 1.390291 0.481740
35.666492 7.213946 -0.000037 0.538480
38.820610 0.260735 0.935921 0.551348
38.153400 1.731590 0.388123 0.489583
37.937958 2.206532 -0.000046 0.540931
38.731293 0.561715 3.542784 0.515074
38.651165 0.741687 3.372796 0.477941
38.546082 0.977715 3.203550 0.573652
38.548275 0.972783 2.980369 0.581740
38.596794 0.863808 2.746594 0.459436
38.708832 0.612163 2.509549 0.475735
39.102589 -0.272226 2.257733 0.474020
38.644306 0.757092 2.104287 0.476961
38.898090 0.187086 1.905923 0.400123
38.766171 0.483380 1.701633 0.506127
38.899059 0.184910 1.528799 0.474020
39.046391 -0.146002 1.380569 0.511275
38.706783 0.616770 1.077438 0.492402
38.813423 0.377254 0.916047 0.464461
39.071461 -0.202310 0.850383 0.483824
38.987324 -0.013338 0.614891 0.445956
38.767033 0.587317 3.545039 0.495711
38.698177 0.744923 3.369338 0.461887
38.522480 1.147074 3.233479 0.566667
38.923042 0.230227 2.857154 0.491912
38.602383 0.964184 2.756900 0.500000
38.765728 0.590305 2.506026 0.483946
39.120686 -0.222167 2.259624 0.550245
38.593292 0.984992 2.108037 0.561887
38.927731 0.219493 1.905633 0.473529
39.022392 0.002821 1.728314 0.506005
38.826069 0.452190 1.506332 0.487500
39.209911 -0.426396 1.417675 0.509436
38.605637 0.956739 1.025242 0.556127
38.832386 0.437731 0.907371 0.478799
38.923645 0.228844 0.752298 0.516789
39.073818 -0.114887 0.646908 0.494363
38.863560 0.471411 3.508791 0.477083
38.741070 0.757200 3.368092 0.537745
38.549408 1.204385 3.241104 0.472917
38.754524 0.725806 2.934548 0.506985
38.362503 1.640464 2.839261 0.494118
39.129951 -0.150128 2.438446 0.423407
39.139053 -0.171364 2.261557 0.420098
38.544266 1.216384 2.111830 0.486887
38.463531 1.404746 1.884816 0.490074
38.923523 0.331503 1.711566 0.465564
38.918587 0.343022 1.517560 0.408578
39.240589 -0.408262 1.417161 0.463113
38.784145 0.656696 1.076606 0.465564
38.862675 0.473474 0.903591 0.460294
39.093079 -0.064093 0.824896 0.469730
39.440933 -0.875697 0.858329 0.502819
38.827225 0.666361 3.557298 0.460294
38.668427 1.044126 3.431266 0.481005
38.986076 0.288471 3.056649 0.449755
39.046940 0.143685 2.838114 0.529657
38.738941 0.876386 2.741427 0.517402
38.878532 0.544309 2.498916 0.511887
38.962875 0.343665 2.288229 0.529412
38.873993 0.555103 2.099761 0.481863
38.987568 0.284923 1.905035 0.491176
39.080341 0.064222 1.726663 0.480637
38.236294 2.072130 1.365192 0.475490
39.232658 -0.298124 1.405142 0.518382
38.853657 0.603487 1.087900 0.468015
38.938671 0.401241 0.921092 0.489338
39.104248 0.007356 0.811634 0.500980
39.463024 -0.846145 0.853677 0.487010
38.668072 1.166391 3.688252 0.500368
38.696972 1.096276 3.439296 0.467402
39.033066 0.280850 3.052083 0.531740
39.089470 0.144009 2.835734 0.475735
24.582577 35.340370 7.027610 0.839706
38.920475 0.554018 2.498329 0.480760
39.140549 0.020083 2.270199 0.496078
38.696602 1.097173 2.109066 0.472426
39.017773 0.317955 1.904726 0.473039
38.760059 0.943215 1.680750 0.434681
38.768333 0.923138 1.468935 0.498774
39.358395 -0.508455 1.433039 0.404412
38.891579 0.624128 1.087235 0.479657
39.010792 0.334890 0.937281 0.492892
38.720394 1.039454 0.573979 0.485294
39.473957 -0.788833 0.841476 0.503309
38.861877 0.812314 3.587792 0.489461
38.763062 1.056895 3.426028 0.476471
38.927387 0.650177 3.121569 0.477206
38.888367 0.746752 2.929787 0.479534
38.766560 1.048235 2.758495 0.500980
38.977757 0.525508 2.494390 0.546324
39.155689 0.085102 2.272875 0.487010
38.848072 0.846489 2.104331 0.443382
39.053383 0.338319 1.904638 0.477696
39.035831 0.381761 1.711407 0.519730
39.075851 0.282712 1.527081 0.455025
39.306786 -0.288874 1.407408 0.485294
38.964134 0.559221 1.100216 0.491789
37.118771 5.126656 -0.000060 0.507108
39.051601 0.342731 0.740331 0.505392
39.458660 -0.664771 0.811255 0.508456
38.734165 1.255093 3.702652 0.421814
39.006401 0.567500 3.308369 0.510049
38.979027 0.636640 3.115792 0.474020
38.910351 0.810094 2.937299 0.475245
38.713768 1.306606 2.788348 0.498039
39.034145 0.497428 2.490535 0.456373
39.207993 0.058343 2.270700 0.486029
39.033302 0.499563 2.097934 0.497304
39.103596 0.322014 1.905190 0.520343
39.242149 -0.027930 1.733858 0.531740
38.901127 0.833392 1.479837 0.471446
38.811211 1.060493 1.242104 0.462868
39.055817 0.442695 1.121315 0.452206
38.731453 1.261947 0.761836 0.495711
39.205784 0.063919 0.808609 0.541422
39.529827 -0.754522 0.838750 0.462010
39.072460 0.514140 3.498928 0.518137
39.068001 0.525633 3.295095 0.493505
25.579174 35.301910 9.878160 0.641912
38.919685 0.908018 2.950318 0.462868
38.786629 1.251055 2.779339 0.475980
39.032848 0.616267 2.499646 0.483333
39.252468 0.050051 2.269524 0.431985
38.882118 1.004871 2.106536 0.517279
39.141460 0.336245 1.905200 0.478676
38.751019 1.342864 1.662354 0.481495
39.138611 0.343589 1.524335 0.514338
39.009308 0.676952 1.291500 0.482353
38.767982 1.299129 0.987454 0.474877
38.881840 1.005587 0.815251 0.530025
39.254822 0.043983 0.816483 0.476348
39.552292 -0.722943 0.833438 0.489706
39.009964 0.796311 3.570525 0.496078
39.166256 0.384863 3.259106 0.483701
25.691305 35.857925 9.965300 0.631740
38.876102 1.148703 2.985966 0.475980
38.927303 1.013908 2.748070 0.517279
39.115593 0.518236 2.489711 0.510539
39.056850 0.672878 2.301533 0.482108
39.074963 0.625196 2.099605 0.527328
38.797287 1.356186 1.887600 0.512990
39.244598 0.178626 1.724441 0.485049
39.004364 0.811049 1.484606 0.398529
35.062660 11.187653 -0.000063 0.538358
39.192078 0.316884 1.146025 0.504902
39.010773 0.794181 0.859570 0.473039
38.599571 1.876669 0.396232 0.487500
39.378544 -0.173984 0.689466 0.463235
38.835453 1.391132 3.725374 0.443260
39.190022 0.437718 3.267986 0.465196
39.240952 0.300770 3.041654 0.458824
39.011200 0.918553 2.946959 0.485539
38.968948 1.032165 2.748350 0.503186
39.174976 0.478175 2.484923 0.563725
39.346916 0.015841 2.266305 0.467402
39.081100 0.730599 2.101184 0.543015
39.116596 0.635161 1.900483 0.485172
39.203812 0.400641 1.713526 0.554657
38.929382 1.138555 1.457306 0.503431
38.961319 1.052679 1.249132 0.478186
39.110779 0.650798 1.095417 0.542157
39.046074 0.824788 0.856617 0.461029
39.197987 0.416308 0.736948 0.508211
39.597565 -0.658127 0.822287 0.433088
39.053024 0.933956 3.599082 0.443627
39.040493 0.968381 3.386701 0.482721
38.909569 1.328089 3.237906 0.518995
38.948719 1.220533 2.992199 0.513113
39.105804 0.788945 2.716655 0.473162
39.087322 0.839719 2.515226 0.532108
39.393307 -0.000960 2.264743 0.483456
39.187847 0.563530 2.098015 0.531250
39.002632 1.072402 1.893124 0.466789
38.928383 1.276398 1.668477 0.495466
39.077690 0.866186 1.482464 0.492157
39.096619 0.814181 1.280256 0.465319
39.179913 0.585330 1.108072 0.550368
39.293625 0.272909 0.966413 0.478186
39.261703 0.360612 0.752989 0.565441
39.465710 -0.199885 0.703158 0.458211
39.077953 0.996799 3.611777 0.494118
39.362331 0.198178 3.206640 0.485417
39.018299 1.164333 3.203169 0.466667
39.102112 0.928961 2.943797 0.524142
39.090343 0.962010 2.735990 0.440074
39.274075 0.446031 2.479667 0.499387
39.006680 1.196965 2.326549 0.479412
39.145309 0.807644 2.102009 0.449877
39.282715 0.421762 1.904694 0.491544
39.286900 0.410014 1.714490 0.452941
39.126408 0.860726 1.484239 0.516544
39.143906 0.811589 1.282379 0.561029
39.119583 0.879898 1.063928 0.539093
39.084496 0.978434 0.832737 0.470221
39.288334 0.405991 0.745716 0.537500
39.508614 -0.212629 0.709802 0.484559
39.133762 0.973137 3.601543 0.504167
39.156662 0.907379 3.365872 0.485294
26.452944 37.387489 10.179451 0.678431
39.066818 1.165369 2.978613 0.435294
39.194191 0.799605 2.714399 0.455760
39.322830 0.430203 2.477115 0.484559
39.119366 1.014482 2.316254 0.490809
39.219185 0.727838 2.100376 0.476103
39.315456 0.451386 1.904415 0.474265
39.328236 0.414684 1.714948 0.538235
39.122601 1.005186 1.472962 0.516422
39.054253 1.201451 1.236650 0.504412
39.167206 0.877104 1.066666 0.517524
39.346603 0.361939 0.954385 0.552083
39.319054 0.441054 0.740777 0.448284
39.551083 -0.225243 0.716316 0.567892
39.194458 0.933354 3.587171 0.497917
38.959141 1.624592 3.526226 0.477696
39.112389 1.174433 3.199275 0.476103
26.829159 37.256187 8.631543 0.690564
39.285034 0.667289 2.696604 0.525123
39.371078 0.414530 2.474612 0.505147
39.076412 1.280107 2.329279 0.531985
39.196110 0.928502 2.103604 0.415441
39.367542 0.424923 1.905102 0.573407
39.052212 1.351200 1.667031 0.513971
39.177197 0.984061 1.476057 0.511029
39.237648 0.806484 1.286480 0.509314
38.994431 1.520928 0.968022 0.452696
39.408936 0.303324 0.968162 0.518750
39.335518 0.518993 0.726018 0.486887
39.593124 -0.237724 0.722701 0.480760
39.221661 0.991722 3.598855 0.508333
39.253910 0.894770 3.356525 0.460417
39.159206 1.179468 3.197425 0.487868
27.157972 37.256508 8.616033 0.698162
39.354446 0.592547 2.685908 0.502941
39.363804 0.564418 2.486450 0.462990
39.224049 0.984543 2.313204 0.487745
39.239590 0.937821 2.103521 0.493137
39.328354 0.670986 1.901081 0.473652
32.406605 21.478537 0.625745 0.477941
39.211376 1.022632 1.473954 0.476471
39.098896 1.360766 1.220954 0.500368
39.300228 0.755535 1.090096 0.490074
39.304867 0.741592 0.886541 0.465319
39.271912 0.840662 0.655791 0.532721
38.817242 2.207443 0.080216 0.454289
39.142773 1.378710 3.697113 0.494975
39.321377 0.829029 3.338485 0.490196
39.205879 1.184494 3.195642 0.484191
27.485397 37.256424 8.600849 0.700000
39.421761 0.520072 2.675569 0.443505
39.404881 0.572032 2.485991 0.431250
39.231911 1.104376 2.318676 0.488235
39.267048 0.996235 2.104289 0.469608
39.470154 0.371140 1.906467 0.481495
39.155746 1.338779 1.669216 0.524265
38.970741 1.908170 1.398813 0.567402
39.353924 0.728857 1.299177 0.519240
39.350567 0.739193 1.094731 0.445221
39.472237 0.364729 0.961196 0.503676
39.467106 0.380523 0.763368 0.537255
38.872826 2.209527 0.084069 0.526103
39.191669 1.381007 3.693916 0.415196
39.387054 0.765075 3.320997 0.464706
39.252415 1.189512 3.193923 0.519975
27.811352 37.256310 8.586054 0.720833
39.487080 0.449753 2.665569 0.497917
39.205093 1.338680 2.550852 0.442034
39.273453 1.123185 2.318932 0.495098
39.397572 0.731915 2.099518 0.464093
39.528683 0.318602 1.907578 0.483824
39.520515 0.344345 1.721209 0.457108
39.082905 1.723870 1.416013 0.527083
39.299492 1.041102 1.263061 0.480637
39.239708 1.229571 1.020445 0.517892
39.221344 1.287458 0.787380 0.484559
39.528088 0.320473 0.779743 0.467524
38.928196 2.211576 0.087820 0.480882
39.254833 1.336610 3.678573 0.454044
28.109268 37.342117 11.587828 0.639216
39.302418 1.182889 3.190052 0.495711
28.135784 37.256462 8.571683 0.703922
39.469097 0.644436 2.687560 0.441544
39.264439 1.305580 2.546807 0.469853
39.315071 1.142016 2.319203 0.532843
39.391544 0.894969 2.102093 0.488971
39.617474 0.165103 1.910409 0.491054
39.648010 0.066456 1.736109 0.504289
39.043983 2.017751 1.392064 0.437623
39.299103 1.193598 1.246307 0.487255
39.449726 0.707005 1.103730 0.472304
39.457775 0.681010 0.905543 0.531250
39.576180 0.298507 0.787376 0.490564
39.772736 -0.336465 0.760130 0.486029
39.296505 1.360439 3.681229 0.489706
39.384022 1.070570 3.384223 0.505392
39.345089 1.199521 3.190676 0.467524
28.458818 37.256599 8.557693 0.687255
39.514496 0.638425 2.685371 0.473775
39.298538 1.353705 2.549763 0.472794
39.356762 1.160870 2.319490 0.480270
39.492939 0.709820 2.098711 0.471814
39.596264 0.367597 1.907139 0.570221
39.290890 1.379049 1.669313 0.514583
39.114006 1.964907 1.397887 0.481495
39.376629 1.095056 1.259756 0.469485
39.499622 0.687693 1.108634 0.462990
39.348995 1.186591 0.811782 0.481373
39.613018 0.312099 0.786895 0.485662
39.759846 -0.174211 0.720319 0.501225
28.678848 37.602119 13.140816 0.678431
28.752426 37.352119 11.549747 0.744976
39.391243 1.204517 3.189148 0.528676
28.780663 37.256180 8.543993 0.719608
39.559608 0.632451 2.683230 0.479657
39.268211 1.622542 2.571598 0.456985
39.398529 1.179750 2.319793 0.506863
39.532604 0.724206 2.098751 0.530147
39.632717 0.384055 1.907051 0.477696
39.335236 1.394808 1.669194 0.460539
38.995094 2.550506 1.349086 0.493137
39.515961 0.780752 1.298986 0.533824
39.546951 0.675454 1.112379 0.503431
39.393623 1.196418 0.812388 0.454412
39.685200 0.205736 0.813364 0.508701
38.982044 2.594847 -0.000051 0.512868
39.381413 1.404323 3.685769 0.501471
29.073551 37.352119 11.530399 0.743137
39.370117 1.443707 3.232015 0.483946
29.100964 37.256516 8.530785 0.721324
39.516621 0.932793 2.717789 0.497672
39.317276 1.627991 2.570905 0.507353
39.348740 1.518271 2.336446 0.505882
39.543156 0.840261 2.100527 0.505024
39.672482 0.389247 1.907151 0.454289
39.402096 1.332193 1.673064 0.533333
39.056004 2.539153 1.351373 0.436274
39.552258 0.808508 1.297085 0.454657
39.666382 0.410514 1.155062 0.472917
38.206600 5.501381 -0.000087 0.540441
39.665447 0.413773 0.769026 0.454657
39.890244 -0.370190 0.776635 0.493505
39.428333 1.410981 3.684174 0.509559
29.420027 37.256714 11.490195 0.704657
39.406597 1.488833 3.238108 0.518750
39.480492 1.224175 2.968582 0.485662
39.664165 0.566322 2.672601 0.479167
39.366222 1.633438 2.570242 0.518382
39.373543 1.607222 2.340319 0.503554
39.709103 0.405384 2.092940 0.483578
39.705120 0.419645 1.906818 0.418015
39.472973 1.251098 1.677846 0.483578
39.199375 2.231017 1.378885 0.491789
39.588753 0.836426 1.295137 0.503676
39.845837 -0.084348 1.232943 0.495833
39.765827 0.202213 1.004954 0.470466
39.738518 0.300031 0.796960 0.456127
39.946274 -0.444067 0.798263 0.508211
29.715202 37.340279 13.007018 0.782966
29.738173 37.255730 11.471743 0.696569
39.517521 1.261739 3.192910 0.489583
29.738075 37.256088 8.505310 0.690196
39.725002 0.498085 2.663175 0.501348
39.415054 1.638883 2.569609 0.491912
39.353256 1.866341 2.352856 0.518627
39.599937 0.958403 2.102139 0.469976
39.748314 0.412284 1.907122 0.456373
39.546478 1.155158 1.683349 0.473039
39.511345 1.284482 1.460504 0.542279
39.625446 0.864508 1.293144 0.508211
39.831558 0.105897 1.205173 0.481618
39.819855 0.148967 1.016905 0.522181
39.536663 1.191286 0.599801 0.496569
39.953388 -0.342510 0.774211 0.471569
39.521896 1.424352 3.681261 0.455147
30.054588 37.256676 11.454253 0.697059
30.018833 37.392006 9.990398 0.678431
30.054611 37.256592 8.493230 0.691054
39.785183 0.427860 2.653579 0.488480
39.485138 1.563487 2.562150 0.485907
39.467220 1.631299 2.340254 0.439583
39.785027 0.428449 2.092978 0.512377
39.894726 0.013253 1.914049 0.461642
39.558422 1.286119 1.677286 0.546201
35.005596 18.517868 -0.000034 0.533211
39.662350 0.892759 1.291103 0.480515
39.896317 0.007229 1.221797 0.503676
39.462646 1.648615 0.736509 0.475613
39.689110 0.791474 0.691732 0.484681
39.628078 1.022467 0.422860 0.523162
30.335354 37.392006 12.979863 0.678431
30.370266 37.256027 11.436933 0.689951
39.492352 1.727848 3.276080 0.449387
30.370003 37.257065 8.481504 0.692157
39.843651 0.359633 2.644288 0.555392
39.526253 1.595808 2.563865 0.504167
39.536865 1.554477 2.335739 0.505760
30.335354 37.392006 2.717297 0.678431
39.941769 -0.022509 1.914810 0.580392
39.563282 1.451592 1.669479 0.484191
35.170364 18.560877 -0.000042 0.536765
39.706371 0.894295 1.292209 0.518873
39.904350 0.123214 1.205448 0.477083
39.491417 1.731486 0.723236 0.483578
39.561031 1.460364 0.544957 0.481005
39.763607 0.671380 0.516521 0.500368
30.650736 37.392006 12.960485 0.678431
30.684486 37.256653 11.420414 0.722059
39.668915 1.222071 3.178981 0.523284
39.599747 1.499494 3.003551 0.473039
39.824680 0.597323 2.671332 0.485417
30.650738 37.392006 5.587845 0.678431
39.591633 1.532025 2.334009 0.474755
39.993240 -0.078733 2.084092 0.471201
39.852119 0.487281 1.906362 0.489951
39.588398 1.545000 1.665334 0.485662
37.919247 8.239610 0.875692 0.489951
38.268204 6.840015 0.588518 0.493627
39.851673 0.489074 1.150919 0.473407
38.577259 5.600466 -0.000046 0.524020
39.796375 0.710848 0.714360 0.479779
39.766911 0.829033 0.478440 0.491176
30.965027 37.392006 12.941703 0.678431
30.997856 37.256302 11.404197 0.707843
30.965027 37.392006 9.948161 0.678431
30.996094 37.263588 8.459974 0.696936
39.867989 0.591578 2.669502 0.535907
30.965027 37.392006 5.581698 0.678431
39.670273 1.408834 2.327211 0.526716
39.904663 0.439983 2.092681 0.478676
40.033405 -0.092174 1.916279 0.498897
39.719913 1.203638 1.683161 0.495588
38.626907 5.721594 1.090040 0.442892
39.347412 2.743380 1.075812 0.447304
39.756252 1.053433 1.066244 0.505147
39.579491 1.784086 0.717827 0.443382
39.699715 1.287129 0.588508 0.526716
39.803123 0.859684 0.473148 0.544118
31.278259 37.392006 12.923522 0.678431
31.310032 37.256554 11.388623 0.697672
39.767906 1.196193 3.170169 0.566176
39.676750 1.584837 3.013170 0.432108
31.278259 37.392014 7.016828 0.678431
31.278259 37.392006 5.575745 0.678431
39.706726 1.457046 2.329100 0.495588
38.357376 7.210026 2.206318 0.460784
39.951725 0.412477 1.907936 0.511275
39.751415 1.266506 1.680515 0.511887
39.784924 1.123650 1.478794 0.464338
38.406384 7.001077 0.574247 0.483456
39.941330 0.456810 1.158698 0.493873
39.941071 0.457915 0.967811 0.528554
39.656124 1.672786 0.505299 0.500123
39.413147 2.708717 -0.000043 0.562132
31.590464 37.392006 12.905930 0.678431
31.621258 37.256470 11.373485 0.690441
31.590464 37.392006 9.922174 0.678431
39.715816 1.628118 3.018122 0.436152
31.590462 37.392014 7.008750 0.678431
38.636589 6.378353 2.962208 0.442525
39.752647 1.466004 2.329021 0.484191
38.436295 7.259954 2.206823 0.484559
31.590464 37.392006 1.287533 0.678431
39.799915 1.257957 1.681460 0.482721
39.835152 1.102864 1.481381 0.435539
38.484886 7.046078 0.571234 0.499632
39.978615 0.471418 1.157831 0.492279
39.977840 0.474823 0.966318 0.487255
39.700485 1.695602 0.502653 0.489216
39.467457 2.721282 -0.000049 0.566176
31.912647 37.342125 12.876130 0.627206
31.931503 37.256363 11.358845 0.702451
31.912647 37.342125 9.900528 0.635172
39.771957 1.595916 3.011644 0.507598
31.912649 37.342117 6.995063 0.627696
31.912651 37.342110 5.560231 0.636642
39.805267 1.444426 2.327423 0.564093
38.625263 6.811384 2.198985 0.508578
39.860291 1.194170 1.895130 0.409314
39.848137 1.249433 1.682386 0.495833
39.878883 1.109592 1.481625 0.524142
38.647976 6.708083 0.613274 0.474142
39.853558 1.224784 1.044723 0.479167
40.033390 0.406864 0.980591 0.462868
39.771252 1.599138 0.526320 0.477328
39.521896 2.733265 -0.000004 0.562868
32.220421 37.352119 12.862287 0.725490
32.240768 37.256409 11.344740 0.727941
32.244251 37.240013 9.869617 0.637255
32.220383 37.352295 8.432570 0.733578
32.220421 37.352112 6.988705 0.752083
39.772820 1.820874 2.577218 0.545588
39.767563 1.845590 2.347077 0.532353
40.056820 0.484756 2.092844 0.485662
40.049248 0.520379 1.906560 0.456618
39.896088 1.240931 1.683292 0.494975
38.980091 5.550370 1.110149 0.492034
38.742760 6.666926 0.620206 0.484926
40.073177 0.407792 1.170061 0.469976
40.066048 0.441333 0.975717 0.535784
39.311085 3.993160 -0.000068 0.525980
39.922523 1.116567 0.417022 0.460907
32.527420 37.362122 12.849012 0.831618
32.549091 37.256546 11.331151 0.719363
32.546959 37.266945 9.863150 0.437868
32.528545 37.356644 8.423853 0.729289
38.765400 6.973047 3.413734 0.471324
38.742138 7.086370 3.017125 0.468260
38.674896 7.413939 2.625830 0.510907
40.094952 0.495975 2.092896 0.503676
40.077080 0.583046 1.905650 0.483946
39.948444 1.209708 1.685319 0.484681
39.058048 5.547379 1.111696 0.488725
38.779488 6.904421 0.594326 0.507108
40.110241 0.421484 1.169197 0.500245
39.026180 5.702616 -0.000074 0.547059
39.844387 1.716624 0.504783 0.497304
39.949055 1.206721 0.396276 0.463971
32.835659 37.362122 12.833751 0.845466
32.856663 37.256035 11.317913 0.690809
32.854259 37.268181 9.852318 0.425368
38.872459 6.874045 3.805364 0.474755
38.841377 7.031020 3.418544 0.495466
39.873684 1.817502 2.575284 0.513726
38.770340 7.389781 2.623740 0.475735
40.133129 0.507205 2.092952 0.486642
39.061131 5.921198 1.816733 0.444853
39.992371 1.218087 1.685342 0.508578
39.014496 6.156722 1.062012 0.499632
39.731853 2.533794 1.108865 0.525000
38.617542 8.161475 -0.000043 0.543505
40.160454 0.369206 0.992027 0.494363
39.881744 1.776782 0.493641 0.476593
40.013966 1.109017 0.423480 0.525735
33.143051 37.362114 12.819058 0.847181
33.163223 37.256363 11.305350 0.690196
38.874691 7.315797 4.293373 0.489093
38.915955 7.099495 3.836960 0.490074
38.977314 6.777838 3.386969 0.484436
38.898663 7.190137 3.022978 0.465809
38.960358 6.866718 2.596734 0.511275
40.171356 0.518450 2.093014 0.567157
39.119320 6.033419 1.815112 0.466299
39.960117 1.625793 1.665378 0.501103
39.073032 6.276051 1.053324 0.463848
40.070187 1.048783 1.283990 0.495098
40.204041 0.347096 1.182724 0.483088
39.951660 1.670127 0.752415 0.479657
39.501209 4.031478 -0.000064 0.539093
39.740276 2.778242 -0.000041 0.564461
33.451454 37.352127 12.802389 0.743873
39.062675 6.778976 4.600767 0.461397
33.466965 37.267624 9.831328 0.522672
38.909885 7.611477 3.911776 0.469608
39.018574 7.019277 3.413398 0.471691
38.977619 7.242419 3.026001 0.472181
39.102554 6.561695 2.580720 0.469976
33.451454 37.352127 2.705703 0.755024
39.240662 5.809212 1.819084 0.426838
38.976749 7.247153 1.385043 0.510294
39.106598 6.539665 1.032583 0.516912
39.834957 2.571151 1.106866 0.482966
40.238419 0.372869 1.179904 0.534436
40.246410 0.329320 1.002087 0.473039
40.067574 1.303724 0.601526 0.540441
40.104687 1.101522 0.429582 0.463971
33.757191 37.352028 12.788803 0.740931
39.134415 6.856260 4.614452 0.457353
39.164360 6.686419 4.171218 0.503922
39.127800 6.893770 3.801272 0.512132
39.097889 7.063400 3.416777 0.516544
39.136517 6.844336 2.991569 0.481495
39.073174 7.203574 2.612011 0.506495
39.152489 6.753754 2.196383 0.493627
39.302040 5.905607 1.817709 0.488113
39.263859 6.122151 1.441935 0.500123
39.298122 5.927817 1.084740 0.499387
39.886696 2.589855 1.105802 0.479779
40.046173 1.685427 0.983231 0.536642
40.066299 1.571280 0.773871 0.496569
39.628422 4.054604 -0.000017 0.540196
40.142345 1.140001 0.421766 0.490809
34.055389 37.392006 12.785954 0.678431
34.078358 37.256210 11.270313 0.721936
39.173622 7.131196 4.250681 0.501103
39.140701 7.325827 3.864101 0.498039
39.177589 7.107723 3.420241 0.493382
39.209263 6.920462 2.996705 0.478554
39.285294 6.470959 2.574771 0.499142
39.242378 6.724680 2.195664 0.475735
39.264809 6.592071 1.806536 0.491299
40.103989 1.630530 1.666401 0.484436
39.386135 5.874740 1.090257 0.463480
38.987926 8.229096 0.448923 0.491544
40.090393 1.710923 0.980621 0.494118
40.330685 0.290216 1.011757 0.524632
39.692112 4.065685 -0.000034 0.537132
40.194725 1.094076 0.435336 0.567524
34.359917 37.392006 12.773498 0.678431
39.267452 7.091985 4.659860 0.510539
39.209202 7.451631 4.307145 0.521569
39.351158 6.575170 3.749147 0.496446
39.331963 6.693683 3.370348 0.487255
39.298954 6.897472 2.993644 0.499020
39.394890 6.305141 2.565855 0.510662
39.328911 6.712511 2.195237 0.479167
39.345135 6.612339 1.806424 0.532108
40.102406 1.936820 1.651543 0.488603
39.473114 5.822176 1.095674 0.487868
39.122276 7.988311 0.478776 0.498284
40.372540 0.268950 1.198482 0.427451
39.479027 5.785676 -0.000065 0.502451
39.755917 4.076114 -0.000006 0.511642
40.239498 1.090371 0.438083 0.438113
39.340385 7.182839 5.104453 0.485784
39.380714 6.922330 4.619843 0.485172
39.324062 7.288287 4.274521 0.490931
39.306355 7.402663 3.871423 0.454289
39.388847 6.869796 3.389335 0.487132
39.344765 7.154552 3.013876 0.502451
39.450668 6.470450 2.573447 0.426716
39.416615 6.690428 2.194655 0.533333
39.395477 6.826966 1.803084 0.477206
40.154900 1.921406 1.652694 0.470466
39.539719 5.895224 1.090613 0.483088
39.214516 7.995914 0.479572 0.447917
40.179516 1.762398 0.975197 0.443015
39.554863 5.797397 -0.000013 0.520098
39.819763 4.086259 -0.000013 0.558333
40.313980 0.893795 0.489636 0.534681
39.427708 7.183797 5.101420 0.503431
39.464436 6.935057 4.619856 0.502206
39.323425 7.889998 4.382792 0.489583
39.511612 6.615591 3.751431 0.515564
39.477287 6.848042 3.385339 0.478799
39.551586 6.344883 2.945697 0.496691
39.485046 6.795492 2.588984 0.489216
39.516411 6.583093 2.192674 0.482230
39.475189 6.862240 1.802708 0.462868
39.634819 5.781241 1.461383 0.501593
38.579151 12.930202 0.508482 0.497426
39.507202 6.645462 0.638218 0.528554
40.224430 1.788382 0.972382 0.500245
39.630733 5.808911 -0.000020 0.542279
39.883671 4.096004 -0.000029 0.523162
40.337723 1.021169 0.458978 0.493505
39.514175 7.189635 5.099778 0.486765
39.548126 6.948051 4.620056 0.496078
35.269508 37.392006 9.801224 0.678431
39.579498 6.724836 3.766035 0.503676
39.541618 6.994351 3.400944 0.473039
39.636700 6.317814 2.942505 0.506495
39.547451 6.952867 2.596199 0.477451
39.613155 6.485338 2.190865 0.480515
39.558132 6.876853 1.802665 0.453186
39.648159 6.236277 1.439351 0.472426
39.618439 6.447767 1.046734 0.502206
39.512413 7.202168 0.574914 0.561520
40.209286 2.243668 0.905216 0.499755
39.706680 5.819895 -0.000027 0.543260
40.300343 1.595756 0.547290 0.483333
40.386757 0.980900 0.470713 0.466667
39.601101 7.191373 5.097254 0.499632
39.644276 6.867806 4.600066 0.464093
35.571480 37.391998 9.793765 0.678431
39.574909 7.387688 3.863543 0.495221
39.647739 6.841841 3.381904 0.495833
39.734192 6.193929 2.931356 0.468137
39.771324 5.915613 2.544220 0.458088
39.693001 6.502614 2.190968 0.463113
39.640984 6.892476 1.802596 0.485784
39.754395 6.042500 1.449491 0.494853
39.658455 6.761539 1.021690 0.456373
39.602905 7.177862 0.579097 0.553922
39.604057 7.169215 0.169152 0.552819
39.782696 5.830404 -0.000045 0.497181
40.011703 4.114068 -0.000045 0.557966
40.435047 0.941239 0.482198 0.474632
35.822388 37.791733 12.820359 0.627328
39.688438 7.188787 4.667586 0.479289
39.615730 7.764318 4.352916 0.492770
39.710075 7.017510 3.806506 0.492525
39.667362 7.355605 3.440225 0.502206
39.781181 6.454635 2.952058 0.515441
39.840553 5.984665 2.547147 0.513358
39.778561 6.475377 2.190346 0.483211
38.932793 13.170341 1.699228 0.484191
39.846020 5.941391 1.454996 0.500368
39.715038 6.978225 1.004668 0.508824
39.887367 5.614095 0.761712 0.472181
40.308132 2.283391 0.901315 0.492892
39.858814 5.840133 -0.000015 0.563971
40.075829 4.122267 -0.000017 0.546814
40.488960 0.852006 0.506103 0.565441
35.781239 40.683792 13.540644 0.741789
39.822300 6.794418 4.579522 0.493505
39.865463 6.432447 4.106841 0.464951
39.837860 6.663920 3.752137 0.510662
39.842865 6.621943 3.353992 0.477574
39.787640 7.085090 3.003303 0.476471
39.793251 7.038022 2.598792 0.487132
39.870399 6.391037 2.188792 0.478064
39.741940 7.468343 1.793453 0.507966
39.912617 6.036994 1.450733 0.490196
39.766365 7.263493 0.981965 0.472549
39.943497 5.778041 0.743779 0.509191
40.357826 2.303360 0.899273 0.446446
39.934975 5.849516 -0.000022 0.523284
40.438362 1.627983 0.544227 0.457475
40.555943 0.641914 0.560381 0.467647
35.824493 43.183708 14.161448 0.638480
39.861561 7.192405 4.663934 0.516789
39.854179 7.258224 4.256337 0.490441
39.941566 6.479151 3.723143 0.500368
39.868004 7.134960 3.412287 0.502328
39.958965 6.324032 2.939699 0.481495
39.809517 7.656393 2.628878 0.463603
39.951580 6.389863 2.188621 0.487377
39.220387 12.908619 1.704038 0.457721
39.951912 6.386917 1.433878 0.478309
39.897182 6.874853 1.014853 0.497426
39.785519 7.870358 0.502582 0.490564
39.852940 7.269282 0.158917 0.538848
40.011196 5.858385 -0.000031 0.513480
40.595215 0.651742 0.757572 0.498529
40.569706 0.879157 0.501744 0.486520
36.052032 44.261421 14.423667 0.676593
nan nan nan 0.000000
39.967926 7.004177 4.208146 0.481495
40.000751 6.691895 3.753568 0.481863
39.955616 7.121323 3.409638 0.495588
40.054871 6.176981 2.926862 0.487255
39.895710 7.691288 2.630125 0.458088
40.028313 6.429661 2.189132 0.482843
39.901855 7.632806 1.791071 0.498529
39.967022 7.012797 1.403390 0.480270
39.976879 6.919004 1.011960 0.482108
40.061272 6.116082 0.706642 0.511887
39.827076 8.344279 -0.000026 0.531127
40.087524 5.866302 0.000037 0.557476
40.646542 0.547583 0.781134 0.463113
40.604393 0.948624 0.485384 0.490074
36.395130 44.310585 14.427236 0.669853
nan nan nan 0.000000
40.053284 7.001852 4.206156 0.474755
40.096581 6.560289 3.732709 0.501716
40.039181 7.145693 3.411457 0.481250
40.089710 6.630330 2.963556 0.489951
39.974594 7.804409 2.635262 0.486152
40.119865 6.322812 2.187242 0.494240
40.140305 6.114350 1.816186 0.482843
40.154034 5.974320 1.455075 0.490686
40.061588 6.917150 1.012813 0.518382
40.102661 6.498271 0.663381 0.482108
39.915150 8.410661 -0.008502 0.458088
40.163841 5.874298 -0.000007 0.538848
40.676865 0.642096 0.761488 0.456495
40.457294 2.881433 -0.000008 0.528309
nan nan nan 0.000000
nan nan nan 0.000000
40.119007 7.213634 4.243395 0.495343
40.173225 6.617854 3.740140 0.492157
40.134792 7.040164 3.398335 0.518015
39.570454 13.241220 3.507222 0.496324
40.091095 7.520320 2.620829 0.485172
40.202812 6.292747 2.186624 0.480392
40.088989 7.543468 1.792825 0.488725
40.123199 7.167534 1.396574 0.456373
40.142830 6.951867 1.010606 0.500123
40.201168 6.310824 0.685915 0.487377
40.009907 8.412451 -0.007444 0.487500
40.240253 5.881354 0.000023 0.556127
40.654209 1.332728 0.612526 0.418995
40.512798 2.886592 0.000014 0.564951
nan nan nan 0.000000
nan nan nan 0.000000
40.222210 7.013226 4.205431 0.494118
39.684505 13.416609 4.751127 0.498407
40.255848 6.612672 3.348129 0.487010
39.656647 13.748373 3.548033 0.483701
40.217804 7.065737 2.598039 0.487010
40.231361 6.904283 2.196553 0.497059
40.174709 7.578918 1.792369 0.492034
40.209888 7.159972 1.397315 0.475000
40.213264 7.119778 0.997393 0.496078
40.349228 5.500629 0.780251 0.494608
40.108196 8.371008 -0.000049 0.515931
40.316673 5.888291 -0.000022 0.529044
40.697056 1.358435 0.607801 0.490441
40.702347 1.295447 0.401199 0.474142
nan nan nan 0.000000
nan nan nan 0.000000
39.814713 13.412077 5.371944 0.518382
39.834351 13.156893 4.710943 0.511275
40.286903 7.275431 3.423841 0.493015
40.260658 7.616531 3.042895 0.487132
40.302303 7.075303 2.598175 0.526348
40.265617 7.552051 2.207074 0.544976
40.333179 6.674028 1.807337 0.512010
40.291256 7.218870 1.394751 0.500123
40.298702 7.122103 0.997765 0.493137
40.278725 7.381721 0.563894 0.482230
40.202038 8.378369 -0.000021 0.557598
40.393177 5.894283 0.000007 0.521814
40.740200 1.384296 0.602981 0.464706
40.623882 2.895984 -0.000002 0.523039
nan nan nan 0.000000
nan nan nan 0.000000
nan nan nan 0.000000
nan nan nan 0.000000
39.935810 13.534971 4.144972 0.475858
39.932846 13.577372 3.532315 0.509681
40.386845 7.084867 2.598339 0.493505
40.352142 7.581126 2.207445 0.477696
40.419437 6.618759 1.808342 0.525490
40.368710 7.344225 1.388888 0.485539
40.334686 7.830753 0.940031 0.498529
40.487125 5.650781 0.764246 0.482475
40.295925 8.385068 0.000008 0.536642
40.469719 5.899735 0.000038 0.515319
40.590485 4.172690 -0.000009 0.541544
40.679482 2.899952 0.000027 0.544485
nan nan nan 0.000000
nan nan nan 0.000000
nan nan nan 0.000000
40.073681 13.416616 4.746900 0.515441
40.480976 6.942885 3.384120 0.451471
40.447765 7.470708 3.029896 0.506495
40.485310 6.873995 2.587682 0.461397
40.138954 12.379164 2.286018 0.510294
40.504810 6.564060 1.809328 0.514216
40.090549 13.148544 1.103460 0.483824
40.442661 7.551885 0.963434 0.500858
40.557430 5.727674 0.755955 0.453922
40.389828 8.391653 -0.000043 0.531005
40.546268 5.905066 -0.000006 0.544240
40.827408 1.436509 0.593045 0.569240
40.735092 2.903811 -0.000015 0.566912
nan nan nan 0.000000
nan nan nan 0.000000
nan nan nan 0.000000
nan nan nan 0.000000
40.197399 13.519705 4.141331 0.491544
40.536827 7.448606 3.027654 0.511887
40.569584 6.862703 2.586882 0.506373
40.242863 12.706530 2.291265 0.474510
40.589306 6.509921 1.810294 0.514338
40.214668 13.210838 1.100766 0.501225
40.567627 6.897711 1.017587 0.455882
40.537281 7.440454 0.559124 0.522181
40.483803 8.397026 -0.000013 0.529779
40.622879 5.909451 0.000023 0.552083
40.719521 4.180889 -0.000026 0.551961
40.790741 2.907009 0.000012 0.508946
nan nan nan 0.000000
nan nan nan 0.000000
nan nan nan 0.000000
nan nan nan 0.000000
40.340336 13.257305 4.110324 0.507843
40.625504 7.426609 3.025473 0.470588
40.656773 6.787304 2.582959 0.508088
40.645168 7.024553 2.198068 0.515441
40.663288 6.654041 1.808002 0.496446
40.357147 12.913599 1.115715 0.457966
40.651844 6.888055 1.018739 0.498529
40.651810 6.888735 0.623197 0.503309
40.577785 8.402264 -0.000059 0.527206
40.699497 5.913720 -0.000023 0.525735
40.784073 4.184471 -0.000069 0.521936
40.846397 2.910098 -0.000031 0.578676
nan nan nan 0.000000
nan nan nan 0.000000
nan nan nan 0.000000
nan nan nan 0.000000
40.474228 13.120955 4.093955 0.489216
40.462746 13.394932 3.514952 0.535907
40.743946 6.685694 2.577778 0.425368
40.498863 12.533161 2.288227 0.493382
40.744568 6.670854 1.807788 0.513480
40.448444 13.736151 1.075551 0.503186
40.749065 6.563581 1.045678 0.472059
40.776043 5.919895 0.735187 0.478676
40.671829 8.406329 -0.000028 0.548774
40.776161 5.917033 0.000008 0.544730
40.848660 4.187263 -0.000039 0.548039
40.902088 2.912510 -0.000001 0.542525
nan nan nan 0.000000
nan nan nan 0.000000
nan nan nan 0.000000
nan nan nan 0.000000
40.602776 13.080942 4.088788 0.531618
40.588867 13.479233 3.521462 0.475000
40.821098 6.828999 2.584668 0.475858
40.597878 13.221220 2.299416 0.504657
40.766247 8.399785 1.779530 0.488725
40.594719 13.311623 1.096667 0.468137
40.824100 6.742997 1.031214 0.501961
40.854919 5.860483 0.742365 0.490931
40.765896 8.409740 0.000002 0.533578
40.852848 5.919821 0.000037 0.562132
40.913265 4.189616 -0.000011 0.517157
40.957794 2.914535 0.000027 0.538848
nan nan nan 0.000000
nan nan nan 0.000000
nan nan nan 0.000000
nan nan nan 0.000000
nan nan nan 0.000000
40.717731 13.505257 3.523263 0.529044
40.724606 13.259119 2.900554 0.500000
40.747402 12.443079 2.286611 0.474020
40.709637 13.794981 1.691257 0.471078
40.710178 13.775652 1.074060 0.467524
40.907146 6.724109 1.032976 0.494608
40.929401 5.927279 0.734954 0.498284
40.859970 8.413002 -0.000043 0.533946
40.929539 5.922478 -0.000008 0.533946
40.977879 4.191849 -0.000054 0.536152
41.013504 2.916458 -0.000015 0.535907
nan nan nan 0.000000
nan nan nan 0.000000
nan nan nan 0.000000
nan nan nan 0.000000
nan nan nan 0.000000
nan nan nan 0.000000
nan nan nan 0.000000
40.835003 14.099724 2.313678 0.479044
40.844719 13.635765 1.693916 0.507230
40.855179 13.136494 1.105625 0.482230
40.964756 7.905340 0.936264 0.505270
40.872364 12.316090 0.000035 0.533824
40.954079 8.415092 -0.000012 0.540931
41.006256 5.924187 0.000022 0.541422
41.042511 4.193291 -0.000025 0.531863
41.069229 2.917697 0.000015 0.537132
nan nan nan 0.000000
nan nan nan 0.000000
nan nan nan 0.000000
nan nan nan 0.000000
nan nan nan 0.000000
nan nan nan 0.000000
nan nan nan 0.000000
41.072067 6.706988 2.192653 0.445466
40.971169 13.932819 1.689092 0.484559
40.982861 13.095478 1.107749 0.499877
41.073120 6.631392 1.040862 0.475613
41.060078 7.565650 0.546826 0.471324
41.048187 8.417049 -0.000059 0.550245
41.082973 5.925768 -0.000022 0.518873
41.107147 4.194624 -0.000069 0.536274
41.124962 2.918841 -0.000028 0.537010
nan nan nan 0.000000
nan nan nan 0.000000
nan nan nan 0.000000
nan nan nan 0.000000
nan nan nan 0.000000
nan nan nan 0.000000
nan nan nan 0.000000
nan nan nan 0.000000
41.105179 13.737000 1.692319 0.492892
41.111450 12.838745 1.120427 0.497794
41.155052 6.593439 1.044044 0.473897
41.147938 7.612296 0.541566 0.496446
41.142315 8.417826 -0.000028 0.538603
41.159706 5.926404 0.000008 0.546936
41.171795 4.195161 -0.000039 0.548407
41.180702 2.919311 0.000001 0.567279
nan nan nan 0.000000
nan nan nan 0.000000
nan nan nan 0.000000
nan nan nan 0.000000
nan nan nan 0.000000
nan nan nan 0.000000
nan nan nan 0.000000
nan nan nan 0.000000
nan nan nan 0.000000
41.236443 12.548189 1.134722 0.499387
41.236443 8.003602 0.928440 0.474877
41.236443 7.773165 0.523095 0.479044
41.236443 8.418281 -0.000047 0.544976
41.236443 5.926767 -0.000009 0.548774
41.236443 4.195467 -0.000056 0.562623
41.236443 2.919579 -0.000018 0.531005
nan nan nan 0.000000
nan nan nan 0.000000
nan nan nan 0.000000
nan nan nan 0.000000
nan nan nan 0.000000
nan nan nan 0.000000
nan nan nan 0.000000
nan nan nan 0.000000
nan nan nan 0.000000
41.361717 12.878633 1.118467 0.475735
41.317310 6.518278 1.050207 0.506005
41.326778 7.874185 0.511437 0.502819
41.330570 8.417750 -0.000017 0.531740
41.313179 5.926353 0.000018 0.518627
41.301090 4.195110 -0.000028 0.523284
41.292183 2.919274 0.000010 0.574020
nan nan nan 0.000000
nan nan nan 0.000000
nan nan nan 0.000000
nan nan nan 0.000000
nan nan nan 0.000000
nan nan nan 0.000000
nan nan nan 0.000000
nan nan nan 0.000000
nan nan nan 0.000000
41.486195 12.820993 1.121235 0.471324
41.577011 19.324797 -0.000039 0.529412
41.479179 12.318634 -0.000014 0.533824
41.424698 8.417072 -0.000062 0.520711
41.389912 5.925783 -0.000025 0.518505
41.365738 4.194638 -0.000072 0.537377
41.347923 2.918863 -0.000033 0.546324
nan nan nan 0.000000
nan nan nan 0.000000
nan nan nan 0.000000
nan nan nan 0.000000
nan nan nan 0.000000
nan nan nan 0.000000
nan nan nan 0.000000
nan nan nan 0.000000
nan nan nan 0.000000
41.609901 12.763714 1.123942 0.475245
41.626266 13.544962 0.473740 0.484191
41.600529 12.316254 0.000016 0.535907
41.518814 8.415226 -0.000032 0.542279
41.466637 5.924283 0.000004 0.538358
41.430378 4.193378 -0.000044 0.544363
41.403656 2.917777 -0.000005 0.493627
nan nan nan 0.000000
nan nan nan 0.000000
nan nan nan 0.000000
nan nan nan 0.000000
nan nan nan 0.000000
nan nan nan 0.000000
nan nan nan 0.000000
nan nan nan 0.000000
nan nan nan 0.000000
42.373077 35.627243 0.000141 0.536765
41.752110 13.396294 0.485675 0.487745
41.587734 7.511473 0.552636 0.495221
41.612907 8.412725 -0.000002 0.536520
41.543343 5.922249 0.000034 0.516176
41.495003 4.191667 -0.000015 0.584926
41.459377 2.916293 0.000026 0.547672
nan nan nan 0.000000
nan nan nan 0.000000
nan nan nan 0.000000
nan nan nan 0.000000
nan nan nan 0.000000
nan nan nan 0.000000
nan nan nan 0.000000
nan nan nan 0.000000
nan nan nan 0.000000
42.657112 35.617699 0.000172 0.538603
41.879303 13.344143 0.489621 0.460294
41.677540 7.566399 0.545996 0.469118
41.707001 8.410069 -0.000047 0.542034
41.620049 5.920086 -0.000011 0.543260
41.559628 4.189835 -0.000058 0.573775
41.515099 2.914713 -0.000017 0.480025
nan nan nan 0.000000
nan nan nan 0.000000
nan nan nan 0.000000
nan nan nan 0.000000
nan nan nan 0.000000
nan nan nan 0.000000
nan nan nan 0.000000
nan nan nan 0.000000
nan nan nan 0.000000
42.941132 35.607697 0.000128 0.536274
42.026272 13.779766 0.453465 0.489706
41.964447 12.304682 0.000032 0.543505
41.801052 8.406255 -0.000017 0.527819
41.696720 5.916974 0.000019 0.525123
