# This PCD file was generated using the MATLABÂ® pcwrite function
# from Computer Vision ToolboxÂ®.
# .PCD v.7 - Point Cloud Data file format
VERSION .7
FIELDS x y z intensity
SIZE 4 4 4 4
TYPE F F F F
COUNT 1 1 1 1
WIDTH 1235
HEIGHT 1
VIEWPOINT 0 0 0 1 0 0 0
POINTS 1235
DATA ascii
-52.315208 -9.712828 -0.000021 0.331740
-53.226212 6.581646 0.000015 0.533946
-53.617317 13.577087 0.000008 0.520343
-53.835144 17.473209 0.000005 0.561887
-53.974209 19.960548 0.000002 0.523284
-54.070866 21.689350 0.000000 0.556863
-54.142075 22.963043 -0.000004 0.543505
nan nan nan 0.000000
nan nan nan 0.000000
nan nan nan 0.000000
nan nan nan 0.000000
nan nan nan 0.000000
nan nan nan 0.000000
nan nan nan 0.000000
nan nan nan 0.000000
nan nan nan 0.000000
-52.599041 -9.727701 -0.000021 0.332353
-53.396263 6.572729 0.000015 0.529167
-53.738525 13.570734 0.000008 0.533211
-53.929146 17.468281 0.000005 0.531005
-54.050842 19.956528 0.000001 0.546814
-54.135426 21.685966 0.000000 0.550368
-54.197742 22.960125 -0.000005 0.498284
nan nan nan 0.000000
nan nan nan 0.000000
nan nan nan 0.000000
nan nan nan 0.000000
nan nan nan 0.000000
nan nan nan 0.000000
nan nan nan 0.000000
nan nan nan 0.000000
nan nan nan 0.000000
-52.882965 -9.740606 -0.000021 0.332108
-53.566372 6.565002 0.000015 0.537377
-53.859768 13.565226 0.000008 0.530270
-54.023178 17.464008 0.000005 0.552328
-54.127499 19.953045 0.000001 0.530270
-54.200005 21.683035 0.000000 0.553922
-54.253426 22.957600 -0.000003 0.510172
nan nan nan 0.000000
nan nan nan 0.000000
nan nan nan 0.000000
nan nan nan 0.000000
nan nan nan 0.000000
nan nan nan 0.000000
nan nan nan 0.000000
nan nan nan 0.000000
nan nan nan 0.000000
-53.166977 -9.751524 -0.000021 0.332475
-53.736534 6.558481 0.000016 0.536152
-53.981052 13.560577 0.000009 0.531005
-54.117237 17.460403 0.000006 0.552206
-54.204178 19.950108 0.000003 0.535417
-54.264606 21.680555 0.000001 0.505882
-54.309128 22.955465 -0.000002 0.540441
-54.061760 12.103226 6.718968 0.533088
-54.061760 12.103228 6.068872 0.426103
-54.061760 12.103226 5.427904 0.463971
-54.061760 12.103226 4.794527 0.463235
-54.061760 12.103224 4.167273 0.488725
-54.061760 12.103228 3.544724 0.442279
-54.061760 12.103230 2.925509 0.459681
-54.061760 12.103230 2.308282 0.654044
-54.061760 12.103230 1.691717 0.674510
-54.061760 12.103230 1.074491 0.492892
-54.061760 12.103228 0.455276 0.478676
-54.102360 13.556767 0.000009 0.525613
-54.211319 17.457451 0.000006 0.534804
-54.280876 19.947693 0.000002 0.541789
-54.329224 21.678526 0.000001 0.532475
-54.364841 22.953712 -0.000002 0.539461
-54.193310 12.103226 6.718162 0.526961
-54.193310 12.103228 6.068178 0.459559
-54.193310 12.103228 5.427319 0.463113
-54.193310 12.103228 4.794051 0.496201
-54.193310 12.103228 4.166903 0.465564
-54.193310 12.103226 3.544461 0.466299
-54.193310 12.103226 2.925352 0.437010
-54.193310 12.103226 2.308230 0.674020
-54.193310 12.103226 1.691770 0.708333
-54.193310 12.103228 1.074649 0.495221
-54.193310 12.103228 0.455539 0.462745
-54.223698 13.553795 0.000008 0.535539
-54.305416 17.455151 0.000006 0.538971
-54.357590 19.945820 0.000002 0.526471
-54.393852 21.676945 0.000001 0.516176
-54.420567 22.952351 -0.000002 0.518505
-54.324821 12.103228 6.717587 0.528922
-54.324821 12.103228 6.067682 0.466912
-54.324821 12.103228 5.426901 0.439461
-54.324821 12.103228 4.793710 0.491299
-54.324821 12.103228 4.166639 0.472059
-54.324821 12.103228 3.544272 0.450980
-54.324821 12.103230 2.925238 0.440441
-54.324821 12.103226 2.308192 0.661274
-54.324821 12.103226 1.691807 0.701593
-54.324821 12.103230 1.074761 0.539216
-54.324821 12.103230 0.455728 0.472304
-54.345047 13.551685 0.000009 0.539951
-54.399532 17.453508 0.000006 0.528676
-54.434315 19.944481 0.000002 0.540319
-54.458488 21.675817 0.000001 0.541912
-54.476299 22.951380 -0.000002 0.523039
-54.456306 12.103228 6.717242 0.514338
-54.456306 12.103230 6.067384 0.478309
-54.456306 12.103230 5.426650 0.454657
-54.456306 12.103228 4.793506 0.498039
-54.456306 12.103230 4.166480 0.459681
-54.456306 12.103230 3.544159 0.450980
-54.456306 12.103230 2.925170 0.428676
-54.456306 12.103228 2.308170 0.725980
-54.456306 12.103228 1.691830 0.641912
-54.456306 12.103230 1.074829 0.504534
-54.456306 12.103230 0.455840 0.473529
-54.466412 13.550409 0.000009 0.532230
-54.493652 17.452526 0.000006 0.545956
-54.511044 19.943676 0.000002 0.545711
-54.523132 21.675140 0.000001 0.514706
-54.532040 22.950794 -0.000002 0.490686
-54.587780 12.103226 6.717128 0.894118
-54.587780 12.103230 6.067284 0.866054
-54.587780 12.103230 5.426567 0.850735
-54.587780 12.103228 4.793438 0.885049
-54.587780 12.103228 4.166427 0.455392
-54.587780 12.103226 3.544122 0.952083
-54.587780 12.103228 2.925148 0.984926
-54.587780 12.103230 2.308162 0.980392
-54.587780 12.103230 1.691838 0.979657
-54.587780 12.103228 1.074852 0.958824
-54.587780 12.103228 0.455878 0.458824
-54.587780 13.549988 0.000009 0.537990
-54.587780 17.452198 0.000007 0.501103
-54.587780 19.943409 0.000002 0.549632
-54.587780 21.674917 0.000002 0.559926
-54.587780 22.950600 -0.000002 0.516176
-54.719749 12.032057 6.735070 0.894485
-54.719749 12.032057 6.082756 0.889828
-54.719749 12.032059 5.439601 0.869853
-54.719254 12.103228 4.793506 0.884436
-54.719254 12.103230 4.166480 0.462990
-54.719749 12.032057 3.549995 0.949020
-54.719749 12.032057 2.928667 0.995343
-54.719749 12.032059 2.309335 0.971936
-54.719749 12.032059 1.690665 0.965809
-54.719254 12.103230 1.074829 0.963113
-54.719254 12.103230 0.455840 0.471814
-54.709152 13.550413 0.000009 0.542525
-54.681908 17.452530 0.000007 0.540931
-54.664516 19.943678 0.000002 0.550735
-54.652428 21.675144 0.000002 0.515564
-54.643520 22.950796 -0.000002 0.533946
-54.852768 11.958057 6.753954 0.678431
-54.852768 11.958057 6.099039 0.678431
-54.852768 11.958057 5.453318 0.678431
-54.850739 12.103230 4.793710 0.881495
-54.850739 12.103228 4.166639 0.451471
-54.851734 12.032057 3.550109 0.949755
-54.852768 11.958057 2.932371 0.678431
-54.852768 11.958057 2.310568 0.678431
-54.852768 11.958057 1.689432 0.678431
-54.850739 12.103230 1.074761 0.956250
-54.850739 12.103230 0.455728 0.462745
-54.830513 13.551693 0.000010 0.537500
-54.776031 17.453518 0.000008 0.546446
-54.741249 19.944485 0.000002 0.538725
-54.717072 21.675821 0.000002 0.522181
-54.699261 22.951384 -0.000001 0.584436
-54.985294 11.958054 6.754535 0.678431
-54.985294 11.958055 6.099539 0.678431
-54.985294 11.958055 5.453740 0.678431
-54.982254 12.103228 4.794051 0.877574
-54.982254 12.103228 4.166903 0.474265
-54.983742 12.032057 3.550297 0.956250
-54.985294 11.958055 2.932485 0.678431
-54.985294 11.958055 2.310606 0.678431
-54.985294 11.958055 1.689394 0.678431
-54.982254 12.103226 1.074648 0.958333
-54.982254 12.103228 0.455539 0.462868
-54.951866 13.553806 0.000010 0.543750
-54.870144 17.455166 0.000008 0.550000
-54.817974 19.945824 0.000002 0.544730
-54.781712 21.676950 0.000002 0.542402
-54.754993 22.952356 -0.000001 0.526593
-55.117855 11.958054 6.755346 0.678431
-55.117855 11.958055 6.100239 0.678431
-55.117855 11.958055 5.454329 0.678431
-55.113800 12.103228 4.794527 0.877574
-55.113800 12.103226 4.167273 0.480515
-55.115788 12.032059 3.550562 0.950735
-55.117855 11.958057 2.932643 0.678431
-55.117855 11.958059 2.310659 0.678431
-55.117855 11.958059 1.689341 0.678431
-55.113800 12.103230 1.074491 0.980270
-55.113800 12.103228 0.455276 0.555025
-55.073200 13.556772 0.000009 0.535662
-54.964245 17.457462 0.000008 0.527696
-54.894684 19.947691 0.000001 0.494853
-54.846336 21.678528 0.000002 0.565564
-54.810719 22.953716 -0.000001 0.508824
-55.036812 18.076530 5.222857 0.652328
-55.036812 18.076530 4.778869 0.674755
-55.036812 18.076530 4.341114 0.656250
-55.036812 18.076530 3.908545 0.676103
-55.036812 18.076530 3.480156 0.655270
-55.036812 18.076530 3.054981 0.674142
-55.036812 18.076529 2.632084 0.657230
-55.036812 18.076530 2.210544 0.681740
-55.036812 18.076530 1.789456 0.658088
-55.036812 18.076530 1.367916 0.675000
-55.036812 18.076530 0.945018 0.654534
-55.036812 18.076530 0.519844 0.685907
-55.036812 18.076532 0.091456 0.641912
-54.971382 19.950108 0.000002 0.498529
-54.910954 21.680557 0.000002 0.546691
-54.866432 22.955469 -0.000001 0.541544
-55.036808 20.221535 4.685954 0.668873
-55.036808 20.221535 4.315930 0.638603
-55.036808 20.221535 3.951103 0.650000
-55.036808 20.221535 3.590596 0.654779
-55.036808 20.221533 3.233573 0.661520
-55.036808 20.221535 2.879230 0.666912
-55.036808 20.221539 2.526783 0.670343
-55.036808 20.221535 2.175469 0.655147
-55.036808 20.221535 1.824531 0.674020
-55.036808 20.221539 1.473217 0.666912
-55.036808 20.221537 1.120770 0.678064
-55.036808 20.221535 0.766427 0.660539
-55.036808 20.221537 0.409404 0.653922
-55.036808 20.221535 0.048897 0.667034
-54.975555 21.683044 0.000003 0.558701
-54.922134 22.957609 -0.000001 0.523652
-55.036812 21.753973 4.302491 0.650613
-55.036812 21.753973 3.985295 0.666912
-55.036812 21.753973 3.672551 0.650980
-55.036812 21.753975 3.363513 0.653431
-55.036812 21.753975 3.057461 0.664093
-55.036812 21.753975 2.753706 0.664951
-55.036812 21.753975 2.451577 0.696078
-55.036812 21.753975 2.150418 0.659436
-55.036812 21.753975 1.849582 0.647549
-55.036812 21.753975 1.548423 0.675123
-55.036812 21.753975 1.246294 0.650613
-55.036812 21.753975 0.942539 0.651961
-55.036812 21.753975 0.636487 0.664093
-55.036812 21.753975 0.327448 0.659191
-55.036812 21.753975 0.014706 0.660172
-54.977818 22.960136 -0.000001 0.550858
-55.036812 22.903563 4.014926 0.681127
-55.036812 22.903564 3.737346 0.687745
-55.036812 22.903564 3.463662 0.655637
-55.036812 22.903564 3.193220 0.657108
-55.036812 22.903564 2.925392 0.660049
-55.036812 22.903564 2.659573 0.627819
-55.036812 22.903563 2.395178 0.674387
-55.036812 22.903564 2.131632 0.653554
-55.036812 22.903564 1.868368 0.629534
-55.036812 22.903563 1.604822 0.676593
-55.036812 22.903564 1.340427 0.673897
-55.036812 22.903564 1.074608 0.665809
-55.036812 22.903564 0.806780 0.683211
-55.036812 22.903564 0.536338 0.657721
-55.036812 22.903564 0.262655 0.665686
-55.033485 22.963057 -0.000000 0.512745
-55.047012 23.635777 3.831989 0.692157
-55.047012 23.635777 3.579610 0.721936
-55.050152 23.585846 3.339878 0.692892
-55.050152 23.585846 3.092308 0.719730
-55.050152 23.585846 2.847130 0.717157
-55.050152 23.585846 2.603792 0.734559
-55.050152 23.585848 2.361757 0.734681
-55.050152 23.585848 2.120500 0.724020
-55.050152 23.585848 1.879500 0.737132
-55.050152 23.585850 1.638243 0.719853
-55.050152 23.585848 1.396208 0.717647
-55.050152 23.585848 1.152870 0.713113
-55.050152 23.585848 0.907692 0.713113
-55.050152 23.585848 0.660122 0.631373
-55.050152 23.585848 0.409585 0.630270
-55.050152 23.585850 0.155480 0.629289
-55.098194 23.635777 3.832839 0.694485
-55.098194 23.635777 3.580343 0.692892
-55.101688 23.585846 3.340499 0.695833
-55.101688 23.585846 3.092814 0.709436
-55.101688 23.585848 2.847523 0.732843
-55.101688 23.585848 2.604072 0.695466
-55.101688 23.585846 2.361925 0.695588
-55.101688 23.585848 2.120556 0.723162
-55.101688 23.585848 1.879445 0.691667
-55.101688 23.585848 1.638075 0.731373
-55.101688 23.585848 1.395928 0.696569
-55.101688 23.585848 1.152477 0.687623
-55.101688 23.585848 0.907186 0.726716
-55.101688 23.585848 0.659501 0.627941
-55.101688 23.585848 0.408847 0.637500
-55.101688 23.585848 0.154624 0.630515
-55.149429 23.635777 3.833779 0.699755
-55.149429 23.635777 3.581153 0.684069
-55.153271 23.585846 3.341187 0.698039
-55.153271 23.585846 3.093375 0.701348
-55.153271 23.585846 2.847958 0.695221
-55.153271 23.585848 2.604382 0.684191
-55.153271 23.585848 2.362111 0.691789
-55.153271 23.585848 2.120617 0.732721
-55.153271 23.585848 1.879383 0.700123
-55.153271 23.585848 1.637889 0.684681
-55.153271 23.585848 1.395618 0.730637
-55.153271 23.585848 1.152042 0.706005
-55.153271 23.585848 0.906625 0.710539
-55.153271 23.585848 0.658813 0.635662
-55.153271 23.585848 0.408031 0.603186
-55.153271 23.585848 0.153678 0.625858
-55.200718 23.635777 3.834809 0.688480
-55.200718 23.635777 3.582042 0.699632
-55.204910 23.585846 3.341940 0.698897
-55.204910 23.585848 3.093989 0.727819
-55.204910 23.585848 2.848434 0.701103
-55.204910 23.585848 2.604722 0.731250
-55.204910 23.585848 2.362314 0.697426
-55.204910 23.585846 2.120685 0.689951
-55.204910 23.585846 1.879315 0.694118
-55.204910 23.585848 1.637686 0.712255
-55.204910 23.585848 1.395278 0.720588
-55.204910 23.585848 1.151566 0.693627
-55.204910 23.585848 0.906011 0.706985
-55.204910 23.585846 0.658059 0.634069
-55.204910 23.585846 0.407136 0.624755
-55.204910 23.585848 0.152640 0.633946
-55.252068 23.635777 3.835930 0.679289
-55.252068 23.635777 3.583008 0.694240
-55.256611 23.585846 3.342761 0.697426
-55.256611 23.585846 3.094657 0.701716
-55.256611 23.585846 2.848953 0.702941
-55.256611 23.585846 2.605091 0.691054
-55.256611 23.585848 2.362535 0.697059
-55.256611 23.585848 2.120759 0.700123
-55.256611 23.585848 1.879241 0.688358
-55.256611 23.585848 1.637464 0.698039
-55.256611 23.585848 1.394909 0.731740
-55.256611 23.585846 1.151047 0.698652
-55.256611 23.585848 0.905343 0.701961
-55.256611 23.585846 0.657240 0.639461
-55.256611 23.585848 0.406164 0.626348
-55.256611 23.585848 0.151511 0.617157
-55.303482 23.635777 3.837142 0.683824
-55.303482 23.635778 3.584053 0.691912
-55.296955 23.702337 3.322349 0.736274
-55.296955 23.702339 3.078017 0.697059
-55.296955 23.702339 2.836047 0.693015
-55.296955 23.702337 2.595893 0.698162
-55.296955 23.702337 2.357024 0.686520
-55.296955 23.702339 2.118923 0.710417
-55.296955 23.702339 1.881077 0.718627
-55.296955 23.702337 1.642975 0.710049
-55.296955 23.702339 1.404107 0.725490
-55.296955 23.702339 1.163953 0.708824
-55.296955 23.702339 0.921983 0.709069
-55.308376 23.585848 0.656353 0.631495
-55.308376 23.585848 0.405111 0.615319
-55.308376 23.585848 0.150291 0.623407
-55.354965 23.635777 3.838445 0.673407
-55.354965 23.635777 3.585177 0.702574
-55.354965 23.635777 3.335464 0.718015
-55.354965 23.635778 3.088710 0.723407
-55.354965 23.635778 2.844340 0.681863
-55.354965 23.635777 2.601803 0.730392
-55.354965 23.635777 2.360566 0.714338
-55.354965 23.635777 2.120103 0.694730
-55.354965 23.635777 1.879897 0.692402
-55.354965 23.635778 1.639434 0.705147
-55.354965 23.635778 1.398196 0.701226
-55.354965 23.635778 1.155660 0.708824
-55.354965 23.635778 0.911290 0.712990
-55.360214 23.585848 0.655400 0.639338
-55.360214 23.585848 0.403980 0.600613
-55.360214 23.585846 0.148979 0.612010
-55.406525 23.635777 3.839840 0.695956
-55.406525 23.635778 3.586380 0.698775
-55.406525 23.635777 3.336478 0.692524
-55.406525 23.635777 3.089536 0.728186
-55.406525 23.635777 2.844980 0.691422
-55.406525 23.635777 2.602260 0.732353
-55.406525 23.635777 2.360839 0.725368
-55.406525 23.635777 2.120194 0.721569
-55.406525 23.635777 1.879806 0.684804
-55.406525 23.635778 1.639161 0.718137
-55.406525 23.635777 1.397740 0.687132
-55.406525 23.635778 1.155020 0.697549
-55.406525 23.635778 0.910464 0.712377
-55.412128 23.585848 0.654380 0.627819
-55.412125 23.585848 0.402769 0.627574
-55.412128 23.585848 0.147575 0.623039
-55.458168 23.635777 3.841327 0.711642
-55.458168 23.635777 3.587662 0.685294
-55.458168 23.635778 3.337558 0.714093
-55.458168 23.635777 3.090416 0.703064
-55.458168 23.635777 2.845663 0.735539
-55.458168 23.635777 2.602747 0.727083
-55.458168 23.635777 2.361131 0.716422
-55.458168 23.635777 2.120291 0.707475
-55.458168 23.635777 1.879709 0.719485
-55.458168 23.635777 1.638869 0.701226
-55.458168 23.635778 1.397253 0.703064
-55.458168 23.635778 1.154337 0.701471
-55.458168 23.635778 0.909584 0.724877
-55.464119 23.585848 0.653293 0.642647
-55.464119 23.585848 0.401478 0.628554
-55.464119 23.585848 0.146078 0.621691
-55.509895 23.635777 3.842906 0.734926
-55.509895 23.635777 3.589024 0.689951
-55.509895 23.635778 3.338705 0.713235
-55.509895 23.635777 3.091351 0.711765
-55.509895 23.635777 2.846388 0.711397
-55.509895 23.635777 2.603263 0.724877
-55.509895 23.635777 2.361441 0.700613
-55.509895 23.635777 2.120394 0.732721
-55.509895 23.635777 1.879606 0.724632
-55.509895 23.635778 1.638559 0.737623
-55.509895 23.635777 1.396736 0.724632
-55.509895 23.635778 1.153612 0.728064
-55.509895 23.635777 0.908649 0.701348
-55.516201 23.585848 0.652138 0.615196
-55.516201 23.585848 0.400107 0.618505
-55.516201 23.585848 0.144488 0.599265
-55.561714 23.635777 3.844578 0.714583
-55.561714 23.635778 3.590465 0.724510
-55.568375 23.585848 3.349085 0.113848
-55.568375 23.585848 3.099813 0.112010
-55.568375 23.585848 2.852951 0.094975
-55.568375 23.585848 2.607941 0.111397
-55.568375 23.585848 2.364243 0.103554
-55.568375 23.585848 2.121328 0.075858
-55.568375 23.585848 1.878672 0.104289
-55.568375 23.585848 1.635757 0.112623
-55.568375 23.585848 1.392059 0.102819
-55.568375 23.585848 1.147049 0.110294
-55.568375 23.585848 0.900187 0.103064
-55.568375 23.585848 0.650915 0.640931
-55.568375 23.585848 0.398656 0.615319
-55.568375 23.585848 0.142805 0.622917
-55.613628 23.635777 3.846343 0.697549
-55.613628 23.635777 3.591987 0.697181
-55.620644 23.585846 3.350376 0.122059
-55.634697 23.485847 3.115845 0.741176
-55.634697 23.485847 2.865384 0.741176
-55.620644 23.585846 2.608523 0.114828
-55.634697 23.485847 2.369553 0.741176
-55.634697 23.485847 2.123096 0.741176
-55.634697 23.485847 1.876904 0.741176
-55.620644 23.585848 1.635408 0.117525
-55.634697 23.485847 1.383197 0.741176
-55.634697 23.485847 1.134616 0.741176
-55.620644 23.585848 0.899134 0.118505
-55.620644 23.585846 0.649624 0.618505
-55.620644 23.585848 0.397124 0.645956
-55.620644 23.585848 0.141028 0.640686
-55.665646 23.635777 3.848201 0.705760
-55.665646 23.635777 3.593589 0.750368
-55.673016 23.585846 3.351735 0.124877
-55.687782 23.485847 3.116968 0.741176
-55.687782 23.485847 2.866255 0.741176
-55.673016 23.585848 2.609135 0.115931
-55.687782 23.485847 2.369925 0.741176
-55.687782 23.485847 2.123220 0.741176
-55.687782 23.485847 1.876780 0.741176
-55.673016 23.585848 1.635041 0.105392
-55.687782 23.485847 1.382576 0.741176
-55.687782 23.485847 1.133745 0.741176
-55.673016 23.585848 0.898026 0.118995
-55.673016 23.585846 0.648265 0.644608
-55.673016 23.585848 0.395511 0.610172
-55.673016 23.585848 0.139157 0.641667
-55.717770 23.635777 3.850153 0.706127
-55.717770 23.635777 3.595273 0.727328
-55.725498 23.585846 3.353163 0.123529
-55.740978 23.485847 3.118148 0.741176
-55.740978 23.485847 2.867170 0.741176
-55.725498 23.585848 2.609779 0.128676
-55.740978 23.485847 2.370315 0.741176
-55.740978 23.485847 2.123350 0.741176
-55.740978 23.485847 1.876650 0.741176
-55.725498 23.585848 1.634656 0.115319
-55.740978 23.485847 1.381924 0.741176
-55.740978 23.485847 1.132830 0.741176
-55.725498 23.585848 0.896862 0.105515
-55.725498 23.585848 0.646837 0.636765
-55.725498 23.585846 0.393815 0.640441
-55.725498 23.585848 0.137191 0.635539
-55.770004 23.635777 3.852200 0.725245
-55.770004 23.635777 3.597037 0.717279
-55.778091 23.585846 3.354660 0.103186
-55.794289 23.485846 3.119385 0.741176
-55.794289 23.485847 2.868130 0.741176
-55.778091 23.585848 2.610454 0.110539
-55.794289 23.485847 2.370725 0.741176
-55.794289 23.485847 2.123487 0.741176
-55.794289 23.485847 1.876513 0.741176
-55.778091 23.585848 1.634252 0.108088
-55.794289 23.485847 1.381240 0.741176
-55.794289 23.485847 1.131870 0.741176
-55.778091 23.585846 0.895642 0.103922
-55.778091 23.585848 0.645340 0.639216
-55.778091 23.585848 0.392038 0.628554
-55.778091 23.585848 0.135130 0.622917
-55.822361 23.635777 3.854343 0.693260
-55.822361 23.635777 3.598884 0.701838
-55.830807 23.585846 3.356226 0.107966
-55.847721 23.485847 3.120680 0.741176
-55.847721 23.485847 2.869134 0.741176
-55.830807 23.585848 2.611159 0.107353
-55.847721 23.485847 2.371154 0.741176
-55.847721 23.485847 2.123630 0.741176
-55.847721 23.485847 1.876370 0.741176
-55.830807 23.585848 1.633829 0.117157
-55.847721 23.485847 1.380524 0.741176
-55.847721 23.485847 1.130866 0.741176
-55.830807 23.585846 0.894365 0.109069
-55.830807 23.585848 0.643773 0.625735
-55.830807 23.585848 0.390179 0.622794
-55.830807 23.585848 0.132973 0.609191
-55.874840 23.635777 3.856580 0.692524
-55.874840 23.635777 3.600813 0.692279
-55.883644 23.585846 3.357863 0.113358
-55.901279 23.485847 3.122032 0.741176
-55.901279 23.485847 2.870183 0.741176
-55.883644 23.585846 2.611897 0.121569
-55.901276 23.485847 2.371602 0.741176
-55.901279 23.485847 2.123779 0.741176
-55.901279 23.485847 1.876221 0.741176
-55.883644 23.585848 1.633387 0.112745
-55.901279 23.485847 1.379777 0.741176
-55.901279 23.485847 1.129817 0.741176
-55.883644 23.585846 0.893030 0.114583
-55.883644 23.585848 0.642137 0.634681
-55.883644 23.585846 0.388236 0.638971
-55.883644 23.585846 0.130720 0.643015
-55.927448 23.635777 3.858914 0.685049
-55.927448 23.635777 3.602825 0.687132
-55.936611 23.585846 3.359570 0.110049
-55.954967 23.485847 3.123442 0.741176
-55.954967 23.485847 2.871277 0.741176
-55.936611 23.585846 2.612666 0.112255
-55.954967 23.485847 2.372069 0.741176
-55.954967 23.485847 2.123935 0.741176
-55.954967 23.485847 1.876066 0.741176
-55.936611 23.585846 1.632926 0.106985
-55.954967 23.485847 1.378997 0.741176
-55.954967 23.485847 1.128724 0.741176
-55.936611 23.585846 0.891639 0.106127
-55.936611 23.585846 0.640430 0.616054
-55.936611 23.585848 0.386211 0.645956
-55.936611 23.585846 0.128371 0.642524
-55.980194 23.635777 3.861344 0.698897
-55.980194 23.635777 3.604921 0.692892
-55.989716 23.585846 3.361348 0.121936
-56.008793 23.485847 3.124911 0.741176
-56.008793 23.485847 2.872415 0.741176
-55.989716 23.585846 2.613467 0.117770
-56.008793 23.485847 2.372555 0.741176
-56.008793 23.485847 2.124096 0.741176
-56.008793 23.485847 1.875904 0.741176
-55.989716 23.585848 1.632446 0.106127
-56.008793 23.485847 1.378186 0.741176
-56.008793 23.485847 1.127585 0.741176
-55.989716 23.585848 0.890190 0.114216
-55.989716 23.585846 0.638653 0.624142
-55.989716 23.585848 0.384101 0.635784
-55.989716 23.585848 0.125924 0.632475
-56.033077 23.635777 3.863871 0.700368
-56.033077 23.635777 3.607100 0.701103
-56.042965 23.585846 3.363196 0.128799
-56.062763 23.485846 3.126439 0.741176
-56.062763 23.485846 2.873600 0.741176
-56.042965 23.585846 2.614300 0.121814
-56.062763 23.485847 2.373061 0.741176
-56.062763 23.485847 2.124265 0.741176
-56.062763 23.485847 1.875735 0.741176
-56.042965 23.585846 1.631947 0.122672
-56.062763 23.485847 1.377341 0.741176
-56.062763 23.485847 1.126400 0.741176
-56.042965 23.585846 0.888683 0.103186
-56.042965 23.585848 0.636804 0.640564
-56.042965 23.585848 0.381907 0.630760
-56.042965 23.585848 0.123379 0.632230
-56.086105 23.635777 3.866498 0.692157
-56.086105 23.635777 3.609365 0.694363
-56.096355 23.585848 3.365116 0.128922
-56.116882 23.485847 3.128026 0.741176
-56.116882 23.485847 2.874831 0.741176
-56.096355 23.585846 2.615165 0.105025
-56.116882 23.485847 2.373587 0.741176
-56.116882 23.485847 2.124440 0.741176
-56.116882 23.485847 1.875560 0.741176
-56.116882 23.485847 1.626413 0.735662
-56.116882 23.485847 1.376464 0.741176
-56.116882 23.485847 1.125169 0.741176
-56.096355 23.585848 0.887117 0.102083
-56.096355 23.585848 0.634884 0.627819
-56.096355 23.585846 0.379627 0.627696
-56.096355 23.585846 0.120735 0.635049
-56.139290 23.635777 3.869222 0.721446
-56.139290 23.635777 3.611713 0.716299
-56.149902 23.585848 3.367109 0.118873
-56.171158 23.485847 3.129672 0.741176
-56.171158 23.485847 2.876108 0.741176
-56.149902 23.585846 2.616063 0.099020
-56.171158 23.485847 2.374132 0.741176
-56.171158 23.485847 2.124622 0.741176
-56.171158 23.485847 1.875378 0.741176
-56.171158 23.485847 1.625868 0.755515
-56.171158 23.485847 1.375554 0.741176
-56.171158 23.485847 1.123893 0.741176
-56.149902 23.585848 0.885493 0.107230
-56.149902 23.585848 0.632892 0.628064
-56.149902 23.585846 0.377262 0.622549
-56.149902 23.585848 0.117992 0.638235
-56.192631 23.635777 3.872045 0.694975
-56.192631 23.635777 3.614148 0.686765
-56.203609 23.585846 3.369174 0.139583
-56.225597 23.485847 3.131378 0.741176
-56.225597 23.485847 2.877431 0.741176
-56.203609 23.585846 2.616994 0.105270
-56.225597 23.485847 2.374697 0.741176
-56.225597 23.485847 2.124810 0.741176
-56.225597 23.485847 1.875190 0.741176
-56.225597 23.485847 1.625303 0.704657
-56.225597 23.485847 1.374611 0.741176
-56.225597 23.485847 1.122569 0.741176
-56.203609 23.585846 0.883810 0.104167
-56.203609 23.585848 0.630826 0.618137
-56.203609 23.585848 0.374811 0.610784
-56.203609 23.585848 0.115150 0.614461
-56.246136 23.635777 3.874969 0.698162
-56.246136 23.635777 3.616669 0.702451
-56.257481 23.585846 3.371312 0.112255
-56.280201 23.485847 3.133145 0.741176
-56.280201 23.485847 2.878801 0.741176
-56.257481 23.585846 2.617958 0.124755
-56.280201 23.485847 2.375282 0.741176
-56.280201 23.485847 2.125005 0.741176
-56.280201 23.485847 1.874995 0.741176
-56.280201 23.485847 1.624718 0.739216
-56.280201 23.485847 1.373634 0.741176
-56.280201 23.485847 1.121199 0.741176
-56.257481 23.585848 0.882067 0.110417
-56.257481 23.585848 0.628688 0.632108
-56.257481 23.585848 0.372273 0.597917
-56.257481 23.585848 0.112206 0.633946
-56.299812 23.635777 3.877993 0.723407
-56.299812 23.635777 3.619277 0.710907
-56.311523 23.585846 3.373524 0.142647
-56.334976 23.485847 3.134973 0.741176
-56.334976 23.485847 2.880219 0.741176
-56.334976 23.485847 2.627376 0.731863
-56.334976 23.485846 2.375888 0.741176
-56.334976 23.485847 2.125206 0.741176
-56.334976 23.485847 1.874794 0.741176
-56.334976 23.485847 1.624112 0.752941
-56.334976 23.485847 1.372624 0.741176
-56.334976 23.485847 1.119781 0.741176
-56.311523 23.585848 0.880263 0.128064
-56.311523 23.585848 0.626476 0.637990
-56.311523 23.585846 0.369647 0.629902
-56.311523 23.585848 0.109161 0.622549
-56.353661 23.635777 3.881119 0.718750
-56.353661 23.635777 3.621972 0.712255
-56.365742 23.585846 3.375810 0.149632
-56.389935 23.485846 3.136863 0.741176
-56.389935 23.485847 2.881684 0.741176
-56.389935 23.485847 2.628421 0.731863
-56.389935 23.485847 2.376513 0.741176
-56.389935 23.485847 2.125415 0.741176
-56.389935 23.485847 1.874585 0.741176
-56.389935 23.485847 1.623487 0.702451
-56.389935 23.485847 1.371579 0.741176
-56.389935 23.485847 1.118316 0.741176
-56.365742 23.585846 0.878399 0.122917
-56.365742 23.585848 0.624190 0.569608
-56.365742 23.585846 0.366933 0.615564
-56.365742 23.585848 0.106014 0.624387
-56.407696 23.635777 3.884348 0.700613
-56.407696 23.635777 3.624756 0.685662
-56.420143 23.585846 3.378172 0.135907
-56.445076 23.485847 3.138813 0.741176
-56.445076 23.485847 2.883198 0.741176
-56.445076 23.485847 2.629499 0.733211
-56.445076 23.485846 2.377159 0.741176
-56.445076 23.485847 2.125630 0.741176
-56.445076 23.485847 1.874370 0.741176
-56.445076 23.485847 1.622841 0.756740
-56.445076 23.485847 1.370501 0.741176
-56.445076 23.485847 1.116803 0.741176
-56.420143 23.585848 0.876474 0.110907
-56.420143 23.585848 0.621828 0.522426
-56.420143 23.585848 0.364131 0.612500
-56.420143 23.585848 0.102763 0.584191
-56.461918 23.635777 3.887680 0.713971
-56.461918 23.635777 3.627629 0.691544
-56.474735 23.585846 3.380608 0.137132
-56.500412 23.485847 3.140827 0.432843
-56.500412 23.485847 2.884759 0.425613
-56.500412 23.485847 2.630612 0.443750
-56.500412 23.485847 2.377826 0.432843
-56.500412 23.485847 2.125852 0.425613
-56.500412 23.485847 1.874148 0.437500
-56.500412 23.485847 1.622174 0.515319
-56.500412 23.485847 1.369388 0.425613
-56.500412 23.485847 1.115241 0.425613
-56.474735 23.585848 0.874488 0.131127
-56.474735 23.585846 0.619391 0.639461
-56.474735 23.585846 0.361238 0.629412
-56.474735 23.585848 0.099408 0.641667
-56.516335 23.635777 3.891115 0.702206
-56.516335 23.635777 3.630591 0.702328
-56.529526 23.585848 3.383121 0.124755
-56.529526 23.585846 3.127561 0.114461
-56.529526 23.585846 2.874471 0.117770
-56.529526 23.585846 2.623279 0.109926
-56.529526 23.585846 2.373433 0.112132
-56.529526 23.585846 2.124389 0.123284
-56.529526 23.585848 1.875611 0.115931
-56.529526 23.585846 1.626567 0.106740
-56.529526 23.585846 1.376721 0.119975
-56.529526 23.585846 1.125530 0.121201
-56.529526 23.585848 0.872439 0.120711
-56.529526 23.585848 0.616879 0.612868
-56.529526 23.585848 0.358255 0.618505
-56.529526 23.585848 0.095949 0.637377
-56.570950 23.635777 3.894656 0.715564
-56.570950 23.635777 3.633644 0.696324
-56.584518 23.585846 3.385711 0.113113
-56.584518 23.585846 3.129672 0.107843
-56.584518 23.585846 2.876108 0.109191
-56.584518 23.585846 2.624446 0.119118
-56.584518 23.585848 2.374132 0.109681
-56.584518 23.585846 2.124621 0.105515
-56.584518 23.585846 1.875378 0.120711
-56.584518 23.585848 1.625868 0.106127
-56.584518 23.585848 1.375554 0.096936
-56.584515 23.585848 1.123892 0.126471
-56.584515 23.585848 0.870328 0.096078
-56.584518 23.585846 0.614289 0.622059
-56.584515 23.585848 0.355181 0.623529
-56.584515 23.585850 0.092384 0.603431
-56.625774 23.635777 3.898303 0.706985
-56.625774 23.635777 3.636789 0.723774
-56.639717 23.585846 3.388378 0.113358
-56.639717 23.585846 3.131847 0.118750
-56.639717 23.585846 2.877794 0.105147
-56.639717 23.585846 2.625648 0.128922
-56.639717 23.585846 2.374852 0.117157
-56.639717 23.585846 2.124861 0.102206
-56.639717 23.585846 1.875139 0.109191
-56.639717 23.585846 1.625148 0.112500
-56.639717 23.585846 1.374352 0.113603
-56.639717 23.585846 1.122206 0.104779
-56.639717 23.585846 0.868153 0.122426
-56.639717 23.585848 0.611622 0.594730
-56.639717 23.585848 0.352015 0.612377
-56.639717 23.585850 0.088712 0.610417
-56.680817 23.635777 3.902057 0.721936
-56.680817 23.635777 3.640026 0.694608
-56.695133 23.585846 3.391124 0.107353
-56.723808 23.485846 3.149516 0.741176
-56.723808 23.485846 2.891498 0.741176
-56.723808 23.485847 2.635415 0.738113
-56.723808 23.485847 2.380704 0.741176
-56.723808 23.485846 2.126811 0.741176
-56.723808 23.485846 1.873189 0.741176
-56.723808 23.485847 1.619296 0.695098
-56.723808 23.485847 1.364584 0.741176
-56.723808 23.485847 1.108502 0.741176
-56.695133 23.585848 0.865915 0.109314
-56.695133 23.585848 0.608876 0.609804
-56.695133 23.585846 0.348756 0.606740
-56.695133 23.585846 0.084932 0.603064
-56.736076 23.635777 3.905919 0.715809
-56.736076 23.635777 3.643355 0.705882
-56.750771 23.585846 3.393948 0.111397
-56.780201 23.485847 3.151850 0.741176
-56.780201 23.485847 2.893308 0.741176
-56.780201 23.485847 2.636705 0.738113
-56.780201 23.485846 2.381477 0.741176
-56.780201 23.485847 2.127068 0.741176
-56.780201 23.485847 1.872932 0.741176
-56.780201 23.485847 1.618523 0.726838
-56.780201 23.485847 1.363295 0.741176
-56.780201 23.485847 1.106692 0.741176
-56.750771 23.585848 0.863613 0.120956
-56.750771 23.585848 0.606052 0.623162
-56.750771 23.585846 0.345404 0.636520
-56.750771 23.585848 0.081044 0.626716
-56.791561 23.635777 3.909890 0.731005
-56.791561 23.635777 3.646779 0.713971
-56.806637 23.585848 3.396852 0.103554
-56.836830 23.485847 3.154250 0.741176
-56.836830 23.485846 2.895169 0.741176
-56.836830 23.485847 2.638032 0.748529
-56.836830 23.485847 2.382272 0.741176
-56.836830 23.485846 2.127333 0.741176
-56.836830 23.485846 1.872667 0.741176
-56.836830 23.485847 1.617728 0.691422
-56.836830 23.485847 1.361968 0.741176
-56.836830 23.485847 1.104831 0.741176
-56.806637 23.585848 0.861245 0.115074
-56.806637 23.585848 0.603148 0.598529
-56.806637 23.585848 0.341957 0.638726
-56.806637 23.585846 0.077046 0.634314
-56.847286 23.635777 3.913970 0.714951
-56.847286 23.635777 3.650298 0.728554
-56.862743 23.585846 3.399837 0.102451
-56.893696 23.485846 3.156716 0.741176
-56.893696 23.485846 2.897082 0.741176
-56.893696 23.485846 2.639395 0.738113
-56.893696 23.485847 2.383088 0.741176
-56.893696 23.485847 2.127605 0.741176
-56.893696 23.485847 1.872395 0.741176
-56.893696 23.485847 1.616911 0.738113
-56.893696 23.485846 1.360605 0.741176
-56.893696 23.485847 1.102918 0.741176
-56.862740 23.585848 0.858812 0.101838
-56.862740 23.585846 0.600163 0.587255
-56.862740 23.585848 0.338414 0.589461
-56.862740 23.585848 0.072937 0.651838
-56.903248 23.635777 3.918162 0.723284
-56.903248 23.635777 3.653912 0.693627
-56.910320 23.613485 3.397627 0.693260
-56.950809 23.485846 3.159250 0.741176
-56.950809 23.485847 2.899046 0.741176
-56.950809 23.485846 2.640796 0.747181
-56.950809 23.485847 2.383928 0.741176
-56.950809 23.485847 2.127885 0.741176
-56.950809 23.485847 1.872116 0.741176
-56.950809 23.485847 1.616072 0.710172
-56.950809 23.485847 1.359204 0.741176
-56.950809 23.485847 1.100954 0.741176
-56.919086 23.585848 0.856312 0.115196
-56.919086 23.585846 0.597097 0.607476
-56.919086 23.585848 0.334775 0.623039
-56.919086 23.585848 0.068717 0.663725
-56.959461 23.635777 3.922467 0.697426
-56.959461 23.635777 3.657623 0.693627
-56.961376 23.629879 3.397627 0.699877
-57.008175 23.485846 3.161851 0.741176
-57.008175 23.485847 2.901064 0.741176
-57.008175 23.485847 2.642233 0.747181
-57.008175 23.485847 2.384789 0.741176
-57.008175 23.485846 2.128171 0.741176
-57.008175 23.485846 1.871829 0.741176
-57.008175 23.485847 1.615211 0.795956
-57.008175 23.485847 1.357766 0.741176
-57.008175 23.485847 1.098936 0.741176
-56.975681 23.585848 0.853746 0.112745
-56.975681 23.585848 0.593949 0.613603
-56.975681 23.585848 0.331038 0.635662
-56.975681 23.585848 0.064383 0.669730
-57.015930 23.635777 3.926885 0.725368
-57.015930 23.635777 3.661433 0.704289
-57.012318 23.646627 3.397627 0.688480
-57.065804 23.485846 3.164521 0.741176
-57.065804 23.485847 2.903134 0.741176
-57.065804 23.485847 2.643709 0.741176
-57.065804 23.485847 2.385674 0.741176
-57.065804 23.485846 2.128466 0.741176
-57.065804 23.485846 1.871534 0.741176
-57.065804 23.485847 1.614327 0.691422
-57.065804 23.485847 1.356291 0.741176
-57.065804 23.485847 1.096866 0.741176
-57.032539 23.585848 0.851112 0.107230
-57.032539 23.585848 0.590718 0.598774
-57.032539 23.585848 0.327203 0.634804
-57.032539 23.585846 0.059935 0.586520
-57.072659 23.635777 3.931417 0.686520
-57.072659 23.635777 3.665341 0.704534
-57.063141 23.663733 3.397627 0.703064
-57.123699 23.485847 3.167260 0.741176
-57.123699 23.485846 2.905259 0.741176
-57.123699 23.485847 2.645224 0.741176
-57.123699 23.485847 2.386580 0.741176
-57.123699 23.485847 2.128768 0.741176
-57.123699 23.485847 1.871232 0.741176
-57.123699 23.485847 1.613419 0.741054
-57.123699 23.485847 1.354776 0.741176
-57.123699 23.485847 1.094741 0.741176
-57.085449 23.598209 0.850347 0.624510
-57.089657 23.585846 0.587403 0.627328
-57.089657 23.585846 0.323268 0.625245
-57.089657 23.585848 0.055372 0.645221
-57.129658 23.635777 3.936065 0.734314
-57.129662 23.635777 3.669349 0.688235
-57.113842 23.681194 3.397626 0.710417
-57.181870 23.485847 3.170069 0.741176
-57.181870 23.485846 2.907438 0.741176
-57.181870 23.485847 2.646776 0.741176
-57.181870 23.485847 2.387511 0.741176
-57.181870 23.485847 2.129078 0.741176
-57.181870 23.485847 1.870922 0.741176
-57.181870 23.485847 1.612489 0.741299
-57.181870 23.485847 1.353224 0.741176
-57.181870 23.485847 1.092562 0.741176
-57.136608 23.615824 0.850346 0.626103
-57.147045 23.585848 0.584003 0.629657
-57.147049 23.585848 0.319232 0.643873
-57.147045 23.585848 0.050692 0.435049
-57.204716 23.585846 3.954107 0.643505
-57.186939 23.635777 3.673458 0.702451
-57.164421 23.699007 3.397626 0.703799
-57.240326 23.485846 3.172950 0.741176
-57.240326 23.485847 2.909671 0.741176
-57.240326 23.485847 2.648369 0.741299
-57.240326 23.485847 2.388465 0.741176
-57.240326 23.485847 2.129396 0.741176
-57.240326 23.485847 1.870604 0.741176
-57.240326 23.485847 1.611535 0.741054
-57.240326 23.485847 1.351631 0.741176
-57.240326 23.485847 1.090329 0.741176
-57.187645 23.633793 0.850346 0.628554
-57.204716 23.585846 0.580517 0.625123
-57.204716 23.585846 0.315095 0.632353
-57.204716 23.585848 0.045893 0.598774
-57.262676 23.585846 3.959025 0.687623
-57.244503 23.635777 3.677669 0.755392
-57.223957 23.692221 3.402457 0.695221
-57.299072 23.485847 3.175901 0.741176
-57.299072 23.485847 2.911961 0.741176
-57.299072 23.485847 2.650000 0.741176
-57.299072 23.485847 2.389442 0.741176
-57.299072 23.485847 2.129722 0.741176
-57.299072 23.485847 1.870279 0.741176
-57.299072 23.485847 1.610557 0.741054
-57.299072 23.485847 1.350000 0.741176
-57.299072 23.485847 1.088039 0.741176
-57.238552 23.652122 0.850346 0.625123
-57.262676 23.585848 0.576945 0.614093
-57.262672 23.585848 0.310855 0.620833
-57.262676 23.585848 0.040975 0.693995
-57.320927 23.585846 3.964063 0.624632
-57.302361 23.635777 3.681984 0.698652
-57.280243 23.695240 3.405478 0.692770
-57.358116 23.485846 3.178926 0.741176
-57.358116 23.485847 2.914306 0.741176
-57.358116 23.485847 2.651672 0.741176
-57.358116 23.485847 2.390444 0.741176
-57.358116 23.485847 2.130055 0.741176
-57.358116 23.485847 1.869945 0.741176
-57.358116 23.485847 1.609556 0.741299
-57.358116 23.485847 1.348328 0.741176
-57.358116 23.485847 1.085694 0.741176
-57.289333 23.670805 0.850346 0.611887
-57.320927 23.585846 0.573285 0.639951
-57.320927 23.585848 0.306511 0.589706
-57.320927 23.585846 0.035937 0.676593
-57.379486 23.585846 3.969224 0.639093
-57.360516 23.635777 3.686404 0.682353
-57.336754 23.698334 3.408569 0.709804
-57.417469 23.485846 3.182024 0.741176
-57.417469 23.485847 2.916708 0.741176
-57.417469 23.485847 2.653384 0.741176
-57.417469 23.485847 2.391470 0.741176
-57.417469 23.485847 2.130397 0.741176
-57.417469 23.485847 1.869603 0.741176
-57.417469 23.485847 1.608530 0.741054
-57.417469 23.485847 1.346616 0.741176
-57.417469 23.485847 1.083292 0.741176
-57.339981 23.689838 0.850346 0.624632
-57.379482 23.585848 0.569536 0.632721
-57.379482 23.585846 0.302061 0.616667
-57.379482 23.585848 0.030776 0.670466
-57.438351 23.585846 3.974508 0.674020
-57.418983 23.635777 3.690929 0.691054
-57.393158 23.702366 3.411561 0.694118
-57.477139 23.485847 3.185195 0.741176
-57.477139 23.485847 2.919168 0.741176
-57.477139 23.485847 2.655138 0.742647
-57.477139 23.485847 2.392520 0.741176
-57.477139 23.485847 2.130747 0.741176
-57.477139 23.485847 1.869253 0.741176
-57.477139 23.485847 1.607479 0.741299
-57.477139 23.485847 1.344862 0.741176
-57.477139 23.485847 1.080832 0.741176
-57.390495 23.709229 0.850346 0.598407
-57.438351 23.585848 0.565698 0.640686
-57.438351 23.585848 0.297505 0.633578
-57.438351 23.585846 0.025492 0.641912
-57.497540 23.585846 3.979918 0.694853
-57.477772 23.635777 3.695562 0.699510
-57.451405 23.702366 3.415429 0.688480
-57.537132 23.485847 3.188442 0.741176
-57.537132 23.485846 2.921687 0.759069
-57.537132 23.485847 2.656932 0.759069
-57.537132 23.485847 2.393596 0.741176
-57.537132 23.485847 2.131105 0.741176
-57.537132 23.485847 1.868895 0.741176
-57.537132 23.485847 1.606404 0.741176
-57.537132 23.485847 1.343067 0.741176
-57.537132 23.485847 1.078313 0.741176
-57.440872 23.728968 0.850345 0.620221
-57.497540 23.585848 0.561768 0.588358
-57.497540 23.585846 0.292840 0.621078
-57.497540 23.585846 0.020082 0.633456
-57.557053 23.585846 3.985455 0.653431
-57.536880 23.635777 3.700303 0.700490
-57.509975 23.702366 3.419387 0.702696
-57.557053 23.585846 3.175767 0.113235
-57.557053 23.585846 2.911856 0.111152
-57.557053 23.585846 2.649926 0.124142
-57.557053 23.585846 2.389398 0.107598
-57.557053 23.585846 2.129706 0.111029
-57.557053 23.585846 1.870293 0.110417
-57.557053 23.585846 1.610602 0.110417
-57.557053 23.585846 1.350074 0.116299
-57.557053 23.585848 1.088144 0.104902
-57.491112 23.749062 0.850345 0.629902
-57.557053 23.585846 0.557746 0.604902
-57.557053 23.585846 0.288066 0.620466
-57.557053 23.585848 0.014546 0.629412
-57.616905 23.585846 3.991119 0.625735
-57.596329 23.635777 3.705154 0.691912
-57.568882 23.702366 3.423436 0.686029
-57.616909 23.585846 3.179122 0.114461
-57.616905 23.585846 2.914458 0.132843
-57.616905 23.585846 2.651780 0.108456
-57.616905 23.585848 2.390509 0.118382
-57.616905 23.585848 2.130077 0.106863
-57.616905 23.585848 1.869923 0.101103
-57.616905 23.585848 1.609491 0.106373
-57.616905 23.585846 1.348220 0.115931
-57.616905 23.585848 1.085542 0.143015
-57.546291 23.757175 0.848367 0.637132
-57.616905 23.585846 0.553632 0.601838
-57.616905 23.585846 0.283182 0.629167
-57.616905 23.585846 0.008881 0.625980
-57.677105 23.585846 3.996914 0.658946
-57.656113 23.635777 3.710117 0.683088
-57.628124 23.702366 3.427579 0.693137
-57.656113 23.635777 3.174519 0.701593
-57.656113 23.635777 2.910888 0.712500
-57.656113 23.635777 2.649236 0.690074
-57.656113 23.635777 2.388985 0.686029
-57.656113 23.635777 2.129569 0.735417
-57.656113 23.635777 1.870431 0.698284
-57.656113 23.635777 1.611015 0.725245
-57.656113 23.635777 1.350764 0.717157
-57.656113 23.635777 1.089112 0.684436
-57.603867 23.760067 0.845480 0.630270
-57.677101 23.585846 0.549422 0.624142
-57.677101 23.585846 0.278186 0.626716
-57.677101 23.585846 0.003086 0.643627
-57.737656 23.585846 4.002841 0.638113
-57.716255 23.635777 3.715192 0.690564
-57.687717 23.702366 3.431816 0.721936
-57.716255 23.635777 3.178005 0.721324
-57.716255 23.635777 2.913592 0.694485
-57.716255 23.635777 2.651163 0.704289
-57.716255 23.635777 2.390139 0.691054
-57.716255 23.635777 2.129954 0.679534
-57.716255 23.635777 1.870047 0.733211
-57.716255 23.635777 1.609861 0.707966
-57.716255 23.635777 1.348837 0.724020
-57.716255 23.635777 1.086408 0.726716
-57.661720 23.763018 0.842530 0.626961
-57.737656 23.585848 0.545117 0.638726
-57.737656 23.585846 0.273076 0.600245
-57.737656 23.585846 -0.002840 0.623284
-57.798573 23.585846 4.008901 0.680147
-57.776760 23.635775 3.720382 0.614828
-57.747665 23.702366 3.436148 0.696446
-57.776760 23.635775 3.181570 0.721569
-57.776760 23.635777 2.916356 0.698039
-57.776760 23.635777 2.653133 0.718260
-57.776756 23.635777 2.391320 0.684314
-57.776760 23.635777 2.130347 0.698775
-57.776760 23.635777 1.869653 0.698162
-57.776756 23.635777 1.608680 0.706863
-57.776760 23.635777 1.346867 0.712500
-57.776760 23.635777 1.083644 0.693505
-57.720367 23.764847 0.839324 0.623652
-57.798573 23.585848 0.540715 0.596814
-57.798573 23.585846 0.267850 0.633456
-57.784306 23.618502 0.000026 0.587010
-57.859859 23.585846 4.015096 0.699632
-57.836361 23.638628 3.725013 0.701226
-57.807983 23.702366 3.440577 0.721446
-57.819122 23.677345 3.178463 0.699142
-57.819122 23.677345 2.913948 0.693627
-57.819122 23.677345 2.651416 0.694363
-57.819122 23.677345 2.390291 0.681250
-57.819122 23.677347 2.130004 0.684804
-57.819122 23.677347 1.869996 0.714216
-57.819122 23.677345 1.609709 0.722181
-57.819122 23.677347 1.348584 0.716912
-57.819122 23.677347 1.086053 0.728309
-57.780163 23.764847 0.835745 0.641054
-57.859859 23.585846 0.536215 0.618873
-57.859859 23.585846 0.262509 0.624020
-57.835320 23.640968 0.000019 0.494730
-57.921532 23.585844 4.021428 0.693627
-57.895599 23.643011 3.729394 0.690319
-57.870117 23.699184 3.445740 0.729534
-57.875153 23.688089 3.180417 0.691299
-57.875011 23.688402 2.915423 0.706495
-57.874947 23.688538 2.652455 0.685172
-57.874931 23.688576 2.390912 0.696936
-57.874912 23.688614 2.130210 0.701961
-57.874897 23.688650 1.869791 0.705882
-57.874886 23.688675 1.609094 0.725490
-57.874886 23.688675 1.347557 0.704044
-57.874886 23.688675 1.084612 0.697672
-57.840332 23.764847 0.832086 0.628554
-57.921532 23.585848 0.531615 0.610417
-57.921532 23.585848 0.257049 0.633578
-57.886143 23.663857 0.000029 0.513726
-57.983593 23.585844 4.027900 0.705024
-57.955112 23.647486 3.733866 0.687132
-57.933899 23.693396 3.451528 0.685172
-57.960522 23.635777 3.192744 0.694485
-57.960522 23.635777 2.925023 0.712868
-57.960522 23.635777 2.659310 0.684191
-57.960522 23.635775 2.395020 0.733088
-57.960522 23.635777 2.131579 0.696936
-57.960522 23.635777 1.868420 0.701103
-57.960522 23.635775 1.604980 0.706250
-57.960522 23.635777 1.340690 0.708088
-57.960522 23.635777 1.074978 0.696078
-57.900883 23.764847 0.828347 0.602941
-57.983593 23.585846 0.526914 0.646078
-57.983593 23.585848 0.251469 0.624755
-57.936817 23.687082 0.000035 0.524020
-58.046055 23.585846 4.034512 0.681495
-58.012356 23.657465 3.737138 0.699265
-58.019814 23.641615 3.466675 0.702083
-58.022560 23.635777 3.196633 0.696078
-58.022560 23.635777 2.928039 0.719240
-58.022560 23.635777 2.661460 0.713358
-58.022560 23.635777 2.396308 0.705760
-58.022560 23.635777 2.132009 0.702206
-58.022560 23.635777 1.867992 0.702696
-58.022560 23.635777 1.603691 0.714951
-58.022560 23.635777 1.338540 0.717402
-58.022560 23.635777 1.071961 0.705147
-57.961826 23.764847 0.824527 0.631250
-58.046055 23.585846 0.522111 0.613113
-58.046059 23.585846 0.245767 0.618627
-57.987358 23.710585 0.000020 0.550245
-58.108932 23.585846 4.041268 0.679167
-58.060822 23.686260 3.736010 0.694485
-58.085136 23.635511 3.472776 0.703922
-58.108932 23.585846 3.208819 0.112500
-58.108932 23.585846 2.937490 0.095956
-58.108932 23.585846 2.668196 0.120343
-58.108932 23.585846 2.400344 0.110294
-58.108932 23.585846 2.133353 0.095711
-58.108932 23.585846 1.866647 0.110907
-58.108932 23.585846 1.599656 0.103554
-58.108932 23.585846 1.331804 0.105392
-58.108932 23.585846 1.062510 0.103064
-58.023170 23.764847 0.820623 0.625735
-58.108932 23.585846 0.517203 0.635539
-58.108932 23.585848 0.239943 0.636275
-58.037701 23.734516 0.000026 0.526838
-58.172230 23.585846 4.048168 0.687132
-58.120949 23.690994 3.740741 0.695588
-58.147877 23.635777 3.477701 0.697794
-58.221004 23.485846 3.229410 0.741176
-58.221004 23.485847 2.953458 0.741176
-58.221004 23.485847 2.679578 0.741176
-58.221004 23.485847 2.407163 0.741176
-58.221004 23.485847 2.135624 0.741176
-58.221004 23.485847 1.864376 0.741176
-58.221004 23.485847 1.592836 0.741176
-58.221004 23.485847 1.320422 0.741176
-58.221004 23.485847 1.046542 0.741176
-58.084927 23.764847 0.816636 0.630024
-58.172230 23.585848 0.512191 0.613971
-58.172230 23.585846 0.233992 0.622426
-58.087891 23.758770 0.000024 0.569608
-58.235962 23.585846 4.055217 0.609069
-58.181370 23.695822 3.745567 0.699265
-58.211174 23.635777 3.482786 0.687745
-58.285603 23.485846 3.233640 0.741176
-58.285603 23.485846 2.956739 0.741176
-58.285603 23.485847 2.681916 0.741176
-58.285599 23.485847 2.408565 0.741176
-58.285599 23.485847 2.136091 0.741176
-58.285599 23.485847 1.863909 0.741176
-58.285599 23.485847 1.591435 0.741176
-58.285603 23.485847 1.318084 0.741176
-58.285603 23.485846 1.043261 0.741176
-58.147102 23.764847 0.812564 0.632966
-58.235962 23.585846 0.507071 0.625490
-58.235962 23.585846 0.227915 0.645343
-58.137878 23.783428 0.000038 0.530147
-58.300133 23.585846 4.062414 0.698407
-58.242092 23.700747 3.750489 0.684804
-58.274914 23.635777 3.487979 0.567157
-58.350647 23.485847 3.237961 0.741176
-58.350647 23.485846 2.960090 0.741176
-58.350647 23.485847 2.684304 0.741176
-58.350647 23.485847 2.409996 0.741176
-58.350647 23.485847 2.136568 0.741176
-58.350647 23.485847 1.863433 0.741176
-58.350647 23.485847 1.590004 0.741176
-58.350647 23.485847 1.315696 0.741176
-58.350647 23.485847 1.039910 0.741176
-58.209713 23.764849 0.808406 0.634314
-58.300133 23.585848 0.501843 0.605760
-58.300133 23.585848 0.221709 0.592279
-58.187737 23.808359 0.000030 0.534559
-58.364761 23.585844 4.069764 0.700123
-58.304878 23.702366 3.756334 0.715319
-58.339104 23.635777 3.493282 0.703554
-58.416153 23.485847 3.242372 0.741176
-58.416153 23.485847 2.963511 0.741176
-58.416153 23.485847 2.686743 0.741176
-58.416157 23.485846 2.411457 0.741176
-58.416153 23.485847 2.137054 0.741176
-58.416153 23.485847 1.862946 0.741176
-58.416157 23.485846 1.588543 0.741176
-58.416153 23.485847 1.313257 0.741176
-58.416153 23.485847 1.036489 0.741176
-58.272766 23.764847 0.804160 0.616789
-58.364761 23.585846 0.496503 0.626838
-58.364761 23.585848 0.215372 0.613725
-58.237404 23.833662 0.000029 0.516422
-58.429855 23.585846 4.077267 0.671324
-58.368942 23.702366 3.762701 0.701471
-58.403751 23.635777 3.498695 0.695711
-58.482136 23.485847 3.246876 0.741176
-58.482136 23.485847 2.967004 0.741176
-58.482136 23.485847 2.689232 0.741176
-58.482136 23.485847 2.412948 0.741176
-58.482136 23.485847 2.137551 0.741176
-58.482136 23.485847 1.862449 0.741176
-58.482136 23.485847 1.587052 0.741176
-58.482132 23.485847 1.310767 0.741176
-58.482136 23.485847 1.032996 0.741176
