# This PCD file was generated using the MATLABÂ® pcwrite function
# from Computer Vision ToolboxÂ®.
# .PCD v.7 - Point Cloud Data file format
VERSION .7
FIELDS x y z intensity
SIZE 4 4 4 4
TYPE F F F F
COUNT 1 1 1 1
WIDTH 1162
HEIGHT 1
VIEWPOINT 0 0 0 1 0 0 0
POINTS 1162
DATA ascii
191.554626 -109.415611 3.157815 0.852522
191.554626 -109.415611 2.825233 0.510399
191.554626 -109.415611 2.494432 0.579934
191.554626 -109.415611 2.164693 0.851133
191.554626 -109.415611 1.835307 0.517647
191.554626 -109.415611 1.505568 0.735103
191.554626 -109.415611 1.174766 0.580392
191.554626 -109.415611 0.842185 0.549020
191.554642 -109.415611 0.507088 0.549020
191.554626 -109.415611 0.168721 0.721569
190.769348 -109.242020 -0.000001 0.543709
189.523712 -108.966667 -0.000001 0.518120
191.554626 -109.487679 4.524957 0.580392
191.554626 -109.487679 4.177114 0.837934
191.554626 -109.487679 3.834154 0.549020
191.554626 -109.487679 3.495255 0.553048
191.554642 -109.487679 3.159634 0.859464
191.554626 -109.487679 2.826529 0.584390
191.554626 -109.487679 2.495208 0.549020
191.554626 -109.487679 2.164952 0.822614
191.554642 -109.487679 1.835048 0.519966
191.554642 -109.487679 1.504792 0.532311
191.554626 -109.487679 1.173471 0.549020
191.554642 -109.487679 0.840366 0.607050
191.554626 -109.487679 0.504744 0.550988
191.554642 -109.487679 0.165846 0.743404
190.755173 -109.305092 -0.000001 0.547204
189.511490 -109.021049 -0.000001 0.541283
191.554642 -109.559982 4.529052 0.549020
191.554626 -109.559982 4.180644 0.863783
191.554626 -109.559982 3.837128 0.517647
191.554626 -109.559982 3.497680 0.558480
191.554626 -109.559982 3.161513 0.862318
191.554626 -109.559982 2.827869 0.569818
191.554626 -109.559982 2.496011 0.574517
191.554626 -109.559982 2.165219 0.800137
191.554626 -109.559982 1.834781 0.550896
191.554626 -109.559982 1.503989 0.509377
191.554626 -109.559982 1.172131 0.821210
191.554626 -109.559982 0.838486 0.582910
191.554642 -109.559982 0.502319 0.584100
191.554626 -109.559982 0.162872 0.807843
190.740555 -109.368065 -0.000001 0.565896
189.498901 -109.075348 -0.000001 0.541207
191.554626 -109.632523 4.533282 0.517647
191.554642 -109.632523 4.184293 0.567773
191.554626 -109.632523 3.840201 0.549020
191.554626 -109.632523 3.500186 0.585534
191.554626 -109.632523 3.163457 0.640085
191.554642 -109.632523 2.829254 0.554681
191.554626 -109.632523 2.496841 0.549020
191.554626 -109.632523 2.165495 0.836179
191.554626 -109.632523 1.834505 0.520684
191.554626 -109.632523 1.503159 0.517647
191.554642 -109.632523 1.170746 0.814328
191.554626 -109.632523 0.836543 0.539086
191.554642 -109.632523 0.499814 0.580392
191.554642 -109.632523 0.159798 0.518151
190.725510 -109.430939 -0.000001 0.519371
189.485916 -109.129562 -0.000000 0.515114
191.554626 -109.705307 4.537652 0.517647
191.554626 -109.705307 4.188059 0.553414
191.554626 -109.705307 3.843375 0.482567
191.554626 -109.705307 3.502773 0.610269
191.554626 -109.705307 3.165463 0.628855
191.554626 -109.705307 2.830684 0.546197
191.554626 -109.705307 2.497698 0.574060
191.554626 -109.705307 2.165781 0.757275
191.554626 -109.705307 1.834219 0.526680
191.554626 -109.705307 1.502302 0.549020
191.554626 -109.705307 1.169316 0.776226
191.554626 -109.705307 0.834537 0.517647
191.554626 -109.705307 0.497227 0.549020
191.554642 -109.705307 0.156624 0.518318
190.710022 -109.493706 -0.000001 0.508934
189.472565 -109.183678 -0.000001 0.526055
191.554626 -109.778351 4.542160 0.672755
191.554626 -109.778351 4.191947 0.546746
191.554626 -109.778351 3.846650 0.517647
191.554626 -109.778351 3.505443 0.603067
191.554626 -109.778351 3.167534 0.654231
191.554626 -109.778351 2.832160 0.544610
191.554626 -109.778351 2.498582 0.579919
191.554626 -109.778351 2.166075 0.768002
191.554626 -109.778351 1.833925 0.528069
191.554626 -109.778351 1.501418 0.518151
191.554626 -109.778351 1.167840 0.797436
191.554626 -109.778351 0.832466 0.552056
191.554626 -109.778351 0.494557 0.740841
191.554642 -109.778351 0.153349 0.518624
190.694092 -109.556358 -0.000001 0.549752
189.458817 -109.237701 -0.000001 0.484337
191.554642 -109.851654 4.546809 0.682994
191.554626 -109.851654 4.195955 0.514565
191.554626 -109.851654 3.850027 0.726284
191.554626 -109.851654 3.508196 0.553246
191.554642 -109.851654 3.169669 0.664912
191.554626 -109.851654 2.833682 0.535500
191.554626 -109.851654 2.499494 0.569162
191.554626 -109.851654 2.166379 0.780316
191.554626 -109.851654 1.833621 0.578546
191.554626 -109.851654 1.500506 0.543847
191.554626 -109.851654 1.166318 0.735103
191.554642 -109.851654 0.830331 0.554498
191.554642 -109.851654 0.491804 0.716747
191.554642 -109.851654 0.149973 0.582422
190.677719 -109.618896 -0.000001 0.542824
189.444717 -109.291626 -0.000001 0.522026
191.554626 -109.925232 4.551600 0.776852
191.554626 -109.925232 4.200085 0.521630
191.554642 -109.925232 3.853507 0.683909
191.554626 -109.925232 3.511033 0.559594
191.554626 -109.925232 3.171869 0.530221
191.554626 -109.925232 2.835250 0.516945
191.554626 -109.925232 2.500433 0.571130
191.554626 -109.925232 2.166692 0.755779
191.554626 -109.925232 1.833308 0.590509
191.554626 -109.925232 1.499567 0.549020
191.554642 -109.925232 1.164750 0.716182
191.554626 -109.925232 0.828131 0.554452
191.554642 -109.925232 0.488967 0.729961
191.554642 -109.925232 0.146493 0.591333
190.660919 -109.681328 -0.000001 0.550103
189.430222 -109.345451 -0.000000 0.525643
191.554626 -109.999092 4.556532 0.810544
191.554626 -109.999092 4.204339 0.520287
191.554642 -109.999092 3.857090 0.788281
191.554626 -109.999092 3.513954 0.571466
191.554626 -109.999092 3.174135 0.584634
191.554626 -109.999092 2.836864 0.763485
191.554626 -109.999092 2.501401 0.562081
191.554626 -109.999092 2.167014 0.744625
191.554626 -109.999092 1.832986 0.567544
191.554626 -109.999092 1.498599 0.517952
191.554626 -109.999092 1.163135 0.618708
191.554642 -109.999092 0.825865 0.580835
191.554642 -109.999092 0.486046 0.601770
191.554642 -109.999092 0.142910 0.550469
190.643677 -109.743629 -0.000001 0.542412
189.415359 -109.399178 -0.000000 0.563546
191.554642 -110.073242 4.561610 0.672160
191.554642 -110.073242 4.208717 0.494652
191.554626 -110.073242 3.860779 0.768811
191.554642 -110.073242 3.516961 0.581155
191.554626 -110.073242 3.176466 0.578775
191.554626 -110.073242 2.838527 0.736324
191.554642 -110.073242 2.502397 0.543557
191.554626 -110.073242 2.167346 0.653162
191.554626 -110.073242 1.832654 0.579156
191.554642 -110.073242 1.497603 0.587076
191.554626 -110.073242 1.161473 0.599893
191.554642 -110.073242 0.823534 0.536324
191.554642 -110.073242 0.483039 0.659815
191.554642 -110.073242 0.139221 0.549020
190.626007 -109.805817 -0.000001 0.527214
189.400116 -109.452797 -0.000001 0.577752
191.554642 -110.147690 4.566833 0.676799
191.554626 -110.147690 4.213221 0.737682
191.554626 -110.147690 3.864573 0.836484
191.554642 -110.147690 3.520054 0.551415
191.554626 -110.147690 3.178865 0.549020
191.554626 -110.147690 2.840236 0.800946
191.554626 -110.147690 2.503421 0.753704
191.554642 -110.147690 2.167687 0.802319
191.554642 -110.147690 1.832313 0.560784
191.554626 -110.147690 1.496579 0.527184
191.554626 -110.147690 1.159763 0.741588
191.554626 -110.147690 0.821135 0.794156
191.554642 -110.147690 0.479946 0.685267
191.554642 -110.147690 0.135427 0.586404
190.607895 -109.867874 -0.000001 0.564004
189.384506 -109.506310 -0.000001 0.540795
191.554642 -110.222443 4.572203 0.765332
191.554626 -110.222443 4.217851 0.557656
191.554626 -110.222443 3.868474 0.643961
191.554626 -110.222443 3.523234 0.790356
191.554626 -110.222443 3.181331 0.630915
191.554626 -110.222443 2.841994 0.711147
191.554626 -110.222443 2.504474 0.563333
191.554626 -110.222443 2.168038 0.764431
191.554626 -110.222443 1.831962 0.766354
191.554626 -110.222443 1.495526 0.697490
191.554626 -110.222443 1.158005 0.552895
191.554642 -110.222443 0.818668 0.567056
191.554626 -110.222443 0.476766 0.715846
191.554642 -110.222443 0.131526 0.773465
190.589355 -109.929810 -0.000001 0.552865
189.368530 -109.559708 -0.000001 0.496513
191.554642 -110.297516 4.577722 0.549020
191.554626 -110.297516 4.222609 0.751141
191.554626 -110.297516 3.872482 0.742702
191.554626 -110.297516 3.526502 0.572488
191.554626 -110.297516 3.183866 0.551843
191.554642 -110.297516 2.843801 0.754742
191.554642 -110.297516 2.505556 0.685389
191.554626 -110.297516 2.168398 0.814908
191.554626 -110.297516 1.831602 0.528344
191.554642 -110.297516 1.494443 0.603098
191.554642 -110.297516 1.156199 0.720562
191.554626 -110.297516 0.816134 0.655100
191.554642 -110.297516 0.473498 0.560418
191.554642 -110.297516 0.127518 0.566155
190.570389 -109.991615 -0.000001 0.525002
189.352173 -109.612991 -0.000001 0.541054
191.554626 -110.372910 4.583389 0.549020
191.554626 -110.372910 4.227496 0.523415
191.554626 -110.372910 3.876599 0.549020
191.554626 -110.372910 3.529859 0.631617
191.554626 -110.372910 3.186469 0.640131
191.554626 -110.372910 2.845656 0.779736
191.554626 -110.372910 2.506668 0.572427
191.554626 -110.372910 2.168769 0.762158
191.554626 -110.372910 1.831231 0.517647
191.554626 -110.372910 1.493332 0.647654
191.554626 -110.372910 1.154344 0.566629
191.554626 -110.372910 0.813531 0.590066
191.554626 -110.372910 0.470141 0.587503
191.554642 -110.372910 0.123400 0.653864
190.550980 -110.053276 -0.000001 0.511498
189.335434 -109.666168 -0.000000 0.543008
191.554626 -110.448647 4.589210 0.549020
191.554642 -110.448647 4.232514 0.524025
191.554626 -110.448647 3.880827 0.540322
191.554626 -110.448647 3.533305 0.809705
191.554626 -110.448647 3.189142 0.576471
191.554626 -110.448647 2.847561 0.766964
191.554626 -110.448647 2.507810 0.549020
191.554626 -110.448647 2.169149 0.752605
191.554626 -110.448647 1.830851 0.535729
191.554626 -110.448647 1.492190 0.616815
191.554626 -110.448647 1.152438 0.566201
191.554642 -110.448647 0.810858 0.796750
191.554642 -110.448647 0.466695 0.522454
191.554642 -110.448647 0.119173 0.633082
190.531143 -110.114807 -0.000001 0.547662
189.318329 -109.719223 -0.000001 0.517586
191.554642 -110.524727 4.595182 0.580392
191.554642 -110.524727 4.237664 0.808408
191.554642 -110.524727 3.885165 0.517647
191.554626 -110.524727 3.536842 0.796689
191.554626 -110.524727 3.191885 0.568994
191.554642 -110.524727 2.849516 0.798947
191.554626 -110.524727 2.508981 0.539956
191.554626 -110.524727 2.169539 0.767254
191.554626 -110.524727 1.830461 0.572351
191.554626 -110.524727 1.491019 0.616815
191.554642 -110.524727 1.150483 0.562661
191.554642 -110.524727 0.808115 0.803662
191.554642 -110.524727 0.463158 0.517128
191.554642 -110.524727 0.114834 0.752880
190.510895 -110.176201 -0.000001 0.538399
189.300858 -109.772156 -0.000000 0.564752
191.554626 -110.601158 4.601310 0.580392
191.554642 -110.601166 4.242948 0.614252
191.554626 -110.601158 3.889616 0.530877
191.554642 -110.601158 3.540471 0.759945
191.554626 -110.601158 3.194699 0.580392
191.554626 -110.601158 2.851522 0.817044
191.554642 -110.601158 2.510182 0.556451
191.554642 -110.601166 2.169940 0.810575
191.554642 -110.601166 1.830061 0.549020
191.554642 -110.601158 1.489817 0.849241
191.554642 -110.601158 1.148477 0.556558
191.554642 -110.601158 0.805301 0.795300
191.554642 -110.601166 0.459529 0.537255
191.554642 -110.601166 0.110383 0.736339
190.490204 -110.237450 -0.000000 0.542382
189.283020 -109.824966 -0.000001 0.560815
191.554642 -110.677963 4.607594 0.562127
191.554626 -110.677963 4.248365 0.683085
191.554642 -110.677963 3.894181 0.580392
191.554626 -110.677963 3.544192 0.745830
191.554642 -110.677963 3.197586 0.570596
191.554626 -110.677963 2.853579 0.676890
191.554626 -110.677963 2.511415 0.586450
191.554626 -110.677963 2.170350 0.760296
191.554626 -110.677963 1.829650 0.525490
191.554626 -110.677963 1.488585 0.831174
191.554626 -110.677963 1.146421 0.572396
191.554642 -110.677963 0.802415 0.590066
191.554642 -110.677963 0.455808 0.524010
191.554642 -110.677963 0.105818 0.598779
190.469086 -110.298553 -0.000000 0.519249
189.264816 -109.877647 -0.000001 0.552178
191.554642 -110.755142 4.614036 0.734127
191.554626 -110.755142 4.253920 0.505241
191.554642 -110.755142 3.898861 0.517647
191.554626 -110.755142 3.548007 0.569574
191.554626 -110.755142 3.200544 0.549828
191.554626 -110.755142 2.855688 0.704402
191.554626 -110.755142 2.512678 0.599145
191.554626 -110.755142 2.170771 0.863981
191.554626 -110.755142 1.829229 0.517647
191.554626 -110.755142 1.487321 0.777615
191.554626 -110.755142 1.144312 0.537179
191.554626 -110.755142 0.799456 0.599130
191.554626 -110.755142 0.451993 0.502754
191.554642 -110.755142 0.101139 0.543725
190.447540 -110.359505 -0.000001 0.549386
189.246246 -109.930206 -0.000001 0.475120
191.554642 -110.832703 4.620638 0.817777
191.554642 -110.832703 4.259613 0.550484
191.554626 -110.832703 3.903656 0.816358
191.554642 -110.832703 3.551917 0.714183
191.554642 -110.832703 3.203576 0.526284
191.554642 -110.832703 2.857849 0.723186
191.554642 -110.832703 2.513973 0.783764
191.554642 -110.832703 2.171202 0.822171
191.554642 -110.832703 1.828798 0.551843
191.554642 -110.832703 1.486026 0.830411
191.554642 -110.832703 1.142151 0.799985
191.554642 -110.832703 0.796424 0.618265
191.554642 -110.832703 0.448083 0.555520
191.554642 -110.832703 0.096343 0.829465
190.425568 -110.420303 -0.000001 0.510430
189.227295 -109.982628 -0.000001 0.508217
191.554626 -110.910660 4.627401 0.731716
191.554626 -110.910660 4.265445 0.796139
191.554626 -110.910660 3.908570 0.607752
191.554642 -110.910660 3.555922 0.556985
191.554642 -110.910660 3.206682 0.791363
191.554626 -110.910660 2.860063 0.697292
191.554642 -110.910660 2.515300 0.560220
191.554642 -110.910660 2.171644 0.812619
191.554642 -110.910660 1.828356 0.615396
191.554642 -110.910660 1.484700 0.697704
191.554626 -110.910660 1.139937 0.512444
191.554642 -110.910660 0.793318 0.675425
191.554642 -110.910660 0.444078 0.796139
191.554642 -110.910660 0.091430 0.549020
190.403183 -110.480949 -0.000001 0.547753
189.207993 -110.034920 -0.000001 0.535866
191.554626 -110.989029 4.634329 0.531991
191.554626 -110.989029 4.271418 0.547890
191.554642 -110.989029 3.913602 0.603632
191.554626 -110.989029 3.560024 0.553063
191.554626 -110.989029 3.209864 0.517647
191.554642 -110.989029 2.862330 0.549020
191.554626 -110.989029 2.516659 0.547555
191.554626 -110.989029 2.172097 0.804883
191.554626 -110.989029 1.827904 0.555734
191.554626 -110.989029 1.483341 0.728435
191.554642 -110.989029 1.137669 0.628885
191.554642 -110.989029 0.790136 0.550484
191.554642 -110.989029 0.439976 0.704845
191.554642 -110.989029 0.086397 0.588937
190.380371 -110.541443 -0.000001 0.527825
189.188324 -110.087074 -0.000000 0.534142
191.554642 -111.067818 4.641421 0.529168
191.554626 -111.067810 4.277534 0.527947
191.554642 -111.067810 3.918755 0.789639
191.554642 -111.067810 3.564225 0.549020
191.554642 -111.067810 3.213121 0.549020
191.554642 -111.067810 2.864653 0.482353
191.554626 -111.067810 2.518049 0.546166
191.554626 -111.067810 2.172560 0.743954
191.554626 -111.067810 1.827440 0.549020
191.554626 -111.067810 1.481950 0.678431
191.554642 -111.067810 1.135347 0.574945
191.554642 -111.067810 0.786878 0.580392
191.554642 -111.067810 0.435775 0.706249
191.554642 -111.067818 0.081245 0.554376
190.357132 -110.601768 -0.000001 0.553704
189.168289 -110.139091 -0.000000 0.546807
191.554642 -111.147026 4.648683 0.520439
191.554626 -111.147026 4.283794 0.557244
191.554626 -111.147026 3.924028 0.786954
191.554626 -111.147026 3.568524 0.497108
191.554626 -111.147026 3.216456 0.561578
191.554642 -111.147026 2.867030 0.518791
191.554626 -111.147026 2.519474 0.563607
191.554642 -111.147026 2.173034 0.791775
191.554642 -111.147026 1.826966 0.568017
191.554626 -111.147026 1.480526 0.549020
191.554642 -111.147026 1.132970 0.590951
191.554642 -111.147026 0.783544 0.580392
191.554626 -111.147026 0.431475 0.697276
191.554626 -111.147026 0.075971 0.549020
190.333466 -110.661934 -0.000001 0.580163
189.147888 -110.190971 -0.000001 0.545220
191.554642 -111.226685 4.656114 0.517647
191.554626 -111.226685 4.290201 0.561883
191.554626 -111.226685 3.929427 0.707591
191.554626 -111.226685 3.572925 0.533944
191.554626 -111.226685 3.219869 0.549020
191.554642 -111.226685 2.869462 0.556878
191.554626 -111.226685 2.520931 0.538964
191.554642 -111.226685 2.173520 0.785016
191.554642 -111.226685 1.826480 0.538582
191.554626 -111.226685 1.479069 0.550057
191.554642 -111.226685 1.130538 0.559838
191.554642 -111.226685 0.780131 0.549020
191.554642 -111.226685 0.427075 0.714794
191.554642 -111.226685 0.070573 0.579690
190.309402 -110.721931 -0.000001 0.529290
189.127136 -110.242699 -0.000000 0.520897
191.554642 -111.306793 4.663716 0.604044
191.554642 -111.306793 4.296757 0.808911
191.554642 -111.306793 3.934949 0.628336
191.554642 -111.306793 3.577427 0.517647
191.554642 -111.306793 3.223361 0.864302
191.554642 -111.306793 2.871951 0.557534
191.554626 -111.306793 2.522422 0.549996
191.554626 -111.306786 2.174016 0.783017
191.554626 -111.306786 1.825984 0.658961
191.554626 -111.306793 1.477578 0.549020
191.554642 -111.306793 1.128049 0.774533
191.554642 -111.306793 0.776639 0.604898
191.554642 -111.306793 0.422573 0.543145
191.554642 -111.306793 0.065050 0.836942
190.284897 -110.781761 -0.000001 0.534371
189.106018 -110.294289 -0.000000 0.580056
191.554642 -111.387360 4.671494 0.750790
191.554642 -111.387360 4.303463 0.809506
191.554642 -111.387360 3.940599 0.536950
191.554642 -111.387360 3.582033 0.786648
191.554626 -111.387360 3.226932 0.835416
191.554626 -111.387360 2.874496 0.549020
191.554642 -111.387360 2.523948 0.801312
191.554642 -111.387360 2.174524 0.734508
191.554642 -111.387360 1.825475 0.543160
191.554642 -111.387360 1.476052 0.812924
191.554626 -111.387360 1.125503 0.753185
191.554642 -111.387360 0.773067 0.549020
191.554642 -111.387360 0.417967 0.781552
191.554642 -111.387360 0.059401 0.817487
190.259995 -110.841408 -0.000001 0.544366
189.084534 -110.345726 -0.000000 0.525536
191.554642 -111.468407 4.679447 0.797055
191.554642 -111.468407 4.310320 0.697002
191.554642 -111.468407 3.946377 0.588663
191.554626 -111.468407 3.586743 0.549020
191.554626 -111.468407 3.230585 0.601923
191.554626 -111.468407 2.877100 0.580392
191.554626 -111.468407 2.525507 0.577203
191.554626 -111.468407 2.175044 0.735500
191.554626 -111.468407 1.824956 0.560784
191.554626 -111.468407 1.474493 0.549020
191.554626 -111.468407 1.122900 0.807843
191.554626 -111.468407 0.769415 0.611307
191.554626 -111.468407 0.413257 0.555566
191.554642 -111.468407 0.053623 0.576593
190.234665 -110.900894 -0.000001 0.539620
189.062698 -110.397011 -0.000001 0.532097
191.554642 -111.549942 4.687580 0.598810
191.554642 -111.549942 4.317333 0.580392
191.554642 -111.549942 3.952284 0.542748
191.554642 -111.549942 3.591559 0.666148
191.554626 -111.549942 3.234320 0.647486
191.554642 -111.549942 2.879762 0.550118
191.554642 -111.549942 2.527102 0.549020
191.554642 -111.549942 2.175575 0.689189
191.554642 -111.549942 1.824425 0.552834
191.554642 -111.549942 1.472897 0.549020
191.554642 -111.549942 1.120237 0.541909
191.554642 -111.549942 0.765680 0.580392
191.554642 -111.549942 0.408441 0.568627
191.554642 -111.549942 0.047716 0.549020
190.208923 -110.960197 -0.000001 0.521126
189.040497 -110.448143 -0.000001 0.568093
191.554642 -111.631981 4.695893 0.544488
191.554642 -111.631973 4.324501 0.549020
191.554642 -111.631981 3.958323 0.558587
191.554642 -111.631981 3.596482 0.637812
191.554626 -111.631973 3.238138 0.634440
191.554642 -111.631981 2.882483 0.486351
191.554642 -111.631973 2.528733 0.610727
191.554642 -111.631981 2.176118 0.689021
191.554642 -111.631981 1.823882 0.585046
191.554642 -111.631981 1.471267 0.549020
191.554642 -111.631981 1.117516 0.541909
191.554642 -111.631981 0.761861 0.521355
191.554642 -111.631981 0.403517 0.520714
191.554642 -111.631981 0.041676 0.482353
190.182770 -111.019318 -0.000001 0.562829
189.017944 -110.499115 -0.000001 0.553368
191.554642 -111.714523 4.704391 0.517647
191.554642 -111.714523 4.331828 0.549020
191.554626 -111.714523 3.964495 0.544732
191.554642 -111.714523 3.601514 0.765881
191.554642 -111.714523 3.242041 0.522377
191.554626 -111.714523 2.885265 0.549020
191.554626 -111.714523 2.530400 0.562844
191.554626 -111.714523 2.176673 0.726619
191.554626 -111.714523 1.823326 0.557305
191.554642 -111.714523 1.469600 0.549020
191.554626 -111.714523 1.114735 0.538781
191.554642 -111.714523 0.757959 0.729900
191.554642 -111.714523 0.398486 0.508156
191.554626 -111.714523 0.035504 0.549020
190.156204 -111.078255 -0.000001 0.524849
188.995041 -110.549934 -0.000001 0.509071
191.554642 -111.797600 4.713075 0.575265
191.554642 -111.797600 4.339315 0.807813
191.554642 -111.797600 3.970804 0.559472
191.554626 -111.797600 3.606657 0.836332
191.554642 -111.797600 3.246029 0.836439
191.554642 -111.797600 2.888108 0.549020
191.554626 -111.797600 2.532103 0.773617
191.554626 -111.797600 2.177241 0.829084
191.554626 -111.797600 1.822759 0.541527
191.554626 -111.797600 1.467897 0.827085
191.554642 -111.797600 1.111892 0.579416
191.554642 -111.797600 0.753971 0.826062
191.554642 -111.797600 0.393343 0.844907
191.554642 -111.797600 0.029196 0.549020
190.129211 -111.137001 -0.000000 0.519142
188.971771 -110.600594 -0.000000 0.521202
191.554626 -111.881210 4.721947 0.587716
191.554642 -111.881210 4.346967 0.565484
191.554626 -111.881210 3.977249 0.742641
191.554642 -111.881210 3.611912 0.691081
191.554626 -111.881210 3.250104 0.556512
191.554626 -111.881210 2.891012 0.549020
191.554626 -111.881210 2.533843 0.549294
191.554626 -111.881210 2.177820 0.772763
191.554626 -111.881210 1.822179 0.543511
191.554626 -111.881210 1.466157 0.498970
191.554626 -111.881210 1.108988 0.549523
191.554626 -111.881210 0.749896 0.705074
191.554642 -111.881210 0.388088 0.603204
191.554642 -111.881210 0.022751 0.590890
190.101837 -111.195557 -0.000001 0.551217
188.948166 -110.651085 -0.000000 0.509728
191.554642 -111.965378 4.731012 0.795224
191.554642 -111.965378 4.354782 0.766354
191.554642 -111.965378 3.983834 0.804593
191.554642 -111.965378 3.617280 0.580392
191.554642 -111.965378 3.254268 0.553002
191.554626 -111.965378 2.893980 0.549020
191.554626 -111.965378 2.535620 0.513100
191.554626 -111.965378 2.178412 0.831632
191.554626 -111.965378 1.821587 0.618708
191.554626 -111.965378 1.464379 0.580392
191.554626 -111.965378 1.106020 0.566552
191.554642 -111.965378 0.745732 0.804074
191.554642 -111.965378 0.382720 0.754772
191.554642 -111.965378 0.016166 0.619547
190.074036 -111.253929 -0.000000 0.526177
188.924194 -110.701408 -0.000000 0.518044
191.554642 -112.050110 4.740272 0.537865
191.554642 -112.050117 4.362766 0.553307
191.554626 -112.050110 3.990560 0.664408
191.554626 -112.050110 3.622763 0.616312
191.554626 -112.050110 3.258520 0.548898
191.554626 -112.050110 2.897011 0.517647
191.554626 -112.050110 2.537436 0.836118
191.554626 -112.050110 2.179018 0.800671
191.554626 -112.050110 1.820982 0.610025
191.554626 -112.050110 1.462563 0.549020
191.554626 -112.050110 1.102989 0.567529
191.554642 -112.050110 0.741480 0.517647
191.554642 -112.050110 0.377237 0.765072
191.554642 -112.050110 0.009440 0.789990
190.045837 -111.312096 -0.000000 0.533959
188.899872 -110.751572 -0.000000 0.526253
191.554626 -112.135429 4.749728 0.568658
191.554626 -112.135429 4.370919 0.639002
191.554642 -112.135429 3.997429 0.521324
191.554626 -112.135429 3.628363 0.686122
191.554626 -112.135429 3.262863 0.571633
191.554626 -112.135429 2.900106 0.627024
191.554626 -112.135429 2.539291 0.807172
191.554626 -112.135422 2.179635 0.852445
191.554626 -112.135422 1.820365 0.699855
191.554626 -112.135429 1.460709 0.549844
191.554626 -112.135429 1.099894 0.683909
191.554626 -112.135429 0.737137 0.517647
191.554626 -112.135429 0.371637 0.598444
191.554642 -112.135429 0.002570 0.688991
190.017227 -111.370071 -0.000001 0.547066
188.875214 -110.801552 -0.000000 0.524620
191.554642 -112.221336 4.759386 0.571466
191.554642 -112.221336 4.379247 0.561303
191.554626 -112.221336 4.004445 0.601526
191.554626 -112.221336 3.634082 0.560906
191.554642 -112.221336 3.267299 0.605188
191.554642 -112.221336 2.903267 0.551690
191.554626 -112.221336 2.541185 0.782712
191.554626 -112.221336 2.180266 0.738308
191.554626 -112.221336 1.819734 0.683284
191.554626 -112.221336 1.458814 0.569268
191.554642 -112.221336 1.096732 0.538033
191.554642 -112.221336 0.732701 0.533089
191.554642 -112.221336 0.365918 0.568505
191.532852 -112.210297 -0.000000 0.556542
189.988205 -111.427841 -0.000000 0.530983
188.850189 -110.851372 -0.000000 0.549477
191.554642 -112.307854 4.769247 0.566644
191.554626 -112.307854 4.387749 0.496559
191.554626 -112.307854 4.011607 0.550805
191.554626 -112.307854 3.639921 0.564355
191.554626 -112.307854 3.271827 0.579644
191.554626 -112.307854 2.906495 0.747890
191.554626 -112.307854 2.543119 0.711269
191.554642 -112.307854 2.180911 0.797314
191.554642 -112.307854 1.819089 0.651408
191.554626 -112.307854 1.456881 0.574609
191.554642 -112.307854 1.093504 0.518975
191.554642 -112.307854 0.728173 0.536400
191.554642 -112.307854 0.360079 0.549020
191.497925 -112.278633 -0.000001 0.533272
189.958801 -111.485413 -0.000000 0.539925
188.824829 -110.901009 -0.000000 0.530236
191.554642 -112.394997 4.779314 0.742321
191.554642 -112.394997 4.396430 0.549020
191.554626 -112.394997 4.018920 0.561975
191.554626 -112.394997 3.645884 0.553841
191.554626 -112.394997 3.276451 0.542473
191.554626 -112.394997 2.909790 0.715007
191.554626 -112.394997 2.545094 0.653971
191.554642 -112.394997 2.181568 0.785779
191.554642 -112.394997 1.818432 0.688975
191.554626 -112.394997 1.454906 0.640711
191.554626 -112.394997 1.090209 0.484886
191.554642 -112.394997 0.723549 0.566674
191.554642 -112.394997 0.354116 0.549020
191.462540 -112.346718 -0.000000 0.529366
189.928986 -111.542778 -0.000000 0.499519
188.799118 -110.950462 0.000000 0.558068
191.554642 -112.482780 4.789592 0.639414
191.554642 -112.482780 4.405292 0.623804
191.554626 -112.482780 4.026386 0.791348
191.554626 -112.482780 3.651969 0.619394
191.554642 -112.482780 3.281171 0.716442
191.554642 -112.482780 2.913155 0.698177
191.554642 -112.482780 2.547110 0.727352
191.554626 -112.482780 2.182240 0.753704
191.554626 -112.482780 1.817760 0.688136
191.554642 -112.482780 1.452890 0.803784
191.554642 -112.482780 1.086845 0.574182
191.554642 -112.482780 0.718829 0.789441
191.554626 -112.482780 0.348031 0.580392
191.426682 -112.414558 -0.000000 0.626200
189.898758 -111.599922 -0.000000 0.518791
188.773071 -110.999741 0.000000 0.541085
191.554642 -112.571220 4.800083 0.523400
191.554642 -112.571220 4.414336 0.596246
191.554642 -112.571220 4.034007 0.656092
191.554626 -112.571220 3.658182 0.545357
191.554642 -112.571220 3.285989 0.689021
191.554642 -112.571220 2.916589 0.740093
191.554642 -112.571220 2.549167 0.745052
191.554642 -112.571220 2.182925 0.676448
191.554642 -112.571220 1.817075 0.732082
191.554642 -112.571220 1.450833 0.717250
191.554642 -112.571220 1.083411 0.635294
191.554642 -112.571220 0.714011 0.549020
191.554642 -112.571220 0.341818 0.624842
191.390335 -112.482140 -0.000000 0.549737
189.868149 -111.656868 -0.000000 0.522744
188.746674 -111.048836 0.000000 0.555215
191.554642 -112.660332 4.810789 0.535668
191.554642 -112.660332 4.423569 0.586465
191.554626 -112.660332 4.041785 0.768795
191.554626 -112.660332 3.664522 0.660883
191.554626 -112.660332 3.290906 0.763195
191.554626 -112.660332 2.920094 0.773404
191.554626 -112.660332 2.551267 0.748562
191.554626 -112.660332 2.183625 0.686900
191.554626 -112.660332 1.816376 0.701320
191.554626 -112.660332 1.448733 0.707927
191.554642 -112.660332 1.079906 0.620142
191.554642 -112.660332 0.709093 0.627100
191.554626 -112.660332 0.335478 0.594156
191.353531 -112.549477 -0.000001 0.546212
189.837143 -111.713593 -0.000000 0.523171
188.719925 -111.097748 0.000000 0.548913
191.554642 -112.750137 4.821717 0.579065
191.554626 -112.750130 4.432991 0.806500
191.554642 -112.750137 4.049723 0.591836
191.554642 -112.750137 3.670994 0.809186
191.554626 -112.750130 3.295925 0.822980
191.554642 -112.750137 2.923671 0.774960
191.554626 -112.750130 2.553410 0.591134
191.554626 -112.750130 2.184338 0.691615
191.554626 -112.750130 1.815662 0.720775
191.554626 -112.750130 1.446590 0.709865
191.554642 -112.750137 1.076329 0.827909
191.554626 -112.750130 0.704075 0.720088
191.554642 -112.750137 0.329006 0.804685
191.316254 -112.616547 -0.000000 0.530922
189.805725 -111.770096 0.000000 0.524926
188.692856 -111.146469 -0.000000 0.508995
191.554642 -112.840637 4.832869 0.814603
191.554642 -112.840637 4.442607 0.555749
191.554642 -112.840637 4.057823 0.549020
191.554642 -112.840637 3.677598 0.597925
191.554626 -112.840637 3.301047 0.589334
191.554642 -112.840637 2.927321 0.657862
191.554626 -112.840637 2.555597 0.599771
191.554626 -112.840637 2.185067 0.695003
191.554626 -112.840637 1.814933 0.659724
191.554626 -112.840637 1.444403 0.680049
191.554642 -112.840637 1.072678 0.753567
191.554626 -112.840637 0.698953 0.827588
191.554642 -112.840637 0.322402 0.549020
191.278503 -112.683357 -0.000000 0.536889
189.773926 -111.826385 -0.000000 0.542840
188.665436 -111.195000 -0.000000 0.556695
191.554642 -112.931870 4.844248 0.549020
191.554642 -112.931870 4.452417 0.623804
191.554642 -112.931870 4.066090 0.566018
191.554642 -112.931870 3.684336 0.584039
191.554626 -112.931870 3.306273 0.596963
191.554626 -112.931870 2.931046 0.549020
191.554626 -112.931870 2.557829 0.628855
191.554626 -112.931870 2.185810 0.765133
191.554626 -112.931870 1.814190 0.631113
191.554626 -112.931870 1.442171 0.685222
191.554626 -112.931870 1.068953 0.622354
191.554642 -112.931870 0.693727 0.865339
191.554642 -112.931870 0.315664 0.577752
191.240295 -112.749901 -0.000001 0.549157
189.741745 -111.882446 -0.000000 0.552850
188.637680 -111.243347 -0.000000 0.534035
191.554642 -113.023834 4.855859 0.803922
191.554626 -113.023834 4.462429 0.743694
191.554642 -113.023834 4.074523 0.499016
191.554642 -113.023834 3.691212 0.814710
191.554642 -113.023834 3.311605 0.514946
191.554626 -113.023834 2.934847 0.812192
191.554626 -113.023834 2.560106 0.590784
191.554626 -113.023834 2.186569 0.843793
191.554626 -113.023834 1.813431 0.805524
191.554642 -113.023834 1.439894 0.724208
191.554626 -113.023834 1.065153 0.800900
191.554642 -113.023834 0.688395 0.614801
191.554642 -113.023834 0.308788 0.811765
191.201614 -112.816177 -0.000000 0.533639
189.709152 -111.938286 -0.000000 0.497688
188.609589 -111.291489 -0.000000 0.543160
191.554626 -113.116562 4.867704 0.517372
191.554642 -113.116562 4.472643 0.555703
191.554642 -113.116562 4.083128 0.589868
191.554642 -113.116562 3.698227 0.513787
191.554642 -113.116562 3.317046 0.562905
191.554642 -113.116562 2.938725 0.482353
191.554626 -113.116562 2.562429 0.520867
191.554626 -113.116562 2.187342 0.810575
191.554626 -113.116562 1.812657 0.593561
191.554626 -113.116562 1.437571 0.568170
191.554642 -113.116562 1.061275 0.584222
191.554626 -113.116562 0.682954 0.539467
191.554642 -113.116562 0.301773 0.517647
191.162476 -112.882187 -0.000000 0.564935
189.676193 -111.993889 -0.000000 0.532387
188.581146 -111.339432 0.000000 0.531136
191.554642 -113.210068 4.879790 0.752575
191.554626 -113.210068 4.483064 0.517647
191.554626 -113.210068 4.091908 0.771511
191.554626 -113.210068 3.705384 0.553674
191.554642 -113.210068 3.322597 0.557076
191.554626 -113.210068 2.942681 0.517647
191.554626 -113.210068 2.564800 0.517647
191.554626 -113.210068 2.188132 0.857542
191.554626 -113.210068 1.811868 0.609094
191.554626 -113.210068 1.435200 0.538949
191.554626 -113.210068 1.057319 0.549020
191.554642 -113.210068 0.677403 0.517647
191.554642 -113.210068 0.294616 0.450980
191.122879 -112.947922 -0.000000 0.512261
189.642822 -112.049263 -0.000000 0.512428
188.552383 -111.387184 0.000000 0.491600
191.554642 -113.304367 4.892120 0.652583
191.554626 -113.304367 4.493695 0.598825
191.554626 -113.304367 4.100864 0.736843
191.554642 -113.304367 3.712686 0.698558
191.554626 -113.304367 3.328259 0.514031
191.554626 -113.304367 2.946717 0.716869
191.554626 -113.304367 2.567218 0.555779
191.554626 -113.304367 2.188938 0.832303
191.554626 -113.304367 1.811062 0.709468
191.554626 -113.304367 1.432782 0.543145
191.554626 -113.304367 1.053283 0.708629
191.554642 -113.304367 0.671741 0.571328
191.554642 -113.304367 0.287314 0.708629
191.082825 -113.013367 -0.000000 0.527916
189.609085 -112.104408 0.000000 0.530694
188.523285 -111.434723 0.000000 0.531716
191.554642 -113.399483 4.904698 0.582849
191.554642 -113.399483 4.504540 0.654200
191.554626 -113.399483 4.110001 0.522057
191.554642 -113.399483 3.720135 0.813596
191.554626 -113.399483 3.334035 0.513710
191.554642 -113.399483 2.950835 0.517647
191.554642 -113.399483 2.569685 0.551675
191.554626 -113.399483 2.189759 0.787121
191.554626 -113.399483 1.810241 0.609094
191.554642 -113.399483 1.430315 0.519219
191.554642 -113.399483 1.049165 0.517647
191.554642 -113.399483 0.665964 0.556283
191.554642 -113.399483 0.279865 0.792142
191.042313 -113.078537 0.000000 0.546990
189.574951 -112.159317 -0.000000 0.544488
188.493866 -111.482071 0.000000 0.531029
191.554642 -113.495438 4.917528 0.540887
191.554642 -113.495438 4.515603 0.792874
191.554642 -113.495438 4.119321 0.521447
191.554642 -113.495438 3.727732 0.815442
191.554642 -113.495438 3.339929 0.584009
191.554626 -113.495430 2.955034 0.578180
191.554626 -113.495430 2.572201 0.601267
191.554626 -113.495430 2.190598 0.815534
191.554626 -113.495430 1.809402 0.609094
191.554626 -113.495430 1.427799 0.547341
191.554642 -113.495438 1.044965 0.579416
191.554642 -113.495438 0.660071 0.571817
191.554642 -113.495438 0.272268 0.828473
191.001358 -113.143433 -0.000000 0.495842
189.540436 -112.213982 -0.000000 0.516243
188.464111 -111.529205 0.000000 0.513970
191.554642 -113.592239 4.930617 0.751080
191.554642 -113.592239 4.526888 0.549020
191.554626 -113.592239 4.128829 0.563607
191.554642 -113.592239 3.735483 0.553582
191.554626 -113.592239 3.345940 0.595651
191.554642 -113.592239 2.959319 0.582116
191.554626 -113.592239 2.574768 0.593759
191.554626 -113.592239 2.191453 0.791699
191.554626 -113.592239 1.808548 0.627359
191.554626 -113.592239 1.425232 0.502678
191.554626 -113.592239 1.040681 0.501244
191.554626 -113.592239 0.654060 0.636362
191.554626 -113.592239 0.264517 0.630182
190.959930 -113.208031 -0.000000 0.553155
189.505554 -112.268402 0.000000 0.538094
188.434021 -111.576126 0.000000 0.512291
191.554642 -113.689926 4.943967 0.576547
191.554642 -113.689926 4.538399 0.517647
191.554626 -113.689926 4.138526 0.580392
191.554642 -113.689926 3.743389 0.535424
191.554626 -113.689926 3.352071 0.802152
191.554626 -113.689926 2.963689 0.517647
191.554626 -113.689926 2.577386 0.549020
191.554626 -113.689926 2.192325 0.776410
191.554626 -113.689926 1.807675 0.599542
191.554626 -113.689926 1.422613 0.534096
191.554626 -113.689926 1.036311 0.517647
191.554626 -113.689926 0.647930 0.817441
191.554642 -113.689926 0.256611 0.540352
190.918076 -113.272339 -0.000000 0.531487
189.470276 -112.322578 0.000000 0.520378
188.403610 -111.622841 -0.000000 0.544762
191.554642 -113.788513 4.957583 0.492439
191.554642 -113.788513 4.550140 0.517647
191.554642 -113.788513 4.148417 0.779889
191.554626 -113.788513 3.751453 0.556695
191.554626 -113.788513 3.358325 0.818998
191.554626 -113.788513 2.968146 0.549020
191.554626 -113.788513 2.580057 0.618814
191.554626 -113.788513 2.193214 0.690562
191.554626 -113.788513 1.806786 0.549020
191.554626 -113.788513 1.419943 0.770397
191.554626 -113.788513 1.031854 0.624537
191.554642 -113.788513 0.641675 0.850370
191.554626 -113.788513 0.248547 0.675578
190.875748 -113.336349 -0.000000 0.539239
189.434631 -112.376511 -0.000000 0.579065
188.372879 -111.669342 0.000000 0.521691
191.554642 -113.888016 4.971473 0.537423
191.554626 -113.888016 4.562115 0.792874
191.554642 -113.888016 4.158507 0.523201
191.554642 -113.888016 3.759678 0.541405
191.554626 -113.888016 3.364704 0.646174
191.554626 -113.888016 2.972692 0.580392
191.554626 -113.888016 2.582781 0.569757
191.554626 -113.888016 2.194122 0.712001
191.554626 -113.888016 1.805878 0.517647
191.554626 -113.888016 1.417219 0.523583
191.554626 -113.888016 1.027307 0.610574
191.554626 -113.888016 0.635297 0.517098
191.554642 -113.888016 0.240322 0.555154
190.832993 -113.400070 -0.000000 0.543359
189.398605 -112.430191 0.000000 0.563348
188.341812 -111.715630 0.000000 0.569390
191.554642 -113.988464 4.985639 0.790036
191.554642 -113.988464 4.574330 0.664881
191.554642 -113.988464 4.168797 0.549020
191.554642 -113.988464 3.768067 0.555413
191.554642 -113.988464 3.371210 0.765255
191.554626 -113.988464 2.977330 0.833738
191.554626 -113.988464 2.585559 0.560784
191.554626 -113.988464 2.195047 0.844892
191.554626 -113.988464 1.804953 0.784222
191.554626 -113.988464 1.414440 0.525536
191.554626 -113.988464 1.022670 0.841932
191.554642 -113.988464 0.628790 0.793423
191.554642 -113.988464 0.231933 0.552270
190.789795 -113.463486 0.000000 0.570230
189.362213 -112.483620 0.000000 0.553368
188.310425 -111.761696 0.000000 0.544182
191.554642 -114.089882 5.000089 0.549020
191.554642 -114.089882 4.586789 0.549020
191.554642 -114.089882 4.179293 0.562890
191.554642 -114.089882 3.776624 0.759762
191.554626 -114.089882 3.377845 0.549020
191.554626 -114.089882 2.982059 0.765332
191.554626 -114.089882 2.588393 0.537331
191.554626 -114.089882 2.195991 0.752865
191.554626 -114.089882 1.804009 0.495445
191.554626 -114.089882 1.411607 0.551507
191.554626 -114.089882 1.017940 0.759594
191.554626 -114.089882 0.622155 0.597360
191.554642 -114.089882 0.223376 0.718868
190.746140 -113.526604 -0.000000 0.513512
189.325439 -112.536789 -0.000000 0.563958
188.278717 -111.807541 0.000000 0.526055
191.554642 -114.192291 5.014825 0.790341
191.554642 -114.192291 4.599497 0.813016
191.554642 -114.192291 4.189999 0.716686
191.554626 -114.192291 3.785351 0.638209
191.554626 -114.192291 3.384614 0.549020
191.554626 -114.192291 2.986884 0.796933
191.554626 -114.192284 2.591283 0.810407
191.554626 -114.192284 2.196954 0.790387
191.554626 -114.192284 1.803046 0.557214
191.554626 -114.192284 1.408716 0.843565
191.554626 -114.192291 1.013116 0.789380
191.554626 -114.192291 0.615386 0.567483
191.554626 -114.192291 0.214649 0.668025
190.702057 -113.589409 -0.000000 0.552102
189.288300 -112.589706 0.000000 0.555001
188.246704 -111.853172 0.000000 0.608728
191.554642 -114.295715 5.029856 0.563577
191.554626 -114.295715 4.612456 0.716854
191.554642 -114.295715 4.200917 0.661097
191.554642 -114.295715 3.794252 0.585565
191.554626 -114.295708 3.391517 0.517647
191.554626 -114.295715 2.991804 0.558297
191.554626 -114.295715 2.594232 0.561547
191.554626 -114.295708 2.197936 0.739803
191.554626 -114.295708 1.802064 0.553384
191.554626 -114.295715 1.405768 0.517647
191.554642 -114.295715 1.008195 0.549020
191.554626 -114.295708 0.608483 0.529229
191.554642 -114.295715 0.205748 0.567529
190.657532 -113.651909 0.000000 0.534890
189.250793 -112.642357 0.000000 0.548196
188.214355 -111.898567 0.000000 0.574868
191.554642 -114.400177 5.045187 0.833097
191.554642 -114.400177 4.625676 0.846021
191.554626 -114.400177 4.212053 0.810697
191.554626 -114.400177 3.803330 0.784146
191.554626 -114.400177 3.398558 0.800732
191.554626 -114.400177 2.996823 0.629938
191.554626 -114.400177 2.597238 0.587442
191.554626 -114.400177 2.198937 0.839506
191.554626 -114.400177 1.801063 0.820951
191.554626 -114.400177 1.402762 0.634318
191.554626 -114.400177 1.003177 0.553094
191.554626 -114.400177 0.601442 0.768750
191.554626 -114.400177 0.196670 0.808576
190.612579 -113.714096 -0.000000 0.526467
189.212906 -112.694748 0.000000 0.544717
188.181702 -111.943741 0.000000 0.552010
191.554642 -114.505714 5.060824 0.517647
191.554642 -114.505714 4.639158 0.535180
191.554626 -114.505707 4.223412 0.533501
191.554626 -114.505707 3.812591 0.527413
191.554642 -114.505707 3.405739 0.759075
191.554626 -114.505707 3.001941 0.585977
191.554626 -114.505707 2.600305 0.604425
191.554626 -114.505707 2.199959 0.725246
191.554626 -114.505707 1.800041 0.518257
191.554626 -114.505707 1.399695 0.586114
191.554626 -114.505707 0.998058 0.482353
191.554626 -114.505707 0.594261 0.790356
191.554626 -114.505707 0.187409 0.557794
190.567184 -113.775970 0.000000 0.581033
189.174667 -112.746872 0.000000 0.532815
188.148727 -111.988686 0.000000 0.474937
191.554642 -114.612335 5.076773 0.580392
191.554642 -114.612335 4.652910 0.561456
191.554626 -114.612335 4.234998 0.534554
191.554626 -114.612335 3.822035 0.544564
191.554626 -114.612335 3.413064 0.667277
191.554626 -114.612335 3.007162 0.610224
191.554626 -114.612335 2.603433 0.544427
191.554626 -114.612335 2.201000 0.734035
191.554626 -114.612335 1.798999 0.536568
191.554626 -114.612335 1.396567 0.691539
191.554642 -114.612335 0.992838 0.678431
191.554626 -114.612335 0.586936 0.567681
191.554626 -114.612335 0.177965 0.526467
190.521362 -113.837524 -0.000000 0.535302
189.136063 -112.798729 0.000000 0.473411
188.115448 -112.033401 0.000000 0.564355
191.554642 -114.720085 5.093040 0.709712
191.554642 -114.720085 4.666936 0.704448
191.554642 -114.720093 4.246815 0.774304
191.554626 -114.720085 3.831669 0.665858
191.554626 -114.720085 3.420536 0.549020
191.554626 -114.720085 3.012487 0.577539
191.554626 -114.720085 2.606623 0.792462
191.554626 -114.720085 2.202064 0.571328
191.554626 -114.720085 1.797937 0.558587
191.554626 -114.720085 1.393376 0.786496
191.554626 -114.720085 0.987512 0.549020
191.554626 -114.720085 0.579464 0.549020
191.554626 -114.720085 0.168331 0.804883
190.475113 -113.898750 0.000000 0.560037
189.097107 -112.850319 0.000000 0.564355
188.081848 -112.077881 0.000000 0.517037
191.554642 -114.828987 5.109633 0.530953
191.554626 -114.828987 4.681243 0.553536
191.554626 -114.828987 4.258867 0.682170
191.554626 -114.828987 3.841495 0.549020
191.554626 -114.828987 3.428156 0.517647
191.554626 -114.828987 3.017918 0.560784
191.554626 -114.828987 2.609878 0.777050
191.554626 -114.828987 2.203148 0.578027
191.554626 -114.828987 1.796853 0.517647
191.554626 -114.828987 1.390122 0.757534
191.554626 -114.828987 0.982081 0.577142
191.554626 -114.828987 0.571844 0.517647
191.554626 -114.828987 0.158505 0.524559
190.428436 -113.959656 0.000000 0.549874
189.057770 -112.901627 0.000001 0.559991
188.047943 -112.122116 0.000000 0.553933
191.554642 -114.939072 5.126558 0.549020
191.554626 -114.939072 4.695836 0.560784
191.554626 -114.939072 4.271163 0.532952
191.554626 -114.939072 3.851518 0.517647
191.554626 -114.939072 3.435929 0.542214
191.554626 -114.939072 3.023459 0.541726
191.554626 -114.939072 2.613197 0.750225
191.554626 -114.939072 2.204253 0.769482
191.554626 -114.939072 1.795747 0.783276
191.554626 -114.939072 1.386803 0.819120
191.554626 -114.939072 0.976541 0.582864
191.554626 -114.939072 0.564071 0.546441
191.554626 -114.939072 0.148482 0.545464
190.381332 -114.020241 0.000000 0.521080
189.018097 -112.952667 0.000000 0.538735
188.013718 -112.166122 0.000001 0.533333
191.554642 -115.050362 5.143823 0.657206
191.554642 -115.050362 4.710722 0.524849
191.554642 -115.050362 4.283703 0.576852
191.554642 -115.050362 3.861742 0.517647
191.554626 -115.050362 3.443858 0.549020
191.554626 -115.050362 3.029110 0.486900
191.554626 -115.050354 2.616583 0.705257
191.554626 -115.050354 2.205381 0.546181
191.554626 -115.050354 1.794619 0.517647
191.554626 -115.050354 1.383417 0.555886
191.554626 -115.050362 0.970890 0.765713
191.554626 -115.050362 0.556142 0.538476
191.554642 -115.050362 0.138258 0.543435
190.333817 -114.080490 0.000000 0.527321
188.978058 -113.003426 0.000000 0.490990
187.979202 -112.209892 0.000000 0.526101
191.554642 -115.162895 5.161433 0.581216
191.554642 -115.162895 4.725907 0.701885
191.554626 -115.162895 4.296496 0.787228
191.554626 -115.162895 3.872170 0.655070
191.554642 -115.162895 3.451946 0.676097
191.554642 -115.162895 3.034875 0.721569
191.554626 -115.162895 2.620037 0.735988
191.554626 -115.162895 2.206531 0.523293
191.554626 -115.162895 1.793469 0.557351
191.554626 -115.162895 1.379963 0.541543
191.554642 -115.162895 0.965124 0.651225
191.554626 -115.162895 0.548054 0.620356
191.554626 -115.162895 0.127829 0.517647
190.285873 -114.140404 0.000000 0.545800
188.937668 -113.053902 0.000000 0.521965
187.944382 -112.253418 0.000000 0.557885
191.554626 -115.276695 5.179398 0.559365
191.554626 -115.276695 4.741397 0.555993
191.554626 -115.276695 4.309546 0.611826
191.554626 -115.276695 3.882809 0.743923
191.554626 -115.276695 3.460197 0.855512
191.554626 -115.276695 3.040756 0.767865
191.554626 -115.276695 2.623560 0.621363
191.554626 -115.276695 2.207705 0.587076
191.554626 -115.276695 1.792295 0.593881
191.554626 -115.276695 1.376440 0.567529
191.554626 -115.276695 0.959244 0.659815
191.554626 -115.276695 0.539803 0.767529
191.554626 -115.276695 0.117191 0.618738
190.237503 -114.199982 0.000001 0.532738
188.896927 -113.104095 0.000001 0.534585
187.909241 -112.296692 0.000001 0.579583
191.554642 -115.391815 5.197726 0.716609
191.554642 -115.391815 4.757200 0.528374
191.554642 -115.391815 4.322859 0.576104
191.554626 -115.391808 3.893663 0.517647
191.554626 -115.391808 3.468614 0.623621
191.554626 -115.391808 3.046755 0.704692
191.554626 -115.391808 2.627155 0.639841
191.554626 -115.391808 2.208903 0.578027
191.554626 -115.391808 1.791098 0.533196
191.554626 -115.391808 1.372845 0.553536
191.554626 -115.391808 0.953244 0.529366
191.554626 -115.391808 0.531386 0.611826
191.554626 -115.391808 0.106337 0.549020
190.188736 -114.259224 0.000000 0.502571
188.855835 -113.154007 0.000000 0.515267
187.873825 -112.339729 0.000000 0.573373
nan nan nan 0.000000
221.474564 -140.671997 13.217024 0.170062
221.622223 -140.796173 11.485115 0.733333
221.622223 -140.796173 9.732542 0.731884
221.622238 -140.796188 7.996911 0.709529
221.622269 -140.796219 6.274303 0.733333
221.622253 -140.796219 4.560915 0.732662
221.558395 -140.742493 2.851662 0.711940
221.558395 -140.742493 1.148337 0.716472
212.884155 -133.447159 -0.000001 0.540642
200.394882 -122.943230 -0.000015 0.337911
195.032578 -118.433342 -0.000000 0.548699
192.046143 -115.921631 0.000000 0.527794
190.139542 -114.318123 0.000000 0.537911
188.814392 -113.203629 0.000000 0.535653
187.838089 -112.382515 0.000001 0.600168
nan nan nan 0.000000
220.979416 -140.726196 13.142984 0.704677
221.061447 -140.796173 11.407255 0.740627
221.061462 -140.796173 9.669069 0.716533
221.061462 -140.796188 7.947684 0.722347
221.061493 -140.796219 6.239217 0.733333
221.061493 -140.796219 4.539893 0.708247
220.998535 -140.742493 2.844671 0.716243
209.637329 -131.051102 1.399693 0.271122
209.637314 -131.051086 0.197793 0.277241
200.284821 -123.073174 -0.000015 0.339040
194.954132 -118.525955 0.000000 0.554437
191.985291 -115.993462 0.000000 0.519677
190.089951 -114.376678 0.000001 0.544350
188.772614 -113.252960 0.000000 0.571557
187.802063 -112.425049 0.000000 0.564553
nan nan nan 0.000000
220.509796 -140.796173 13.075894 0.721569
220.509796 -140.796173 11.331114 0.733333
220.509796 -140.796173 9.606997 0.728344
220.384979 -140.688202 7.880556 0.605219
220.509842 -140.796219 6.204906 0.733333
220.509842 -140.796219 4.519336 0.737224
220.447754 -140.742493 2.837835 0.733059
209.622635 -131.377045 1.396400 0.438376
209.652725 -131.403076 0.185951 0.678431
200.173828 -123.202316 -0.000013 0.335912
194.875046 -118.618019 -0.000000 0.550210
191.923965 -116.064865 0.000000 0.559014
190.039948 -114.434883 0.000000 0.545647
188.730484 -113.301994 0.000001 0.534798
187.765732 -112.467331 0.000000 0.546532
219.966980 -140.796173 14.743011 0.724422
219.966980 -140.796173 12.987506 0.733333
219.966980 -140.796173 11.256647 0.730297
219.966980 -140.796173 9.546289 0.724971
219.825500 -140.672028 7.830810 0.094118
219.967026 -140.796219 6.171349 0.727306
219.967026 -140.796219 4.499229 0.721569
219.905807 -140.742493 2.831148 0.724514
209.625031 -131.721725 1.392665 0.354971
209.655991 -131.748901 0.174670 0.678431
200.061935 -123.330681 -0.000010 0.338598
194.795319 -118.709526 -0.000001 0.556405
191.862122 -116.135826 0.000000 0.526390
189.989532 -114.492737 0.000001 0.546563
