# This PCD file was generated using the MATLABÂ® pcwrite function
# from Computer Vision ToolboxÂ®.
# .PCD v.7 - Point Cloud Data file format
VERSION .7
FIELDS x y z intensity
SIZE 4 4 4 4
TYPE F F F F
COUNT 1 1 1 1
WIDTH 1277
HEIGHT 1
VIEWPOINT 0 0 0 1 0 0 0
POINTS 1277
DATA ascii
383.106720 95.838516 20.273191 0.568322
383.106750 95.838531 17.394630 0.576822
383.106812 95.838554 14.550163 0.601724
383.106750 95.838531 11.733165 0.618692
383.106812 95.838554 8.937323 0.587671
383.106537 95.838455 6.156426 0.599954
383.106812 95.838547 3.384490 0.538155
383.106812 95.838547 0.615510 0.600381
341.949921 80.576797 0.000003 0.338552
326.648926 74.902901 -0.000011 0.550820
320.079498 72.466827 -0.000005 0.543389
316.420654 71.110069 -0.000001 0.540398
314.084839 70.243896 0.000001 0.545312
312.461334 69.641876 0.000001 0.528222
311.265228 69.198334 0.000003 0.343633
382.578735 95.018570 22.997854 0.761807
382.578827 95.018600 20.105165 0.580392
382.578857 95.018616 17.253073 0.534020
382.578735 95.018570 14.434729 0.504570
382.578857 95.018608 11.643666 0.609308
382.578735 95.018570 8.873516 0.580392
382.578735 95.018562 6.118211 0.546578
382.578918 95.018631 3.371761 0.574975
382.578918 95.018631 0.628240 0.661936
341.855896 80.240326 0.010033 1.000000
326.707581 74.743042 -0.000012 0.541054
320.121277 72.352882 -0.000005 0.522866
316.453094 71.021698 -0.000002 0.535485
314.111267 70.171852 0.000001 0.516030
312.483612 69.581184 0.000001 0.536614
311.284424 69.146004 0.000003 0.336996
382.456818 94.354263 22.912891 0.678431
382.348083 94.315674 20.006971 0.201877
382.060547 94.213593 17.114819 0.643336
382.456848 94.354279 14.384419 0.678431
382.060547 94.213577 11.556254 0.639750
382.456848 94.354279 8.845705 0.678431
382.318939 94.305313 6.094360 0.204440
382.060577 94.213608 3.359327 0.428702
382.060577 94.213608 0.640673 0.561791
342.143982 80.042526 -0.000005 0.337987
326.765137 74.582764 -0.000012 0.528664
320.162292 72.238647 -0.000005 0.540276
316.484894 70.933105 -0.000002 0.553643
314.137177 70.099632 0.000001 0.531624
312.505463 69.520340 0.000001 0.544671
311.265625 69.080177 0.010005 1.000000
381.551361 93.422928 22.621609 0.566674
381.551361 93.422928 19.780737 0.432685
381.551544 93.422997 16.979778 0.451453
381.551361 93.422928 14.211921 0.632822
381.551514 93.422989 11.470874 0.548211
381.551361 93.422928 8.750354 0.605737
381.551392 93.422935 6.044422 0.491463
381.551575 93.423004 3.347183 0.526879
381.551575 93.423004 0.652819 0.575677
342.238220 79.774384 -0.000008 0.338354
326.821533 74.422089 -0.000012 0.552758
320.202515 72.124130 -0.000005 0.546075
316.516083 70.844292 -0.000001 0.544884
314.162598 70.027229 0.000001 0.529961
312.526855 69.459328 0.000007 0.339117
311.284027 69.027855 0.009999 1.000000
381.081940 92.656693 22.448084 0.660838
381.081970 92.656700 19.631117 0.617288
381.051514 92.646370 16.847843 0.674250
381.081970 92.656700 14.109164 0.665370
381.051514 92.646362 11.387463 0.606653
381.081970 92.656700 8.693552 0.647608
381.081970 92.656708 6.010389 0.680186
381.051575 92.646378 3.335316 0.649836
381.051575 92.646378 0.664684 0.638437
342.330566 79.505592 -0.000014 0.338338
326.876831 74.261032 -0.000012 0.536690
320.241913 72.009331 -0.000005 0.517876
316.546631 70.755264 -0.000001 0.549416
314.187531 69.954651 0.000001 0.532799
312.547821 69.398186 0.000008 0.340871
311.302063 68.975403 0.009994 1.000000
380.948883 92.012154 22.365137 0.678431
380.948883 92.012154 19.559587 0.678431
380.560181 91.883255 16.718922 0.592569
380.948883 92.012154 14.060039 0.678431
380.560211 91.883263 11.305953 0.560784
380.948883 92.012146 8.666397 0.678431
380.948883 92.012154 5.994120 0.666300
380.560242 91.883270 3.323720 0.540368
380.560242 91.883270 0.676278 0.505562
342.421112 79.236176 -0.000020 0.338018
326.931000 74.099594 -0.000013 0.543908
320.280518 71.894264 -0.000006 0.543984
316.576569 70.666023 -0.000002 0.517632
314.211914 69.881897 0.000000 0.543236
312.568390 69.336891 0.000007 0.334829
311.319702 68.922829 0.009989 1.000000
380.077301 91.133255 22.089104 0.722454
380.077271 91.133247 19.321581 0.663462
380.077332 91.133255 16.592926 0.685802
380.077271 91.133247 13.896575 0.625345
380.077332 91.133263 11.226295 0.539651
380.077301 91.133255 8.576038 0.536858
380.077271 91.133247 5.939982 0.692378
380.077362 91.133270 3.312391 0.678294
380.077362 91.133270 0.687609 0.593149
342.509674 78.966118 -0.000023 0.339818
326.984039 73.937775 -0.000013 0.546075
320.318298 71.778931 -0.000006 0.542382
316.605896 70.576576 -0.000002 0.536645
314.235840 69.808975 0.000001 0.558236
312.544495 69.261200 0.010003 1.000000
311.374908 68.882408 0.000003 0.332418
379.602570 90.395935 21.919561 0.518120
379.851196 90.474541 19.231714 0.674922
379.602600 90.395935 16.469763 0.554345
379.851166 90.474533 13.834848 0.513542
379.602600 90.395935 11.148424 0.601175
379.851196 90.474541 8.541923 0.514916
379.851196 90.474533 5.919539 0.594949
379.602661 90.395950 3.301314 0.514687
379.602661 90.395950 0.698686 0.453239
342.596344 78.695427 -0.000026 0.338262
327.035431 73.775429 0.000030 0.337407
320.355316 71.663338 -0.000006 0.528435
316.634583 70.486923 -0.000002 0.561456
314.259155 69.735870 0.000014 0.344411
312.564117 69.199944 0.009997 1.000000
311.391907 68.829315 0.000003 0.335439
379.135803 89.670944 21.753815 0.656291
379.517151 89.788589 19.118679 0.678431
379.135834 89.670944 16.349369 0.652567
379.517151 89.788589 13.757217 0.678431
379.135834 89.670944 11.072305 0.561913
379.517151 89.788589 8.499008 0.678431
379.517151 89.788589 5.893828 0.678431
379.135864 89.670952 3.290486 0.653773
379.135864 89.670952 0.709513 0.577798
342.681152 78.424156 -0.000028 0.338140
326.969971 73.577034 0.010003 1.000000
320.391510 71.547485 -0.000006 0.549004
316.662659 70.397079 -0.000002 0.540993
314.282013 69.662628 0.000014 0.337606
312.583313 69.138550 0.009997 1.000000
311.408508 68.776108 0.000003 0.339864
378.676697 88.957870 21.591743 0.643061
378.676605 88.957840 18.892721 0.571710
378.676727 88.957870 16.231640 0.628595
378.676605 88.957840 13.602026 0.564843
378.676727 88.957870 10.997869 0.598749
378.676575 88.957832 8.413225 0.524178
378.676605 88.957840 5.842433 0.543145
378.676758 88.957886 3.279898 0.488121
378.676758 88.957886 0.720101 0.457740
342.764008 78.152283 -0.000029 0.339300
327.135834 73.450005 0.000030 0.338079
320.426880 71.431381 -0.000006 0.557610
316.690094 70.307037 -0.000003 0.542397
314.251801 69.573395 0.010010 1.000000
312.646362 69.090340 0.000008 0.339300
311.424774 68.722786 0.000004 0.321752
378.225037 88.256355 21.433254 0.587045
378.470734 88.328415 18.811380 0.142306
378.225067 88.256363 16.116510 0.542458
378.470734 88.328415 13.546166 0.142184
378.225037 88.256363 10.925078 0.737819
378.470734 88.328415 8.382345 0.124025
378.470734 88.328415 5.823933 0.190448
378.225067 88.256363 3.269545 0.608835
378.225098 88.256363 0.730455 0.605051
342.844940 77.879829 -0.000030 0.338735
327.184326 73.286774 0.000029 0.335607
320.461456 71.315041 -0.000007 0.552270
316.716949 70.216820 -0.000010 0.336110
314.273529 69.500206 0.010009 1.000000
312.664764 69.028366 0.000008 0.332494
311.440643 68.669350 0.000003 0.330983
377.780640 87.566086 21.278236 0.570809
378.155304 87.673141 18.706587 0.678431
377.780640 87.566086 16.003902 0.502770
378.155273 87.673126 13.474187 0.678431
377.780640 87.566093 10.853889 0.543481
378.024963 87.635902 8.331448 0.186160
378.155304 87.673141 5.800096 0.678431
377.780670 87.566101 3.259418 0.462379
377.780670 87.566101 0.740583 0.482628
342.924011 77.606834 -0.000031 0.338537
327.231659 73.123207 0.000031 0.338643
320.494995 71.198402 0.000016 0.336736
316.678284 70.107880 0.009993 1.000000
314.294769 69.426865 0.010008 1.000000
312.682739 68.966270 0.000008 0.328450
311.456146 68.615807 0.000003 0.336233
377.343201 86.886703 21.126604 0.475471
377.343292 86.886726 18.491695 0.543404
377.343231 86.886703 15.893753 0.632334
377.343292 86.886719 13.326604 0.628626
377.343292 86.886719 10.784254 0.629679
377.343079 86.886673 8.260962 0.636286
377.343262 86.886719 5.751216 0.630121
377.343262 86.886711 3.249510 0.634806
377.343262 86.886711 0.750488 0.631174
343.001160 77.333282 -0.000032 0.337469
327.277863 72.959312 0.000031 0.338415
320.444366 71.058334 0.009995 1.000000
316.703613 70.017715 0.010003 1.000000
314.368408 69.368095 0.000014 0.341497
312.700287 68.904053 0.000008 0.333593
311.471283 68.562157 0.000003 0.335500
376.912598 86.217888 20.978247 0.504036
377.130371 86.276833 18.412493 0.560113
376.912628 86.217896 15.785992 0.478492
377.130402 86.276840 13.272209 0.607126
377.130371 86.276840 10.742066 0.599023
376.912506 86.217865 8.212402 0.503182
377.130371 86.276833 5.733199 0.601358
376.912628 86.217896 3.239820 0.431250
376.912628 86.217896 0.760181 0.490974
343.076416 77.059204 -0.000033 0.338659
327.322937 72.795097 0.000030 0.337743
320.560059 70.964539 0.000016 0.338247
316.793549 69.945038 -0.000009 0.337545
314.388702 69.294098 0.000015 0.328771
312.717377 68.841705 0.000008 0.336522
311.486023 68.508408 0.000003 0.339666
376.488586 85.559341 20.833088 0.718196
376.856628 85.656212 18.320801 0.678431
376.488617 85.559349 15.680545 0.523217
376.856689 85.656219 13.209240 0.678431
376.853790 85.655464 10.692886 0.249424
376.488495 85.559319 8.164883 0.524269
376.856659 85.656212 5.712345 0.678431
376.488647 85.559357 3.230336 0.516045
376.488647 85.559357 0.769662 0.662226
343.149719 76.784607 -0.000034 0.337911
327.366882 72.630577 0.000030 0.339040
320.591370 70.847275 0.000016 0.339315
316.817841 69.854088 -0.000009 0.338567
314.408508 69.219955 0.000014 0.333761
312.734070 68.779243 0.000008 0.345480
311.500397 68.454552 0.000004 0.328328
376.071014 84.910759 20.691038 0.511711
376.070984 84.910759 18.116117 0.696788
376.071045 84.910767 15.577360 0.697169
376.070984 84.910751 13.068651 0.720363
376.071014 84.910759 10.584204 0.702144
376.070923 84.910744 8.118387 0.652354
376.071014 84.910759 5.665787 0.645853
376.071045 84.910774 3.221057 0.459220
376.071045 84.910774 0.778943 0.551232
343.221100 76.509491 -0.000034 0.544213
327.409637 72.465759 0.000030 0.334737
320.621826 70.729797 0.000017 0.337591
316.841461 69.762978 -0.000008 0.336065
314.427765 69.145683 0.000014 0.331411
312.750305 68.716675 0.000008 0.330007
311.514404 68.400597 0.000004 0.326131
375.659668 84.271858 20.552015 0.627741
375.659698 84.271866 17.996258 0.652964
375.659698 84.271866 15.476372 0.574365
375.659698 84.271866 12.986330 0.635386
375.659698 84.271866 10.520358 0.656123
375.659576 84.271835 8.072876 0.605173
375.659729 84.271866 5.638521 0.597467
375.659729 84.271866 3.211974 0.530068
375.659729 84.271866 0.788024 0.601831
343.290558 76.233887 -0.000034 0.542763
327.451263 72.300636 0.000030 0.340276
320.651489 70.612106 0.000017 0.337255
316.864471 69.671700 -0.000008 0.340383
314.446533 69.071274 0.000013 0.339895
312.766083 68.653984 0.000008 0.341268
311.528015 68.346542 0.000003 0.333486
375.254395 83.642365 20.415939 0.545251
375.616150 83.729523 17.959286 0.678431
375.490387 83.699226 15.421691 0.208942
375.490356 83.699219 12.941748 0.202838
375.616150 83.729523 10.500670 0.678431
375.254303 83.642349 8.028334 0.577325
375.616150 83.729523 5.630113 0.678431
375.254425 83.642372 3.203085 0.664286
375.254425 83.642372 0.796915 0.604730
343.358093 75.957809 -0.000035 0.537087
327.491730 72.135231 0.000029 0.337484
320.680328 70.494209 0.000017 0.340566
316.886841 69.580269 -0.000008 0.332021
314.464752 68.996735 0.000013 0.329747
312.781464 68.591187 0.000008 0.340780
311.541260 68.292397 0.000003 0.343343
374.854980 83.022003 20.282724 0.604181
374.854950 83.021996 17.764048 0.487800
374.854919 83.021988 15.280737 0.566201
374.854980 83.022003 12.826857 0.632837
374.854919 83.021996 10.396672 0.481071
374.854889 83.021988 7.984726 0.644755
374.854919 83.021988 5.585703 0.505699
374.854980 83.022011 3.194380 0.538216
374.854980 83.022011 0.805618 0.672312
343.423706 75.681267 -0.000035 0.537926
327.531006 71.969543 0.000031 0.337011
320.708344 70.376122 0.000017 0.339498
316.908569 69.488686 -0.000008 0.334920
314.482483 68.922073 0.000013 0.334829
312.796387 68.528282 0.000008 0.329335
311.554138 68.238159 0.000004 0.337423
374.461243 82.410522 20.152292 0.690730
374.461273 82.410522 17.651598 0.696193
374.461243 82.410515 15.186003 0.698405
374.461273 82.410522 12.749619 0.577813
374.461243 82.410522 10.336775 0.742931
374.461182 82.410507 7.942034 0.574975
374.461243 82.410515 5.560124 0.605112
374.461304 82.410530 3.185861 0.698543
374.461304 82.410530 0.814139 0.787594
343.487396 75.404274 -0.000035 0.536339
327.569153 71.803589 0.000031 0.336370
320.735535 70.257835 0.000017 0.339635
316.929657 69.396950 -0.000007 0.336095
314.499664 68.847290 0.000013 0.340780
312.810852 68.465279 0.000008 0.334173
311.566620 68.183838 0.000004 0.348226
374.305267 81.858482 20.084116 0.148501
374.073181 81.807686 17.541492 0.575463
374.428955 81.885559 15.159516 0.653956
374.073151 81.807678 12.673993 0.578470
374.428986 81.885567 10.320032 0.652079
374.073090 81.807663 7.900233 0.629862
374.428955 81.885559 5.552974 0.647791
374.073151 81.807686 3.177520 0.617731
374.073151 81.807686 0.822480 0.544778
343.549133 75.126839 -0.000036 0.541176
327.606140 71.637375 0.000031 0.338140
320.761902 70.139359 0.000017 0.337957
316.950104 69.305069 -0.000007 0.339940
314.516327 68.772385 0.000012 0.314580
312.824890 68.402176 0.000008 0.345846
311.578735 68.129425 0.000004 0.330602
374.046753 81.288620 19.990780 0.160464
373.690430 81.213226 17.433670 0.502144
374.044250 81.288094 15.068214 0.678431
373.690430 81.213226 12.599938 0.560098
374.044250 81.288094 10.262303 0.678431
373.690338 81.213211 7.859294 0.650660
374.044250 81.288094 5.528321 0.678431
373.690430 81.213226 3.169348 0.532204
373.690430 81.213226 0.830652 0.683940
343.608948 74.848984 -0.000036 0.533883
327.641968 71.470901 0.000030 0.337469
320.787415 70.020706 0.000019 0.339376
316.969910 69.213043 -0.000007 0.336751
314.532501 68.697372 0.000012 0.340047
312.838501 68.338974 0.000009 0.339666
311.590454 68.074928 0.000004 0.338598
373.312897 80.626930 19.777067 0.601480
373.312958 80.626945 17.328072 0.652827
373.312927 80.626938 14.913435 0.675517
373.312927 80.626938 12.527414 0.491768
373.312897 80.626930 10.164442 0.611749
373.312866 80.626923 7.819207 0.615427
373.312897 80.626938 5.486533 0.703899
373.312927 80.626938 3.161347 0.668284
373.312927 80.626938 0.838651 0.607462
343.666809 74.570717 -0.000036 0.543206
327.676636 71.304184 0.000031 0.338003
320.812134 69.901878 0.000019 0.337407
316.989044 69.120888 -0.000007 0.340169
314.548126 68.622238 0.000012 0.340917
312.851654 68.275681 0.000008 0.340124
311.601807 68.020355 0.000004 0.338949
372.940674 80.048607 19.657146 0.538430
372.940613 80.048599 17.224648 0.615427
372.940643 80.048607 14.826321 0.519463
372.940582 80.048592 12.456384 0.711635
372.940674 80.048607 10.109369 0.490913
372.940521 80.048576 7.779943 0.561517
372.940643 80.048607 5.463014 0.729183
372.940613 80.048599 3.153512 0.632654
372.940613 80.048599 0.846488 0.631601
343.722717 74.292053 -0.000036 0.543359
327.710144 71.137230 0.000030 0.338277
320.835999 69.782883 0.000019 0.336400
317.007568 69.028595 -0.000006 0.336156
314.563202 68.547005 0.000011 0.330480
312.864380 68.212296 0.000008 0.338979
311.612762 67.965706 0.000004 0.340917
372.921448 79.544052 19.628426 0.678431
372.573212 79.477966 17.123341 0.721538
372.921448 79.544052 14.805460 0.678431
372.573181 79.477959 12.386803 0.633982
372.921448 79.544052 10.096179 0.678431
372.573120 79.477951 7.741482 0.567086
372.921448 79.544052 5.457380 0.678431
372.573181 79.477959 3.145838 0.751385
372.573181 79.477959 0.854164 0.708171
343.776703 74.013000 -0.000037 0.536233
327.742462 70.970047 0.000030 0.338613
320.859070 69.663719 0.000019 0.339956
317.025452 68.936180 -0.000006 0.342306
314.577789 68.471664 0.000011 0.334539
312.876648 68.148827 0.000008 0.329717
311.623352 67.910973 0.000004 0.336339
372.210632 78.914856 19.424540 0.658610
372.210663 78.914864 17.024105 0.541222
372.210632 78.914856 14.657351 0.527306
372.210632 78.914856 12.318645 0.549477
372.210632 78.914856 10.002537 0.637354
372.210571 78.914848 7.703806 0.554925
372.210632 78.914856 5.417394 0.594217
372.210632 78.914856 3.138317 0.668605
372.210632 78.914856 0.861682 0.533898
343.828735 73.733582 -0.000037 0.541634
327.773651 70.802635 0.000030 0.338521
320.881287 69.544395 0.000019 0.339559
317.042664 68.843643 -0.000006 0.336797
314.591827 68.396225 0.000011 0.330510
312.888489 68.085274 0.000008 0.336080
311.633545 67.856178 0.000004 0.340917
371.852844 78.359070 19.311792 0.613031
371.852814 78.359070 16.926872 0.535821
371.852844 78.359070 14.575457 0.748562
371.852783 78.359070 12.251872 0.564141
371.852844 78.359077 9.950760 0.506325
371.852722 78.359055 7.666897 0.692607
371.852844 78.359077 5.395281 0.548959
371.852814 78.359070 3.130950 0.536187
371.852783 78.359070 0.869048 0.445457
343.878815 73.453812 -0.000038 0.537820
327.803650 70.635017 0.000029 0.338170
320.902649 69.424927 0.000019 0.335149
317.059235 68.750984 -0.000006 0.337972
314.605347 68.320694 0.000010 0.335271
312.899872 68.021637 0.000009 0.342428
311.643372 67.801308 0.000004 0.331609
371.723053 77.847977 19.258080 0.340810
371.499573 77.810394 16.831619 0.675364
371.723083 77.847984 14.536442 0.360388
371.499542 77.810394 12.186449 0.612482
371.723083 77.847977 9.926090 0.311131
371.499512 77.810379 7.630735 0.621881
371.723083 77.847984 5.384748 0.198840
371.499542 77.810394 3.123735 0.671885
371.499542 77.810394 0.876265 0.588632
343.926941 73.173691 -0.000038 0.543969
327.832489 70.467194 0.000029 0.337346
320.923187 69.305305 0.000019 0.336019
317.075195 68.658211 -0.000005 0.338750
314.618347 68.245064 0.000010 0.334371
312.910828 67.957916 0.000009 0.340322
311.652802 67.746368 0.000004 0.343420
371.491760 77.323555 19.179577 0.678431
371.150757 77.268654 16.738281 0.746578
371.491760 77.323555 14.479410 0.678431
371.150757 77.268654 12.122349 0.526879
371.491760 77.323555 9.890036 0.678431
371.150696 77.268646 7.595302 0.456718
371.491760 77.323555 5.369349 0.678431
371.150757 77.268654 3.116661 0.547845
371.150757 77.268661 0.883337 0.525795
343.973083 72.893242 -0.000039 0.535378
327.860138 70.299171 0.000028 0.338399
320.942902 69.185547 0.000019 0.332738
317.090454 68.565331 -0.000005 0.334157
314.630798 68.169342 0.000010 0.339040
312.921326 67.894127 0.000009 0.342580
311.661865 67.691368 0.000004 0.328344
370.806335 76.733673 18.987003 0.477974
370.806335 76.733673 16.646830 0.680568
370.806366 76.733673 14.339529 0.641535
370.806305 76.733665 12.059534 0.636744
370.806335 76.733673 9.801594 0.527718
370.806274 76.733658 7.560581 0.462806
370.806335 76.733673 5.331581 0.710903
370.806305 76.733665 3.109733 0.659068
370.806305 76.733665 0.890266 0.623621
344.017303 72.612480 -0.000039 0.544839
327.886597 70.130959 0.000030 0.338567
320.961761 69.065659 0.000019 0.338735
317.105103 68.472351 -0.000005 0.333425
314.642731 68.093544 0.000009 0.337057
312.931366 67.830269 0.000009 0.338079
311.670532 67.636307 0.000004 0.343297
370.466125 76.205254 18.883062 0.594888
370.466095 76.205246 16.557205 0.422019
370.466156 76.205254 14.264027 0.753353
370.466064 76.205246 11.997980 0.497169
370.466156 76.205254 9.753859 0.591882
370.466064 76.205238 7.526557 0.521675
370.466156 76.205254 5.311196 0.429328
370.466095 76.205246 3.102942 0.679545
370.466095 76.205246 0.897057 0.622583
344.059509 72.331413 -0.000039 0.540871
327.911896 69.962563 0.000030 0.337987
320.979797 68.945633 0.000021 0.340551
317.119080 68.379265 -0.000005 0.334813
314.654144 68.017662 0.000009 0.336629
312.940979 67.766342 0.000009 0.338582
311.678802 67.581177 0.000004 0.335866
370.348999 75.713799 18.836575 0.248051
370.130005 75.683235 16.469376 0.587488
370.349030 75.713806 14.230258 0.237232
370.130005 75.683228 11.937657 0.529290
370.349030 75.713799 9.732510 0.239902
370.129944 75.683228 7.493211 0.728389
370.349030 75.713799 5.302081 0.206043
370.130005 75.683228 3.096288 0.596231
370.130005 75.683228 0.903712 0.546242
344.099792 72.050064 -0.000039 0.536156
327.936005 69.793999 0.000030 0.337667
320.997009 68.825485 0.000020 0.337102
317.132416 68.286087 -0.000004 0.340261
314.665009 67.941696 0.000009 0.334752
312.950134 67.702347 0.000009 0.336721
311.686707 67.526001 0.000004 0.333288
370.132141 75.211731 18.765799 0.678431
369.797913 75.167458 16.383293 0.648829
370.132141 75.211731 14.178840 0.678431
369.797913 75.167458 11.878536 0.765805
370.132141 75.211731 9.700001 0.678431
369.797882 75.167450 7.460530 0.536126
370.132141 75.211731 5.288198 0.678431
369.797913 75.167458 3.089767 0.732021
369.797913 75.167458 0.910234 0.731075
344.138153 71.768440 -0.000041 0.534142
327.958984 69.625275 0.000030 0.336004
321.013367 68.705223 0.000020 0.337606
317.145111 68.192818 -0.000004 0.337407
314.675354 67.865662 0.000008 0.337819
312.958862 67.638283 0.000009 0.336309
311.694214 67.470764 0.000004 0.333745
369.469696 74.657745 18.583485 0.496773
369.469757 74.657753 16.298922 0.545235
369.469696 74.657745 14.046406 0.476753
369.469788 74.657753 11.820591 0.634394
369.469666 74.657745 9.616268 0.491539
369.469727 74.657745 7.428500 0.650599
369.469696 74.657745 5.252442 0.528710
369.469757 74.657753 3.083375 0.635111
369.469757 74.657753 0.916627 0.485512
344.174469 71.486557 -0.000041 0.546029
327.980743 69.456390 0.000030 0.337957
321.028870 68.584854 0.000020 0.337301
317.157135 68.099464 -0.000004 0.338537
314.685181 67.789558 0.000008 0.336873
312.967102 67.574173 0.000009 0.340352
311.701355 67.415482 0.000004 0.336446
369.145355 74.153961 18.487576 0.643030
369.145416 74.153969 16.216225 0.684825
369.145386 74.153969 13.976738 0.600534
369.145416 74.153969 11.763794 0.667353
369.145386 74.153969 9.572226 0.618418
369.145386 74.153969 7.397104 0.580331
369.145355 74.153961 5.233631 0.608957
369.145386 74.153969 3.077107 0.609445
369.145386 74.153969 0.922891 0.514549
344.208862 71.204422 -0.000041 0.539330
328.001343 69.287354 0.000029 0.337804
321.043549 68.464371 0.000020 0.336812
317.168518 68.006020 -0.000004 0.334310
314.694458 67.713387 0.000008 0.341421
312.974915 67.509995 0.000009 0.338460
311.708099 67.360153 0.000004 0.337713
368.983704 73.673637 18.433634 0.688304
368.824768 73.655960 16.135166 0.719875
368.983673 73.673630 13.937547 0.535882
368.824768 73.655960 11.708119 0.521523
368.983704 73.673637 9.547449 0.662791
368.824738 73.655960 7.366330 0.665797
368.983673 73.673630 5.223049 0.532235
368.824768 73.655960 3.070967 0.524025
368.824768 73.655960 0.929033 0.740429
344.241272 70.922050 -0.000041 0.543603
328.020752 69.118187 0.000029 0.339376
321.057373 68.343796 0.000020 0.334936
317.179230 67.912506 -0.000003 0.339101
314.703186 67.637146 0.000008 0.335073
312.982300 67.445770 0.000009 0.335088
311.714447 67.304771 0.000004 0.344091
368.835510 73.197701 18.383965 0.678431
368.507751 73.163567 16.055702 0.398871
368.835510 73.197701 13.901467 0.678431
368.507751 73.163567 11.653545 0.642802
368.835510 73.197701 9.524633 0.678431
368.507721 73.163567 7.336163 0.506081
368.835510 73.197701 5.213310 0.678431
368.507751 73.163567 3.064945 0.397330
368.507751 73.163567 0.935055 0.510369
344.271698 70.639465 -0.000042 0.543832
328.039001 68.948875 0.000029 0.338537
321.070374 68.223122 0.000021 0.333547
317.189331 67.818924 -0.000003 0.332982
314.711426 67.560852 0.000007 0.335790
312.989227 67.381493 0.000009 0.335973
311.720398 67.249352 0.000004 0.334340
368.520447 72.708328 18.293165 0.678431
368.194275 72.676666 15.977803 0.587106
368.520447 72.708328 13.835514 0.678431
368.194275 72.676659 11.600043 0.595209
368.520447 72.708328 9.482935 0.678431
368.194244 72.676659 7.306592 0.797345
368.520447 72.708336 5.195503 0.678431
368.194244 72.676659 3.059043 0.598642
368.194244 72.676659 0.940957 0.501732
344.300171 70.356674 -0.000043 0.539834
328.056030 68.779449 0.000028 0.337881
321.082520 68.102364 0.000020 0.337545
317.198730 67.725266 -0.000002 0.334951
314.719116 67.484505 0.000007 0.334752
312.995697 67.317169 0.000009 0.339330
311.725983 67.193886 0.000004 0.329015
367.884155 72.195091 18.122503 0.577844
367.884216 72.195099 15.901438 0.755306
367.884155 72.195091 13.711538 0.636515
367.884216 72.195099 11.547596 0.559853
367.884155 72.195091 9.404554 0.732204
367.884186 72.195091 7.277600 0.502998
367.884155 72.195091 5.162031 0.727901
367.884216 72.195091 3.053258 0.475227
367.884216 72.195091 0.946742 0.660243
344.326660 70.073685 -0.000043 0.539834
328.071899 68.609909 0.000028 0.337285
321.093842 67.981514 0.000020 0.336110
317.207520 67.631546 -0.000002 0.340841
314.726257 67.408104 0.000007 0.334661
313.001709 67.252808 0.000009 0.338811
311.731171 67.138390 0.000004 0.334737
367.577484 71.718742 18.035685 0.623606
367.577515 71.718742 15.826581 0.513207
367.577454 71.718735 13.648470 0.770474
367.577545 71.718742 11.496183 0.490196
367.577484 71.718742 9.364680 0.542962
367.577515 71.718742 7.249181 0.471397
367.577484 71.718742 5.145002 0.588235
367.577515 71.718742 3.047585 0.404654
367.577515 71.718742 0.952414 0.481956
344.351166 69.790520 -0.000043 0.537087
328.086609 68.440262 0.000028 0.338582
321.104309 67.860603 0.000020 0.331701
317.215637 67.537766 -0.000002 0.335637
314.732880 67.331650 0.000007 0.335912
313.007294 67.188400 0.000009 0.335866
311.735992 67.082855 0.000004 0.342947
367.274078 71.247467 17.950562 0.586633
367.274109 71.247467 15.753185 0.586954
367.274048 71.247467 13.586639 0.583429
367.274109 71.247467 11.445775 0.616068
367.274078 71.247467 9.325588 0.606470
367.274078 71.247467 7.221316 0.539193
367.274048 71.247467 5.128309 0.613199
367.274078 71.247467 3.042027 0.585595
367.274078 71.247467 0.957975 0.503182
344.373688 69.507195 -0.000043 0.546792
328.100098 68.270515 0.000027 0.335714
321.113922 67.739609 0.000020 0.337240
317.223083 67.443932 -0.000001 0.336324
314.738953 67.255157 0.000006 0.341558
313.012421 67.123955 0.000009 0.333333
311.740417 67.027290 0.000004 0.334890
366.973846 70.781151 17.867115 0.723735
366.973877 70.781151 15.681227 0.604196
366.973816 70.781143 13.526021 0.456809
366.973877 70.781151 11.396355 0.744274
366.973846 70.781151 9.287264 0.572503
366.973846 70.781151 7.193998 0.668528
366.973846 70.781151 5.111942 0.717815
366.973846 70.781151 3.036572 0.551461
366.973846 70.781151 0.963426 0.658274
344.394257 69.223717 -0.000044 0.538491
328.112427 68.100677 0.000027 0.337819
321.036011 67.612579 0.010016 1.000000
317.229889 67.350052 -0.000001 0.337316
314.744507 67.178619 0.000006 0.333364
313.017090 67.059471 0.000009 0.336751
311.744446 66.971695 0.000004 0.331762
366.676758 70.319664 17.785301 0.457359
366.676758 70.319664 15.610680 0.625757
366.676727 70.319664 13.466591 0.634607
366.676758 70.319664 11.347904 0.560143
366.676727 70.319664 9.249685 0.817609
366.676727 70.319664 7.167216 0.495964
366.676727 70.319664 5.095894 0.537957
366.676727 70.319664 3.031229 0.591592
366.676727 70.319664 0.968771 0.621302
344.412842 68.940102 -0.000044 0.545357
328.123535 67.930756 0.000027 0.337469
321.043884 67.492073 0.010019 1.000000
317.236023 67.256126 -0.000001 0.339696
314.749512 67.102051 0.000006 0.337163
313.021301 66.994965 0.000009 0.336217
311.748077 66.916069 0.000004 0.334462
366.529663 69.870972 17.741962 0.603418
366.529633 69.870972 15.573306 0.588754
366.529633 69.870972 13.435110 0.494759
366.529663 69.870972 11.322237 0.404318
366.529663 69.870972 9.229782 0.479881
366.529633 69.870972 7.153029 0.591714
366.529633 69.870972 5.087396 0.411063
366.529633 69.870972 3.028397 0.611292
366.529633 69.870972 0.971604 0.490517
344.429413 68.656372 -0.000045 0.542031
328.133484 67.760765 0.000026 0.336645
321.137695 67.376289 0.000020 0.338201
317.241516 67.162155 -0.000001 0.335760
314.753998 67.025444 0.000005 0.338323
313.025085 66.930428 0.000009 0.321019
311.751343 66.860428 0.000004 0.328405
367.164642 69.462173 17.895542 0.663691
367.164581 69.462173 15.705725 0.631189
367.164612 69.462173 13.546671 0.676249
367.164581 69.462173 11.413179 0.541176
367.164642 69.462173 9.300316 0.585443
367.164551 69.462173 7.203299 0.482780
367.164612 69.462173 5.117516 0.527886
367.164551 69.462173 3.038429 0.598703
367.164581 69.462173 0.961570 0.478035
344.444031 68.372520 -0.000045 0.541100
328.142242 67.590706 0.000026 0.338445
321.143951 67.255074 0.000020 0.338125
317.246368 67.068153 -0.000000 0.340780
314.757935 66.948814 0.000005 0.338827
313.028412 66.865868 0.000009 0.334462
311.754211 66.804756 0.000004 0.334462
367.812134 69.045311 18.052937 0.674189
367.812042 69.045303 15.841428 0.635157
367.812103 69.045311 13.661002 0.456901
367.812073 69.045303 11.506383 0.608454
367.812134 69.045311 9.372604 0.687037
367.812042 69.045303 7.254818 0.572061
367.812103 69.045311 5.148386 0.638346
367.812042 69.045303 3.048710 0.680034
367.812042 69.045303 0.951289 0.448234
344.456665 68.088585 -0.000045 0.539925
328.149811 67.420593 0.000025 0.335912
321.149323 67.133827 0.000020 0.334661
317.250549 66.974121 -0.000000 0.337285
314.761353 66.872154 0.000005 0.339635
313.031281 66.801285 0.000009 0.335271
311.756683 66.749069 0.000004 0.334417
368.876068 68.633781 18.315392 0.678431
368.472504 68.620071 15.980536 0.440772
368.876068 68.633781 13.851661 0.678431
368.472504 68.620071 11.601921 0.611856
368.876068 68.633781 9.493141 0.678431
368.472473 68.620071 7.307629 0.443671
368.876068 68.633781 5.199862 0.678431
368.472504 68.620071 3.059252 0.574838
368.472504 68.620071 0.940749 0.521401
344.467316 67.804558 -0.000046 0.542321
328.156189 67.250427 0.000024 0.338460
321.153870 67.012543 0.000020 0.336614
317.254059 66.880058 0.000000 0.336187
314.764221 66.795471 0.000005 0.331441
313.033691 66.736679 0.000009 0.340414
311.758759 66.693367 0.000004 0.337881
369.412445 68.193375 18.446323 0.188846
369.146393 68.186195 16.123161 0.508431
369.412415 68.193375 13.946763 0.165011
369.146393 68.186195 11.699875 0.650675
369.412415 68.193375 9.553274 0.214328
369.146393 68.186195 7.361777 0.593362
369.412415 68.193375 5.225539 0.186847
369.146393 68.186195 3.070056 0.606943
369.146393 68.186195 0.929943 0.514321
344.475983 67.520470 -0.000046 0.546059
328.161407 67.080231 0.000024 0.336629
321.157562 66.891228 0.000020 0.333730
317.256927 66.785973 0.000001 0.334920
314.766571 66.718773 0.000004 0.336080
313.035675 66.672066 0.000009 0.339010
311.760468 66.637650 0.000004 0.336782
369.834167 67.743347 18.549280 0.590555
369.834229 67.743347 16.269428 0.663142
369.834137 67.743347 14.021555 0.615412
369.834229 67.743347 11.800334 0.677592
369.834137 67.743347 9.600560 0.646586
369.834229 67.743347 7.417306 0.492012
369.834167 67.743347 5.245733 0.612085
369.834229 67.743347 3.081140 0.705333
369.834229 67.743347 0.918860 0.521859
344.482666 67.236328 -0.000046 0.540291
328.165405 66.909988 0.000023 0.339178
321.160431 66.769890 0.000020 0.336034
317.259125 66.691872 0.000001 0.340551
314.768372 66.642052 0.000004 0.336477
313.037170 66.607430 0.000010 0.333471
311.761780 66.581924 0.000004 0.336614
370.536438 67.291206 18.723301 0.643015
370.536469 67.291206 16.419468 0.708583
370.536438 67.291206 14.147967 0.610559
370.536469 67.291206 11.903381 0.521355
370.536438 67.291206 9.680483 0.515267
370.536469 67.291206 7.474267 0.701122
370.536438 67.291206 5.279863 0.580499
370.536469 67.291206 3.092507 0.525750
370.536469 67.291206 0.907493 0.606943
344.487366 66.952148 -0.000046 0.544472
328.168213 66.739731 0.000022 0.338018
321.162445 66.648544 0.000020 0.338094
317.193298 66.596878 0.010000 1.000000
314.769653 66.565331 0.000004 0.335973
313.038239 66.542793 0.000010 0.324193
311.762695 66.526192 0.000004 0.340261
371.674591 66.831970 19.007290 0.678431
371.253693 66.829430 16.573418 0.443351
371.674591 66.831970 14.354258 0.678370
371.253662 66.829430 12.009115 0.574899
371.674622 66.831970 9.810909 0.683574
371.253662 66.829430 7.532713 0.517617
371.674622 66.831970 5.335561 0.678431
371.253662 66.829430 3.104171 0.601129
371.253662 66.829430 0.895829 0.595132
344.490082 66.667931 -0.000047 0.541985
328.169861 66.569450 0.000022 0.337316
321.163574 66.527176 0.000021 0.335821
317.194153 66.503220 0.010001 1.000000
314.770355 66.488594 0.000003 0.336248
313.038879 66.478149 0.000009 0.330953
311.763214 66.470451 0.000004 0.331853
371.986450 66.357674 19.085098 0.655863
371.986420 66.357674 16.731413 0.577218
371.986450 66.357674 14.410783 0.543954
371.986389 66.357674 12.117628 0.525505
371.986450 66.357674 9.846649 0.740490
371.986389 66.357674 7.592694 0.647715
371.986450 66.357674 5.350820 0.701030
371.986420 66.357674 3.116143 0.485298
371.986389 66.357674 0.883858 0.530236
344.490784 66.383713 -0.000047 0.541268
328.048492 66.399284 0.010008 1.000000
321.163879 66.405807 0.000020 0.338338
317.261810 66.409500 0.000002 0.337774
314.770569 66.411865 0.000003 0.340764
313.039032 66.413506 0.000009 0.340948
311.763367 66.414711 0.000004 0.335515
372.735199 65.875549 19.273184 0.673426
372.735260 65.875542 16.893606 0.604700
372.735168 65.875549 14.547406 0.583139
372.735260 65.875549 12.229024 0.524453
372.735199 65.875549 9.933029 0.543374
372.735229 65.875542 7.654270 0.452171
372.735199 65.875542 5.387708 0.541421
372.735229 65.875542 3.128430 0.609293
372.735229 65.875542 0.871569 0.467857
344.489563 66.099495 -0.000048 0.541573
328.169556 66.228889 0.000020 0.338506
321.163361 66.284439 0.000020 0.338018
317.261414 66.315376 0.000002 0.341375
314.770233 66.335129 0.000003 0.337301
313.038757 66.348854 0.000009 0.342657
311.763123 66.358971 0.000004 0.328984
373.935883 65.376175 19.575357 0.678431
373.500793 65.382660 17.060154 0.476005
373.935883 65.376175 14.766909 0.678431
373.500793 65.382660 12.343408 0.507561
373.935883 65.376175 10.071804 0.678431
373.500793 65.382660 7.717500 0.608774
373.935852 65.376175 5.446972 0.678431
373.500793 65.382660 3.141050 0.621378
373.500793 65.382660 0.858951 0.624231
344.486298 65.815292 -0.000048 0.543267
328.168121 66.058609 -0.000024 0.546105
321.161957 66.163078 0.000020 0.336400
317.260315 66.221252 0.000002 0.336263
314.769348 66.258392 0.000003 0.336828
313.037994 66.284210 0.000009 0.338033
311.762482 66.303230 0.000004 0.331975
374.283630 64.878601 19.664736 0.514336
374.283691 64.878601 17.231216 0.523995
374.283630 64.878601 14.831841 0.595789
374.283661 64.878601 12.460896 0.506539
374.283630 64.878601 10.112855 0.635538
374.283661 64.878601 7.782443 0.492226
374.283630 64.878601 5.464504 0.598810
374.283661 64.878601 3.154010 0.603403
374.283661 64.878601 0.845990 0.596017
344.481079 65.531113 -0.000048 0.545296
328.165009 65.888351 -0.000024 0.537362
321.159729 66.041725 0.000020 0.340169
317.258575 66.127144 0.000002 0.336172
314.767944 66.181671 0.000002 0.338186
313.036804 66.219574 0.000009 0.339895
311.761444 66.247498 0.000004 0.334691
375.084534 64.362930 19.868568 0.673655
375.084595 64.362930 17.406969 0.664393
375.084534 64.362930 14.979905 0.626795
375.084564 64.362930 12.581602 0.610193
375.084564 64.362930 10.206474 0.546487
375.084564 64.362930 7.849166 0.727886
375.084564 64.362930 5.504482 0.729992
375.084595 64.362930 3.167326 0.636957
375.084595 64.362930 0.832674 0.648432
344.473877 65.246986 -0.000048 0.538552
328.160675 65.718117 -0.000024 0.556970
321.156647 65.920395 0.000020 0.336919
317.256195 66.033043 0.000003 0.338460
314.765991 66.104958 0.000002 0.332738
313.035187 66.154945 0.000009 0.339940
311.760040 66.191772 0.000004 0.332509
375.956482 63.833328 20.091164 0.556435
376.354340 63.819057 17.684868 0.648524
376.354309 63.819057 15.214032 0.678431
375.904236 63.835201 12.705656 0.622644
376.354309 63.819057 10.354495 0.678599
375.904236 63.835201 7.917741 0.601846
376.354309 63.819057 5.567691 0.678431
375.904236 63.835201 3.181011 0.658106
375.904236 63.835201 0.818989 0.575189
344.464661 64.962914 -0.000048 0.537057
328.155182 65.547920 -0.000024 0.541573
321.152710 65.799088 0.000021 0.337194
317.253143 65.938965 0.000003 0.333471
314.763519 66.028267 0.000002 0.338979
313.033081 66.090332 0.000009 0.337469
311.758240 66.136063 0.000004 0.335943
376.743408 63.294922 20.293430 0.516960
376.743347 63.294926 17.773270 0.523384
376.743286 63.294926 15.288506 0.519341
376.743378 63.294922 12.833190 0.524330
376.743347 63.294926 10.401585 0.480690
376.743408 63.294922 7.988236 0.439994
376.743347 63.294926 5.587800 0.487633
376.743408 63.294922 3.195080 0.704875
376.743408 63.294922 0.804919 0.577478
344.453522 64.678909 -0.000048 0.540841
328.148499 65.377762 -0.000025 0.549355
321.147949 65.677811 0.000019 0.339162
317.249451 65.844910 0.000003 0.338048
314.760498 65.951591 0.000002 0.342748
313.030548 66.025734 0.000009 0.333181
311.756042 66.080360 0.000004 0.340276
377.602814 62.741589 20.514889 0.584573
377.603058 62.741577 17.964283 0.498665
377.602814 62.741589 15.449393 0.492805
377.603058 62.741577 12.964376 0.491814
377.603058 62.741577 10.503328 0.576349
377.602814 62.741589 8.060731 0.541375
377.603058 62.741577 5.631249 0.600412
377.602814 62.741589 3.209547 0.704067
377.602814 62.741589 0.790452 0.507561
344.440338 64.394989 -0.000049 0.535348
328.140594 65.207657 -0.000024 0.547402
321.142334 65.556572 0.000019 0.335073
317.245087 65.750885 0.000003 0.337301
314.756927 65.874931 0.000002 0.334524
313.027557 65.961159 0.000009 0.338598
311.753448 66.024681 0.000004 0.341588
378.483368 62.174664 20.742708 0.621500
378.949524 62.148159 18.261511 0.663859
378.483337 62.174667 15.614879 0.563973
378.949493 62.148159 13.168508 0.664897
378.949524 62.148159 10.661645 0.480690
378.483337 62.174664 8.135305 0.642634
378.949524 62.148159 5.698857 0.639857
378.483337 62.174664 3.224432 0.640391
378.483337 62.174664 0.775568 0.517174
344.425232 64.111168 -0.000049 0.538888
328.131531 65.037613 -0.000024 0.543343
321.135895 65.435379 0.000019 0.335058
317.240082 65.656883 0.000004 0.336126
314.752869 65.798309 0.000001 0.329229
313.024109 65.896599 0.000009 0.331472
311.750488 65.969017 0.000004 0.332692
379.385864 61.593597 20.977131 0.523842
379.385956 61.593590 18.362822 0.575235
379.385834 61.593597 15.785172 0.521630
379.385956 61.593590 13.238092 0.596704
379.385956 61.593590 10.715608 0.583352
379.385834 61.593597 8.212042 0.574884
379.385986 61.593590 5.721901 0.562417
379.385864 61.593594 3.239745 0.552987
379.385864 61.593594 0.760254 0.543557
344.408081 63.827469 -0.000050 0.534600
328.121277 64.867638 -0.000024 0.533303
321.128571 65.314232 0.000019 0.338857
317.234406 65.562935 0.000004 0.334585
314.748230 65.721710 0.000001 0.333944
313.020203 65.832069 0.000009 0.330938
311.747131 65.913376 0.000004 0.335439
380.311279 60.997765 21.218447 0.499062
380.788696 60.963924 18.674248 0.678431
380.311279 60.997765 15.960466 0.489845
380.788696 60.963928 13.451973 0.678431
380.311279 60.997765 10.826425 0.676905
380.622711 60.975693 8.316635 0.246174
380.788666 60.963928 5.792737 0.678431
380.311279 60.997765 3.255510 0.623270
380.311279 60.997765 0.744488 0.624445
344.389008 63.543888 -0.000050 0.543313
328.109833 64.697731 -0.000025 0.536446
321.120422 65.193130 0.000019 0.338338
317.228058 65.469017 0.000004 0.340124
314.743073 65.645149 0.000001 0.339513
313.015869 65.767570 0.000009 0.339620
311.743378 65.857765 0.000004 0.329580
381.260620 60.386559 21.466944 0.612268
381.398682 60.375801 18.815042 0.528893
381.260590 60.386559 16.140976 0.640238
381.398682 60.375801 13.548680 0.559472
381.260620 60.386559 10.940553 0.490684
381.398682 60.375801 8.383736 0.549767
381.398682 60.375801 5.824763 0.674586
381.260590 60.386559 3.271746 0.646220
381.260590 60.386559 0.728255 0.657008
344.367920 63.260445 -0.000050 0.540215
328.097198 64.527916 -0.000025 0.542138
321.111389 65.072098 0.000019 0.338994
317.221100 65.375145 0.000003 0.336767
314.737396 65.568626 0.000001 0.345495
313.011078 65.703102 0.000009 0.338888
311.739258 65.802177 0.000004 0.336904
382.234802 59.759315 21.722916 0.599924
382.235016 59.759296 19.005888 0.561013
382.234802 59.759315 16.326918 0.543664
382.235016 59.759300 13.679753 0.506035
382.234833 59.759315 11.058114 0.605081
382.235016 59.759296 8.456188 0.515831
382.235016 59.759300 5.868175 0.648478
382.234802 59.759315 3.288466 0.641001
382.234802 59.759315 0.711534 0.628367
344.344849 62.977161 -0.000050 0.538064
328.083374 64.358185 -0.000025 0.531746
321.101563 64.951126 0.000019 0.336217
317.213470 65.281326 0.000003 0.331701
314.731171 65.492142 0.000000 0.335805
313.005829 65.638664 0.000009 0.337392
311.734711 65.746620 0.000004 0.323857
nan nan nan 0.000000
nan nan nan 0.000000
nan nan nan 0.000000
nan nan nan 0.000000
nan nan nan 0.000000
nan nan nan 0.000000
nan nan nan 0.000000
nan nan nan 0.000000
nan nan nan 0.000000
344.319824 62.694046 -0.000051 0.541756
328.068390 64.188560 -0.000025 0.528161
321.090851 64.830231 0.000020 0.339467
317.205170 65.187569 0.000003 0.337377
314.724396 65.415703 0.000000 0.331395
313.000122 65.574272 0.000009 0.330770
311.729828 65.691093 0.000004 0.335729
nan nan nan 0.000000
nan nan nan 0.000000
nan nan nan 0.000000
nan nan nan 0.000000
nan nan nan 0.000000
nan nan nan 0.000000
nan nan nan 0.000000
nan nan nan 0.000000
nan nan nan 0.000000
344.292816 62.411106 -0.000051 0.536919
328.052185 64.019043 -0.000025 0.526238
321.079315 64.709412 0.000019 0.339117
317.196228 65.093864 0.000003 0.345892
314.717102 65.339310 0.000000 0.339254
312.993988 65.509918 0.000009 0.339284
311.724518 65.635605 0.000004 0.336614
nan nan nan 0.000000
nan nan nan 0.000000
nan nan nan 0.000000
nan nan nan 0.000000
nan nan nan 0.000000
nan nan nan 0.000000
nan nan nan 0.000000
nan nan nan 0.000000
nan nan nan 0.000000
344.263824 62.128368 -0.000051 0.540490
328.034821 63.849648 -0.000026 0.532097
321.066956 64.588669 0.000018 0.338140
317.186615 65.000229 0.000003 0.339940
314.709290 65.262978 0.000000 0.335195
312.987396 65.445602 0.000009 0.332387
311.718842 65.580154 0.000004 0.335882
nan nan nan 0.000000
nan nan nan 0.000000
nan nan nan 0.000000
nan nan nan 0.000000
nan nan nan 0.000000
nan nan nan 0.000000
nan nan nan 0.000000
nan nan nan 0.000000
nan nan nan 0.000000
344.232880 61.845833 -0.000052 0.536126
328.016266 63.680370 -0.000026 0.541161
321.053741 64.468025 0.000018 0.336629
317.176361 64.906654 0.000002 0.338857
314.700928 65.186699 0.000000 0.335378
312.980347 65.381340 0.000009 0.338781
311.712769 65.524742 0.000004 0.341283
nan nan nan 0.000000
nan nan nan 0.000000
nan nan nan 0.000000
nan nan nan 0.000000
nan nan nan 0.000000
nan nan nan 0.000000
nan nan nan 0.000000
nan nan nan 0.000000
nan nan nan 0.000000
344.199951 61.563522 -0.000052 0.543801
327.996552 63.511230 -0.000026 0.544976
321.039673 64.347473 0.000018 0.338125
317.165466 64.813164 0.000001 0.338643
314.692017 65.110481 -0.000000 0.333455
312.972839 65.317131 0.000009 0.340444
311.706299 65.469376 0.000004 0.337362
nan nan nan 0.000000
nan nan nan 0.000000
nan nan nan 0.000000
nan nan nan 0.000000
nan nan nan 0.000000
nan nan nan 0.000000
nan nan nan 0.000000
nan nan nan 0.000000
nan nan nan 0.000000
344.165039 61.281456 -0.000052 0.541955
327.975647 63.342232 -0.000026 0.537865
321.024750 64.227020 0.000018 0.336431
317.153900 64.719749 0.000001 0.338125
314.682617 65.034325 -0.000000 0.333639
312.964905 65.252975 0.000009 0.336782
311.699463 65.414055 0.000004 0.337591
nan nan nan 0.000000
nan nan nan 0.000000
nan nan nan 0.000000
nan nan nan 0.000000
nan nan nan 0.000000
nan nan nan 0.000000
nan nan nan 0.000000
nan nan nan 0.000000
nan nan nan 0.000000
344.128174 60.999630 -0.000053 0.542550
327.953552 63.173382 -0.000027 0.551247
321.009003 64.106674 0.000019 0.338415
317.141693 64.626419 0.000001 0.337392
314.672668 64.958237 -0.000001 0.337865
312.956512 65.188873 0.000009 0.338506
311.692230 65.358788 0.000004 0.337697
nan nan nan 0.000000
nan nan nan 0.000000
nan nan nan 0.000000
nan nan nan 0.000000
nan nan nan 0.000000
nan nan nan 0.000000
nan nan nan 0.000000
nan nan nan 0.000000
nan nan nan 0.000000
344.089355 60.718071 -0.000053 0.542855
327.930298 63.004692 -0.000027 0.535988
320.906616 63.998585 0.009988 1.000000
317.128845 64.533173 0.000002 0.338598
314.662170 64.882217 -0.000001 0.335973
312.947693 65.124832 0.000009 0.336980
311.684601 65.303566 0.000004 0.341070
nan nan nan 0.000000
nan nan nan 0.000000
nan nan nan 0.000000
nan nan nan 0.000000
nan nan nan 0.000000
nan nan nan 0.000000
nan nan nan 0.000000
nan nan nan 0.000000
nan nan nan 0.000000
344.048523 60.436798 -0.000052 0.540703
327.905823 62.836170 -0.000027 0.534783
320.889221 63.879082 0.009995 1.000000
317.115326 64.440018 0.000000 0.338155
314.651154 64.806282 -0.000001 0.337072
312.938416 65.060852 0.000009 0.340429
311.676605 65.248405 0.000004 0.339208
nan nan nan 0.000000
nan nan nan 0.000000
nan nan nan 0.000000
nan nan nan 0.000000
nan nan nan 0.000000
nan nan nan 0.000000
nan nan nan 0.000000
nan nan nan 0.000000
nan nan nan 0.000000
344.005768 60.155811 -0.000052 0.543511
327.880219 62.667820 -0.000027 0.532937
320.956757 63.746346 0.000018 0.335103
317.101166 64.346962 0.000000 0.339620
314.639618 64.730415 -0.000001 0.339895
312.928680 64.996941 0.000009 0.342824
311.668213 65.193291 0.000004 0.340963
nan nan nan 0.000000
nan nan nan 0.000000
nan nan nan 0.000000
nan nan nan 0.000000
nan nan nan 0.000000
nan nan nan 0.000000
nan nan nan 0.000000
nan nan nan 0.000000
nan nan nan 0.000000
343.961060 59.875126 -0.000053 0.536828
327.853424 62.499653 -0.000027 0.529747
320.937927 63.626438 -0.000016 0.529976
317.086334 64.254005 0.000000 0.337545
314.627533 64.654633 -0.000001 0.335500
312.918518 64.933098 0.000009 0.333547
311.659454 65.138245 0.000004 0.331121
nan nan nan 0.000000
nan nan nan 0.000000
nan nan nan 0.000000
nan nan nan 0.000000
nan nan nan 0.000000
nan nan nan 0.000000
nan nan nan 0.000000
nan nan nan 0.000000
nan nan nan 0.000000
343.914368 59.594761 -0.000053 0.540841
327.825439 62.331676 -0.000028 0.552148
320.917999 63.506714 -0.000016 0.538155
317.070892 64.161156 0.000000 0.336797
314.614929 64.578941 -0.000001 0.338933
312.907898 64.869331 0.000009 0.318929
311.650299 65.083260 0.000004 0.339925
nan nan nan 0.000000
nan nan nan 0.000000
nan nan nan 0.000000
nan nan nan 0.000000
nan nan nan 0.000000
nan nan nan 0.000000
nan nan nan 0.000000
nan nan nan 0.000000
nan nan nan 0.000000
343.865723 59.314735 -0.000053 0.538552
327.796295 62.163902 -0.000027 0.538659
320.897217 63.387135 -0.000016 0.538781
317.054779 64.068413 -0.000001 0.337621
314.601807 64.503334 -0.000002 0.344625
312.896820 64.805634 0.000009 0.331930
311.640747 65.028343 0.000004 0.334401
nan nan nan 0.000000
nan nan nan 0.000000
nan nan nan 0.000000
nan nan nan 0.000000
nan nan nan 0.000000
nan nan nan 0.000000
nan nan nan 0.000000
nan nan nan 0.000000
nan nan nan 0.000000
343.815125 59.035049 -0.000054 0.539513
327.765991 61.996338 -0.000027 0.533547
320.875610 63.267704 -0.000016 0.541329
317.038025 63.975788 -0.000001 0.338766
314.588135 64.427826 -0.000001 0.338369
312.885315 64.742020 0.000008 0.335790
311.630829 64.973495 0.000004 0.339178
nan nan nan 0.000000
nan nan nan 0.000000
nan nan nan 0.000000
nan nan nan 0.000000
nan nan nan 0.000000
nan nan nan 0.000000
nan nan nan 0.000000
nan nan nan 0.000000
nan nan nan 0.000000
343.762604 58.755722 -0.000054 0.534966
327.734497 61.828979 -0.000027 0.547967
320.853180 63.148422 -0.000016 0.552804
317.020630 63.883282 -0.000001 0.340032
314.573944 64.352409 -0.000002 0.336492
312.873383 64.678482 0.000009 0.331472
311.620514 64.918709 0.000004 0.332372
nan nan nan 0.000000
nan nan nan 0.000000
nan nan nan 0.000000
nan nan nan 0.000000
nan nan nan 0.000000
nan nan nan 0.000000
nan nan nan 0.000000
nan nan nan 0.000000
nan nan nan 0.000000
343.708099 58.476776 -0.000054 0.538018
327.701843 61.661854 -0.000027 0.543053
320.829926 63.029301 -0.000016 0.530968
317.002594 63.790901 -0.000002 0.332082
314.559235 64.277100 -0.000002 0.335393
