# This PCD file was generated using the MATLAB® pcwrite function
# from Computer Vision Toolbox®.
# .PCD v.7 - Point Cloud Data file format
VERSION .7
FIELDS x y z intensity
SIZE 4 4 4 4
TYPE F F F F
COUNT 1 1 1 1
WIDTH 1183
HEIGHT 1
VIEWPOINT 0 0 0 1 0 0 0
POINTS 1183
DATA ascii
437.734650 189.471420 3.480630 0.968627
437.778778 189.438324 2.889817 0.968627
437.823029 189.405136 2.297299 0.968627
437.867493 189.371780 1.701791 0.968627
437.912292 189.338196 1.101983 0.968627
437.035706 189.995651 0.591008 0.974701
437.005402 190.018372 0.027520 0.968627
434.075104 192.216171 -0.000014 0.546181
432.082092 193.710968 -0.000011 0.553094
430.696899 194.749908 -0.000009 0.535546
429.676331 195.515350 -0.000008 0.507500
437.485077 189.502945 6.468525 0.968627
437.536560 189.463760 5.866906 0.968627
437.279144 189.659637 5.198896 0.963211
437.279144 189.659637 4.607835 0.970047
437.627472 189.394577 4.072839 0.968627
437.671417 189.361145 3.481943 0.968627
437.715363 189.327682 2.890609 0.968627
437.759460 189.294128 2.297564 0.968627
437.803772 189.260406 1.701524 0.968627
437.848419 189.226440 1.101178 0.968627
437.019226 189.857437 0.585254 0.980392
436.945435 189.913605 0.025760 0.980392
434.018372 192.141068 -0.000014 0.542473
432.035828 193.649750 -0.000011 0.530205
430.657928 194.698334 -0.000009 0.569924
429.642731 195.470871 -0.000008 0.534783
437.422272 189.394089 6.472628 0.968627
437.473572 189.354462 5.870471 0.968627
437.217590 189.552109 5.201910 0.979019
437.217590 189.552109 4.610290 0.954238
437.564240 189.284470 4.074772 0.968627
437.608032 189.250656 3.483330 0.968627
437.651855 189.216827 2.891445 0.968627
437.695801 189.182907 2.297844 0.968627
437.739960 189.148819 1.701242 0.968627
437.784424 189.114471 1.100326 0.968627
436.960724 189.750427 0.583723 0.980392
436.885315 189.808640 0.023901 0.980392
433.961090 192.066360 -0.000014 0.544976
431.989166 193.588837 -0.000011 0.547082
430.618591 194.647018 -0.000009 0.537758
429.608826 195.426636 -0.000008 0.549233
437.359344 189.285034 6.476951 0.968627
437.410461 189.244980 5.874226 0.968627
437.155914 189.444382 5.205084 0.980392
437.155914 189.444382 4.612878 0.968627
437.500916 189.174149 4.076810 0.968627
437.544525 189.139984 3.484791 0.968627
437.588196 189.105774 2.892325 0.968627
437.631989 189.071472 2.298140 0.968627
437.675995 189.037003 1.700946 0.968627
437.720306 189.002289 1.099429 0.968627
436.902100 189.643173 0.582120 0.964080
436.825134 189.703476 0.021942 0.968627
433.903320 191.992065 -0.000014 0.526268
431.942047 193.528275 -0.000011 0.586404
430.578888 194.595993 -0.000009 0.553460
429.574585 195.382629 -0.000008 0.537865
437.296265 189.175797 6.481497 0.968627
437.347198 189.135300 5.878174 0.968627
437.094086 189.336426 5.208421 0.973083
437.094116 189.336426 4.615600 0.968627
437.437408 189.063629 4.078951 0.968627
437.480896 189.029068 3.486327 0.968627
437.524414 188.994492 2.893251 0.968627
437.568054 188.959824 2.298450 0.968627
437.611908 188.924973 1.700633 0.968627
437.656097 188.889862 1.098486 0.968627
436.843353 189.535675 0.580443 0.953170
436.764801 189.598099 0.019882 0.973770
433.845001 191.918167 -0.000014 0.531136
431.894531 193.468018 -0.000011 0.507561
430.538849 194.545242 -0.000009 0.558083
429.540070 195.338867 -0.000008 0.541024
437.233032 189.066330 6.486265 0.968627
437.283813 189.025391 5.882314 0.968627
437.032166 189.228241 5.211923 0.968627
437.032166 189.228226 4.618454 0.968627
437.373779 188.952866 4.081199 0.968627
437.417114 188.917938 3.487938 0.968627
437.460480 188.882980 2.894222 0.968627
437.503967 188.847931 2.298775 0.968627
437.547668 188.812698 1.700306 0.968627
437.591705 188.777206 1.097497 0.968627
436.784424 189.427917 0.578693 0.980392
436.704315 189.492493 0.017721 0.980392
433.786194 191.844666 -0.000014 0.555322
431.846558 193.408112 -0.000011 0.559442
430.498474 194.494766 -0.000009 0.568994
429.505249 195.295349 -0.000008 0.551064
437.169647 188.956635 6.491254 0.968627
437.220245 188.915268 5.886648 0.968627
436.970093 189.119812 5.215588 0.980392
436.970093 189.119812 4.621442 0.968627
437.309998 188.841873 4.083550 0.968627
437.353210 188.806564 3.489625 0.968627
437.396423 188.771225 2.895240 0.968627
437.439758 188.735779 2.299116 0.968627
437.483307 188.700165 1.699963 0.968627
437.527191 188.664291 1.096461 0.968627
436.725372 189.319885 0.576869 0.980392
436.643738 189.386642 0.015460 0.980392
433.726868 191.771591 -0.000014 0.531838
431.798218 193.348541 -0.000011 0.557000
430.457703 194.444565 -0.000009 0.556756
429.470123 195.252075 -0.000008 0.531151
437.106110 188.846710 6.496471 0.968627
437.156525 188.804886 5.891178 0.968627
436.907867 189.011124 5.219419 0.957961
436.907867 189.011124 4.624564 0.968627
437.246094 188.730621 4.086009 0.968627
437.289124 188.694931 3.491388 0.968627
437.332184 188.659210 2.896302 0.968627
437.375397 188.623383 2.299473 0.968627
437.418823 188.587372 1.699604 0.968627
437.462555 188.551102 1.095378 0.968627
436.666168 189.211578 0.574972 0.980392
436.583008 189.280548 0.013094 0.980392
433.667023 191.698929 -0.000014 0.526040
431.749420 193.289307 -0.000011 0.552239
430.416626 194.394669 -0.000009 0.540063
429.434662 195.209045 -0.000007 0.537163
437.042389 188.736542 6.501914 0.968627
437.092651 188.694275 5.895904 0.968627
436.845490 188.902176 5.223416 0.980392
436.845490 188.902176 4.627824 0.980392
437.182007 188.619110 4.088573 0.968627
437.224884 188.583038 3.493227 0.968627
437.267822 188.546921 2.897411 0.968627
437.310852 188.510696 2.299844 0.968627
437.354126 188.474304 1.699231 0.968627
437.397736 188.437637 1.094249 0.968627
436.606812 189.102966 0.572999 0.975067
436.522095 189.174210 0.010628 0.968017
433.606689 191.626678 -0.000014 0.542977
431.700226 193.230408 -0.000011 0.513329
430.375183 194.345047 -0.000009 0.554467
429.398926 195.166260 -0.000008 0.559365
436.978485 188.626129 6.507582 0.968627
437.028595 188.583389 5.900828 0.968627
437.078339 188.540939 5.298231 0.968627
436.782959 188.792953 4.631219 0.980392
437.117737 188.507324 4.091246 0.968627
437.160492 188.470856 3.495144 0.968627
437.203278 188.434357 2.898566 0.968627
437.246185 188.397736 2.300231 0.968627
437.289307 188.360947 1.698841 0.968627
437.332733 188.323883 1.093072 0.968627
436.547272 188.994049 0.570951 0.968353
436.461060 189.067596 0.008057 0.963073
433.545837 191.554871 -0.000014 0.554559
431.650635 193.171860 -0.000010 0.548455
430.333405 194.295715 -0.000009 0.538872
429.362915 195.123734 -0.000007 0.557717
436.914429 188.515427 6.513478 0.968627
436.964355 188.472229 5.905950 0.968627
437.013916 188.429321 5.302578 0.980392
436.720276 188.683441 4.634752 0.980392
437.053284 188.395264 4.094026 0.968627
437.095917 188.358383 3.497138 0.968627
437.138550 188.321487 2.899768 0.968627
437.181305 188.284485 2.300634 0.968627
437.224304 188.247284 1.698436 0.968627
437.267609 188.209824 1.091848 0.968627
436.487549 188.884827 0.568828 0.964141
436.399872 188.960693 0.005383 0.948775
433.484497 191.483475 -0.000014 0.532433
431.600616 193.113647 -0.000011 0.562493
430.291260 194.246689 -0.000009 0.533425
429.326569 195.081451 -0.000008 0.517693
436.850159 188.404465 6.519607 0.968627
436.899933 188.360794 5.911273 0.968627
436.949341 188.317429 5.307094 0.972168
436.657410 188.573639 4.638423 0.966888
436.988678 188.282898 4.096914 0.968627
437.031158 188.245621 3.499209 0.968627
437.073639 188.208328 2.901017 0.968627
437.116272 188.170914 2.301053 0.968627
437.159119 188.133316 1.698015 0.968627
437.202271 188.095444 1.090575 0.968627
436.427673 188.775253 0.566628 0.964584
436.338501 188.853500 0.002604 0.960662
433.422638 191.412506 -0.000014 0.549142
431.550201 193.055801 -0.000011 0.545174
430.248779 194.197952 -0.000009 0.548211
429.289948 195.039429 -0.000007 0.485222
436.785706 188.293198 6.525968 0.968627
436.835297 188.249054 5.916798 0.968627
436.884552 188.205231 5.311781 0.968627
436.594360 188.463516 4.642233 0.980392
436.923889 188.170212 4.099913 0.968627
436.966217 188.132538 3.501359 0.968627
437.008575 188.094849 2.902313 0.968627
437.051056 188.057022 2.301487 0.968627
437.093750 188.019012 1.697577 0.968627
437.136780 187.980728 1.089255 0.968627
436.367584 188.665344 0.564351 0.971572
436.276947 188.746017 -0.000281 0.968627
433.360321 191.341980 -0.000014 0.533104
431.499390 192.998306 -0.000011 0.565499
430.205963 194.149506 -0.000009 0.554833
429.253052 194.997665 -0.000007 0.518746
436.721069 188.181625 6.532559 0.968627
436.770477 188.137024 5.922523 0.968627
436.819550 188.092712 5.316642 0.980392
436.531128 188.353073 4.646183 0.968627
436.858887 188.057220 4.103020 0.968627
436.901062 188.019135 3.503589 0.968627
436.943298 187.981033 2.903657 0.968627
436.985626 187.942810 2.301937 0.968627
437.028198 187.904388 1.697124 0.968627
437.071075 187.865692 1.087886 0.968627
436.307312 188.555099 0.561997 0.980209
436.215240 188.638199 -0.003272 0.968627
433.297485 191.271881 -0.000014 0.551431
431.448181 192.941162 -0.000011 0.525002
430.162811 194.101364 -0.000009 0.507225
429.215851 194.956161 -0.000007 0.558999
436.656189 188.069748 6.539387 0.968627
436.705444 188.024658 5.928454 0.968627
436.754364 187.979874 5.321674 0.980392
436.467682 188.242294 4.650275 0.975937
436.793671 187.943893 4.106240 0.968627
436.835724 187.905396 3.505897 0.968627
436.877808 187.866867 2.905049 0.968627
436.920013 187.828232 2.302404 0.968627
436.962433 187.789398 1.696655 0.968627
437.005188 187.750275 1.086468 0.968627
436.246826 188.444473 0.559565 0.980392
436.153320 188.530060 -0.006369 0.954162
433.234161 191.202240 -0.000013 0.544579
431.396545 192.884384 -0.000010 0.536400
430.119324 194.053528 -0.000009 0.534524
429.178345 194.914902 -0.000007 0.538338
436.591095 187.957535 6.546451 0.968627
436.640198 187.911957 5.934590 0.968627
436.688965 187.866699 5.326882 0.980392
436.404053 188.131165 4.654508 0.968078
436.728271 187.830215 4.109571 0.968627
436.770172 187.791306 3.508286 0.968627
436.812134 187.752365 2.906489 0.968627
436.854187 187.713318 2.302887 0.968627
436.896484 187.674057 1.696169 0.968627
436.939087 187.634506 1.085001 0.968627
436.186157 188.333466 0.557054 0.975708
436.091217 188.421585 -0.009574 0.917418
433.170380 191.133026 -0.000013 0.531807
431.344543 192.827957 -0.000011 0.542840
430.075531 194.005997 -0.000009 0.540017
429.140564 194.873917 -0.000007 0.542168
436.525787 187.844986 6.553753 0.968627
436.574738 187.798920 5.940932 0.968627
436.623322 187.753174 5.332264 0.968627
436.340240 188.019669 4.658886 0.968627
436.662628 187.716171 4.113013 0.968627
436.704407 187.676849 3.510756 0.968627
436.746216 187.637497 2.907978 0.968627
436.788147 187.598007 2.303386 0.968627
436.830292 187.558334 1.695667 0.968627
436.872772 187.518356 1.083483 0.968627
436.125244 188.222061 0.554464 0.975341
435.947449 188.389435 -0.000018 0.526314
433.106110 191.064255 -0.000013 0.514076
431.292145 192.771896 -0.000010 0.522622
430.031372 193.958771 -0.000009 0.551919
429.102509 194.833206 -0.000007 0.534600
436.460266 187.732086 6.561296 0.968627
436.509033 187.685532 5.947485 0.968627
436.557495 187.639282 5.337825 0.968627
436.276184 187.907806 4.663408 0.970703
436.596771 187.601761 4.116571 0.968627
436.638428 187.562012 3.513307 0.968627
436.680084 187.522232 2.909516 0.968627
436.721893 187.482330 2.303902 0.968627
436.763916 187.442215 1.695148 0.968627
436.806244 187.401810 1.081916 0.968627
436.064148 188.110260 0.551794 0.980301
435.863953 188.301361 -0.000018 0.555535
433.041321 190.995956 -0.000013 0.550881
431.239349 192.716217 -0.000010 0.530999
429.986908 193.911850 -0.000009 0.529763
429.064148 194.792755 -0.000007 0.488350
436.394501 187.618820 6.569082 0.968627
436.443115 187.571762 5.954247 0.968627
436.491394 187.525024 5.343564 0.968627
436.211914 187.795563 4.668075 0.977447
436.530701 187.486969 4.120242 0.968627
436.572205 187.446793 3.515939 0.968627
436.613739 187.406570 2.911103 0.968627
436.655396 187.366241 2.304433 0.968627
436.697296 187.325699 1.694613 0.968627
436.739471 187.284851 1.080299 0.968627
436.002777 187.998016 0.549042 0.950240
435.779846 188.213852 -0.000018 0.545617
432.976105 190.928101 -0.000013 0.523125
431.186157 192.660889 -0.000010 0.535271
429.942078 193.865250 -0.000009 0.512398
429.025513 194.752563 -0.000007 0.541451
436.328461 187.505188 6.577109 0.968627
436.376923 187.457611 5.961222 0.968627
436.425049 187.410370 5.349483 0.968627
436.147430 187.682907 4.672890 0.980392
436.464355 187.371780 4.124028 0.968627
436.505737 187.331177 3.518655 0.968627
436.547150 187.290527 2.912741 0.968627
436.588654 187.249756 2.304982 0.968627
436.630432 187.208771 1.694061 0.968627
436.672485 187.167480 1.078630 0.968627
435.941193 187.885376 0.546210 0.973266
435.695129 188.126953 -0.000018 0.537652
432.910400 190.860687 -0.000013 0.551827
431.132599 192.605942 -0.000010 0.516991
429.896973 193.818954 -0.000008 0.547463
428.986603 194.712646 -0.000007 0.520684
436.262207 187.391159 6.585386 0.968627
436.124451 187.528290 5.911710 0.223529
436.127197 187.525558 5.296206 0.223529
436.082703 187.569839 4.677851 0.980392
436.132599 187.520157 4.084887 0.223529
436.135284 187.517487 3.486313 0.223529
436.137939 187.514847 2.890697 0.223529
436.140594 187.512192 2.296748 0.223529
436.143250 187.509552 1.703190 0.223529
436.140533 187.512283 1.109124 0.223529
435.879364 187.772263 0.543295 0.980392
435.609772 188.040634 -0.000018 0.541772
432.844208 190.793747 -0.000013 0.523476
431.078644 192.551376 -0.000010 0.535271
429.851501 193.772980 -0.000008 0.555520
428.947418 194.673004 -0.000007 0.543389
435.713654 187.763306 6.422350 0.223529
435.754272 187.722305 5.825582 0.223529
435.794586 187.681610 5.233358 0.223529
435.834656 187.641144 4.644379 0.223529
435.874603 187.600815 4.057356 0.223529
435.914520 187.560532 3.471030 0.223529
435.954468 187.520218 2.884145 0.223529
435.994537 187.479767 2.295436 0.223529
436.034790 187.439117 1.703628 0.223529
436.075378 187.398148 1.107414 0.223529
435.817291 187.658691 0.540298 0.980392
435.523865 187.954910 -0.000018 0.540185
432.777557 190.727280 -0.000013 0.532906
431.024323 192.497177 -0.000010 0.535729
429.805756 193.727325 -0.000009 0.562890
428.907959 194.633652 -0.000007 0.484428
435.649445 187.652664 6.430824 0.223529
435.689911 187.611237 5.832936 0.223529
435.730103 187.570099 5.239595 0.223529
435.770050 187.529205 4.649495 0.223529
435.809875 187.488434 4.061350 0.223529
435.849640 187.447723 3.473895 0.223529
435.889465 187.406952 2.885871 0.223529
435.929382 187.366074 2.296015 0.223529
435.969543 187.324982 1.703045 0.223529
436.010010 187.283569 1.105654 0.223529
435.754944 187.544662 0.537216 0.957412
435.437317 187.869797 -0.000018 0.529000
432.710480 190.661270 -0.000013 0.559228
430.969604 192.443359 -0.000010 0.544106
429.759644 193.681992 -0.000008 0.570321
428.868225 194.594559 -0.000007 0.509178
435.584930 187.541626 6.439541 0.223529
435.625305 187.499725 5.840501 0.223529
435.665344 187.458160 5.246011 0.223529
435.705170 187.416824 4.654758 0.223529
435.744843 187.375610 4.065458 0.223529
435.784515 187.334457 3.476842 0.223529
435.824188 187.293259 2.887648 0.223529
435.864014 187.251923 2.296611 0.223529
435.904022 187.210388 1.702446 0.223529
435.944336 187.168518 1.103843 0.223529
435.692352 187.430130 0.534050 0.974792
435.350220 187.785294 -0.000018 0.521645
432.642914 190.595718 -0.000013 0.528466
430.914520 192.389938 -0.000010 0.508400
429.713257 193.636978 -0.000008 0.522469
428.828217 194.555740 -0.000007 0.533837
435.520172 187.430145 6.448506 0.223529
435.560394 187.387802 5.848283 0.223529
435.600311 187.345779 5.252610 0.223529
435.640015 187.303986 4.660172 0.223529
436.128845 186.789398 4.144728 0.968627
436.169556 186.746536 3.533502 0.968627
436.210297 186.703644 2.921692 0.968627
436.251190 186.660614 2.307982 0.968627
436.292267 186.617355 1.691041 0.968627
436.333679 186.573776 1.069508 0.968627
435.629456 187.315094 0.530799 0.963928
435.262512 187.701385 -0.000018 0.524498
432.574890 190.530655 -0.000013 0.523598
430.859070 192.336899 -0.000010 0.534035
429.666534 193.592285 -0.000008 0.580896
428.787933 194.517212 -0.000007 0.544457
435.926788 186.814728 6.630530 0.968627
435.974304 186.764008 6.007627 0.968627
436.021484 186.713623 5.388867 0.980392
435.755249 186.997849 4.704934 0.962463
436.060913 186.671524 4.149228 0.968627
436.101501 186.628204 3.536730 0.968627
436.142120 186.584839 2.923638 0.968627
436.182861 186.541351 2.308635 0.968627
436.223816 186.497620 1.690385 0.968627
436.265106 186.453568 1.067524 0.968627
435.566284 187.199554 0.527461 0.968627
435.174225 187.618118 -0.000018 0.551965
432.506409 190.466064 -0.000013 0.555184
430.803253 192.284241 -0.000010 0.537102
429.619507 193.547928 -0.000008 0.535637
428.747375 194.478958 -0.000007 0.515770
435.858826 186.698090 6.640328 0.968627
435.906189 186.646820 6.016139 0.968627
435.953217 186.595901 5.396093 0.974838
435.688934 186.882034 4.710814 0.972946
435.992676 186.553177 4.153851 0.968627
436.033142 186.509384 3.540046 0.968627
436.073639 186.465546 2.925638 0.968627
436.114258 186.421585 2.309305 0.968627
436.155090 186.377380 1.689710 0.968627
436.196228 186.332840 1.065486 0.968627
435.502838 187.083481 0.524035 0.980392
435.085358 187.535446 -0.000018 0.538262
432.437500 190.401962 -0.000013 0.542290
430.747070 192.231979 -0.000010 0.517983
429.572174 193.503906 -0.000008 0.545052
428.706573 194.440994 -0.000007 0.580362
435.790558 186.580963 6.650391 0.968627
435.837769 186.529144 6.024881 0.968627
435.884644 186.477676 5.403511 0.968627
435.622314 186.765686 4.716852 0.974182
435.924164 186.434311 4.158599 0.968627
435.964478 186.390045 3.543451 0.968627
436.004852 186.345734 2.927691 0.968627
436.045319 186.301285 2.309994 0.968627
436.086029 186.256592 1.689018 0.968627
436.127045 186.211578 1.063394 0.968627
435.439087 186.966843 0.520522 0.965316
434.995911 187.453400 -0.000018 0.542718
432.368134 190.338333 -0.000012 0.534752
430.690521 192.180099 -0.000010 0.562463
429.524536 193.460205 -0.000008 0.525093
428.665497 194.403320 -0.000007 0.536400
435.721985 186.463348 6.660716 0.968627
435.769043 186.410980 6.033851 0.968627
435.815765 186.358948 5.411126 0.968627
435.555420 186.648834 4.723051 0.973953
435.855316 186.314926 4.163471 0.968627
435.895508 186.270172 3.546947 0.968627
435.935730 186.225372 2.929799 0.968627
435.976105 186.180450 2.310699 0.968627
436.016663 186.135269 1.688306 0.968627
436.057556 186.089752 1.061245 0.968627
435.375031 186.849655 0.516919 0.956649
434.905884 187.371979 -0.000018 0.528679
432.298309 190.275192 -0.000012 0.542535
430.633606 192.128632 -0.000010 0.524849
429.476593 193.416840 -0.000008 0.570565
428.624146 194.365921 -0.000007 0.546899
435.653107 186.345230 6.671311 0.968627
435.699982 186.292282 6.043056 0.968627
435.746582 186.239685 5.418939 0.968627
435.488190 186.531433 4.729412 0.976944
435.786133 186.194992 4.168471 0.968627
435.826202 186.149765 3.550534 0.968627
435.866302 186.104477 2.931961 0.968627
435.906555 186.059052 2.311425 0.968627
435.946991 186.013382 1.687577 0.968627
435.987732 185.967361 1.059040 0.968627
435.310638 186.731888 0.513226 0.963851
434.815308 187.291199 -0.000018 0.540764
432.228058 190.212540 -0.000012 0.534066
430.576355 192.077545 -0.000010 0.536873
429.428345 193.373810 -0.000008 0.544808
428.582550 194.328827 -0.000007 0.550027
435.583862 186.226578 6.682176 0.968627
435.630585 186.173065 6.052496 0.968627
435.677032 186.119888 5.426952 0.968627
435.420654 186.413467 4.735936 0.972351
435.716644 186.074524 4.173599 0.968627
435.756592 186.028793 3.554212 0.968627
435.796570 185.983017 2.934180 0.968627
435.836670 185.937088 2.312168 0.968627
435.876984 185.890915 1.686828 0.968627
435.917603 185.844391 1.056779 0.968627
435.245941 186.613541 0.509442 0.966186
434.724182 187.211044 -0.000018 0.528298
432.157379 190.150375 -0.000012 0.524865
430.518738 192.026871 -0.000010 0.536095
429.379791 193.331116 -0.000008 0.533379
428.540680 194.292007 -0.000006 0.515785
435.514282 186.107391 6.693316 0.968627
435.560852 186.053284 6.062174 0.968627
435.607147 185.999542 5.435166 0.973816
435.352814 186.294937 4.742626 0.969314
435.646820 185.953476 4.178858 0.968627
435.686615 185.907242 3.557983 0.968627
435.726471 185.860962 2.936454 0.968627
435.766449 185.814529 2.312931 0.968627
435.806641 185.767853 1.686061 0.968627
435.847137 185.720810 1.054461 0.968627
435.180908 186.494568 0.505565 0.959899
434.632477 187.131531 -0.000018 0.536263
432.086273 190.088715 -0.000012 0.537774
430.460754 191.976608 -0.000010 0.538293
429.330963 193.288757 -0.000008 0.526055
428.498566 194.255493 -0.000006 0.511620
435.444366 185.987640 6.704730 0.968627
435.490784 185.932953 6.072092 0.968627
435.536926 185.878616 5.443585 0.974136
435.284607 186.175827 4.749481 0.968627
435.576630 185.831833 4.184246 0.968627
435.616302 185.785095 3.561849 0.968627
435.656036 185.738312 2.938785 0.968627
435.695862 185.691376 2.313712 0.968627
435.735931 185.644165 1.685274 0.968627
435.776306 185.596619 1.052084 0.968627
435.115540 186.374969 0.501595 0.980392
434.540222 187.052658 -0.000018 0.541924
432.014740 190.027542 -0.000012 0.542519
430.402435 191.926743 -0.000010 0.539879
429.281799 193.246750 -0.000008 0.490593
428.456207 194.219269 -0.000006 0.484306
435.374054 185.867325 6.716426 0.968627
435.420349 185.812042 6.082253 0.968627
435.466309 185.757111 5.452212 0.971115
435.216064 186.056091 4.756507 0.973495
435.506073 185.709595 4.189767 0.968627
435.545624 185.662354 3.565810 0.968627
435.585236 185.615051 2.941173 0.968627
435.624939 185.567581 2.314513 0.968627
435.664886 185.519867 1.684469 0.968627
435.705139 185.471786 1.049649 0.968627
435.049805 186.254730 0.497531 0.974227
434.447418 186.974426 -0.000018 0.543191
431.942749 189.966873 -0.000012 0.529000
430.343750 191.877274 -0.000010 0.540002
429.232391 193.205078 -0.000008 0.550439
428.413574 194.183334 -0.000007 0.553201
435.303406 185.746429 6.728405 0.968627
435.349518 185.690521 6.092661 0.968627
435.395355 185.634995 5.461045 0.968627
435.147156 185.935760 4.763703 0.979568
435.435181 185.586746 4.195423 0.968627
435.474579 185.538971 3.569867 0.968627
435.514069 185.491150 2.943620 0.968627
435.553650 185.443161 2.315333 0.968627
435.593475 185.394913 1.683643 0.968627
435.633575 185.346298 1.047155 0.968627
434.983734 186.133820 0.493370 0.980392
434.354065 186.896851 -0.000018 0.553399
431.870361 189.906708 -0.000012 0.543252
430.284729 191.828232 -0.000009 0.552483
429.182678 193.163757 -0.000008 0.517311
428.370728 194.147705 -0.000007 0.499336
435.232361 185.624924 6.740668 0.968627
435.278320 185.568420 6.103317 0.968627
435.324005 185.512268 5.470091 0.968627
435.077911 185.814789 4.771072 0.975891
435.363892 185.463257 4.201214 0.968627
435.403168 185.414963 3.574021 0.968627
435.442505 185.366608 2.946125 0.968627
435.481995 185.318085 2.316173 0.968627
435.521667 185.269302 1.682798 0.968627
435.561646 185.220154 1.044600 0.968627
434.917267 186.012253 0.489113 0.980392
434.260193 186.819931 -0.000018 0.532555
431.797546 189.847061 -0.000012 0.542565
430.225372 191.779602 -0.000009 0.544991
429.132660 193.122787 -0.000008 0.556710
428.327606 194.112381 -0.000006 0.562463
435.160950 185.502792 6.753223 0.968627
435.206757 185.445663 6.114225 0.968627
435.252258 185.388916 5.479351 0.968627
435.008270 185.693161 4.778617 0.960311
435.292206 185.339127 4.207141 0.968627
435.331360 185.290283 3.578274 0.968627
435.370575 185.241394 2.948689 0.968627
435.409912 185.192337 2.317033 0.968627
435.449493 185.143005 1.681932 0.968627
435.489349 185.093307 1.041985 0.968627
434.850433 185.889984 0.484758 0.971481
434.165771 186.743668 -0.000018 0.530617
431.724335 189.787903 -0.000012 0.561257
430.165680 191.731384 -0.000009 0.557260
429.082367 193.082169 -0.000008 0.524010
428.284241 194.077362 -0.000006 0.554223
435.089111 185.380051 6.766070 0.968627
435.134766 185.322281 6.125388 0.968627
435.180145 185.264893 5.488828 0.968627
434.938263 185.570862 4.786340 0.969177
435.220123 185.214325 4.213209 0.968627
435.259155 185.164932 3.582627 0.968627
435.298248 185.115494 2.951314 0.968627
435.337463 185.065903 2.317913 0.968627
435.376892 185.016022 1.681046 0.968627
435.416626 184.965759 1.039308 0.968627
434.783203 185.766998 0.480303 0.980392
434.070831 186.668060 -0.000018 0.528710
431.650696 189.729279 -0.000012 0.535103
430.105652 191.683578 -0.000009 0.565515
429.031799 193.041901 -0.000008 0.521523
428.240631 194.042633 -0.000006 0.523629
435.016876 185.256638 6.779213 0.968627
435.062378 185.198242 6.136809 0.968627
435.107605 185.140213 5.498525 0.968627
434.867859 185.447876 4.794242 0.980392
435.147644 185.088837 4.219417 0.968627
435.186554 185.038895 3.587080 0.968627
435.225525 184.988907 2.954000 0.968627
435.264618 184.938751 2.318814 0.968627
435.303925 184.888306 1.680140 0.968627
435.343506 184.837494 1.036569 0.968627
434.715576 185.643280 0.475747 0.980392
433.975342 186.593124 -0.000018 0.545556
431.576660 189.671158 -0.000012 0.564187
430.045288 191.636200 -0.000009 0.525856
428.980927 193.001984 -0.000008 0.533333
428.196777 194.008224 -0.000006 0.497017
434.944214 185.132568 6.792658 0.968627
434.989563 185.073517 6.148491 0.968627
435.034637 185.014847 5.508442 0.968627
434.797028 185.324188 4.802325 0.980301
435.074738 184.962631 4.225767 0.968627
435.113525 184.912140 3.591636 0.968627
435.152374 184.861603 2.956747 0.968627
435.191315 184.810883 2.319734 0.968627
435.230499 184.759872 1.679213 0.968627
435.269989 184.708481 1.033767 0.968627
434.647522 185.518814 0.471089 0.968627
433.879364 186.518860 -0.000018 0.536095
431.502197 189.613556 -0.000012 0.518456
429.984589 191.589249 -0.000010 0.541375
428.929810 192.962418 -0.000007 0.515938
428.152679 193.974106 -0.000006 0.550683
434.871124 185.007813 6.806405 0.968627
434.916321 184.948105 6.160438 0.968627
434.961243 184.888794 5.518583 0.968627
434.725800 185.199768 4.810594 0.971481
435.001434 184.835724 4.232262 0.968627
435.040070 184.784668 3.596296 0.968627
435.078766 184.733536 2.959558 0.968627
435.117615 184.682251 2.320677 0.968627
435.156677 184.630676 1.678264 0.968627
435.196014 184.578690 1.030901 0.968627
434.579071 185.393585 0.466328 0.977356
433.782837 186.445251 -0.000018 0.525902
431.427338 189.556473 -0.000011 0.534340
429.923584 191.542709 -0.000009 0.577417
428.878387 192.923218 -0.000007 0.554894
428.108368 193.940308 -0.000006 0.530892
434.797607 184.882355 6.820462 0.968627
434.842651 184.821976 6.172652 0.968627
434.887421 184.761993 5.528955 0.968627
434.654144 185.074615 4.819048 0.975113
434.927643 184.708069 4.238902 0.968627
434.966187 184.656433 3.601060 0.968627
435.004761 184.604736 2.962431 0.968627
435.043457 184.552856 2.321640 0.968627
435.082397 184.500702 1.677295 0.968627
435.121613 184.448135 1.027970 0.968627
434.510162 185.267563 0.461462 0.973037
433.685822 186.372330 -0.000018 0.545617
431.352112 189.499924 -0.000011 0.533532
429.862244 191.496613 -0.000009 0.543801
428.826721 192.884369 -0.000007 0.543267
428.063812 193.906815 -0.000006 0.532921
434.723633 184.756165 6.834831 0.968627
434.768524 184.695114 6.185138 0.968627
434.813141 184.634460 5.539557 0.968627
434.582062 184.948700 4.827691 0.968627
434.853424 184.579651 4.245691 0.968627
434.891846 184.527435 3.605931 0.968627
434.930267 184.475143 2.965369 0.968627
434.968872 184.422684 2.322626 0.968627
435.007660 184.369934 1.676303 0.968627
435.046753 184.316772 1.024973 0.968627
434.440826 185.140732 0.456488 0.967208
433.588287 186.300079 -0.000018 0.535317
431.276459 189.443893 -0.000011 0.541176
429.800568 191.450928 -0.000009 0.553674
428.774780 192.845901 -0.000007 0.552468
428.019012 193.873642 -0.000006 0.489525
434.649200 184.629242 6.849515 0.968627
434.693939 184.567520 6.197900 0.968627
434.738373 184.506165 5.550390 0.968627
434.509521 184.821991 4.836527 0.980392
434.778748 184.450455 4.252629 0.968627
434.817017 184.397644 3.610910 0.968627
434.855347 184.344772 2.968372 0.968627
434.893799 184.291718 2.323632 0.968627
434.932465 184.238358 1.675289 0.968627
434.971436 184.184586 1.021909 0.968627
434.371063 185.013062 0.451408 0.978836
433.490265 186.228516 -0.000018 0.534356
431.200439 189.388397 -0.000011 0.552148
429.738586 191.405685 -0.000009 0.531670
428.722565 192.807785 -0.000007 0.578576
427.973999 193.840775 -0.000006 0.518196
434.574280 184.501572 6.864520 0.968627
434.618866 184.439133 6.210940 0.968627
434.663147 184.377106 5.561461 0.968627
434.436523 184.694489 4.845558 0.963943
434.703613 184.320465 4.259721 0.968627
434.741730 184.267044 3.615997 0.968627
434.779938 184.213562 2.971441 0.968627
434.818237 184.159912 2.324661 0.968627
434.856781 184.105942 1.674253 0.968627
434.895630 184.051544 1.018779 0.968627
434.300812 184.884552 0.446217 0.980392
433.391724 186.157654 -0.000018 0.551461
431.124023 189.333435 -0.000011 0.542184
429.676300 191.360870 -0.000009 0.540566
428.670074 192.770020 -0.000007 0.542290
427.928741 193.808228 -0.000006 0.553658
434.498901 184.373108 6.879850 0.968627
434.543304 184.309982 6.224264 0.968627
434.587463 184.247238 5.572775 0.968627
434.363068 184.566177 4.854785 0.980392
434.627960 184.189651 4.266966 0.968627
434.665985 184.135635 3.621197 0.968627
434.704041 184.081543 2.974576 0.968627
434.742218 184.027267 2.325713 0.968627
434.780640 183.972672 1.673195 0.968627
434.819336 183.917664 1.015579 0.968627
434.230072 184.755173 0.440916 0.980392
433.292725 186.087463 -0.000018 0.538491
431.047241 189.278992 -0.000011 0.564034
429.613708 191.316498 -0.000009 0.531884
428.617340 192.732651 -0.000007 0.569085
427.883270 193.775986 -0.000005 0.545327
434.423004 184.243866 6.895510 0.968627
434.467255 184.180008 6.237873 0.968627
434.511261 184.116547 5.584332 0.968627
434.289124 184.437012 4.864212 0.957229
434.551849 184.057999 4.274369 0.968627
434.589722 184.003357 3.626508 0.968627
434.627625 183.948639 2.977780 0.968627
434.665710 183.893738 2.326787 0.968627
434.703979 183.838531 1.672113 0.968627
434.742554 183.782867 1.012311 0.968627
434.158875 184.624908 0.435502 0.979843
433.193207 186.017975 -0.000018 0.530358
430.970062 189.225113 -0.000011 0.549462
429.550781 191.272568 -0.000009 0.530678
428.564331 192.695633 -0.000007 0.563348
427.837555 193.744080 -0.000006 0.523751
434.346588 184.113800 6.911502 0.968627
434.390717 184.049210 6.251773 0.968627
434.434540 183.985031 5.596134 0.968627
434.214661 184.306992 4.873842 0.958892
434.475189 183.925491 4.281930 0.968627
434.512939 183.870224 3.631934 0.968627
434.550720 183.814880 2.981052 0.968627
434.588654 183.759338 2.327884 0.968627
434.479614 183.919022 1.675280 0.223529
434.480988 183.917007 1.025023 0.223529
434.087158 184.493713 0.429973 0.980392
433.093231 185.949173 -0.000018 0.547875
430.892517 189.171753 -0.000011 0.551659
429.487579 191.229065 -0.000009 0.543328
428.511078 192.658981 -0.000007 0.549447
427.791656 193.712479 -0.000006 0.562615
434.269684 183.982880 6.927836 0.968627
434.313629 183.917572 6.265968 0.968627
434.200012 184.086441 5.556920 0.223529
434.139709 184.176071 4.883679 0.980392
434.202728 184.082428 4.249398 0.223529
434.204041 184.080444 3.603454 0.223529
434.205383 184.078476 2.960814 0.223529
434.206696 184.076508 2.320081 0.223529
434.208008 184.074554 1.679880 0.223529
434.209351 184.072601 1.038838 0.223529
434.014923 184.361588 0.424328 0.979843
432.992737 185.881073 -0.000018 0.563684
430.814606 189.118942 -0.000011 0.528206
429.424042 191.186020 -0.000008 0.533532
428.457550 192.622711 -0.000007 0.540673
427.745514 193.681198 -0.000006 0.546639
433.933655 184.241364 6.827250 0.223529
433.934998 184.239349 6.162761 0.223529
433.936310 184.237350 5.507437 0.223529
433.937622 184.235382 4.859715 0.223529
433.934296 184.240402 4.217137 0.223529
433.970673 184.185486 3.585665 0.223529
434.007111 184.130508 2.953280 0.223529
434.043671 184.075317 2.318616 0.223529
434.080444 184.019821 1.680294 0.223529
434.117523 183.963867 1.036900 0.223529
433.942169 184.228500 0.418565 0.980392
432.891815 185.813675 -0.000018 0.524849
430.736298 189.066666 -0.000010 0.538827
429.360229 191.143402 -0.000009 0.538338
428.403809 192.586823 -0.000007 0.510018
427.699127 193.650253 -0.000006 0.491402
433.712738 184.333679 6.777527 0.223529
433.749573 184.277267 6.133915 0.223529
433.786133 184.221252 5.494872 0.223529
433.822510 184.165497 4.858995 0.223529
433.858795 184.109924 4.224905 0.223529
433.895020 184.054367 3.591241 0.223529
433.931335 183.998749 2.956643 0.223529
433.967773 183.942917 2.319744 0.223529
434.004425 183.886765 1.679159 0.223529
434.041351 183.830154 1.033467 0.223529
433.868896 184.094437 0.412681 0.971481
432.790405 185.746994 -0.000018 0.546502
430.657654 189.014954 -0.000011 0.543328
429.296112 191.101242 -0.000009 0.564401
428.349792 192.551300 -0.000007 0.578943
427.652557 193.619629 -0.000006 0.584756
433.637238 184.204895 6.794322 0.223529
433.673920 184.147827 6.148498 0.223529
433.710327 184.091156 5.507243 0.223529
433.746582 184.034760 4.869151 0.223529
433.782715 183.978531 4.232837 0.223529
433.818848 183.922333 3.596933 0.223529
433.855011 183.866043 2.960077 0.223529
433.891327 183.809555 2.320896 0.223529
433.927856 183.752747 1.677999 0.223529
434.350677 183.094879 0.994888 0.968627
433.795044 183.959366 0.406677 0.980392
432.688538 185.681015 -0.000018 0.539651
430.578644 188.963791 -0.000011 0.535882
429.231689 191.059540 -0.000008 0.537224
428.295532 192.516144 -0.000007 0.514809
427.605774 193.589325 -0.000005 0.554879
433.561188 184.075226 6.811464 0.223529
433.597717 184.017471 6.163384 0.223529
433.634003 183.960144 5.519874 0.223529
433.670105 183.903091 4.879519 0.223529
434.083893 183.249283 4.322199 0.968627
434.120972 183.190720 3.660831 0.968627
434.158081 183.132050 2.998484 0.968627
434.195343 183.073181 2.333730 0.968627
434.232819 183.013977 1.665123 0.968627
434.270599 182.954285 0.991180 0.968627
433.720642 183.823257 0.400548 0.980392
432.586182 185.615753 -0.000018 0.526314
430.499298 188.913177 -0.000011 0.564309
429.166992 191.018265 -0.000008 0.531655
428.240997 192.481384 -0.000007 0.560067
427.558777 193.559341 -0.000006 0.552575
433.876831 183.315094 7.014757 0.968627
433.919952 183.245895 6.341522 0.968627
433.962830 183.177124 5.672350 0.968627
433.756958 183.507492 4.936064 0.972488
434.003937 183.111145 4.330764 0.968627
434.040863 183.051895 3.666978 0.968627
434.077850 182.992538 3.002192 0.968627
434.114960 182.932968 2.334974 0.968627
434.152313 182.873047 1.663871 0.968627
434.189941 182.812653 0.987395 0.968627
433.645660 183.686081 0.394293 0.965225
432.483398 185.551193 -0.000018 0.536934
430.419586 188.863113 -0.000010 0.549523
429.102020 190.977463 -0.000008 0.538033
428.186249 192.447006 -0.000007 0.504082
427.511566 193.529709 -0.000005 0.613474
433.796539 183.178726 7.033232 0.968627
433.839478 183.108719 6.357581 0.968627
433.882172 183.039124 5.685988 0.968627
433.678711 183.370804 4.947205 0.977630
433.923370 182.972000 4.339505 0.968627
433.960144 182.912033 3.673252 0.968627
433.997009 182.851974 3.005977 0.968627
434.033997 182.791687 2.336244 0.968627
434.071198 182.731049 1.662593 0.968627
434.108673 182.669937 0.983531 0.968627
433.570099 183.547836 0.387910 0.980117
432.380188 185.487366 -0.000018 0.553246
430.339508 188.813614 -0.000010 0.534768
429.036743 190.937103 -0.000008 0.561852
428.131287 192.413010 -0.000006 0.528298
427.464172 193.500381 -0.000005 0.494270
433.715607 183.041367 7.052083 0.968627
433.758392 182.970535 6.373968 0.968627
433.800903 182.900116 5.699905 0.968627
433.599854 183.233063 4.958575 0.980392
433.842163 182.831802 4.348425 0.968627
433.878815 182.771118 3.679654 0.968627
433.915527 182.710342 3.009839 0.968627
433.952362 182.649338 2.337539 0.968627
433.989441 182.587967 1.661288 0.968627
434.026794 182.526108 0.979587 0.968627
433.493896 183.408478 0.381397 0.968627
432.276489 185.424255 -0.000018 0.543877
430.259125 188.764664 -0.000010 0.534173
428.971191 190.897202 -0.000008 0.515587
428.076050 192.379395 -0.000007 0.513878
427.416565 193.471405 -0.000006 0.549630
433.634064 182.903000 7.071315 0.968627
433.676666 182.831329 6.390687 0.968627
433.719025 182.760071 5.714107 0.968627
433.520386 183.094269 4.970179 0.980392
433.760376 182.690536 4.357529 0.968627
433.796875 182.629120 3.686187 0.968627
433.833435 182.567612 3.013781 0.968627
433.870117 182.505875 2.338861 0.968627
433.907043 182.443771 1.659957 0.968627
433.944275 182.381165 0.975563 0.968627
433.417114 183.267975 0.374752 0.969635
432.172394 185.361877 -0.000018 0.553811
430.178375 188.716278 -0.000010 0.536110
428.905365 190.857758 -0.000008 0.515007
428.020599 192.346161 -0.000007 0.502190
427.368744 193.442749 -0.000005 0.526223
433.551880 182.763580 7.090938 0.968627
433.594299 182.691055 6.407746 0.968627
433.636475 182.618958 5.728596 0.968627
433.440277 182.954346 4.982019 0.966980
433.677887 182.548187 4.366817 0.968627
433.714264 182.486023 3.692853 0.968627
433.750671 182.423767 3.017803 0.968627
433.787231 182.361282 2.340210 0.968627
433.824005 182.298416 1.658598 0.968627
433.861084 182.235046 0.971455 0.968627
433.339661 183.126312 0.367972 0.980392
432.067841 185.300217 -0.000018 0.542275
430.097290 188.668472 -0.000010 0.515831
428.839264 190.818787 -0.000008 0.501183
427.964905 192.313324 -0.000006 0.549096
427.320709 193.414444 -0.000005 0.511940
433.469025 182.623108 7.110954 0.968627
433.511292 182.549713 6.425149 0.968627
433.553284 182.476746 5.743378 0.968627
433.359528 182.813309 4.994102 0.980392
433.594757 182.404694 4.376292 0.968627
433.630981 182.341782 3.699655 0.968627
433.667267 182.278778 3.021906 0.968627
433.703674 182.215515 2.341587 0.968627
433.740295 182.151886 1.657212 0.968627
433.777252 182.087738 0.967264 0.968627
433.261566 182.983459 0.361056 0.980392
431.962860 185.239304 -0.000018 0.530861
430.015869 188.621216 -0.000010 0.562066
428.772919 190.780258 -0.000008 0.574838
427.908997 192.280884 -0.000006 0.532387
427.272522 193.386459 -0.000005 0.541650
433.385498 182.481537 7.131371 0.968627
433.427582 182.407257 6.442901 0.968627
433.469421 182.333405 5.758457 0.968627
433.278107 182.671127 5.006430 0.968627
433.510956 182.260056 4.385960 0.968627
433.547028 182.196381 3.706594 0.968627
433.583160 182.132599 3.026094 0.968627
433.619415 182.068573 2.342991 0.968627
433.655914 182.004166 1.655798 0.968627
433.692688 181.939224 0.962988 0.968627
433.182800 182.839386 0.353999 0.967117
431.857483 185.179108 -0.000018 0.552132
429.934143 188.574539 -0.000010 0.529931
428.706268 190.742203 -0.000008 0.538506
427.852875 192.248825 -0.000006 0.553079
427.224091 193.358810 -0.000005 0.574701
433.301300 182.338867 7.152198 0.968627
433.343201 182.263672 6.461008 0.968627
433.384857 182.188934 5.773839 0.968627
433.196045 182.527756 5.019006 0.968627
433.426453 182.114243 4.395823 0.968627
433.462372 182.049789 3.713674 0.968627
433.498352 181.985229 3.030365 0.968627
433.534485 181.920410 2.344424 0.968627
433.570831 181.855194 1.654354 0.968627
433.607452 181.789459 0.958625 0.968627
433.103363 182.694046 0.346801 0.980392
431.751648 185.119659 -0.000018 0.547707
429.852081 188.528442 -0.000010 0.519036
428.639374 190.704620 -0.000008 0.563622
427.796509 192.217148 -0.000006 0.519051
427.175507 193.331512 -0.000005 0.505684
433.216370 182.195038 7.173440 0.968627
433.258087 182.118927 6.479478 0.968627
433.299561 182.043274 5.789527 0.968627
433.113251 182.383163 5.031839 0.980392
433.341248 181.967224 4.405884 0.968627
433.377014 181.901978 3.720895 0.968627
433.412842 181.836609 3.034723 0.968627
433.448822 181.770996 2.345886 0.968627
433.484985 181.704971 1.652882 0.968627
433.521484 181.638412 0.954173 0.968627
433.023224 182.547424 0.339457 0.980392
431.645416 185.060944 -0.000018 0.547311
429.769684 188.482910 -0.000010 0.504295
428.572205 190.667511 -0.000008 0.573037
427.739929 192.185883 -0.000006 0.544808
427.126709 193.304550 -0.000005 0.538659
433.130737 182.050049 7.195104 0.968627
433.172272 181.973007 6.498316 0.968627
433.213562 181.896423 5.805530 0.968627
433.029755 182.237335 5.044929 0.980392
433.255310 181.818970 4.416146 0.968627
433.290924 181.752914 3.728262 0.968627
433.326599 181.686737 3.039168 0.968627
433.362427 181.620300 2.347377 0.968627
433.398438 181.553467 1.651380 0.968627
433.434784 181.486069 0.949632 0.968627
432.942352 182.399490 0.331967 0.971939
431.538788 185.002975 -0.000018 0.545113
429.686981 188.437943 -0.000010 0.537209
428.504791 190.630859 -0.000008 0.549203
427.683105 192.154999 -0.000006 0.558618
427.077759 193.277924 -0.000005 0.596750
433.044373 181.903839 7.217198 0.968627
433.085693 181.825867 6.517529 0.968627
433.126801 181.748322 5.821851 0.968627
432.945557 182.090240 5.058282 0.980392
433.168610 181.669449 4.426614 0.968627
433.204071 181.602570 3.735777 0.968627
433.239594 181.535568 3.043702 0.968627
433.275269 181.468292 2.348898 0.968627
433.311127 181.400604 1.649848 0.968627
433.347321 181.332367 0.944999 0.968627
432.860748 182.250214 0.324327 0.970001
431.431763 184.945755 -0.000018 0.553857
429.603973 188.393570 -0.000010 0.546242
428.437134 190.594681 -0.000008 0.569512
427.626099 192.124527 -0.000006 0.521370
427.028595 193.251648 -0.000005 0.587839
432.957214 181.756424 7.239729 0.968627
432.998383 181.677475 6.537121 0.968627
433.039276 181.598969 5.838497 0.968627
432.860596 181.941833 5.071903 0.957870
433.081177 181.518631 4.437290 0.968627
433.116455 181.450912 3.743441 0.968627
433.151825 181.383057 3.048328 0.968627
433.187317 181.314957 2.350450 0.968627
433.223053 181.246414 1.648285 0.968627
433.259064 181.177307 0.940273 0.968627
432.778381 182.099548 0.316534 0.969268
431.324341 184.889282 -0.000018 0.549645
429.520660 188.349777 -0.000010 0.548455
428.369202 190.558975 -0.000007 0.537285
427.568878 192.094437 -0.000006 0.537652
426.979248 193.225708 -0.000005 0.550851
432.869324 181.607742 7.262705 0.968627
432.910278 181.527817 6.557102 0.968627
432.950989 181.448334 5.855472 0.968627
432.774872 181.792099 5.085797 0.975982
432.992920 181.366486 4.448180 0.968627
433.028076 181.297913 3.751259 0.968627
433.063263 181.229202 3.053045 0.968627
433.098602 181.160217 2.352033 0.968627
433.134186 181.090820 1.646691 0.968627
433.170044 181.020828 0.935452 0.968627
432.695251 181.947479 0.308587 0.949126
431.216492 184.833557 -0.000018 0.542062
429.437042 188.306564 -0.000009 0.534890
428.301025 190.523743 -0.000007 0.522927
427.511444 192.064758 -0.000006 0.536004
426.929718 193.200119 -0.000005 0.597208
432.780609 181.457764 7.286136 0.968627
432.821381 181.376846 6.577477 0.968627
432.861908 181.296356 5.872783 0.968627
432.688354 181.640991 5.099970 0.980392
432.903900 181.212982 4.459285 0.968627
432.938873 181.143524 3.759232 0.968627
432.973907 181.073944 3.057857 0.968627
433.009094 181.004089 2.353647 0.968627
433.044495 180.933792 1.645065 0.968627
433.080170 180.862915 0.930534 0.968627
432.599182 181.818054 0.302693 0.978469
431.108276 184.778595 -0.000018 0.522591
429.353119 188.263931 -0.000010 0.536767
428.232605 190.488983 -0.000007 0.535271
427.453827 192.035492 -0.000006 0.569894
426.880035 193.174866 -0.000005 0.544228
432.691101 181.306488 7.310027 0.968627
432.731659 181.224533 6.598254 0.968627
432.771973 181.143036 5.890437 0.968627
432.601044 181.488480 5.114425 0.964401
432.814026 181.058075 4.470612 0.968627
432.848846 180.987732 3.767364 0.968627
432.883698 180.917267 3.062765 0.968627
432.918732 180.846512 2.355294 0.968627
432.953949 180.775299 1.643406 0.968627
432.989502 180.703506 0.925518 0.968627
432.468781 181.755768 0.302899 0.976394
430.999695 184.724380 -0.000018 0.531792
429.268890 188.221893 -0.000010 0.530602
428.163940 190.454712 -0.000008 0.514305
427.395966 192.006607 -0.000006 0.528786
426.830170 193.149979 -0.000005 0.570672
432.600769 181.153839 7.334387 0.968627
432.641113 181.070847 6.619441 0.968627
432.681244 180.988312 5.908441 0.968627
432.512909 181.334534 5.129170 0.977447
432.723328 180.901733 4.482164 0.968627
432.757965 180.830505 3.775658 0.968627
432.792664 180.759125 3.067770 0.968627
432.827515 180.687454 2.356974 0.968627
432.862579 180.615326 1.641714 0.968627
432.897949 180.542587 0.920401 0.968627
432.337952 181.694366 0.303103 0.976440
430.890717 184.670975 -0.000013 0.547021
429.184387 188.180435 -0.000010 0.517479
428.095062 190.420929 -0.000007 0.541024
427.337921 191.978149 -0.000006 0.525277
426.780121 193.125427 -0.000005 0.564126
432.509552 180.999817 7.359227 0.968627
432.549713 180.915771 6.641044 0.968627
432.589630 180.832184 5.926798 0.968627
432.423920 181.179123 5.144208 0.970184
432.631775 180.743942 4.493944 0.968627
432.666229 180.671783 3.784116 0.968627
432.700775 180.599487 3.072875 0.968627
432.735443 180.526886 2.358687 0.968627
432.770325 180.453812 1.639989 0.968627
432.674988 180.653473 0.930064 0.223529
432.206024 181.635376 0.303442 0.980209
430.781372 184.618286 -0.000013 0.560586
429.099609 188.139572 -0.000009 0.560769
428.025940 190.387604 -0.000007 0.531273
427.279694 191.950073 -0.000006 0.534463
426.729889 193.101227 -0.000005 0.529900
432.417480 180.844376 7.384555 0.968627
432.457428 180.759247 6.663074 0.968627
432.497131 180.674576 5.945518 0.968627
432.334076 181.022186 5.159547 0.978698
432.539307 180.584656 4.505959 0.968627
432.441925 180.792282 3.767318 0.223529
432.442780 180.790436 3.058974 0.223529
432.443634 180.788620 2.352772 0.223529
432.444489 180.786804 1.647195 0.223529
432.445343 180.784973 0.940729 0.223529
432.118317 181.482193 0.295166 0.972122
430.671661 184.566360 -0.000013 0.509010
429.014526 188.099304 -0.000009 0.525353
427.956573 190.354782 -0.000007 0.525124
427.221252 191.922424 -0.000006 0.549310
426.679504 193.077377 -0.000005 0.468330
432.324524 180.687469 7.410379 0.968627
432.213562 180.928391 6.607747 0.223529
432.214417 180.926529 5.882262 0.223529
432.215271 180.924698 5.165234 0.223529
432.216125 180.922867 4.455001 0.223529
432.216949 180.921066 3.749965 0.223529
432.217773 180.919266 3.048575 0.223529
432.225067 180.903412 2.349561 0.223529
432.258606 180.830597 1.649127 0.223529
432.292450 180.757141 0.942655 0.223529
432.029755 181.327499 0.286725 0.968627
430.561615 184.515198 -0.000013 0.552392
428.929169 188.059631 -0.000009 0.545434
427.886993 190.322433 -0.000007 0.572030
427.162628 191.895172 -0.000006 0.516350
426.628967 193.053894 -0.000005 0.498344
431.992218 181.056427 7.291746 0.223529
431.993073 181.054565 6.563183 0.223529
431.993896 181.052734 5.844712 0.223529
432.001526 181.035828 5.137074 0.223529
432.034485 180.962982 4.442128 0.223529
432.067413 180.890137 3.747182 0.223529
432.100403 180.817139 3.050746 0.223529
432.133575 180.743835 2.351315 0.223529
432.166931 180.670044 1.647360 0.223529
432.200562 180.595612 0.937310 0.223529
431.940308 181.171265 0.278114 0.968627
430.451202 184.464813 -0.000013 0.539467
428.843536 188.020554 -0.000009 0.518898
427.817169 190.290573 -0.000007 0.532280
427.103821 191.868332 -0.000006 0.535149
426.578247 193.030746 -0.000005 0.575082
431.810883 181.101517 7.262866 0.223529
431.844055 181.026764 6.555507 0.223529
431.877014 180.952469 5.852666 0.223529
431.909821 180.878525 5.152808 0.223529
431.942566 180.804718 4.454423 0.223529
431.975342 180.730896 3.756012 0.223529
432.008148 180.656921 3.056077 0.223529
432.041107 180.582642 2.353104 0.223529
432.074310 180.507858 1.645557 0.223529
432.426605 179.713928 0.893241 0.968627
431.849945 181.013443 0.269333 0.968627
430.340424 184.415192 -0.000012 0.542702
428.757629 187.982071 -0.000009 0.517906
427.747131 190.259216 -0.000007 0.508568
427.044830 191.841904 -0.000006 0.551583
426.527374 193.007965 -0.000005 0.518608
431.718781 180.945572 7.289344 0.223529
431.751770 180.869827 6.578514 0.223529
431.784546 180.794571 5.872199 0.223529
431.817169 180.719620 5.168855 0.223529
